1.026626054950849021e+00,-2.410291836936346410e+00,-3.070389416975682906e-01
1.050584901750982292e+00,-2.474272790748149209e+00,-2.459306133807905026e-01
1.024165672481020195e+00,-2.420427379405759361e+00,-9.753887270129887876e-02
1.003669939288008184e+00,-2.372545082601752675e+00,-7.983684745847641206e-02
9.961398207854894604e-01,-2.426330959816354493e+00,5.367460948688555084e-02
9.852701633341494070e-01,-2.364862093634862994e+00,1.207675399241766034e-01
9.848862421510541365e-01,-2.342002226078856886e+00,3.086918537145885710e-01
1.036933376345368529e+00,-2.419668507830514681e+00,3.057093943224012955e-01
1.084342733685308424e+00,-2.370532411483573743e+00,3.845634009143285015e-01
1.005098528870365548e+00,-2.399529912856419145e+00,5.199198867838119575e-01
9.718668945539943316e-01,-2.406784890342397620e+00,6.037440291592268693e-01
9.645637245212308475e-01,-2.299348461467324967e+00,-7.340492836998270265e-01
1.042574993568240016e+00,-2.294023281171577278e+00,-5.854658484531822804e-01
1.035221326367153472e+00,-2.322131287855909498e+00,-4.052411351498856340e-01
1.021880231368750280e+00,-2.246087592880515071e+00,-4.128388385447560593e-01
1.088033073467554956e+00,-2.276202018832822027e+00,-3.310640808818101632e-01
1.026175503709199077e+00,-2.268344963973623063e+00,-2.091162886288175371e-01
1.011252030772064714e+00,-2.332405630236556338e+00,-2.095676076488135475e-01
1.057682629192545187e+00,-2.331819518458563056e+00,-6.779867977333094153e-02
1.021944237249580612e+00,-2.269196408562780043e+00,2.922985133772215000e-02
1.102815743824844485e+00,-2.353100344573426650e+00,1.552984819132611771e-01
1.063412538816869590e+00,-2.352727432694795340e+00,2.690481638136592579e-01
1.083618160043945622e+00,-2.281181956798478794e+00,3.023605550009587084e-01
1.025732345716066973e+00,-2.293634496216687690e+00,3.986563170600224693e-01
1.053509966723360058e+00,-2.355633443110024317e+00,5.043364924663271687e-01
1.062133307960759332e+00,-2.369663845745443531e+00,6.258497517635668306e-01
9.943748328072810061e-01,-2.234296798153948771e+00,-6.007467098169416708e-01
9.864726974896758094e-01,-2.161603300305455999e+00,-6.015050811083519910e-01
1.074831122256255211e+00,-2.172313820088078273e+00,-5.264940635854294948e-01
9.804924807112580520e-01,-2.278676056521096616e+00,-3.799171805926456758e-01
1.044620450085228303e+00,-2.229052254705631508e+00,-2.578525883143218400e-01
1.011096930742498401e+00,-2.254279413119471442e+00,-2.293258700141977136e-01
1.041904355625662415e+00,-2.254972740396506747e+00,-1.162249045608119979e-01
9.962965058224471093e-01,-2.147695374470516061e+00,-1.194469922144552609e-01
1.013826430010325685e+00,-2.217902460033287060e+00,5.603414636589955367e-03
1.043717645426517571e+00,-2.231079588051598339e+00,8.073504573582040988e-02
1.004602521428238138e+00,-2.212557225312972609e+00,2.422180790478990486e-01
1.058705615959794288e+00,-2.279538130113653249e+00,3.305518982846751275e-01
1.062122817790107643e+00,-2.219100076399376231e+00,4.088243287434240036e-01
1.034061226381982612e+00,-2.273013213264316157e+00,4.385242303273483300e-01
9.692350520198718122e-01,-2.200420572430061839e+00,5.252232417778386342e-01
1.018576233590827718e+00,-2.134924303554818881e+00,-6.681167570545117895e-01
1.042483580414758970e+00,-2.094348556678949702e+00,-5.023349790799815917e-01
1.016292789275292208e+00,-2.109333180654577866e+00,-4.010085567672115880e-01
1.056452328315572897e+00,-2.148468420710006654e+00,-3.290983807767554059e-01
1.005932417081725427e+00,-2.198635727743175394e+00,-2.579062342446905576e-01
1.075078275033923392e+00,-2.067603573638484349e+00,-1.986220264705166327e-01
1.033142132335059360e+00,-2.113941991504843632e+00,-4.297889453341716126e-02
9.912250108891690337e-01,-2.159045002266358981e+00,7.943095590329739275e-02
9.642365873285508870e-01,-2.095996172929894819e+00,1.041042868594978243e-01
1.033616209922819440e+00,-2.071981085842284021e+00,2.158485009754662620e-01
9.804852590334208751e-01,-2.107125730525280627e+00,1.950535682644496394e-01
1.004624369758213565e+00,-2.124316619947856921e+00,2.655885786524463943e-01
1.047389231224832296e+00,-2.174283390489778700e+00,4.385376098525064492e-01
1.055545732403990078e+00,-2.067368906100900183e+00,4.224399605387175738e-01
1.084877905675585730e+00,-2.151745414210119556e+00,4.950055593477063476e-01
1.021818437342660868e+00,-2.068796522009016758e+00,-5.863350928379741367e-01
9.852299225722326304e-01,-2.007462460916601632e+00,-5.144680499728838674e-01
9.905221764253970829e-01,-2.061748899102661348e+00,-4.992074014527090320e-01
9.970463411953570665e-01,-2.106347614784792377e+00,-2.902457104832485424e-01
1.007939165306440898e+00,-1.966796551673906768e+00,-2.995019530190510260e-01
1.033217907801422530e+00,-2.018365201980261592e+00,-1.965932414655189309e-01
1.017011546200326411e+00,-1.998138652824581030e+00,-1.505789861265010299e-01
9.945795427461859850e-01,-1.995561374230874652e+00,-7.506182387143951751e-02
8.872826565936164922e-01,-2.021651039853003429e+00,4.797459900192747179e-02
9.552189286141090641e-01,-2.061071907200024089e+00,8.495061174202411802e-02
9.884732192974566845e-01,-2.025329897455056649e+00,1.846708214045680307e-01
9.802202401302234636e-01,-2.079595736045631860e+00,2.683491784749011400e-01
9.972385805462438135e-01,-2.069594342617739890e+00,3.384044642298996153e-01
1.009477610570664652e+00,-2.144495377307331196e+00,4.178594118955455405e-01
1.031878945977142026e+00,-2.108795678064436352e+00,5.685779639036377953e-01
1.043858231722507579e+00,-1.985868561242663421e+00,-5.818279551192274690e-01
9.770107978423159256e-01,-1.951340086374190541e+00,-5.464349273810804597e-01
1.019292703609923301e+00,-1.907905883791129797e+00,-4.972936506951611824e-01
9.606240372197888400e-01,-1.952868891799280693e+00,-3.715671501566574220e-01
1.062694548678580819e+00,-1.954131928386741102e+00,-2.652718509459515706e-01
1.060778023829112682e+00,-1.901055222389094634e+00,-1.432433132788316910e-01
9.694315738036474173e-01,-1.934347993434000434e+00,-1.681028757181663447e-01
9.792118804287300859e-01,-1.963485243946795356e+00,8.236510012543440951e-03
1.007968692301990599e+00,-1.948328521762542342e+00,9.893517884430894083e-02
1.017430160290198282e+00,-1.957863456269837155e+00,7.944736798932472421e-02
1.032522475673429474e+00,-1.981638847736940656e+00,2.419609275604107379e-01
1.089549612435168902e+00,-1.978368959214509948e+00,2.297272768661042519e-01
1.010705034435959382e+00,-2.039835708568594530e+00,4.067477775118386041e-01
1.004229141751922461e+00,-2.058767073664463432e+00,4.431256100134480236e-01
9.745064798410119078e-01,-1.944429012900127152e+00,4.736019351363922048e-01
9.475879815704584264e-01,-1.872138692856751163e+00,-4.851845037723115928e-01
9.836263630445425399e-01,-1.876198758506956166e+00,-4.949307799405383013e-01
1.002747363265941161e+00,-1.902282639712780776e+00,-4.082888664274238466e-01
1.056586109063995638e+00,-1.819906130908099939e+00,-2.741953133977851342e-01
9.952031328168442492e-01,-1.936288050073521116e+00,-2.691260466335457791e-01
9.744586950102331890e-01,-1.960791054977223613e+00,-1.552842245887176009e-01
1.019611588869796970e+00,-1.910293485906380928e+00,-1.964604303751167624e-01
9.506713374042097264e-01,-1.853738905865776498e+00,1.180323404388439884e-02
9.448297791863742301e-01,-1.874975405997890254e+00,1.069683320298826790e-01
1.009580984503199774e+00,-1.892792891232012886e+00,1.172251578820820012e-01
9.986762974183311936e-01,-1.912483647647129192e+00,2.116879548978109205e-01
9.533400119637810421e-01,-1.838261225465150028e+00,3.052102132868371731e-01
9.855774258434097934e-01,-1.906388002627023903e+00,3.474350091314072908e-01
9.446565969201270452e-01,-1.813464475947712540e+00,4.130777639619386821e-01
1.039041018314389664e+00,-1.948063920060340459e+00,5.053005734993387676e-01
9.796158397273344587e-01,-1.814428973182124594e+00,-5.747864259835896439e-01
1.059822345805313759e+00,-1.836915047217781094e+00,-5.103682224725891725e-01
9.981217644858775273e-01,-1.771976235331335081e+00,-4.311934536861479206e-01
1.002666192765650832e+00,-1.845666441931287372e+00,-2.832711285308017746e-01
1.049627729982075985e+00,-1.780069284656514705e+00,-2.459322558702624339e-01
1.011109136137112952e+00,-1.764054229670772411e+00,-1.576467462923121232e-01
1.017613258978987689e+00,-1.829243473555630217e+00,-1.252482438016306876e-01
1.027765180660731081e+00,-1.808408327291143314e+00,-2.943438162101883609e-02
1.075473549804587758e+00,-1.802858965719700057e+00,4.118576696872924825e-02
9.535451952152129707e-01,-1.809446067868294428e+00,7.848955234717530649e-02
1.036937501118101235e+00,-1.802619351456118180e+00,1.848397890768795904e-01
9.409726337339875402e-01,-1.806352823691757647e+00,2.593831679718756056e-01
1.033045571553842690e+00,-1.794591620929937958e+00,3.391458350716071157e-01
9.975697349237072631e-01,-1.849038408716186410e+00,4.702196411271107324e-01
1.040703865650462134e+00,-1.792829853080640579e+00,5.839057263141943510e-01
1.004666316467276888e+00,-1.707267450456079416e+00,-6.184091872009723767e-01
9.658340506286912097e-01,-1.701967552504365599e+00,-4.573600783768398959e-01
1.040900672656978054e+00,-1.754337502442063323e+00,-4.219491067773308846e-01
1.019223768253928242e+00,-1.706120912191050110e+00,-3.631707983561024422e-01
9.606038887513872471e-01,-1.716081210251726663e+00,-1.969137360733388686e-01
1.023890112684930465e+00,-1.709105917369322380e+00,-1.554193939542326264e-01
1.060201734095693515e+00,-1.647324749546047462e+00,-8.560414586423015226e-02
1.009596347563221919e+00,-1.792609061409347948e+00,-4.930178717521431497e-02
1.003947133514176082e+00,-1.743905938691345137e+00,-5.218481875934578851e-03
1.108892684029434195e+00,-1.798820172926722361e+00,7.769243750216399402e-02
1.003753835280992046e+00,-1.690898411375713062e+00,1.934911677082565007e-01
9.344585321328429117e-01,-1.746563138642784452e+00,2.728281054652551552e-01
1.009229365881666673e+00,-1.808398223943399108e+00,3.192533104637462760e-01
9.824745150463320975e-01,-1.720722977815828392e+00,4.110498703724942415e-01
1.084196070587771121e+00,-1.698815432314612073e+00,4.471204749144436219e-01
1.041430564132952874e+00,-1.729330649491541250e+00,-5.253661116028347511e-01
1.062444226443271189e+00,-1.580732303088946411e+00,-4.449750493007149088e-01
1.010115893532848252e+00,-1.700603451328899896e+00,-3.268570826188270662e-01
1.019097276112626238e+00,-1.647282103796467778e+00,-3.533972168898898980e-01
1.013091044841306632e+00,-1.718944896328607364e+00,-2.118090242150040547e-01
9.699210971884683063e-01,-1.719873411403601393e+00,-1.847902025643005930e-01
1.017805564317966649e+00,-1.654225023559798835e+00,-1.627416790840842953e-01
9.976555801119483258e-01,-1.684683208203635374e+00,-6.274364363977166792e-02
9.873760692117079518e-01,-1.659834691343068158e+00,1.028930172012440525e-01
1.005356637641704687e+00,-1.671936723369005451e+00,9.399866959678830625e-02
1.018592721495239717e+00,-1.692962099549624622e+00,1.556296650296330186e-01
1.008242666850154956e+00,-1.672088891421237067e+00,3.141132970312545680e-01
9.821369936319456206e-01,-1.666175184557063593e+00,2.966268371094737955e-01
9.467897539371791238e-01,-1.743997444314819401e+00,3.935267900353231485e-01
1.070172764505154861e+00,-1.733066695684861935e+00,5.569465921223268889e-01
9.618964374573603093e-01,-1.681730156301020518e+00,-5.087461415027899614e-01
9.815748726030416593e-01,-1.659521754388921799e+00,-4.931376372495518967e-01
9.654250549825050820e-01,-1.640722294764953793e+00,-3.029589074008363081e-01
9.477181542816748294e-01,-1.656500004427863271e+00,-3.353976356451802698e-01
9.753994485592265562e-01,-1.720116568297928694e+00,-1.989518121524639083e-01
9.644611415613569827e-01,-1.636975301349380629e+00,-1.600827321824869753e-01
9.897182791483639663e-01,-1.680901702308134738e+00,-1.034168262491394624e-01
9.684773968399225108e-01,-1.589312110324609062e+00,-5.767521253960945782e-02
9.723344224877736863e-01,-1.673742086018143560e+00,9.867930192765440867e-02
1.047349083669338876e+00,-1.693445225130752796e+00,5.274166510919445217e-02
9.597870220400505081e-01,-1.590489422987719781e+00,2.135320633262286771e-01
1.030122245303374484e+00,-1.666816217094637009e+00,1.845239732087368689e-01
1.002173640639043795e+00,-1.706914750121564017e+00,3.716099666909389865e-01
9.454380259479447934e-01,-1.566411009578093427e+00,3.895088821067935192e-01
1.006898037168038496e+00,-1.611795558032100839e+00,4.311590545376882133e-01
9.239489947897727706e-01,-1.564667716998346503e+00,-5.301150515162347254e-01
9.596373839280237794e-01,-1.556919300270409146e+00,-4.336839960590024301e-01
9.826950116060095830e-01,-1.563707875079825893e+00,-3.235224184982923301e-01
9.253253111300416833e-01,-1.608471215254124287e+00,-3.614768953875244217e-01
9.928492411985561095e-01,-1.552430782485666017e+00,-1.830321904209608608e-01
9.091007054994209025e-01,-1.565663100862500601e+00,-1.284956154803431061e-01
9.761311818611948521e-01,-1.595037208239209692e+00,-6.689348156525423694e-02
9.697590405643046196e-01,-1.571167555505128322e+00,-1.133296544541333578e-01
1.081742427932360862e+00,-1.532555448260876974e+00,1.896244019780843684e-02
9.547266984535254242e-01,-1.588908058251634614e+00,9.276395480273420813e-02
1.001212435966787551e+00,-1.592151802449567111e+00,2.153514875603216860e-01
1.006089106394502997e+00,-1.578760622449713047e+00,1.738550517199626833e-01
1.018693764810492342e+00,-1.580187523429970708e+00,2.876842437920941742e-01
1.004452374314509733e+00,-1.629283895498264245e+00,3.525797035795162904e-01
9.269616856202156363e-01,-1.572437513553740507e+00,4.582309944485123965e-01
9.792698964141823836e-01,-1.577007641923977133e+00,-5.252594451249555929e-01
1.015703916991238298e+00,-1.557628271462364822e+00,-4.293365012804369329e-01
1.046163387289010371e+00,-1.456254005003132512e+00,-4.084708571786206943e-01
9.673891055759116231e-01,-1.554484883588836297e+00,-2.817364603782837595e-01
1.048757775394810521e+00,-1.523902365261880831e+00,-2.433134329323807798e-01
1.020521576521627560e+00,-1.561308910907802661e+00,-1.486662726325455319e-01
9.928520202068721323e-01,-1.487954057199578628e+00,-1.492445604692498595e-01
9.215435496140690352e-01,-1.492842648713810227e+00,-1.263316611327680583e-01
9.956912342380429548e-01,-1.474407978543264885e+00,8.700543316550388151e-02
9.963656464985529704e-01,-1.524441972369964704e+00,8.389495226122695160e-02
9.196548789932068591e-01,-1.541263653578919479e+00,2.190400384811709844e-01
9.526516237762121531e-01,-1.551823421599284769e+00,1.905880326656058388e-01
1.047565137456145878e+00,-1.499580123707923374e+00,3.874944710461470931e-01
9.778857944332669527e-01,-1.572402234722918735e+00,3.091072990170229962e-01
1.015697156215259689e+00,-1.547570026985901626e+00,4.895627194984198960e-01
9.388947498324251573e-01,-1.367722719764821848e+00,-4.532422116846394067e-01
9.566588911091692404e-01,-1.447393390609976294e+00,-3.933835006777336440e-01
1.074439088452323610e+00,-1.480126828202481981e+00,-3.749643639746249035e-01
9.836629746784177897e-01,-1.478835046097834338e+00,-2.975182187941927681e-01
9.942375316142578745e-01,-1.539109986491527637e+00,-2.407028258156969636e-01
1.016912934457539830e+00,-1.465554447958814066e+00,-1.768217632130830996e-01
9.374296702794412406e-01,-1.467591781861097511e+00,-1.124595903122272422e-01
9.720241345947948641e-01,-1.449773081673081832e+00,9.134095537909614482e-03
1.007284540606877998e+00,-1.464408956878860080e+00,2.664943213091855098e-02
9.722645605739498320e-01,-1.518688080548155961e+00,1.805879649989379498e-01
1.014466382208000894e+00,-1.403721633497053256e+00,1.351954218773923633e-01
9.460834495522066900e-01,-1.518525478934510842e+00,2.335257522933558982e-01
1.051702990943443217e+00,-1.477805320749655760e+00,3.738392164858438393e-01
9.478106276929100238e-01,-1.527836540763187090e+00,4.294825524995610766e-01
1.111341596262566567e+00,-1.510212540114410862e+00,4.444825175267608786e-01
9.860025227728355102e-01,-1.426166759276502161e+00,-4.308097942722848850e-01
9.720288497422753249e-01,-1.367629870193530994e+00,-4.634543700092271235e-01
1.029594726885364686e+00,-1.461813158019298120e+00,-3.152773849215909086e-01
9.366096871032901783e-01,-1.406086881099813946e+00,-3.035582160038287625e-01
9.788630053594994385e-01,-1.397894840491412216e+00,-9.470751978547387040e-02
9.503420372733656363e-01,-1.480028281330618700e+00,-1.304895422658684523e-01
9.759870152883509675e-01,-1.410778211973735319e+00,-1.030230482991656288e-01
9.612467814678169464e-01,-1.434812670647440447e+00,-1.171888352287136018e-02
9.856373831814199127e-01,-1.459141849242432620e+00,-3.738983191934172612e-02
9.597388359265661695e-01,-1.434881442681497976e+00,4.854318523704378302e-02
9.909166488875682521e-01,-1.320854677820909595e+00,1.799088122767953102e-01
9.601663149380269546e-01,-1.431440720684608925e+00,1.622420718909978465e-01
1.055388438152896846e+00,-1.435742530374590764e+00,2.755486030194351788e-01
1.043761161549325189e+00,-1.430689381485888978e+00,3.609605547378604840e-01
1.007756242302318972e+00,-1.484091309477577170e+00,4.516202118848078317e-01
9.394679615832786101e-01,-1.327053601315921538e+00,-4.520662362280348789e-01
9.656828532266066301e-01,-1.410329997515302081e+00,-3.839746102832257146e-01
9.801946772391491036e-01,-1.366300899182107287e+00,-2.988349548924820187e-01
9.528469762881285332e-01,-1.415798001899126080e+00,-2.714965427306366141e-01
9.945290242672309988e-01,-1.341959162616130463e+00,-2.195441458459397588e-01
9.385768374137969383e-01,-1.440868815802053282e+00,-1.616666867123754403e-01
9.521848980960666564e-01,-1.384299638408116095e+00,-1.138299785511409923e-01
9.503890029937227535e-01,-1.438650251664288726e+00,-2.637016719602545273e-02
9.822805252924092789e-01,-1.340148788743732444e+00,2.635697168294638335e-02
9.722292683507639532e-01,-1.378389492676617589e+00,-6.719900288462976601e-04
9.555817713726673102e-01,-1.409698403900189634e+00,7.482710421711721849e-02
9.600805200664451755e-01,-1.384424177480385154e+00,2.223193888805320428e-01
9.857130806420522084e-01,-1.351098526637577679e+00,2.121295039520883219e-01
1.049773694948356706e+00,-1.406329537087859682e+00,3.768259197578147091e-01
1.043565338138439103e+00,-1.395473652411738152e+00,3.864792236680342219e-01
9.813287413162958828e-01,-1.355618462235352650e+00,-4.984273968436756519e-01
1.042151129759788519e+00,-1.290982059983260433e+00,-4.290959881998683279e-01
1.003143395032503493e+00,-1.335519001545611095e+00,-2.897251499797603436e-01
1.049080952781401566e+00,-1.343963509910786280e+00,-2.874640631386969347e-01
9.500201823583600547e-01,-1.373936638008410815e+00,-1.944405415611431265e-01
9.814310639126326841e-01,-1.297347212196458432e+00,-1.781668507777272314e-01
1.003358175818237941e+00,-1.307664119874142106e+00,-8.492219432788004896e-02
1.025768586716724329e+00,-1.349953596228243846e+00,-6.104946736645424504e-02
1.038138189835391856e+00,-1.357616533017601324e+00,5.717372279256012491e-02
9.762254139400748931e-01,-1.383757961432046768e+00,9.283071369590387145e-02
1.043290538539815460e+00,-1.455459779185356961e+00,2.244892364481454183e-01
9.356246839292237105e-01,-1.331826531062622276e+00,1.909053578970635323e-01
9.091169982258482385e-01,-1.361576143990482990e+00,3.465518664775265600e-01
1.009405428546702899e+00,-1.335930440249069262e+00,4.019425330401361074e-01
1.075785112015051004e+00,-1.291338273531230207e+00,4.224887404328306340e-01
9.602704199155569498e-01,-1.336818232758515856e+00,-4.069807421413764725e-01
1.030203207275764310e+00,-1.256503971719121315e+00,-3.841650329977910339e-01
1.009785626927681923e+00,-1.248749675435672168e+00,-3.040247150745474802e-01
9.259678420639710916e-01,-1.290732678731624006e+00,-2.182936498511185985e-01
8.967624627225179168e-01,-1.285358553727891096e+00,-2.076546120608199486e-01
9.210701731118277058e-01,-1.350222131930163716e+00,-1.791949401325409474e-01
9.843431200511342238e-01,-1.280665337079579968e+00,-1.406612202110777143e-01
8.677197116016900358e-01,-1.351538382174976238e+00,-5.932373249852304631e-02
1.009463085013674766e+00,-1.309807546713555926e+00,4.922672313308573688e-02
9.669136898008523495e-01,-1.256893535053789313e+00,8.432817628980968094e-02
1.003896430116962168e+00,-1.283220166376931148e+00,1.502217808692531686e-01
1.018251029255315077e+00,-1.310520489844345660e+00,1.918876816749540970e-01
1.009429589170786512e+00,-1.316953518180588034e+00,2.038131375726781047e-01
1.034423451248841053e+00,-1.321499320442638625e+00,2.561088162643403443e-01
9.575805806657595731e-01,-1.316443264011647685e+00,4.327317043486998971e-01
9.772375768089125447e-01,-1.231329757208247555e+00,-3.716650087533195368e-01
9.894749045829290823e-01,-1.224820930784662698e+00,-4.198009361496190528e-01
9.967171910760436182e-01,-1.214965468053956998e+00,-3.134174733116577016e-01
8.908818383705937594e-01,-1.273488148257270858e+00,-2.071022161683907792e-01
9.692038064991272961e-01,-1.304529499804439885e+00,-1.939588538520794492e-01
1.046692942496337153e+00,-1.210096293732711770e+00,-1.626460533375104489e-01
9.404653594587645271e-01,-1.235830891846665169e+00,-1.197983403076440106e-01
8.744916462930195644e-01,-1.232691703596402899e+00,-6.207191655894788579e-02
9.931942272600265964e-01,-1.296472702050305070e+00,-1.310328048186864408e-02
9.548242851261632413e-01,-1.231929575818568212e+00,1.347103541238068025e-01
9.155058913863249881e-01,-1.312026251972160829e+00,1.116658332886056593e-01
9.603088190679249792e-01,-1.223308115767415494e+00,1.702594257277010859e-01
1.045078303211596893e+00,-1.187889721152943778e+00,2.356847040250143743e-01
1.024033599465065114e+00,-1.322211050636850516e+00,2.501718428372810554e-01
1.017027890280953306e+00,-1.275386956198411248e+00,3.337922344254096174e-01
9.324804196385081401e-01,-1.213257917822153864e+00,-3.687014015151419688e-01
9.610404363058890898e-01,-1.219512894416656890e+00,-3.225444683619457797e-01
1.027815794928428561e+00,-1.199935452917042733e+00,-2.905517338552816575e-01
9.506571210115469794e-01,-1.210880171814799677e+00,-2.760654502893833961e-01
9.178528960715679474e-01,-1.185994725995406673e+00,-1.686713935972758982e-01
1.048622432551812311e+00,-1.237195982637205205e+00,-9.409550924104292946e-02
1.022422456937413182e+00,-1.213222412854088272e+00,-1.022870182953809493e-01
9.755352391169612725e-01,-1.209980102937539215e+00,7.465738990627864002e-03
9.924155872398319200e-01,-1.229118751720546632e+00,5.365880905772264092e-02
9.769701466088082098e-01,-1.259259042914109505e+00,5.312820524894448088e-02
9.808228876607257840e-01,-1.278814144998798863e+00,8.834651150497274674e-02
9.902570922871809511e-01,-1.169454200965130752e+00,1.646221969450802625e-01
1.017555721766367549e+00,-1.210889895737692123e+00,2.731981782980762441e-01
9.613289377292788540e-01,-1.240641826483148691e+00,2.947110365824309186e-01
1.006139680709195572e+00,-1.224055495521734871e+00,3.433434164572970460e-01
9.404747793492125307e-01,-1.226393371165909407e+00,-4.032611057540883004e-01
9.387274683362278882e-01,-1.162946117645373034e+00,-3.726383831682954506e-01
9.907743545310360167e-01,-1.128672142197468586e+00,-2.415082289992296349e-01
9.350348607109914001e-01,-1.245472068705986368e+00,-2.036551444802462418e-01
9.647177560368361826e-01,-1.150607009661907210e+00,-2.348358160376484982e-01
1.050884283389105001e+00,-1.150596608698265078e+00,-1.909275793000654031e-01
1.010177363248963234e+00,-1.146372853230789302e+00,-2.183869287146420479e-01
1.007936483606590050e+00,-1.279060439581680697e+00,3.720076246818747323e-02
9.198280656805332134e-01,-1.171581818815175646e+00,-2.076666094311594574e-02
1.009998778756129090e+00,-1.178412269714803617e+00,7.048976970307180290e-03
1.005872149152027273e+00,-1.144737942102077133e+00,1.638232147533354999e-01
9.949476052816023097e-01,-1.153498711360840590e+00,1.791445116092797163e-01
1.041007030662880695e+00,-1.204655524890579477e+00,2.997805896177385687e-01
1.009855229059513082e+00,-1.191964100431317064e+00,2.609416661320303477e-01
9.665661379967881439e-01,-1.171935444841567309e+00,3.425492972647810053e-01
9.760465257283406082e-01,-1.163445580218089193e+00,-3.826994463340277486e-01
9.258440904459915854e-01,-1.274508548075692360e+00,-3.091841514004384228e-01
9.366909659853001058e-01,-1.157193997429910803e+00,-2.964967783226032938e-01
1.004697190765458048e+00,-1.173203532841854635e+00,-2.487315306745498111e-01
9.224789768784744659e-01,-1.177906639129711719e+00,-1.885769592972110220e-01
1.022756185379041671e+00,-1.165551545863742655e+00,-1.042819907346663605e-01
9.233689050944073884e-01,-1.166910089048227128e+00,-8.534526786663186593e-02
9.422030620364357789e-01,-1.196333217516285075e+00,5.297849933987110183e-03
9.756128627100661976e-01,-1.164106730996915751e+00,4.060504704040603097e-02
9.974669508001735574e-01,-1.158803893300707433e+00,9.531469011940621461e-02
1.006308486377634370e+00,-1.174444773814954379e+00,1.481274320793145860e-01
1.033029707110423967e+00,-1.091491272216740249e+00,1.026301164869745514e-01
9.593016827593906504e-01,-1.165394194214445012e+00,2.654855820308763548e-01
9.593920098064789848e-01,-1.154743130956585206e+00,3.143346775686676753e-01
9.791365767070842052e-01,-1.220760641413590752e+00,3.477096251010508565e-01
9.741845678522684793e-01,-1.104986039914482854e+00,-4.337105969038722586e-01
9.396872994887852659e-01,-1.103759578924888407e+00,-3.561408584134478361e-01
9.479912821123125388e-01,-1.060506055789711688e+00,-3.263228660322466390e-01
1.033402254938128539e+00,-1.109794895884974153e+00,-2.085034109510473521e-01
9.163805362952769373e-01,-1.123625891198981375e+00,-1.258591258910554678e-01
9.712829261537578862e-01,-1.088568776830205920e+00,-1.570302605104848537e-01
1.048622066951855558e+00,-1.167069744491132433e+00,-8.738678901009151734e-02
9.493838852598180944e-01,-1.093819457945048423e+00,3.692590585226804278e-02
9.688065221826417384e-01,-1.147918785493655225e+00,3.842679005054847052e-03
1.007316901178871626e+00,-1.122814579230532850e+00,9.846054487511116116e-02
9.148679204529723830e-01,-1.175055889512287788e+00,1.481715793116020752e-01
1.038732338788779908e+00,-1.176179086089548687e+00,9.775386828626454749e-02
9.518332396373911930e-01,-1.137900299115602420e+00,2.668595444620802670e-01
9.847840339540872012e-01,-1.115169653379846526e+00,2.787753350888186876e-01
9.741578831945219008e-01,-1.108938632682086256e+00,3.740509671574992479e-01
9.814400033352811414e-01,-1.057954523182245365e+00,-3.770331447861265950e-01
1.021885050515666471e+00,-1.093270172190919709e+00,-3.036730485345249253e-01
9.089427052113701055e-01,-1.106627737916013210e+00,-2.751282962628365802e-01
9.994263895002160059e-01,-1.010618824888968259e+00,-2.014297521169096661e-01
9.839968601006182647e-01,-1.092594869113426626e+00,-1.506625591884178661e-01
9.631462862670019387e-01,-1.083839266934056189e+00,-1.444257555034433038e-01
9.580638961121920039e-01,-1.109479191108568630e+00,-4.368067476276880218e-02
9.605498136884190741e-01,-1.039299658357351275e+00,-4.437847500839023351e-02
9.291299403242403443e-01,-1.056163601965917964e+00,-2.888535948361688893e-03
9.927681969754347246e-01,-1.106036909909365429e+00,1.069417597735733277e-01
1.014485141648826083e+00,-1.049149700481233571e+00,1.765231299066435944e-01
9.915552093163872982e-01,-1.064886200480060330e+00,1.488480246345769975e-01
9.683089558811308617e-01,-1.097089169182623669e+00,2.584464569364419151e-01
8.894891839940051170e-01,-1.138519191722820567e+00,2.467386876710614407e-01
9.908603837094012157e-01,-1.112057262443458372e+00,3.535879336525897254e-01
9.177825263243580833e-01,-1.029473582597889569e+00,-4.118758259490494233e-01
9.567435750337119904e-01,-1.043506337428235176e+00,-3.499464698308882848e-01
1.008480382252560092e+00,-1.056179140725044929e+00,-2.737148680866387518e-01
9.277349879477916339e-01,-1.003993277956663821e+00,-1.595462741524825978e-01
9.342238405220701924e-01,-1.030600462422409880e+00,-1.534119170278823163e-01
9.788469242364981060e-01,-1.008987557800429480e+00,-1.521710084120341255e-01
1.020149649709262363e+00,-1.126803960170804864e+00,-4.697162506779964386e-02
9.833869985003910186e-01,-9.901809600668913802e-01,-3.104893734708818673e-02
9.834343924421506955e-01,-1.026150767124927921e+00,6.261623482469287627e-03
9.475673871888713462e-01,-1.083491440722041288e+00,1.083956838930632272e-01
9.478356808646936082e-01,-1.112120720213436886e+00,1.447495063396439241e-01
9.864493218521479534e-01,-1.039090832435082934e+00,1.828751693373395215e-01
9.228760801757063259e-01,-1.042806447700639350e+00,2.132719821952942796e-01
9.286990230345479880e-01,-1.051746271563449575e+00,2.287566490989285939e-01
9.500451640894347349e-01,-1.058275186383286881e+00,3.001144569074561952e-01
9.905198017239054131e-01,-9.759883527389492386e-01,-3.837796992991415190e-01
9.649548085405078579e-01,-9.988402053254048507e-01,-2.579109887450821148e-01
9.480792856372677324e-01,-9.674519008099198292e-01,-2.954474623175994963e-01
9.836355820881762524e-01,-9.709538958076046056e-01,-2.014889178512061507e-01
9.574862624720270610e-01,-9.611612522486434607e-01,-1.536371607515472915e-01
1.005717162160111977e+00,-1.019332125736457817e+00,-8.441360565110744840e-02
9.446588980276108272e-01,-1.070900945874053489e+00,-7.690843472381871104e-02
1.008075189597705368e+00,-1.077018514840657692e+00,-4.225210603781746205e-02
9.827099691500008616e-01,-9.852012507148697473e-01,-7.588676924306747562e-02
9.569704137711564362e-01,-1.009324763553278714e+00,8.596240817686681690e-02
9.278032650368535084e-01,-1.069112708721812410e+00,1.340864911949457283e-01
9.913122723809124626e-01,-1.054690551054561665e+00,1.341581664785381767e-01
9.810000037603430201e-01,-1.046123258365360797e+00,2.315951574880181218e-01
1.054415008938067055e+00,-1.057309340897006456e+00,3.141915453535641389e-01
9.524443092103704878e-01,-1.009630496587760273e+00,2.812695784701995660e-01
8.847443373567099867e-01,-1.020193930454799336e+00,-4.213366271467253177e-01
9.648679253219277774e-01,-1.019179474953776809e+00,-2.892608934239872531e-01
9.905027818825362651e-01,-9.351520457122252106e-01,-3.011570468145241541e-01
9.904318968869170181e-01,-9.755669744066278737e-01,-3.235264921216822742e-01
9.588077409588685596e-01,-1.033152240093265117e+00,-1.463164324386607429e-01
9.922031466812945011e-01,-1.007233529657957316e+00,-1.111364504180499813e-01
9.548794843310668412e-01,-9.841512743993746648e-01,-5.206677652492477937e-02
9.124604864118405212e-01,-1.022330501808173642e+00,1.114110175581063678e-02
9.934254275449202476e-01,-1.020321637389784097e+00,-1.239710521412377975e-02
9.151741754033972942e-01,-9.984488191507923105e-01,5.601599795957021982e-02
9.455776480095033909e-01,-1.003211568926241970e+00,6.849592548917815549e-02
9.754713445888242296e-01,-9.474921075356986799e-01,1.543400066618429711e-01
1.004391941677713618e+00,-9.549847254254030249e-01,2.458713912014577063e-01
1.063857260551706929e+00,-1.051665987898334320e+00,2.580158356326303082e-01
9.757972170051182337e-01,-1.065647505917967752e+00,3.290121074341479934e-01
9.734903091548253729e-01,-8.846088761728931882e-01,-3.637285308192271249e-01
8.986510508570181299e-01,-9.486105671756429603e-01,-2.709840663294972307e-01
9.317661917123890580e-01,-8.960528344140671342e-01,-2.642253521738110456e-01
1.094770480034103599e+00,-9.787848631782029019e-01,-1.835719786097294304e-01
9.967119836728589588e-01,-8.931488304313552895e-01,-8.678640506857666914e-02
9.731279467102358360e-01,-9.206234018880705694e-01,-1.114302570885864485e-01
9.758128387233159229e-01,-9.715729865678519594e-01,-2.304347603740190126e-02
1.010391192610366362e+00,-1.027203751219475159e+00,4.531394706948145557e-02
9.341052665872596750e-01,-1.007641061723186127e+00,5.611905490777886057e-02
1.010893575612537898e+00,-9.615979379927199755e-01,9.969922223019020424e-02
9.742960756475490536e-01,-9.546641149133719972e-01,8.309449670447678626e-02
1.029307527875121142e+00,-9.359936964363103629e-01,1.087204045488150417e-01
1.002324819833136704e+00,-1.009537728719223315e+00,2.002741533726702383e-01
1.033398715288768255e+00,-9.994232105004577926e-01,2.219708317083778915e-01
9.521167662110431307e-01,-9.268654955825312847e-01,3.125435660639907520e-01
9.706662433862102146e-01,-9.822867512325645922e-01,-3.354139808453616145e-01
9.556176025720953815e-01,-9.353448307345531010e-01,-3.241612752944649234e-01
9.389290213302766697e-01,-9.386375246310704190e-01,-2.551813938213984834e-01
9.041278773191812057e-01,-9.169827043732750038e-01,-2.515444790524016816e-01
9.617523811720156690e-01,-9.358888148577524380e-01,-1.776562533298996771e-01
9.890715341395622806e-01,-9.272489401925511077e-01,-1.714325344820865904e-01
1.045981178557822577e+00,-9.273175801978392752e-01,-6.512479943949761596e-02
9.759974463879023121e-01,-9.107893866344802802e-01,1.295773478800875400e-02
9.743258575162323520e-01,-8.910313038486403769e-01,-1.120799540092014962e-02
9.098854418749042772e-01,-9.405026260595019671e-01,7.301219530281782832e-02
9.304873440412315677e-01,-8.515339460437001406e-01,1.034621393403204748e-01
9.601630685068709425e-01,-1.000406932473301369e+00,1.460897776114657431e-01
1.034550864802323389e+00,-9.186194675870521520e-01,2.374590932052519643e-01
9.793924262230878641e-01,-9.270873033928950235e-01,2.995302500012871905e-01
9.754569763887901424e-01,-9.711269086856738619e-01,4.122048275284280194e-01
9.913087530454628427e-01,-9.086740446701649931e-01,-3.867788419534816668e-01
9.793212331559514316e-01,-9.006192907770759204e-01,-2.905539888956409911e-01
9.787406470900231747e-01,-9.682737084391269677e-01,-2.533270309358421346e-01
1.026056491157335993e+00,-8.999235786537925774e-01,-2.563278940649361681e-01
9.018194389899876207e-01,-9.130190631980061866e-01,-2.189641145222427920e-01
9.781737165607703455e-01,-9.036286559413022612e-01,-1.075442986412168123e-01
1.016455038610822426e+00,-8.935889643219420142e-01,-9.683637007596558599e-02
9.311645169930579113e-01,-9.202295249786757170e-01,-7.929162042860113391e-02
9.614800175784864456e-01,-9.173663209978316635e-01,3.017737052724761559e-03
9.735886203770925951e-01,-9.122263039311184762e-01,5.737188810794055516e-02
9.753726666078583740e-01,-9.345552517750609356e-01,7.631274659461981247e-02
9.521722335471468623e-01,-9.035181058927141962e-01,2.162967989834350124e-01
9.647052786036959260e-01,-9.055226311323069099e-01,1.568994685304729853e-01
1.084650199259904246e+00,-8.933038766294021382e-01,2.675391370797209900e-01
9.818404860805446388e-01,-8.414330705935679777e-01,3.297966792774662537e-01
1.029722529846296419e+00,-8.668433474138154127e-01,-3.998722007955805569e-01
9.996137681978944922e-01,-8.613390813051278183e-01,-2.902220585908361072e-01
9.362389148305851894e-01,-8.781347019469956106e-01,-2.290471793455865213e-01
1.002583099554376966e+00,-8.881455030160886333e-01,-2.156993628182038714e-01
9.489032417315297341e-01,-9.481303701992526145e-01,-1.331470027002494838e-01
1.007429998646355296e+00,-8.456825939713926710e-01,-8.025796461392313563e-02
9.590330227578924838e-01,-8.365937614583293103e-01,-1.541383475838968842e-01
1.019437674345548661e+00,-8.738505314906518384e-01,-5.415208650619977165e-02
9.625294952123248926e-01,-8.775041507821128572e-01,1.061909130950261688e-02
9.329883250690478302e-01,-8.592908452582448398e-01,1.247819947121373146e-01
9.386496685628844538e-01,-8.566575606076580751e-01,1.623338047641167958e-01
9.723532130660084150e-01,-9.287564028512961256e-01,1.938012955030361528e-01
9.444797354198071204e-01,-8.915814232184645638e-01,1.455979655794739369e-01
9.803966688485732384e-01,-8.254473361888200467e-01,2.305548160441896755e-01
8.890524984027066147e-01,-8.994117551464257954e-01,3.108491737362732987e-01
8.635088884740526050e-01,-7.954320712725307940e-01,-3.629842601109507516e-01
9.135816091548468743e-01,-8.822147217499467509e-01,-2.811559680644104553e-01
9.047243363721877429e-01,-8.726339791284597469e-01,-2.680468361871998217e-01
9.421570227030505729e-01,-8.179112245358612920e-01,-2.059221937614278408e-01
9.827735852158463459e-01,-8.584605788485505373e-01,-1.538291036630943798e-01
9.194295742806694038e-01,-9.265806023748316411e-01,-5.818634072159938053e-02
8.845859788110096433e-01,-8.466541209972979765e-01,-4.971719069185012718e-02
1.004750688529208125e+00,-8.028044059713025371e-01,-5.761424065247269105e-02
1.004869872451057189e+00,-8.388695505155167043e-01,-4.096089080113861358e-02
9.600889665320746502e-01,-8.202815592590859683e-01,6.697371112560196460e-02
9.391528262329371657e-01,-8.225908448752915492e-01,8.248709507128715313e-02
9.630332816859512590e-01,-8.305841774067489469e-01,1.511889453514891068e-01
8.804526497944286101e-01,-8.609118101745014684e-01,1.583713055148542326e-01
9.743313656371601628e-01,-8.027946556016534174e-01,2.529130632625914976e-01
9.425643766721100159e-01,-8.186773551548298666e-01,2.367737307139044234e-01
1.011244542225821164e+00,-8.460079922423636711e-01,-3.388838817735548292e-01
9.652984805365687482e-01,-8.297435511329467328e-01,-2.499068592579292702e-01
9.754915883877295357e-01,-8.209931816119535597e-01,-3.149368148866050765e-01
1.008220711718197826e+00,-8.007483324644197875e-01,-1.937358660636169239e-01
9.564676970876856421e-01,-7.843444134761428099e-01,-1.495518517073027576e-01
9.858560956694799593e-01,-8.265722724090607265e-01,-1.200066222428584767e-01
9.535812482000519674e-01,-8.479969768573080158e-01,-1.186567330108563301e-01
9.525553504362949120e-01,-8.135072091844472997e-01,-7.184201655137502709e-03
9.551192775121850609e-01,-7.462567533975772438e-01,-4.565370886385297644e-02
9.730391173588897047e-01,-7.940915670521209169e-01,5.153338148195559659e-02
9.469138920352970779e-01,-8.194711290181977414e-01,1.338955969184661976e-01
9.173481116211443798e-01,-7.667944827082565640e-01,1.614930785807375258e-01
1.088930230656507847e+00,-8.932358093232730667e-01,2.038343325976697540e-01
9.601800030915454975e-01,-7.989451255965950294e-01,1.902276075546145973e-01
1.018974765988547304e+00,-8.700878985469222560e-01,3.174509400202565335e-01
9.253444449166761121e-01,-7.222235488232288114e-01,-3.437912875318857586e-01
9.131715428251225841e-01,-7.603093202257891203e-01,-3.243129085245298193e-01
9.431862763112082160e-01,-8.184458158574559050e-01,-1.947281765037379153e-01
9.564030948599326898e-01,-7.891848933848309988e-01,-2.898776919455665624e-01
9.470433092749075410e-01,-7.738588227525059482e-01,-1.087605614259614384e-01
9.000396500582754644e-01,-7.922437675679183666e-01,-1.467159970365286559e-01
9.929390455252546932e-01,-8.145496649841932335e-01,-1.236292304603988090e-01
9.293030963278217094e-01,-7.522988951315557893e-01,-4.554362212586129943e-02
9.697846459011294495e-01,-7.624904574076851738e-01,7.821122883957787320e-02
9.889247701729798612e-01,-7.357363407259540633e-01,2.103514059274298048e-02
9.144065243673827892e-01,-8.546362416717827593e-01,7.179836377396053848e-02
9.916451782118569369e-01,-7.962462264723813021e-01,1.461639588764740982e-01
9.330748928178397295e-01,-8.359291870855641848e-01,1.659966645875993740e-01
9.404363357044345229e-01,-7.767879570858580163e-01,1.932592107824218086e-01
9.664608757705805964e-01,-7.497899257421494212e-01,3.355693465572135992e-01
9.593229057258783055e-01,-6.845288037882495402e-01,-2.933054569242156684e-01
9.313567969989554607e-01,-7.923647371811884943e-01,-3.037483816783832502e-01
9.516511845303643469e-01,-7.801811726410301517e-01,-2.448974155650897044e-01
9.659353350907946556e-01,-7.706081778920741421e-01,-1.271181662972638016e-01
1.040174935836799985e+00,-7.625396828108197411e-01,-1.205334245604236243e-01
1.027173963597522111e+00,-7.777488338827197589e-01,-1.536785989821273235e-01
9.877675577148414821e-01,-7.964483000149940040e-01,-7.235482531943955575e-02
9.707127942113472630e-01,-7.351766856064174682e-01,4.340481284914887022e-03
9.294972225604751781e-01,-7.790544359847008105e-01,4.835734696898084939e-02
9.183413688940103015e-01,-7.168146559121899575e-01,-3.223936153194810472e-02
9.719372210528797185e-01,-8.016310201019509751e-01,3.818099320343305847e-02
9.873921248760246794e-01,-7.887093136705094487e-01,1.816645388758555413e-01
9.547545757025612811e-01,-8.239372771334515511e-01,1.864121221051770194e-01
9.541202331387714786e-01,-7.833522092468905296e-01,2.358035004881303687e-01
9.796344025404090106e-01,-8.273373236003574993e-01,3.642616976598822554e-01
9.396406304820555944e-01,-6.545664619386979410e-01,-3.307387554369284333e-01
9.054799845260950164e-01,-7.162411361516638486e-01,-3.100053924769720082e-01
9.379328774047499540e-01,-7.169470199085007378e-01,-2.907284754604255173e-01
9.257539227872392251e-01,-7.423825541146846785e-01,-1.807116582681762285e-01
9.850297101879589290e-01,-7.455676887368954953e-01,-1.876918472692727657e-01
9.654982971575329920e-01,-8.103046867504550832e-01,-4.800432860396691703e-02
8.975917424449497695e-01,-7.480941131190727011e-01,-3.864460749159805142e-02
1.011837145966266061e+00,-7.311496927948984981e-01,-4.539865480450654134e-02
9.309697758500137255e-01,-8.212497119721802186e-01,1.284031670648634778e-02
9.847395406954895236e-01,-7.025981296347169058e-01,5.275581117847057827e-02
1.002653434510432984e+00,-7.762979690441177416e-01,1.659884632780231628e-01
9.195874035373571287e-01,-7.173577344665921229e-01,1.956384049232397504e-01
8.535275665373630583e-01,-8.198490168524203980e-01,1.748058392282446361e-01
9.335970855998066975e-01,-7.338761007166801908e-01,2.347837217057168469e-01
9.697783671812448825e-01,-7.669053158462338926e-01,3.207100704371088074e-01
9.438808387947451584e-01,-7.365998901874166727e-01,-4.187247415367396086e-01
1.005563959453404710e+00,-7.670775293594365163e-01,-2.774000027294613591e-01
9.607197722860623124e-01,-6.467107853565823294e-01,-1.971255019764698302e-01
8.473654896015230253e-01,-7.443075624640922427e-01,-1.534771331352234591e-01
9.852871364764740347e-01,-7.192731992750658332e-01,-1.148950783121491515e-01
9.725339012117442117e-01,-7.141905771056427099e-01,-1.177433143862760823e-01
9.092509889536636303e-01,-6.692909754535119049e-01,-1.092603436350289836e-01
9.805275855055719525e-01,-7.629723613067527221e-01,-3.971937142117215602e-02
9.828591643138422373e-01,-6.548316028388128096e-01,2.132877670340161541e-02
1.045021021517524851e+00,-8.183365999344686115e-01,9.727884942619158259e-02
9.772662380610429578e-01,-6.838793402667664445e-01,1.419407278768020086e-01
8.798456607975128074e-01,-7.248557832346391727e-01,1.732618644571241595e-01
9.727837517331056061e-01,-7.135657935862962375e-01,2.200688221784608545e-01
1.016878632458567688e+00,-7.209585047735257435e-01,2.216499697132449931e-01
9.835574919125794624e-01,-7.062117212981610104e-01,2.286461476645242352e-01
9.500598286751392729e-01,-6.925666517701708491e-01,-2.658653759857314558e-01
9.489213709757200466e-01,-6.892070049747462956e-01,-2.964183593036255893e-01
9.321649858162291968e-01,-6.965246041605120952e-01,-2.086809194293464398e-01
9.823319308890345880e-01,-7.553773977167872467e-01,-1.428731732369118712e-01
1.032855286814031048e+00,-7.044601573481955592e-01,-1.381927009796489192e-01
9.688785174555962776e-01,-7.147222177060872372e-01,-7.793402387867273684e-02
8.677435921144547315e-01,-6.490070406130896696e-01,5.048103735020681437e-03
8.873277546230118329e-01,-7.519161471861689483e-01,4.273850576998997064e-02
9.553766352448084254e-01,-7.494425092985609327e-01,-1.822048873024425392e-02
8.882312753783803139e-01,-7.212858092144556199e-01,5.430650411625064650e-02
9.636944207323483447e-01,-7.363205762818268996e-01,1.021173364009459184e-01
9.388538510428005024e-01,-7.121339679090507024e-01,6.887385585197625115e-02
9.323436685085998432e-01,-6.651425233051744268e-01,2.002435645936198050e-01
1.011155469804532636e+00,-7.623328343388521278e-01,2.877261178012847642e-01
9.432508829883459178e-01,-7.134389726688594724e-01,2.828705590472166409e-01
9.735262336701818731e-01,-6.086905860336186969e-01,-3.046579561388802482e-01
9.948812211087102453e-01,-6.247179075377025104e-01,-2.210415237345326189e-01
9.754105629105647157e-01,-7.174304326483724736e-01,-1.914356280286216017e-01
9.630600377492601893e-01,-6.859222192728632317e-01,-1.741142807652275859e-01
9.425830795738489032e-01,-7.438399308861667336e-01,-1.717857363907039359e-01
9.394153407969607628e-01,-6.698233840104279579e-01,-1.072373832344670208e-01
9.470678817055956378e-01,-6.406332033407777793e-01,-1.467065353824097418e-01
8.800810033401694765e-01,-6.501365454002964173e-01,4.787106497797716242e-02
9.489570425790647690e-01,-6.969539276250552584e-01,3.602353506693097007e-02
9.948132884084102123e-01,-6.900194620303672366e-01,4.065597810451917343e-02
9.511788316497852280e-01,-7.780905312170071086e-01,7.854934068963628779e-02
9.160275446668756372e-01,-7.007049459739328467e-01,1.114594913007301014e-01
1.035396319499222617e+00,-7.060324979549841284e-01,1.311481166694292710e-01
9.785290937556522239e-01,-6.792135803908363467e-01,3.198108611628698861e-01
9.336780547387575346e-01,-6.840733429925618392e-01,2.530622151949548093e-01
1.001342712551143821e+00,-6.769844823019234292e-01,-3.132186734980743070e-01
9.867255862207757744e-01,-6.417885213753342644e-01,-2.608408682098014020e-01
9.713508573623971243e-01,-6.927020863130173289e-01,-1.700477672015955899e-01
9.643063485613665442e-01,-6.898386553673095944e-01,-2.821061994736089873e-01
9.475101927364260046e-01,-7.118455313466462986e-01,-2.146402447127457869e-01
9.248149317965761451e-01,-7.246893842172186240e-01,-1.179460492705241836e-01
1.023406782377534352e+00,-6.892329229665803414e-01,-7.978096040843962733e-02
1.030390573545358457e+00,-6.804402406105689582e-01,-6.622525280621113786e-02
9.725635098225637876e-01,-7.563821259395971941e-01,2.071759914495178989e-02
9.280661808245139754e-01,-7.231561014732583725e-01,-2.217793557327187026e-02
9.972983877475904979e-01,-6.539314716217796697e-01,9.749811292987919931e-02
1.029970939992355783e+00,-6.607415952449114949e-01,1.188290574595252252e-01
1.028501188284206558e+00,-6.173749847452452144e-01,2.539566701994025455e-01
9.399105773232701022e-01,-6.982855185386129815e-01,2.130746767189872770e-01
1.004964981389653955e+00,-6.667910262350476014e-01,3.370115506168885333e-01
9.893041455100879400e-01,-6.772959024835536468e-01,-3.004424475659902560e-01
9.668890832699544857e-01,-6.807273674767198024e-01,-3.303577378528134156e-01
1.057767609135141118e+00,-6.844555921876878113e-01,-2.481089218653250439e-01
9.978305146062695918e-01,-6.842308112902840689e-01,-1.478456742701476645e-01
9.896479539026136196e-01,-6.803860672866210990e-01,-1.418006285379060094e-01
9.767422202037662204e-01,-6.647970429287174410e-01,-1.685633102042942977e-01
1.047504927927719320e+00,-6.256543859637114791e-01,-1.984008924083412867e-02
9.723349451175483660e-01,-6.472199938934369845e-01,4.239175828214279684e-02
1.062517621620518327e+00,-6.959897882316323781e-01,7.005703489285269869e-02
9.185351712877316555e-01,-7.162645331761018364e-01,8.455622255491085371e-02
1.047094639392248006e+00,-7.448441475932476852e-01,1.676973245308593374e-01
1.062057127396929035e+00,-6.796150550450738015e-01,2.093587255733737884e-01
1.040663913204273427e+00,-7.403372209039926766e-01,2.179625733890013795e-01
1.023193226026875235e+00,-7.169855992791472898e-01,2.678618966620340269e-01
9.755513866796159395e-01,-6.064515448670537712e-01,3.359233803521231576e-01
1.034566330908607279e+00,-7.134332365018040134e-01,-3.140816317633396970e-01
1.101019748869871195e+00,-6.363166308418597428e-01,-2.480742202476185487e-01
1.059415962829923341e+00,-6.170631924434752946e-01,-2.535865208553187977e-01
1.038519913505546732e+00,-7.157178423239147769e-01,-2.734981890622131262e-01
1.037744617922477852e+00,-7.025144834902075086e-01,-1.328706571690890792e-01
9.856641126334312331e-01,-6.546857206498710724e-01,-1.116910063115430091e-01
9.850638445918292740e-01,-6.841029872045191196e-01,-1.473648507173856981e-01
9.918858555304536084e-01,-7.049222647930188934e-01,4.189648065775868069e-03
1.068866885152102597e+00,-6.731532616589153140e-01,4.306913508394866891e-02
1.050406861257786595e+00,-6.890828968285495071e-01,4.421205662354626975e-02
1.033982368128429252e+00,-7.464411507193773332e-01,1.007146881112425119e-01
1.012957214464855982e+00,-6.263068683791832569e-01,2.095607908316268475e-01
9.999761330923820912e-01,-6.709362561283566118e-01,1.973136271871233083e-01
1.054455290721678207e+00,-6.947823077550377979e-01,2.526887919559095974e-01
1.099685291864180403e+00,-6.957384328883441382e-01,2.992261010755130068e-01
1.061175981397499912e+00,-6.151340419267476989e-01,-3.709498620690126480e-01
