1.590309325769239557e+01,5.504972412923201830e+00,8.750942939312267299e-01
3.810650922605728574e+00,1.371640374510741500e+00,-1.104222128816379378e+00
4.473840115840245879e+00,1.609161425578419902e+00,-1.016294675742865472e+00
5.462456428042308687e+00,2.001699618820408588e+00,-1.082892901626448801e+00
5.539605144287559568e+00,2.077185170249873369e+00,-9.973302943857493830e-01
5.516479773641525419e+00,2.015654999112912016e+00,-7.947531972629581221e-01
5.630176427756312663e+00,2.068800819095921284e+00,-5.842263466739323619e-01
5.599933764395814251e+00,2.073626405950036222e+00,-3.638757884632768946e-01
5.585251981306031510e+00,2.024433198479945517e+00,-6.226023860193977133e-02
5.600318977870925252e+00,2.119972518856645838e+00,1.188717072263817814e-01
5.651620774733271624e+00,2.072904513818315753e+00,3.100334540539250727e-01
5.678011432384648671e+00,2.100596146368642003e+00,5.451372740672059125e-01
5.675405696596897087e+00,2.036693417355553759e+00,7.286268499959586142e-01
5.714559574917918106e+00,2.135084803164065903e+00,9.144436222675577097e-01
5.643578127027056190e+00,2.034569621669244821e+00,1.154867367944818035e+00
5.727074207246516835e+00,1.982193056048141999e+00,1.335936909420034180e+00
3.733949498886303342e+00,1.380817868762350464e+00,-1.123823652803491280e+00
4.432411266055919619e+00,1.734623226098474635e+00,-1.121535603500449341e+00
5.229714389028157662e+00,2.009584530069888242e+00,-1.008886405389035179e+00
5.142938886740278548e+00,1.950467715920927159e+00,-8.463656058580210084e-01
5.187544765472230424e+00,1.976954887050486276e+00,-6.501394656509824621e-01
5.185728144084125191e+00,2.068854245894505173e+00,-4.605074587276541953e-01
5.228107914428324676e+00,1.974244088144837317e+00,-2.720124448085301516e-01
5.163013732782550491e+00,1.972879254611763944e+00,-5.517901839747983012e-02
5.303450432000708759e+00,1.984952265396261684e+00,9.912133636421106841e-02
5.222207078239149425e+00,1.990347020991752647e+00,2.913443669491950216e-01
5.202257672387059273e+00,1.972827650160388524e+00,4.805315451399562732e-01
5.174931997027671038e+00,1.937390201441574922e+00,7.226289026505255952e-01
5.297839943830902953e+00,2.009810851899204831e+00,8.957717899439794351e-01
5.250813116415694815e+00,2.050701597991229974e+00,1.171593222642339338e+00
5.328741813911225478e+00,1.976696349441176892e+00,1.309901790639875330e+00
3.648248089703182817e+00,1.451342739875936427e+00,-1.054581488552302826e+00
4.396536905845694676e+00,1.728788383068409651e+00,-1.048157770972167890e+00
4.819288480090323290e+00,1.922654732127459631e+00,-9.734120332369663453e-01
4.836094477213928045e+00,1.821907294953221790e+00,-8.094970098677998216e-01
4.850946076408555463e+00,2.001856567717986035e+00,-6.379538532344574131e-01
4.868041617097560447e+00,1.883557824193688779e+00,-3.569452119588331085e-01
4.791169566596294338e+00,1.873339842138497469e+00,-2.324549458914831335e-01
4.846497992513036479e+00,1.888513092806238358e+00,-6.612728610049189992e-02
4.915028736620966399e+00,1.897988376823358303e+00,1.085766143462509048e-01
4.960093725989218605e+00,1.978005041875545267e+00,2.991013115442982540e-01
4.789096314601884785e+00,1.976404575241130335e+00,4.192127011255429303e-01
4.910009381142685037e+00,1.913039678604725013e+00,5.974601032383274335e-01
4.886576491299944536e+00,1.973699861769576236e+00,8.844511576203826220e-01
4.951943578117059985e+00,1.992052540392597493e+00,1.028870472089657095e+00
4.861858890703823377e+00,1.939853523039525740e+00,1.214821686816608848e+00
3.656830433498479582e+00,1.512299231207137273e+00,-1.133549859909901647e+00
4.398602112434784495e+00,1.849398858413813240e+00,-1.027513353458685552e+00
4.509926090427714307e+00,1.815987793511694814e+00,-1.011820755765447277e+00
4.479038276922082673e+00,1.890082278703661078e+00,-8.061843117424634109e-01
4.474777856108997476e+00,1.887364249515475212e+00,-5.846631114109586136e-01
4.620291196119487687e+00,1.833231935776781896e+00,-4.070934313061985166e-01
4.531358226084658547e+00,1.915146025436321731e+00,-2.219941748969104234e-01
4.543266577324453159e+00,1.899473412227283386e+00,-2.452702333162933707e-02
4.522454872286547634e+00,1.873195791602533467e+00,2.872522000130191960e-02
4.546130929576177593e+00,1.892395132118908752e+00,2.872537049900578676e-01
4.561935761945766998e+00,1.907866601725665134e+00,4.239825740925289854e-01
4.642715352786515481e+00,1.911431210722254415e+00,6.176011869735488213e-01
4.515477926271267428e+00,1.876102278333458218e+00,7.271899958167927780e-01
4.653113407932742085e+00,1.916570680659426484e+00,9.492300654484155942e-01
4.570426114587347044e+00,1.891810375038978531e+00,1.142986616535669464e+00
3.645959443216601148e+00,1.544774343035482111e+00,-1.109653685921943911e+00
4.238245021945967750e+00,1.739361697116157179e+00,-1.106653911591528150e+00
4.284177036787792936e+00,1.860792872797918607e+00,-9.072199044939005530e-01
4.199953646000468055e+00,1.852332936788852580e+00,-7.960298588895821092e-01
4.326775891077766723e+00,1.818150749851440429e+00,-5.595049454498582930e-01
4.213671778647810839e+00,1.816143661294875589e+00,-3.573369598592052720e-01
4.326793537167025860e+00,1.854664078461777832e+00,-3.000950797655200231e-01
4.301313888339966418e+00,1.840077722933314952e+00,-5.881587379619576672e-02
4.242371031710440832e+00,1.855343986982482818e+00,4.329795419324577316e-02
4.251381616390722762e+00,1.884704143918422670e+00,1.862245776211031156e-01
4.308499568685650871e+00,1.898034429797965883e+00,4.894337238939036050e-01
4.261892756771234581e+00,1.854912897822979634e+00,5.683616584257499271e-01
4.289717795571756476e+00,1.872500931794062184e+00,6.706629283577030254e-01
4.342509315354627475e+00,1.798952146879382319e+00,9.376845483408687842e-01
4.333007627811847229e+00,1.808145936538158027e+00,1.181602179979504008e+00
3.710072776495716429e+00,1.641067962690649029e+00,-1.076273571896896764e+00
3.982627935477345726e+00,1.788862611816015136e+00,-9.523862537641429871e-01
4.015491258364191296e+00,1.788547886987111646e+00,-8.737700921378287466e-01
3.980407192830548002e+00,1.770386802763156187e+00,-6.548984403027984236e-01
3.966582941532153406e+00,1.799164850257455983e+00,-5.451394006532052083e-01
3.994353937350695549e+00,1.822614652886731967e+00,-3.576857805821805347e-01
4.037423632520507510e+00,1.849112504728906980e+00,-1.666901635600734899e-01
3.983983106012608744e+00,1.786677344847854787e+00,-1.166168842726054422e-01
4.058137222532653965e+00,1.805969787656718228e+00,5.385677291018096946e-02
4.005605449399602946e+00,1.817569000953990654e+00,2.615737320319972414e-01
4.069678978539129410e+00,1.777542288283334937e+00,4.038278924602646258e-01
3.945052558555886879e+00,1.841191665557044610e+00,5.549895967337012959e-01
4.011597861312161228e+00,1.868264203240042054e+00,7.683304068398815190e-01
4.055250055914856766e+00,1.804501069952875625e+00,9.441864713754429816e-01
4.007867075533956935e+00,1.804307100447216872e+00,1.015504440358879990e+00
3.667647699537161188e+00,1.688328783281435097e+00,-1.076101566065867710e+00
3.735393969248036683e+00,1.815946400366844404e+00,-8.867092286002391521e-01
3.784696737242777331e+00,1.772537848843428909e+00,-8.005672185588326162e-01
3.715339899052784833e+00,1.792959166605530008e+00,-6.724385132814506560e-01
3.714804005815341981e+00,1.727881208401144120e+00,-6.405972801824977303e-01
3.804328212376553164e+00,1.819911139092816432e+00,-3.312622242204503187e-01
3.796945405877799384e+00,1.741271775709219316e+00,-2.487061364659856888e-01
3.732035969591064539e+00,1.720522124242639617e+00,-7.105412753699787143e-02
3.834149872400269388e+00,1.824030137480551872e+00,1.400438698014618705e-02
3.835693200344451714e+00,1.805671195842335264e+00,1.479718856037568475e-01
3.852134803213691061e+00,1.712610330897203159e+00,4.183636175002264368e-01
3.782497082117924236e+00,1.811346802267449263e+00,5.285818454673121281e-01
3.814109406106622746e+00,1.729381075521043920e+00,6.914200203110358878e-01
3.779981726870329961e+00,1.816114193560811163e+00,8.359153009662390055e-01
3.833274031166386209e+00,1.755305985432010329e+00,1.036981483579772378e+00
3.540764767554359871e+00,1.744749737570273185e+00,-1.051119432674584520e+00
3.584621531483024093e+00,1.715839244574462574e+00,-9.406641049018018563e-01
3.576948372013768918e+00,1.738346143048092651e+00,-7.415456475140954629e-01
3.556939687083995327e+00,1.718424340341339951e+00,-5.431420679107222815e-01
3.555671701641797799e+00,1.713507098102028614e+00,-4.207502538081852594e-01
3.530778672466227341e+00,1.714831828955004411e+00,-3.246058822416245659e-01
3.525511568428338460e+00,1.721537532270539961e+00,-2.190097001998596027e-01
3.600200271573644084e+00,1.733981104672689844e+00,-2.675509774289155929e-02
3.620899526638823751e+00,1.701141105886749161e+00,9.168681706715726965e-02
3.599158258975637459e+00,1.728776581868594953e+00,2.717978073369449743e-01
3.614770171038543367e+00,1.760789011363438572e+00,3.298797814736434408e-01
3.623983661398944900e+00,1.717634957902857362e+00,5.481525548618474408e-01
3.602015942408949734e+00,1.695674353846491789e+00,6.428288617350115253e-01
3.616775435030183505e+00,1.798374133449151868e+00,7.439891488283906229e-01
3.657295402893993685e+00,1.743478691560655491e+00,9.011326434154055542e-01
3.398780693954678966e+00,1.665648829971427380e+00,-9.852742673814169905e-01
3.347426502133983739e+00,1.673497051351838794e+00,-8.753547588269419144e-01
3.438906587437593476e+00,1.738605444120134180e+00,-6.784498749677621010e-01
3.431132323864093170e+00,1.751032743234133493e+00,-6.339292430650187438e-01
3.338153325605362376e+00,1.665347593220410038e+00,-4.838909167877478157e-01
3.399953879793438549e+00,1.685736185805380538e+00,-3.168569702321131221e-01
3.372767878886764326e+00,1.741042953858780162e+00,-2.605718476185857613e-01
3.427860960511845079e+00,1.717309688738473339e+00,-5.968072758289081486e-02
3.420675004811199571e+00,1.730080045995723292e+00,5.110140373741528519e-02
3.347074810707359127e+00,1.731853022452957580e+00,1.395738243747142171e-01
3.484834171956116666e+00,1.758804108978428760e+00,3.849953306615678805e-01
3.404868839329278529e+00,1.706006252410873669e+00,4.902221182155180323e-01
3.395260790441374077e+00,1.680769188576426876e+00,6.368123403934333737e-01
3.388253166315048581e+00,1.667841917159889054e+00,7.880227488430483485e-01
3.412695353649132457e+00,1.728405264301555277e+00,8.883545100529945948e-01
3.238443745912005234e+00,1.644044050128585122e+00,-9.155824554134498472e-01
3.152780179481207590e+00,1.662192973002971419e+00,-8.821713568421554186e-01
3.180221356932309451e+00,1.721589080982887987e+00,-6.862338572206089227e-01
3.179574907396166328e+00,1.737112704028494825e+00,-6.338463392940680841e-01
3.233640402064372310e+00,1.691891058256752567e+00,-4.960577437304423132e-01
3.195903200197064198e+00,1.680875956696820328e+00,-2.745666913501129680e-01
3.232894174937118503e+00,1.701268565894851870e+00,-2.498287857399458800e-01
3.240962654274407662e+00,1.672227295313964079e+00,-6.051845590073341025e-02
3.270668721860434669e+00,1.734053734111806744e+00,6.957236533787056199e-02
3.188662566284123479e+00,1.703830165255459939e+00,1.780159754091817370e-01
3.205700661538601004e+00,1.708229146517088903e+00,3.848003840567849609e-01
3.285903022498701365e+00,1.742292044010856467e+00,4.761722687849933022e-01
3.303229494886501971e+00,1.739379786407859285e+00,5.651743773089091816e-01
3.255740142745936705e+00,1.741385477282398675e+00,6.632517136062657803e-01
3.302432456607792499e+00,1.693173656576622887e+00,9.143876958722405579e-01
3.007021108879227356e+00,1.615936284761224417e+00,-9.453937387369717449e-01
3.087676362229291538e+00,1.596530660743207486e+00,-8.413141761024547360e-01
3.054522253612350635e+00,1.598192076319465693e+00,-7.531776473103544145e-01
2.995890538338855880e+00,1.639585312251447879e+00,-5.446632362933362392e-01
3.031080663468687320e+00,1.637987459328622997e+00,-4.528025197766534227e-01
3.110313664135277101e+00,1.652683258444378467e+00,-3.341389914867800570e-01
3.056803820639470981e+00,1.600767909506529252e+00,-1.457783306182952876e-01
3.002247468380019324e+00,1.706716267429260192e+00,-1.438397198029112145e-01
3.031804630823145441e+00,1.612604857548850745e+00,-1.486418506108790061e-02
3.124572194291947103e+00,1.669207997042077229e+00,2.216126881913838831e-01
3.103225574642481277e+00,1.604053747654302642e+00,2.942510743762714598e-01
3.073881578159356032e+00,1.740449581758522601e+00,4.575087098460630664e-01
3.171132769791390693e+00,1.650303018889757167e+00,5.726923335063882625e-01
3.120315100870916680e+00,1.670821331078892191e+00,7.058558827526233426e-01
3.088263080807796435e+00,1.627021112270941483e+00,7.850590170637019583e-01
2.906126498317107121e+00,1.595115131258041163e+00,-8.689199616098365331e-01
2.888743496059567928e+00,1.643954378790005944e+00,-8.041706560976481510e-01
2.935622510058677026e+00,1.593033206293491544e+00,-6.644526660588644384e-01
2.996100745398026621e+00,1.661196066646831060e+00,-5.026017543397169884e-01
2.961952189487877085e+00,1.574957517666240259e+00,-3.815125831892496322e-01
2.907012768882728526e+00,1.656639588846040789e+00,-2.501431643960348450e-01
2.920306631909494577e+00,1.723608555077148052e+00,-2.298731890207937334e-01
2.918774664284974119e+00,1.647166339508020050e+00,-2.696031615754968663e-02
2.930951676506618142e+00,1.656758182313874617e+00,7.030334200081382601e-02
2.847969506705002374e+00,1.582796281980703323e+00,1.949119049604682019e-01
2.997888363420574187e+00,1.658246606996737871e+00,2.893946820714665136e-01
2.897738555749953093e+00,1.624591467014470991e+00,3.894556190004881957e-01
3.020095709854818455e+00,1.602553380348469059e+00,5.288540403097997666e-01
2.946806598215790718e+00,1.601055834865171112e+00,6.224759690481139751e-01
2.956512750958961266e+00,1.689201181536981844e+00,8.130536858197254801e-01
2.756114311277003903e+00,1.590265428811661330e+00,-8.156184657516318826e-01
2.800895235274563522e+00,1.545905444342119406e+00,-7.370292162303432315e-01
2.840395675489427063e+00,1.644171277277875154e+00,-6.246660402663894995e-01
2.770287944292242788e+00,1.573998782085142212e+00,-4.421871312774863783e-01
2.768004243979091950e+00,1.592921047991947114e+00,-4.093585321126084753e-01
2.779444039985241588e+00,1.639269832264514726e+00,-3.347728863755122242e-01
2.861757386802568526e+00,1.617298929599203294e+00,-9.916228057919375394e-02
2.845898169107285547e+00,1.627964344436612087e+00,-3.945909296834224089e-02
2.932492209655578996e+00,1.618064378332352726e+00,4.890283980127618085e-02
2.788095897738975815e+00,1.618253915828194778e+00,1.134701627876861796e-01
2.763503147172820640e+00,1.609371009023839560e+00,2.400225042279808541e-01
2.832561236304744767e+00,1.585901517001113037e+00,4.182022111050407442e-01
2.866782919200642876e+00,1.581594128924509679e+00,5.407027865202282957e-01
2.870797592516932006e+00,1.655860316302759427e+00,6.105643886231745254e-01
2.795480932358453074e+00,1.632143815488895866e+00,6.721661635368091359e-01
2.638371917776637599e+00,1.497629563291175581e+00,-8.715780047095207372e-01
2.694928181064717876e+00,1.634489261507702906e+00,-6.962312381741755374e-01
2.633914642874498391e+00,1.561231584412953177e+00,-5.758852320968668170e-01
2.710568017588807610e+00,1.585149486036229627e+00,-5.165789529706055205e-01
2.662111830485517139e+00,1.558663953977459382e+00,-4.321831841767442839e-01
2.648004208148226901e+00,1.569556086566016084e+00,-2.619225008956883038e-01
2.736536883819797872e+00,1.646737022486032043e+00,-1.595222882127925457e-01
2.690803361340865063e+00,1.583117420187133417e+00,-1.726863921919077893e-02
2.672657501771685151e+00,1.654276261856314045e+00,5.207407794356386926e-02
2.731010155257755034e+00,1.641530365935955471e+00,1.616008640544827346e-01
2.627579080390166855e+00,1.602328445829360293e+00,2.686859004141396445e-01
2.668521525545594741e+00,1.593758040387977637e+00,3.558063926962710122e-01
2.760620871117139163e+00,1.653520471891193999e+00,4.940000041008128506e-01
2.684683646518848832e+00,1.617247490961578160e+00,5.222152466250943315e-01
2.626262670316128478e+00,1.605439565677270197e+00,6.786605747370121344e-01
2.561009347188599516e+00,1.592362337848153508e+00,-7.954984904832635983e-01
2.510325125166136484e+00,1.598373447942092573e+00,-6.637722576610010083e-01
2.511653960149196063e+00,1.562420815073040981e+00,-5.077399294297135768e-01
2.546648565124218777e+00,1.544336252298305512e+00,-4.437332930890145466e-01
2.568348308791701395e+00,1.578868812078980666e+00,-3.320761199663239127e-01
2.546004485656542027e+00,1.493485798185735458e+00,-2.851392545626780795e-01
2.501185218337418803e+00,1.545839595168131853e+00,-2.083595426306378839e-01
2.539790359228227157e+00,1.585695588768721631e+00,1.279301170367339036e-02
2.533667403959105169e+00,1.605164671310685964e+00,3.618355791941765820e-02
2.610511053310831553e+00,1.605558292462613501e+00,1.560019699307291507e-01
2.644895826001616879e+00,1.646631768343564062e+00,1.992267451445688398e-01
2.553757434238921320e+00,1.575667880948355304e+00,3.427430808679430285e-01
2.550095244880270506e+00,1.562723286140879964e+00,4.924786775927503246e-01
2.582039706421664693e+00,1.625577146877893897e+00,5.627411793633589898e-01
2.602420502841962691e+00,1.606577777926014194e+00,7.149732776330733897e-01
2.446529455531942787e+00,1.570999665120601074e+00,-6.835167521731186913e-01
2.480638073639351848e+00,1.569649310671067388e+00,-7.132705463081394637e-01
2.482017133343425108e+00,1.508622809352459626e+00,-5.927319558576906733e-01
2.483692877225247564e+00,1.532965312045476036e+00,-3.925211496765815822e-01
2.392089730570596373e+00,1.452198513103324595e+00,-4.001588151683850292e-01
2.450175075620117493e+00,1.528686136833023124e+00,-2.619427749728356902e-01
2.407718289945599999e+00,1.573695951815342386e+00,-1.473358230086646570e-01
2.421956326999533893e+00,1.597014650983896722e+00,-7.089818587407986650e-02
2.460695140805551961e+00,1.553683379893337158e+00,8.689464696380336250e-02
2.486714962628370884e+00,1.539975092499928477e+00,1.493823155774245959e-01
2.462188885223350887e+00,1.548319121551837929e+00,2.498602378999503770e-01
2.423828516735519134e+00,1.600565596551527747e+00,3.679200284109631625e-01
2.512533057045167162e+00,1.569067453912856180e+00,3.986468438273974568e-01
2.465067657701384807e+00,1.592532162060611656e+00,6.065984479423488507e-01
2.551677180441267456e+00,1.581987207622672198e+00,6.079194921170620880e-01
2.331681236574781213e+00,1.501628280831113438e+00,-7.464548467203718785e-01
2.331916901600197711e+00,1.530430375161082823e+00,-6.315739974926629641e-01
2.302828151735426321e+00,1.547257596951750802e+00,-5.416351934607296359e-01
2.318998530450762097e+00,1.575446193905366110e+00,-5.403086106697443380e-01
2.327556675187754109e+00,1.571684327163554551e+00,-3.782858169713481100e-01
2.415230405188420804e+00,1.534007961926567409e+00,-2.351687488477147703e-01
2.349666242649489423e+00,1.587188795614770553e+00,-1.963601584080912343e-01
2.319102142167260627e+00,1.566128094653986169e+00,-2.316339703706685876e-02
2.425255888596622000e+00,1.515758160596952120e+00,-4.235599427491067159e-02
2.261449362088562953e+00,1.589671832723592138e+00,9.609707432914339764e-02
2.367741292502540063e+00,1.554861954122123358e+00,2.599413543304520124e-01
2.304285003841730628e+00,1.560935270170570544e+00,3.346946799808911965e-01
2.349019778831011429e+00,1.566394062205556770e+00,4.480605090279325964e-01
2.390885636056613972e+00,1.538490996122298116e+00,5.336364716157898647e-01
2.456292426130174178e+00,1.546363040670542865e+00,6.400256004582393077e-01
2.259496896203411875e+00,1.487560910878544362e+00,-7.037364260502980695e-01
2.198944502574597060e+00,1.547225779995526906e+00,-6.017343226604198181e-01
2.276705783472168232e+00,1.520879254015185866e+00,-5.318669335623622541e-01
2.240516297887583885e+00,1.522343927259207863e+00,-4.347117758089577011e-01
2.290735409638543718e+00,1.518940856232511294e+00,-3.482638085088263225e-01
2.248166859494801439e+00,1.478049505994768476e+00,-2.664909922520359853e-01
2.248954323871418470e+00,1.576000843372352911e+00,-8.079971747108451174e-02
2.318029585762896083e+00,1.504834670884019232e+00,-1.230474507755065783e-01
2.341277532080483947e+00,1.435379959810550332e+00,7.327908246972439366e-02
2.172004866388620670e+00,1.510812095750173611e+00,1.377931612690532770e-01
2.262777829582016675e+00,1.592479092029345455e+00,2.710502214161816803e-01
2.292003074663266471e+00,1.577749948751523634e+00,3.799710588912067477e-01
2.313030361350286057e+00,1.481168456009662737e+00,3.978919689495968304e-01
2.266323579310363545e+00,1.527827842628068478e+00,5.230006089287849713e-01
2.278605944462329891e+00,1.590455759169904448e+00,6.824577233127526732e-01
2.190706574169776211e+00,1.488563803399737928e+00,-6.913467390052615569e-01
2.152121958052938488e+00,1.512518654702940557e+00,-6.259412379583069175e-01
2.134528467043727229e+00,1.437642953620187569e+00,-5.483633073011785486e-01
2.147668092995777656e+00,1.487585460348102684e+00,-3.640794267723851951e-01
2.168606729107350528e+00,1.510381304663731106e+00,-2.834020093448970656e-01
2.216079178732306421e+00,1.535194558481924432e+00,-1.855759686426168009e-01
2.042974745616204846e+00,1.486334090612548176e+00,-1.663240664197710994e-01
2.152026046466095188e+00,1.504191584965750783e+00,-1.231699754693518778e-02
2.183597129403810122e+00,1.462728082642879235e+00,1.020327514472228192e-01
2.124302938991589507e+00,1.438766176333608815e+00,1.469363332979687076e-01
2.263625628540461676e+00,1.616891442589257322e+00,1.921126351084272987e-01
2.239996673874421695e+00,1.532137744412546576e+00,3.061459155655006925e-01
2.308737373309779795e+00,1.566834103898732122e+00,3.761120845420877767e-01
2.295694370335398027e+00,1.509346885943225969e+00,5.312540890868462373e-01
2.245967135995042163e+00,1.542176497327520712e+00,6.241143818611959437e-01
2.052149244240649040e+00,1.561498175217105988e+00,-7.481146276607766321e-01
2.063333425159099122e+00,1.490688188238492140e+00,-6.191421824204401680e-01
2.131460129839008566e+00,1.445789006106226404e+00,-5.010634142861563056e-01
2.146866335890773581e+00,1.477344797541369603e+00,-4.297416322799924027e-01
2.105523593270961946e+00,1.556286158426570365e+00,-2.788183365233153355e-01
2.018474113380992474e+00,1.522164316737297129e+00,-2.784844809108172337e-01
2.095840481264083621e+00,1.534630091165150922e+00,-1.357931309307889300e-01
2.072290677669502923e+00,1.447111192917576616e+00,-1.180619403064760153e-01
2.150352491159675417e+00,1.546760326992686396e+00,-1.397434929585600338e-02
2.146729663752335426e+00,1.553547614577229563e+00,1.947062756164682218e-01
2.048822154991535971e+00,1.483482853089141074e+00,2.809026684108358873e-01
2.150872677859981152e+00,1.498831301338979349e+00,3.379418767620629427e-01
2.108986359699756008e+00,1.569908587310306691e+00,4.430430032062651624e-01
2.124783429347248731e+00,1.551631568644164405e+00,4.759248141059312931e-01
2.083576158986991889e+00,1.638425464959481381e+00,7.157879708155693299e-01
1.931343795600174440e+00,1.443787108492048610e+00,-6.605063633622457742e-01
1.981150571700620144e+00,1.447849547784531232e+00,-5.934667024236743860e-01
1.897554010957480441e+00,1.527741282395568279e+00,-4.454689928923093456e-01
1.998572615085571380e+00,1.458229611408812021e+00,-3.490514213292135182e-01
1.948287540322122924e+00,1.465172372911632159e+00,-2.877400961700299353e-01
1.925116738875010558e+00,1.456001843033019050e+00,-1.871972070568380109e-01
2.014086506057379378e+00,1.461669131376392095e+00,-1.006801710228065749e-01
1.999442036882541407e+00,1.546294816430809682e+00,-4.659888176427300077e-02
2.010438652549566108e+00,1.514346708956392673e+00,4.942203789310559148e-02
1.986852965748391764e+00,1.483997419826579067e+00,1.898486906321770473e-01
2.076091814774553512e+00,1.486206639962684095e+00,2.155611276902116569e-01
2.017562500295603911e+00,1.519060750304865648e+00,3.332882354077922882e-01
2.062352251619675059e+00,1.513881319109794177e+00,3.422074981538564264e-01
1.960683638373071469e+00,1.463820878355015065e+00,4.940846878850939650e-01
1.975521395527404467e+00,1.511702056042217857e+00,5.388510270602768770e-01
1.970090540308921057e+00,1.485531592955434688e+00,-6.799747302007648209e-01
1.947002659827764104e+00,1.466462366415822727e+00,-5.758068688698627646e-01
1.917112328191298065e+00,1.541344226828874397e+00,-5.602767522511188369e-01
1.897202145149543995e+00,1.430699053571117707e+00,-3.776471662992101908e-01
1.920129090426416330e+00,1.474843396255417494e+00,-2.839300038616172084e-01
1.959912666678278903e+00,1.431660564649316791e+00,-2.778629552219484267e-01
1.918422911639202200e+00,1.551395816120978211e+00,-1.515350881656898907e-01
1.828385199295139651e+00,1.468725150161511950e+00,1.521847808321714901e-02
1.997166600308195594e+00,1.427374404609811132e+00,-3.670621191074732725e-02
1.904002736195205658e+00,1.482860618536437913e+00,1.129974335725949380e-01
1.857022654408178930e+00,1.499152504484852155e+00,1.907978442304422151e-01
1.916990571515182706e+00,1.495740577924078663e+00,3.276823137645776818e-01
1.996023465579073397e+00,1.451153664902881113e+00,3.730377193864040097e-01
1.985750674971909380e+00,1.512544201026361224e+00,5.441033427096320096e-01
1.944918006911134700e+00,1.521952508462743214e+00,5.286005510082049108e-01
1.788970674939430072e+00,1.505660199722038239e+00,-6.996031685225250207e-01
1.857903719570091816e+00,1.359372482428768292e+00,-5.491126046453232989e-01
1.842510717564014966e+00,1.452328923526870152e+00,-4.075864582584171059e-01
1.823864945931000792e+00,1.460492655242630722e+00,-3.734299785323920706e-01
1.815603456001039007e+00,1.431049904303551168e+00,-2.739698584283342120e-01
1.867026544359275286e+00,1.440319180965909496e+00,-1.550487869549311559e-01
1.910222437521676531e+00,1.466576857528490541e+00,-7.417448533502181418e-02
1.869917189580899475e+00,1.516372538486900901e+00,-2.692524562713829311e-02
1.824976502923552513e+00,1.499611855003620819e+00,1.248134205631378987e-02
1.871408504434004749e+00,1.483837714689436149e+00,9.338654530475545834e-02
1.858945320676391511e+00,1.523138281133621375e+00,1.867944699253238916e-01
1.837184385323052060e+00,1.522971134445131547e+00,2.595620344349543474e-01
2.006175577069793547e+00,1.473328966040403198e+00,3.294561273008665414e-01
1.880208570467661655e+00,1.455322378907371483e+00,4.134997401525392080e-01
1.836301070058939722e+00,1.447977917955911131e+00,5.743572194529250607e-01
1.696640248035726772e+00,1.439054373126172015e+00,-5.760675503876855341e-01
1.827735141424333687e+00,1.505104864130887066e+00,-4.987748965771966470e-01
1.814932117052769245e+00,1.498256215851715867e+00,-4.760790952986125868e-01
1.781370050576356112e+00,1.429810347752312305e+00,-3.417045109904084943e-01
1.746970660241948359e+00,1.502646979326448751e+00,-3.274212693558388176e-01
1.844570019864781640e+00,1.511071575342820106e+00,-1.846301679413576424e-01
1.776242102092748354e+00,1.487971527650125081e+00,-9.743261546259915362e-02
1.837471876737584386e+00,1.409943059497694495e+00,2.569772519001396749e-02
1.831966994562045370e+00,1.545671268101644902e+00,6.200493711240154943e-02
1.888860335412463787e+00,1.532277635020768525e+00,1.106003087046116135e-01
1.790029824225596755e+00,1.445306868291951208e+00,2.329079645207550175e-01
1.860792942658073823e+00,1.450502946798244874e+00,1.873577957251377768e-01
1.737462361682272194e+00,1.464458332089813908e+00,3.558808879377992063e-01
1.804165404566391073e+00,1.470846955282776536e+00,4.748175625718908388e-01
1.794683958989590877e+00,1.420081423906214058e+00,4.905016391322148395e-01
1.686753358251402934e+00,1.379742551732078271e+00,-5.649267986096022653e-01
1.752916535142222676e+00,1.448967906390889349e+00,-5.127014493641283144e-01
1.749812435775454755e+00,1.347331011699361092e+00,-3.982834022876570179e-01
1.748930729317496269e+00,1.481919895709764345e+00,-3.279924596516822222e-01
1.796463040490711816e+00,1.436449847821933412e+00,-2.508564854519850229e-01
1.673942964209110595e+00,1.418105591796764875e+00,-2.055804410206463206e-01
1.701279331021476438e+00,1.479671249320263282e+00,-9.047507735669182982e-02
1.679853831020304833e+00,1.437393782964557110e+00,-1.928173087545722794e-02
1.769755039877609182e+00,1.455977939275585387e+00,8.947847699849567626e-02
1.780884332797955549e+00,1.486244602360737632e+00,1.402530567911628168e-01
1.820992668801881154e+00,1.412379426993717324e+00,1.656439098079345307e-01
1.766922112109454046e+00,1.450215110007595509e+00,2.534454745967169020e-01
1.746893179034727295e+00,1.398982782687674398e+00,3.816109440915385620e-01
1.746858251076373714e+00,1.495012916692278759e+00,4.683845030733344572e-01
1.743458449321522830e+00,1.390424535118641503e+00,5.877949057855686998e-01
1.617308457088377338e+00,1.432568068010354301e+00,-5.374950282219638220e-01
1.624214950869827589e+00,1.391402179022901420e+00,-5.101325577519570942e-01
1.701491265365056238e+00,1.398065726075763182e+00,-3.704409765269544574e-01
1.609582471507562840e+00,1.479962117230359642e+00,-2.603107463399175758e-01
1.641598366286667998e+00,1.464061612052278027e+00,-2.826443817080604437e-01
1.620357442494891886e+00,1.463045313777787904e+00,-1.122883019670021382e-01
1.725025471515678310e+00,1.480179751064907956e+00,-7.691391933369817746e-02
1.654219675563659564e+00,1.471451765761529806e+00,-6.378872459719493737e-02
1.702371712478328414e+00,1.425894516774471654e+00,2.686093177026662587e-02
1.684894442342068421e+00,1.414884898705261573e+00,6.775498318591116620e-02
1.720636781110295832e+00,1.487849467904877709e+00,1.668856556040003991e-01
1.675925409444763758e+00,1.431913390037725886e+00,2.544597403641741251e-01
1.731342419938061372e+00,1.405159074409907394e+00,3.394491041594931979e-01
1.700739873556302628e+00,1.356077939294261903e+00,4.233420085013392398e-01
1.742567383842329454e+00,1.490619442371338588e+00,4.906289206386964530e-01
1.698424830568807220e+00,1.438437107740002219e+00,-6.935602573241287372e-01
1.562371833144927891e+00,1.458528160252336336e+00,-4.519653348092342871e-01
1.583306800107453505e+00,1.387509096754925952e+00,-4.366936969507280719e-01
1.598506971059586279e+00,1.300641288317434752e+00,-3.386077259755273516e-01
1.599706535807957852e+00,1.486975283904841350e+00,-3.572624522133538982e-01
1.596641427202667440e+00,1.409812646566421357e+00,-1.381448263497420115e-01
1.610531508209638085e+00,1.357462045600166922e+00,-7.462304485159385048e-02
1.620269082357477908e+00,1.442130931239017588e+00,-3.325517431953172592e-02
1.567335222392186145e+00,1.449010163312298705e+00,2.852773711794615724e-02
1.617373470996247509e+00,1.448492973099577030e+00,1.321251505220888689e-01
1.569000050685112280e+00,1.431292533625487362e+00,1.580980742147413409e-01
1.577214455283789896e+00,1.433013892667874600e+00,2.705927969450214743e-01
1.603040797994115918e+00,1.414182531192583747e+00,3.312290576612478832e-01
1.649641355087533734e+00,1.437720570817029309e+00,4.536963692995985009e-01
1.624201436616176331e+00,1.437845380121328676e+00,4.653536950498667335e-01
1.578748544046944202e+00,1.420097788480414680e+00,-5.122309885148315090e-01
1.600196104881173254e+00,1.406932290561764942e+00,-4.713718013906267323e-01
1.520730664929027309e+00,1.428307234692643313e+00,-3.862794571040181202e-01
1.526457743211021789e+00,1.401936112859348826e+00,-3.768601384061161519e-01
1.492440719497386548e+00,1.421483408016674277e+00,-2.141002381970152912e-01
1.628106654863453295e+00,1.438729436248166182e+00,-2.100761450106512218e-01
1.611134485794845084e+00,1.372495414451433637e+00,-1.876653163568924032e-02
1.553606073246295072e+00,1.454944919849333829e+00,-1.217278388225987579e-02
1.591311897944486686e+00,1.379951093712959986e+00,6.543599903894628533e-02
1.536769610681389953e+00,1.421859894737742547e+00,8.763392755687174351e-02
1.569329335902082345e+00,1.510136482876187847e+00,1.386882243771240808e-01
1.511745359754335771e+00,1.411221959154189243e+00,3.028397146325996769e-01
1.583857851624476787e+00,1.397980334604545849e+00,2.343205351638948941e-01
1.613529539311059802e+00,1.390050245700450660e+00,3.888779113285070754e-01
1.624162396232677885e+00,1.418528022303090275e+00,4.728861733572983228e-01
1.556076246149326048e+00,1.383910098801489630e+00,-5.220994792388748973e-01
1.445365491831421156e+00,1.405421130063939872e+00,-4.953635808528216167e-01
1.512151188854836903e+00,1.366317453337073884e+00,-3.308987416877198773e-01
1.450448509021434074e+00,1.435550861680747969e+00,-2.951981148459381643e-01
1.470927888063615852e+00,1.408034829796352749e+00,-2.880727228895373915e-01
1.456477738988765314e+00,1.401696127743416787e+00,-1.905494443693192264e-01
1.432735070682899403e+00,1.424544257307816864e+00,-1.073032954336152894e-01
1.531006880925610547e+00,1.370009588663822386e+00,-6.198738617775752247e-02
1.553945613501352963e+00,1.449111656280520188e+00,2.938593034180723984e-02
1.468705661196847867e+00,1.446829403793236324e+00,9.241515565024932544e-02
1.533123139524887657e+00,1.428529948398326921e+00,1.815221425383987119e-01
1.447559688991634230e+00,1.407403669260048673e+00,2.133688488956033413e-01
1.456889451376369493e+00,1.403559614073670581e+00,3.768990364849654773e-01
1.494538492452859968e+00,1.476632811342065699e+00,3.872852571399806321e-01
1.552906657305468174e+00,1.358819128339544546e+00,4.866442241720264628e-01
1.372355085757202664e+00,1.330404682673348882e+00,-5.498854133867445704e-01
1.457725745366248438e+00,1.465484344715772824e+00,-4.444381761336601566e-01
1.453662810501889835e+00,1.357091734672745575e+00,-4.813916350537924549e-01
1.468263271827760619e+00,1.439475948764836089e+00,-3.662508007224707374e-01
1.412382766008072332e+00,1.416493956791435194e+00,-1.855041265489704438e-01
1.394629553963840252e+00,1.421990239512946674e+00,-1.729250793148566223e-01
1.450699410303249559e+00,1.390247045882728738e+00,-6.484810878811358981e-02
1.450083914213914360e+00,1.434741448921514007e+00,-2.168650499286885885e-02
1.492352630835136251e+00,1.347973433020506429e+00,-2.179439169569932777e-02
1.430728029912121446e+00,1.371286385402814778e+00,1.122347622599841610e-01
1.511516902140968011e+00,1.442620834913684202e+00,1.866102922454679347e-01
1.482638917620844987e+00,1.417517074325781667e+00,2.403348006033218243e-01
1.380741786834274398e+00,1.419632902543463304e+00,2.488755108487771261e-01
1.479910637027120224e+00,1.344215115767029900e+00,3.942103526877004938e-01
1.483884145965516099e+00,1.396387686945729234e+00,4.535717047704691529e-01
1.404022832310411584e+00,1.347104580290800158e+00,-4.949939618384504580e-01
1.353856701766264381e+00,1.284262159853581498e+00,-3.836842807293098789e-01
1.440812187861308713e+00,1.339438026349301980e+00,-3.327146838412334273e-01
1.418518618639895479e+00,1.394423642340789193e+00,-2.634657747716285248e-01
1.381682325209963702e+00,1.455071173818423214e+00,-2.363990684469664816e-01
1.416123991240196167e+00,1.356018549283778407e+00,-1.426327402730578897e-01
1.400565590162737628e+00,1.372952566304501465e+00,-1.348470076748414792e-01
1.414430272913584696e+00,1.367890620224086806e+00,-3.663706165468565146e-03
1.433588115043004096e+00,1.409041112616901126e+00,3.401573226447752313e-02
1.485855332515293226e+00,1.414999682470676978e+00,1.473762622095904917e-01
1.401256885467037305e+00,1.430064343859066778e+00,2.019908804614185538e-01
1.484000058878897299e+00,1.465807351810689330e+00,2.108064715971539049e-01
1.389397089266545260e+00,1.426304223193038512e+00,3.392943961250289853e-01
1.488785286442398936e+00,1.426680127750783678e+00,3.954500633132884690e-01
1.414380389298416807e+00,1.414892752215146432e+00,4.841867117958413846e-01
1.370580409984005765e+00,1.415913885441788089e+00,-5.224019754257147596e-01
1.421256803604607377e+00,1.399684687831694863e+00,-4.528650174866408196e-01
1.379408354436203243e+00,1.360589578056746074e+00,-3.052826763904314955e-01
1.401107712679993123e+00,1.357070970653291742e+00,-2.850723033341797663e-01
1.363744662051941781e+00,1.371550666771899296e+00,-2.477892326785939847e-01
1.314480367414680106e+00,1.395022057066131138e+00,-2.263932910353894101e-01
1.367851178949514024e+00,1.420755910398883159e+00,-1.504884005560387372e-01
1.398380169321526978e+00,1.430661323307650390e+00,-5.853813408922856065e-02
1.285187183539592271e+00,1.391648424594515543e+00,2.226574620091081869e-02
1.353387907828630166e+00,1.400322465831409069e+00,1.359597448853409329e-01
1.359487200089292802e+00,1.445027143204767883e+00,1.919251056693490054e-01
1.355055606243775967e+00,1.423476090537590055e+00,2.280875729352282999e-01
1.391753061907024858e+00,1.375817199716213191e+00,2.389081136602150268e-01
1.440236778619315094e+00,1.376602715794292608e+00,4.181606233166090814e-01
1.344090862663406938e+00,1.384823407439222942e+00,4.456551983795773442e-01
1.279723153914838818e+00,1.337568208251627588e+00,-4.952586216744471193e-01
1.298168680347737247e+00,1.388957547065547304e+00,-4.283310800134637053e-01
1.269967975552566575e+00,1.324223372065577831e+00,-3.455981402080409715e-01
1.253283903269509114e+00,1.366354672063935682e+00,-2.842394532553176312e-01
1.272497313775068806e+00,1.291840654174792880e+00,-2.280097597334772019e-01
1.276532893906085819e+00,1.341370773101726810e+00,-1.436956418333362462e-01
1.281774353474345984e+00,1.427006926181815238e+00,-5.795299721736667936e-02
1.298203458224895579e+00,1.378621506222809989e+00,-5.428921619565296730e-02
1.251492900619426196e+00,1.412061827422043114e+00,6.027572000994645129e-02
1.303274613686319139e+00,1.367393052401060682e+00,1.517433396811954938e-01
1.355573085930498411e+00,1.417313619557143411e+00,1.470681733468791053e-01
1.338542685864794635e+00,1.336607170302925862e+00,2.363827260038720290e-01
1.295478353670622251e+00,1.416167494837646812e+00,2.186231428012576361e-01
1.329238505717371899e+00,1.420607630335853244e+00,4.024310338580551205e-01
1.339951554854534210e+00,1.463391320007002117e+00,5.012622788825313869e-01
1.295523125808961451e+00,1.342561488581048845e+00,-4.937173391110477039e-01
1.269122307295683427e+00,1.338879765529080945e+00,-4.868445558584961197e-01
1.246351413820348197e+00,1.369970669353947290e+00,-3.321940690044177802e-01
1.253963344753451503e+00,1.389628863468070685e+00,-2.708162015255096144e-01
1.237629244819821839e+00,1.376248673061279737e+00,-2.219096664893174808e-01
1.316037290029124618e+00,1.302998119095095442e+00,-1.697024966344814756e-01
1.232151737194891572e+00,1.434942509104843777e+00,-4.008989773118504935e-02
1.319979014689478980e+00,1.337748740517491708e+00,3.983851793034152988e-02
1.203959489860647381e+00,1.323549945313982734e+00,4.220389772330673805e-02
1.340887131671164134e+00,1.342149387897969781e+00,1.311710010389152137e-01
1.272332135959054922e+00,1.403515514002944942e+00,2.022022893857247094e-01
1.222358180463888555e+00,1.405776370067195913e+00,2.283311697354391545e-01
1.299354972155724930e+00,1.410112556599309119e+00,2.934156546826857115e-01
1.240785380552135164e+00,1.396012231573034335e+00,3.211758045641567860e-01
1.258506563519277810e+00,1.393661457549294047e+00,4.217645576840313160e-01
1.198296960727876392e+00,1.355711553095759525e+00,-4.488857433536841968e-01
1.288915250569127924e+00,1.348573695399734707e+00,-3.707137705684942497e-01
1.219973626801367450e+00,1.391591756594055429e+00,-3.395372440713211315e-01
1.244787652038864989e+00,1.420253202398825909e+00,-3.224013514764869082e-01
1.276591452229848711e+00,1.341190902359447712e+00,-2.040391745550400315e-01
1.197347276964375373e+00,1.342610750481505244e+00,-1.454813168928895950e-01
1.262617012721626075e+00,1.339576557233862930e+00,-6.568106281499061505e-02
1.191820626276833828e+00,1.336981252570190071e+00,-1.882738804857379822e-02
1.168702338618234471e+00,1.352463966255969874e+00,-3.246952980120634824e-03
1.249980343111420922e+00,1.352232640812435438e+00,9.538392776017501351e-02
1.264832969541069607e+00,1.330324932214033362e+00,1.134281330705995405e-01
1.247910289616095847e+00,1.373516639540927287e+00,2.221944276416582542e-01
1.331782707030627844e+00,1.356487764617986702e+00,3.198596812979266901e-01
1.198558175179600838e+00,1.405059670677648587e+00,3.348154776116465392e-01
1.213063652727243813e+00,1.441465133899415996e+00,4.152420218535554652e-01
1.129249615564927200e+00,1.383421999012503179e+00,-4.991394823085467114e-01
1.174339134235520499e+00,1.395859935984794076e+00,-3.851894271511758783e-01
1.157609181705750334e+00,1.352866638015024936e+00,-3.515796905365287106e-01
1.224166179129990484e+00,1.330823776182641804e+00,-2.230595057443766072e-01
1.177825842107103060e+00,1.390493474820123421e+00,-2.638690596877731886e-01
1.120108355925366173e+00,1.386808068860897025e+00,-1.402286357450094334e-01
1.177466608003233439e+00,1.514458337572744506e+00,-1.067121987574842085e-01
1.206501167806365293e+00,1.314606106705137334e+00,-1.659491943287749044e-02
1.131957166589186770e+00,1.388772649420523697e+00,4.229365879983720128e-02
1.155122302549300484e+00,1.366997280110471502e+00,1.181981818567038739e-01
1.186443079421624525e+00,1.399551155853283380e+00,1.598612563045405943e-01
1.175211486905496372e+00,1.383018464291461358e+00,2.611732330570267768e-01
1.180790374523075226e+00,1.385380202807604100e+00,2.808827828120746273e-01
1.125083141469203962e+00,1.423205858166451732e+00,3.289261289747819617e-01
1.153338133271306409e+00,1.340361497040557071e+00,3.619922783570960201e-01
1.059835349870611232e+00,1.383086945118603861e+00,-5.208538299859793996e-01
1.087206368877401186e+00,1.279645133467486762e+00,-4.449560221788764203e-01
1.039094766222930177e+00,1.327460573874294170e+00,-3.531218882318035157e-01
1.058772405684176077e+00,1.360467211693697331e+00,-3.095158381327413055e-01
1.145788045809847500e+00,1.340265177705276090e+00,-2.189429500839514264e-01
1.166538400122488106e+00,1.340387042360588143e+00,-1.956378006192344976e-01
1.133587418851609074e+00,1.338855897863364897e+00,-1.270018881841197267e-01
1.112283402632082918e+00,1.370925648851498924e+00,-6.471446709575280620e-02
1.117686002857762873e+00,1.414574475835780110e+00,6.404065947294568240e-02
1.141333567506794155e+00,1.288041245045072891e+00,7.442422627001449298e-02
1.254990669125600977e+00,1.329907750750501938e+00,1.244326333140969437e-01
1.199485287203950978e+00,1.408549259113235141e+00,2.356712406272499782e-01
1.160283650282127654e+00,1.340630369528931221e+00,2.244759098603362479e-01
1.243388178146690226e+00,1.412471000547239175e+00,2.928808059531644581e-01
1.124419672850553331e+00,1.363364311927626193e+00,3.893881926443998887e-01
1.137863471477494004e+00,1.298719809527771218e+00,-4.067609873538987064e-01
1.130943566567121916e+00,1.268825974570593429e+00,-3.760810130919358674e-01
1.107519838926735334e+00,1.364298334922749989e+00,-2.633282391809556033e-01
1.090208898161351136e+00,1.408279074168782063e+00,-2.373245587784000021e-01
1.138119160524742712e+00,1.383236944237044463e+00,-1.941696561844068469e-01
1.105758081430399997e+00,1.414766074285907171e+00,-1.444781483662152810e-01
1.147220661964894806e+00,1.387831055622250620e+00,-8.280605044728513164e-02
1.146355125302923605e+00,1.330722830069720031e+00,-6.828723002140785203e-02
1.135786858231668806e+00,1.369136195956439872e+00,3.906945757953750320e-02
1.041071324373961993e+00,1.348865033740702435e+00,1.522392352882279698e-01
1.169443992421882683e+00,1.314239934231307583e+00,1.792449029104055958e-01
1.126181952043699530e+00,1.381565651613075874e+00,2.036442650128953424e-01
1.062721308698971301e+00,1.304731762159001995e+00,3.039952021071385957e-01
1.051496027860849836e+00,1.357525446246661716e+00,3.083008414293845756e-01
1.222125810149899738e+00,1.331036765293606372e+00,3.554663288690690370e-01
1.054027248670687866e+00,1.233179188409830873e+00,-4.548751049253798029e-01
1.051806338992580248e+00,1.321079986456094035e+00,-4.140789476547959702e-01
1.072161621823905175e+00,1.353570796646377472e+00,-3.272413331483787213e-01
1.073949411061920989e+00,1.317077730027648386e+00,-2.442282079762262692e-01
1.079098650648364188e+00,1.324914934560196045e+00,-1.678492745491418914e-01
1.061869771516455785e+00,1.347178178334690335e+00,-1.199507595496652201e-01
1.115952678054348057e+00,1.345141771139482634e+00,-1.074948028187383831e-01
1.062146803709717258e+00,1.325576378096518404e+00,2.602610824361497460e-02
1.062583202151222705e+00,1.265405885520747287e+00,6.136532276167434158e-02
1.037636513273424210e+00,1.424575918887162729e+00,9.489436014799582098e-02
1.025976419432599762e+00,1.372760124926708070e+00,1.518380202055928385e-01
1.003834083936423482e+00,1.292584147066669020e+00,2.231044706980638004e-01
1.092624015242014801e+00,1.344692297243410772e+00,2.818087484659263509e-01
1.099228224734826398e+00,1.301714770883015460e+00,4.094407855385753803e-01
1.080391469218819234e+00,1.370735255945137343e+00,3.083681703519610684e-01
1.090801807880875440e+00,1.406809381942764281e+00,-4.516282829743131222e-01
1.046684469183412958e+00,1.350173319835851427e+00,-4.361015653225968070e-01
1.005192885040305573e+00,1.325131578712584579e+00,-3.278953575556704525e-01
1.054188837182559180e+00,1.316653752711168801e+00,-3.022202282749039126e-01
9.981208804101755483e-01,1.379516611031991857e+00,-1.869250549221081747e-01
1.044374907147338494e+00,1.212780860489666601e+00,-1.530388771246049828e-01
1.115298980500553983e+00,1.337991987922197978e+00,-1.185417662330103955e-01
1.028719053104719450e+00,1.236585877661972921e+00,3.638970759028561930e-02
1.089023490424730456e+00,1.324401956308483230e+00,2.768373975088044003e-02
1.010458983662004373e+00,1.283469328722551817e+00,1.354543573692264802e-01
1.055229774467156156e+00,1.434780612486838081e+00,1.455804049026909186e-01
1.010515557917661678e+00,1.313143288989601087e+00,1.471575805112591007e-01
1.045535030313946567e+00,1.358927010148182513e+00,3.398122239596946259e-01
1.066905077135850810e+00,1.358750942504418191e+00,3.222630304900603315e-01
1.040443872431721761e+00,1.304334382634144252e+00,4.355355959554007561e-01
1.031161530786059322e+00,1.295584232614965581e+00,-3.914717787753889122e-01
9.519494750675213668e-01,1.344847462826803675e+00,-3.576779904501071194e-01
1.041020943798485421e+00,1.245138924906783462e+00,-3.369543657163617256e-01
1.001671081083246539e+00,1.368754178432530111e+00,-2.474775987533326671e-01
9.903083693606599125e-01,1.335513241090141356e+00,-2.071890887839049067e-01
9.396555217003940141e-01,1.376859516422132446e+00,-1.474831312137829531e-01
1.057027819355733200e+00,1.340462673244453118e+00,-1.165277087114395538e-02
1.041640801635333569e+00,1.331343205765086024e+00,-4.461584865233043928e-02
9.839061518454934596e-01,1.327348988269272834e+00,3.123231945114414432e-04
9.974666842907835562e-01,1.294803741494002125e+00,4.093917173891593875e-02
9.950492079779504895e-01,1.346450786195008575e+00,1.278920746501638894e-01
9.931054280832523062e-01,1.232507032682756298e+00,1.887056015315569657e-01
1.035587330788217519e+00,1.303214698629228341e+00,2.611323695331796979e-01
9.964043326691504054e-01,1.302794417871508292e+00,3.024238011216176525e-01
1.072471704351074528e+00,1.378151735307809211e+00,4.294904327761527307e-01
9.565289110524125560e-01,1.284144192671582863e+00,-5.027022569482094694e-01
9.342478489693343269e-01,1.443595202891335472e+00,-3.631254726460228510e-01
9.424127202521785929e-01,1.242859816757633240e+00,-3.166948801443674189e-01
9.534700239134618061e-01,1.375715387046208438e+00,-2.208498631356969333e-01
1.001688186558142402e+00,1.233080876590266772e+00,-2.147348664521921413e-01
9.432245125852812828e-01,1.320423896835567490e+00,-1.850434826400737254e-01
9.445552900639013760e-01,1.276247515279330447e+00,-7.326609307516041003e-02
9.862354583652449547e-01,1.307016028334137658e+00,-3.328143994327732030e-02
1.002828733210492818e+00,1.342346813107364589e+00,8.225507692993730413e-02
9.534649026941643957e-01,1.330346423709581671e+00,1.334468702978080235e-01
9.442349570962449423e-01,1.335072329819864789e+00,1.452196664550820249e-01
9.705976056024533394e-01,1.373646711020051203e+00,2.253189600437523477e-01
9.480700703407902719e-01,1.351478441454145418e+00,2.933974246507337069e-01
1.036015432173319928e+00,1.356764583043176708e+00,3.022067679095367665e-01
1.003554649402406573e+00,1.308688900696045598e+00,3.833074593702496258e-01
9.571578733949624995e-01,1.320933592743083640e+00,-4.160151054300991191e-01
8.774456308090690104e-01,1.293140196347735360e+00,-3.952243296024314789e-01
9.095300690885991246e-01,1.339785429531879180e+00,-2.759695176555520546e-01
9.225476214443606437e-01,1.255964775629439201e+00,-1.963412511338991639e-01
