-3.071944121052949117e-01,-1.212989372623402673e+00,-1.024371880263550416e-01
-3.768049360482123578e-01,-1.139706794425644709e+00,-1.838880354607743128e-01
-3.906404139661397990e-01,-1.114718566429119928e+00,-7.744650499052610493e-02
-3.414654043584632870e-01,-1.162244215763231336e+00,-7.285632341347070273e-02
-3.637911651524054490e-01,-1.134089381884642478e+00,4.739192613946310861e-02
-3.014655227625477329e-01,-1.131456439051953033e+00,1.262094527227604068e-01
-3.467351813818057016e-01,-1.197781775669764182e+00,8.324718063304002713e-02
-3.865450106544018327e-01,-1.154321665283652765e+00,1.799641742921776477e-01
-3.687235532558226780e-01,-1.081695488577543385e+00,1.686746015423114808e-01
-3.762186425232465492e-01,-1.152896220942260852e+00,2.322610396326689197e-01
-3.222157913398296936e-01,-1.132982277636165325e+00,3.029966627092627873e-01
-3.371643137230248555e-01,-1.075781044447954526e+00,-3.935309768710222866e-01
-3.430365914568212493e-01,-1.088797304497220342e+00,-2.509758914373252381e-01
-3.044983910400316796e-01,-1.067801000434482894e+00,-2.453922541578882344e-01
-4.190577101646937308e-01,-1.158825381668325605e+00,-1.680530599448652740e-01
-3.410881683474491499e-01,-1.060884822930984850e+00,-1.822041177967499981e-01
-3.363945090420407680e-01,-1.149863787187765274e+00,-1.281600442162131037e-01
-3.568908010249076668e-01,-1.057491105726280800e+00,-6.424371583372469330e-02
-3.563348854537633503e-01,-1.137860259031250543e+00,-1.841966669480157859e-02
-3.576910443276801188e-01,-1.099661528421698398e+00,5.218468412019977576e-02
-3.703342640795779794e-01,-1.126974311894538339e+00,7.186797318267343360e-02
-3.566837583216583285e-01,-1.175670909888067328e+00,1.288729447085005531e-01
-3.452958251384863342e-01,-1.051594221013311792e+00,1.376600130820993528e-01
-3.185645937195714650e-01,-1.096294682173106994e+00,1.595573195430953217e-01
-3.527331023899050177e-01,-1.139557850504487213e+00,1.873137066340865020e-01
-3.360441655204774447e-01,-1.116605651590096837e+00,2.697388768963114303e-01
-3.720863738733455883e-01,-1.114252442634981577e+00,-3.137016797807338220e-01
-3.524326561745194097e-01,-1.095741259221968633e+00,-2.829515021569478095e-01
-3.113131423052175606e-01,-1.057315119969282957e+00,-2.219289122963547523e-01
-3.509653504463797757e-01,-1.161489389189079180e+00,-1.688247244661979507e-01
-3.151319087076083769e-01,-1.066669388305849564e+00,-8.673814211833402732e-02
-2.864927315650885320e-01,-1.099070275618577730e+00,-1.282153608820329471e-01
-3.285759190344230696e-01,-1.110698987260569037e+00,1.074517638816326059e-02
-3.327749939476588592e-01,-1.074859680425952924e+00,1.530124758120886275e-02
-3.194191933890815349e-01,-1.132555153188553376e+00,3.962969514556612116e-02
-4.155841513565301515e-01,-1.111838502539197471e+00,1.207538071719440609e-01
-3.311541474888615721e-01,-1.051268050337620830e+00,9.616912369007520056e-02
-2.970843476429488317e-01,-1.138374420089907080e+00,1.388709857012117854e-01
-2.562478901804150500e-01,-1.177883128961986658e+00,2.655340721274082605e-01
-2.718653251529517534e-01,-1.109396142992860046e+00,3.310280126526047306e-01
-3.985020853914348349e-01,-1.145789613401682283e+00,2.710924515106382660e-01
-3.494176847487147075e-01,-1.081398421191009040e+00,-3.272585519820503386e-01
-2.214199440176800870e-01,-1.087649863612430323e+00,-2.868738371577405077e-01
-2.921088139033846676e-01,-1.067176310664307737e+00,-1.724979150968006525e-01
-2.591200794909701011e-01,-1.071969693274516855e+00,-2.719743136205133860e-01
-2.137635205041711617e-01,-1.089671982435243658e+00,-1.958081173732585945e-01
-3.413314405754636627e-01,-1.067721193664059598e+00,-3.387907024377208309e-02
-3.484132010729455442e-01,-1.074560910838143313e+00,-2.464260438766372602e-02
-2.985840322475423747e-01,-1.145280710944588165e+00,2.889728568105490863e-03
-3.279657071830459070e-01,-1.155506950656170373e+00,7.380421370114641222e-02
-3.417769874743143976e-01,-1.101689778660546848e+00,5.037949571597594850e-02
-3.556769155095195201e-01,-1.139621287120702320e+00,9.103672889656691525e-02
-3.372955000007070159e-01,-1.099975466984901562e+00,8.599408559474797098e-02
-2.928475921471485610e-01,-1.111787377190747605e+00,1.884240276082156662e-01
-3.007258452889536859e-01,-1.136733835950620941e+00,2.004560600445504936e-01
-2.481476585829315296e-01,-1.153554141567693980e+00,3.088084212140977947e-01
-2.706952765017184293e-01,-1.042976293217465766e+00,-2.839007131881085000e-01
-2.658906925447786507e-01,-1.139133442311744293e+00,-2.918669868065912887e-01
-3.097504658856632953e-01,-1.106002803042422045e+00,-2.238684413515246718e-01
-2.886531014139190887e-01,-1.163493495256785248e+00,-1.948872378935232741e-01
-3.002370198046829808e-01,-1.132920041548793222e+00,-1.518870099468145607e-01
-2.362815017253524219e-01,-1.110707882739915719e+00,-1.413081331157176046e-01
-2.628601600990717047e-01,-1.059802698225680295e+00,-1.519120919194242303e-01
-2.519594913086657950e-01,-1.120009578546698803e+00,-2.781436392335161559e-02
-2.896985592304889834e-01,-1.093638794084780042e+00,-4.061912332882465504e-04
-2.652182628845265455e-01,-1.217464816907228631e+00,1.727127962440939274e-02
-2.219165518098628886e-01,-1.248310997884478413e+00,7.573145884094292790e-02
-3.341193418038546081e-01,-1.147827842393026154e+00,1.204144499945696278e-01
-3.068854906182950648e-01,-1.079416798423855628e+00,1.781415221911722135e-01
-3.378372559534360553e-01,-1.091586653366173554e+00,1.833210520576629976e-01
-2.262788579410142664e-01,-1.089844501650054420e+00,2.822527773013880359e-01
-2.957066947730910278e-01,-1.138440932264157102e+00,-3.273282633178633549e-01
-2.491806728938286974e-01,-1.099211924444783328e+00,-3.106862282007292753e-01
-2.783251159292074450e-01,-1.119653678875717873e+00,-2.262243083892189199e-01
-3.745056234677611728e-01,-1.141927984173455757e+00,-1.472246678993029967e-01
-2.835254318774225180e-01,-1.080048820924734754e+00,-1.308110760129541084e-01
-2.858142061560948188e-01,-1.092102195636574402e+00,-7.949204576156584934e-02
-2.857639539313068244e-01,-1.190482991657054068e+00,-7.796156548812466225e-02
-2.462354763634342636e-01,-1.090327471620885280e+00,-2.000345756566307767e-02
-2.186784969070399431e-01,-1.143752172117438182e+00,-9.976606653104753281e-03
-2.759560985145121936e-01,-1.059429117891464323e+00,3.404530535566496763e-02
-3.332716411207307661e-01,-1.136477228630072611e+00,1.011991682355264793e-01
-2.916183355423537793e-01,-1.158665712525210001e+00,1.278581722192823900e-01
-3.190849716351403798e-01,-1.157643536714332066e+00,1.197237682884060850e-01
-2.740802576599662421e-01,-1.092906995941987258e+00,2.327483486416517811e-01
-2.585372601562196948e-01,-1.128261238172042491e+00,3.203691038844957428e-01
-2.433228549308835975e-01,-1.145795817778998194e+00,-3.223633763073003311e-01
-2.853617832085527106e-01,-1.084579787475553170e+00,-2.327307588546137507e-01
-2.292840824239428532e-01,-1.093083271455808969e+00,-3.497791812105027764e-01
-2.413213937022737343e-01,-1.112744439737403557e+00,-2.155860990484919082e-01
-2.316038053640284144e-01,-1.141962413202416871e+00,-1.143616012213917038e-01
-1.554138194581432542e-01,-1.127246285692341754e+00,-5.276305287079744583e-02
-1.999295388557114084e-01,-1.107499307715578585e+00,-6.064272905944279035e-02
-2.783258442881181849e-01,-1.073410708810785374e+00,-1.123696985071343107e-01
-2.599005770531518933e-01,-1.156691272437321283e+00,4.944401331041569508e-02
-2.695278666714903126e-01,-1.085443188435460060e+00,1.152632737436343202e-02
-2.996467310831219533e-01,-1.094040761809998985e+00,7.327737208577903005e-02
-2.405060241540605825e-01,-1.138281443956144834e+00,1.320794665312368943e-01
-1.881143208269210887e-01,-1.155811565922881368e+00,2.001425939304352641e-01
-2.809212966971412206e-01,-1.067893969637830454e+00,2.396648821944440400e-01
-2.409545641085667489e-01,-1.071467454484765103e+00,2.529478219997209898e-01
-3.890316202418335756e-01,-1.125133292178532418e+00,-2.769871353513643220e-01
-2.590267353859767585e-01,-1.086061749602883042e+00,-2.734666618598221577e-01
-2.615369668257955804e-01,-1.081313055004256896e+00,-2.258315828240924084e-01
-2.248996248411787302e-01,-1.116663472783726574e+00,-2.470839124727193248e-01
-2.454533131377933108e-01,-1.097795508669517472e+00,-1.292292139673250906e-01
-1.955055271566662201e-01,-1.033737306420801749e+00,-1.908308694098385661e-01
-2.306050546372911403e-01,-1.114908052269745209e+00,-5.785241597204753006e-02
-2.302204500754486405e-01,-1.066143153733024151e+00,-8.766886953152905337e-03
-3.042081864819287107e-01,-1.161164332334063243e+00,7.290465542342743077e-03
-1.946316710669396821e-01,-1.217665633072504416e+00,4.974243692512080733e-02
-2.362059926507320551e-01,-1.131887198132897066e+00,1.521974679861294588e-02
-2.596005066745698531e-01,-1.137440488229265689e+00,1.036426228858888937e-01
-2.557020738127189774e-01,-1.076024398215661870e+00,2.850570816164938459e-01
-3.041907604637994478e-01,-1.132739337338354524e+00,2.701048212412133775e-01
-2.143522510964703809e-01,-1.219023741072130518e+00,2.488626997017779618e-01
-2.106428679339839016e-01,-1.172824357810679841e+00,-2.311990455905235109e-01
-1.696125460532498241e-01,-1.095611295349714132e+00,-2.353519499530399017e-01
-2.445631430503016346e-01,-1.084752111695107324e+00,-2.331168086809600470e-01
-2.043580719393426615e-01,-1.059052763554834131e+00,-2.169816413933571275e-01
-2.773487128883388997e-01,-1.083366732325542481e+00,-1.413461348738953849e-01
-2.360327144766321827e-01,-1.140614958306167770e+00,-1.571743149877374013e-01
-2.771442864819435026e-01,-1.066890781670261967e+00,-5.044559707512272229e-02
-2.890308821345211610e-01,-1.075664789341264083e+00,-5.417032032428525240e-02
-2.309830329914125679e-01,-1.063957111898399033e+00,9.955615919245516809e-02
-2.594432864296751240e-01,-1.092507555999947311e+00,4.474561630772777576e-02
-2.551791705055260762e-01,-1.154618171541788252e+00,1.019460581370541241e-01
-1.605716924509729693e-01,-1.091571081270029664e+00,1.608557521055355155e-01
-1.847384104593582099e-01,-1.108643585690248123e+00,2.540305707159490334e-01
-1.901242056668283609e-01,-1.117265925268724480e+00,2.492633442778251496e-01
-2.819588491662089469e-01,-1.136998087474619501e+00,2.352194251802560143e-01
-1.018041239069310128e-01,-1.087249704294232844e+00,-3.128592172299023422e-01
-2.019573470072229815e-01,-1.141993611473249848e+00,-2.554773859109100709e-01
-2.011702796295962992e-01,-1.129793494565713097e+00,-2.033905488222162439e-01
-2.382612609497588851e-01,-1.089173178213232340e+00,-1.683124212993262481e-01
-1.658771600828793102e-01,-1.126332323391247003e+00,-2.041663249775604316e-01
-1.339555995607333849e-01,-1.092673315473508655e+00,-1.243227061533429822e-01
-2.771644195587091852e-01,-1.106197113906524754e+00,-2.878232374452698375e-02
-2.026062995211332651e-01,-1.118367148570301506e+00,-1.119916674668163664e-03
-1.347358300961666311e-01,-1.056903469525292349e+00,3.839880150357466437e-02
-1.820614323355613240e-01,-1.146606375785589549e+00,9.358317897761969650e-02
-2.051339828945591415e-01,-1.090676569532665452e+00,7.214819614590423091e-02
-2.195207111272915457e-01,-1.163234332707152818e+00,1.230881344958943968e-01
-2.196967900268279039e-01,-1.126016093613560365e+00,1.443855217542503733e-01
-2.080775298925525429e-01,-1.083768563712599775e+00,2.023118527089599328e-01
-2.349531630628963197e-01,-1.054154834758260550e+00,2.884790750640003343e-01
-1.820384408957441136e-01,-1.121878605963609443e+00,-2.952590926799423254e-01
-1.517173965228473809e-01,-1.104046687228039891e+00,-3.300835529989674666e-01
-2.162383232554153101e-01,-1.088087226511242900e+00,-1.788958501593868045e-01
-1.979694595569048421e-01,-1.135281632229103055e+00,-1.878263403432670064e-01
-1.409532330539605971e-01,-1.118127639492079828e+00,-1.392236721574861280e-01
-1.655107542823203437e-01,-1.145805368924377010e+00,-1.069698883742342677e-01
-1.627036681640784410e-01,-1.061277808150343782e+00,-8.076306204031843961e-02
-1.815769707232193775e-01,-1.062535844541222518e+00,6.741253936045642908e-03
-2.369167946134953517e-01,-1.097974926171823240e+00,8.549774954891160850e-02
-1.829665695554822669e-01,-1.110100319240342248e+00,-3.044259674783621195e-02
-2.058157822594441355e-01,-1.083425046298829075e+00,1.131803422852948604e-01
-1.345632451201582702e-01,-1.072397897309669723e+00,1.572916342911694076e-01
-1.541012574209701391e-01,-1.179108514360835080e+00,2.344099521321652280e-01
-2.071332570980439491e-01,-1.060049041443675399e+00,1.767663986318230851e-01
-2.099326751099952482e-01,-1.111725883633282841e+00,2.617492533446791336e-01
-1.438729184387360083e-01,-1.059547305270745809e+00,-2.654277718576573686e-01
-1.832815861774751975e-01,-1.087607713190479553e+00,-3.123237143567265672e-01
-2.127861848941729472e-01,-1.115143055446618847e+00,-2.220220455874810095e-01
-2.226646950652600709e-01,-1.091922731919417799e+00,-2.144664157061319520e-01
-1.716949272267194182e-01,-1.121432534727453412e+00,-9.274474433630092163e-02
-1.800089272957306474e-01,-1.134585550849483093e+00,-7.396421948465961571e-02
-1.143930293639208312e-01,-1.118891254233437937e+00,-1.347123568578358632e-01
-2.011376792495803423e-01,-1.162192681952859186e+00,-2.109302018255663352e-02
-2.355346232759509828e-01,-1.114035379783839819e+00,3.121420961857641896e-02
-1.390467499555056163e-01,-1.099418618363123823e+00,7.389058469022383169e-02
-1.195343432094147090e-01,-1.060640401147815437e+00,7.108756642266705894e-02
-1.626444382792917587e-01,-1.067391298427096791e+00,1.606089882344056974e-01
-1.201385194732061540e-01,-1.087588012723661901e+00,1.842025788873850045e-01
-1.029629971549962525e-01,-1.135160228251214987e+00,2.021465480461438202e-01
-2.012129704446586898e-01,-1.164658017331258399e+00,2.117307226730199832e-01
-1.134581076419636236e-01,-1.094516063756885149e+00,-3.070410058057216340e-01
-1.366165458217958317e-01,-1.095536963065132818e+00,-2.455692393374980242e-01
-1.606636032572417438e-01,-1.074273683692510861e+00,-2.636045375331487195e-01
-1.144882755270444363e-01,-1.105281508176332972e+00,-1.763512587781120022e-01
-1.688682909244810515e-01,-1.168625014117750771e+00,-1.472721558605848136e-01
-1.669115566912120485e-01,-1.138000798633083344e+00,-1.567542101369854557e-01
-1.709309688686900253e-01,-1.057878032426937898e+00,-9.767472957739531392e-02
-1.547360531184269750e-01,-1.126478382759795949e+00,-7.610367145716770421e-02
-1.028601706944883426e-01,-1.171019186565980696e+00,1.491126038765389766e-02
-1.784085877738535719e-01,-1.108401561005015967e+00,3.509828477424110915e-02
-1.954448126259748508e-01,-1.102106229651648173e+00,7.550182753808044878e-02
-1.926711964283533973e-01,-1.138857504727608827e+00,5.762238404549460680e-02
-1.951113819750737721e-01,-1.173358187919954387e+00,7.718267781148986650e-02
-2.208416978075672110e-01,-1.111352062025903642e+00,1.701211850836640838e-01
-1.362200037620957815e-01,-1.170996851776139103e+00,2.925306917233456705e-01
-9.318535255254280225e-02,-1.089993884747546105e+00,-3.029221665649048933e-01
-1.229241124897429011e-01,-1.097305419462892173e+00,-2.676613929706113670e-01
-1.601380098210233860e-01,-1.037916874500105280e+00,-1.570414793824714550e-01
-1.646216267984648152e-01,-1.157571398130911255e+00,-2.452552442691436629e-01
-1.509211498035974153e-01,-1.143726093318956805e+00,-1.223617659930611723e-01
-1.423420151771601638e-01,-1.135772730578423095e+00,-9.463995365786373459e-02
-1.402405078001253969e-01,-1.084422913934708799e+00,-4.908253740762571343e-02
-6.808927382280639817e-02,-1.106804523622064051e+00,-1.229208357514574579e-02
-1.646725496422230262e-01,-1.119514475013605903e+00,5.702830784647865831e-02
-9.442833677400910841e-02,-1.086439609871682643e+00,6.922058061434908927e-02
-1.623727099885231562e-01,-1.134020443962965308e+00,1.074871096491283040e-01
-1.809131158142917861e-01,-1.088220811063442817e+00,1.342509477172927901e-01
-9.862778658702080203e-02,-1.128868525315829485e+00,1.824789932884784138e-01
-2.149594973447677693e-01,-1.190168885884789418e+00,2.781066246244057738e-01
-1.084666755026066076e-01,-1.047838448844683024e+00,2.788116110078052712e-01
-1.285929919786951703e-01,-1.147256179806821486e+00,-3.526145079356373113e-01
-1.363936477487614485e-01,-1.084303393033859919e+00,-2.579609355945534643e-01
-1.348814889944091600e-01,-1.103882978907583245e+00,-2.682675853724734716e-01
-1.407137809281811258e-01,-1.042455787764038133e+00,-2.345411539227238162e-01
-9.210755563635111831e-02,-1.021170814838623819e+00,-1.484268527643306801e-01
-8.709633933681701357e-02,-1.117284851888618258e+00,-1.414289415719057752e-01
-7.303389674789373398e-02,-1.144260977304589755e+00,-1.095468164102182951e-01
-9.687547986961163315e-02,-1.030458887821918301e+00,-2.841067911523161016e-02
-1.227653610760924552e-01,-1.031646218172660667e+00,6.950350509739075533e-02
-8.948316020134966520e-02,-1.165193716857094053e+00,8.859154918257261535e-02
-6.676966954437726920e-02,-1.112626972915399248e+00,1.297886936614853770e-01
-4.999972062427872344e-02,-1.106899082509202659e+00,1.948055651947922517e-01
-5.533133254946534518e-02,-1.144490331746729206e+00,1.443181191056988055e-01
-9.319931738033711277e-02,-1.102096310193444673e+00,2.131757177325968033e-01
-1.431247130938131940e-01,-1.109403553274286969e+00,2.642585830541470671e-01
-4.240689071405227828e-02,-1.075633421238160858e+00,-2.619226984820992588e-01
-1.203313906889551949e-01,-1.101324803140683928e+00,-2.903328077905464877e-01
-1.666724190088914592e-01,-1.125739570381065757e+00,-2.137934622148390806e-01
-1.110111761493002142e-01,-1.092255615268943547e+00,-1.822129527411954775e-01
-6.660936937611935948e-02,-1.148281399324244667e+00,-1.956572380960792668e-01
-2.237446804342872742e-02,-1.030659535050237219e+00,-1.357191381867383362e-01
-1.471569649472036778e-01,-1.063575930361526645e+00,-5.386047134447208284e-02
-1.189738895328877333e-01,-1.104119469618348504e+00,-4.356576887740415058e-03
-1.352147355476874535e-01,-1.100828793921776905e+00,1.272708550343415734e-01
-1.318633781572127739e-01,-1.010649013532771034e+00,7.547203485743492202e-02
-1.443483460785051076e-01,-1.140477242978691574e+00,1.124319730098838344e-01
-7.814702670518169914e-02,-1.106776735187409599e+00,1.514346009299383788e-01
-1.633557300910738752e-01,-1.183492865997855192e+00,1.157870601574165215e-01
-1.303082524165009304e-01,-1.053674306972959274e+00,2.288511214517182923e-01
-1.705763937254500817e-01,-1.149132798596128824e+00,1.802875767411581953e-01
-1.246552998954739977e-01,-1.093096414534934002e+00,-3.595812492138921734e-01
-6.622025379434479109e-02,-1.036205925533265626e+00,-3.056800906842365162e-01
-1.105069126711255706e-01,-1.129885688337939564e+00,-1.808462861291496859e-01
-1.178183716460819153e-01,-1.056178344713149864e+00,-1.858157651358946505e-01
-9.864800130618427143e-02,-1.085184169381253394e+00,-1.473846387278548720e-01
-9.218113729277815915e-02,-1.075627525346362523e+00,-9.060429771228591111e-02
-1.143811807614444759e-01,-1.038820400075201045e+00,-7.733224755780998549e-02
-1.078035001214610045e-01,-1.172400015472822243e+00,-7.131298547914581565e-02
-1.016157060699216658e-01,-1.112239791178804449e+00,2.438637783697897646e-02
-9.071858210708137749e-02,-1.200342009766754980e+00,1.045556309501382564e-01
-1.348311812464186021e-01,-1.065050703582632874e+00,9.626273480482230860e-02
-6.290695269273320622e-02,-1.128490440230373704e+00,8.862392061169474533e-02
-2.603888321754106727e-02,-1.169817202336753459e+00,2.059799896148519494e-01
-7.445124371195557811e-02,-1.028876524879902554e+00,2.723275781964509257e-01
-4.586261656805110110e-02,-1.115192014701278156e+00,3.073141282850410660e-01
-6.234083739275476932e-02,-1.089803467735401821e+00,-2.819381784211590358e-01
-4.205803029744858285e-02,-1.049617075771874797e+00,-2.445015463196449357e-01
-7.009605773483526536e-02,-1.106243619588167970e+00,-1.934739940670094638e-01
-1.009993522132128924e-01,-1.115173371684740067e+00,-1.697404258775200014e-01
-1.018221798402816208e-01,-1.116412893544243667e+00,-1.104311507651245250e-01
-3.571212599023982498e-02,-1.081790387662631581e+00,-1.002292141671603659e-01
-5.011258081069946968e-02,-1.109151604770208799e+00,-2.396248949450140164e-03
-1.399655074396612409e-01,-1.089268208705463259e+00,-4.392155286694737759e-02
-1.003986507784839499e-01,-1.120858209907306557e+00,-3.257862011707185479e-02
-9.175881066726740420e-02,-1.119032870754846920e+00,3.911626117866719154e-02
-4.432876920697843837e-02,-1.067654476472445602e+00,1.335174840863949108e-01
-7.260767330906511829e-02,-1.086183049692513780e+00,2.014198555847590000e-01
-1.278717413230318622e-01,-1.155147471766503564e+00,8.854057405846432749e-02
-9.370544822120534245e-02,-1.024367393129811843e+00,2.210524076828022377e-01
-9.082836377858152788e-02,-1.128754999282636451e+00,3.016817254024181105e-01
-1.544219279224506858e-02,-1.114418162808085810e+00,-2.872143188960404325e-01
-5.752740910273530101e-02,-1.104190429692976760e+00,-2.714719827449952327e-01
-1.126484642729503882e-01,-1.149204872152498114e+00,-1.727789567287586758e-01
-8.367158113881212333e-02,-1.081176607877037510e+00,-1.199747372570772741e-01
2.694796463043461210e-02,-1.154932372246370464e+00,-2.044259611676428612e-01
-3.045711896486598402e-02,-1.105434767092873471e+00,-8.845966760105579418e-02
-6.033133013201579659e-02,-1.114432709874331184e+00,-1.103902425960219258e-01
-5.148427470356876923e-02,-1.129398417423016721e+00,-3.765206536200407794e-02
-1.233504288660857706e-01,-1.096373249165566888e+00,1.489978740400830365e-03
-4.724240554349695004e-02,-1.077351666866850133e+00,7.546981073095372639e-02
-5.964415154603998348e-02,-1.119578406319391206e+00,1.539007356721641129e-01
1.460897182060376387e-02,-1.168625110975185288e+00,1.372186695256029931e-01
-3.404034215859043366e-02,-1.145134942352284746e+00,1.058274915861336096e-01
-7.852336062176315523e-02,-1.109845650099256398e+00,1.603567996449679345e-01
-1.768981734643204629e-01,-1.123819657545889417e+00,3.174565595172296195e-01
-5.717135127267070765e-02,-1.078512789059825838e+00,-2.345442976670013557e-01
-3.706679448149759193e-02,-1.206760472839967679e+00,-2.609655963582179772e-01
-2.823096791148368631e-02,-1.131205741540608045e+00,-1.729604394581686355e-01
-3.600969095210759807e-02,-1.086443721417391206e+00,-9.494439401197581063e-02
-1.273659493979537038e-01,-1.103763716007110984e+00,-1.373759419692394956e-01
-4.727848725391873425e-02,-1.126805216448543367e+00,-1.007633275819992125e-01
-7.862485655522188921e-02,-1.085307382798754494e+00,-7.707256735066425613e-02
-5.643039018790729083e-02,-1.162352512215455880e+00,6.871814558913013488e-03
1.214602614096235711e-02,-1.103185869947808095e+00,-2.397283064134834996e-02
-1.617983526054515495e-02,-1.180320471764510160e+00,7.903017313434193558e-02
-5.318145131833423855e-02,-1.171052212131304060e+00,6.838385180576198041e-02
-3.941490910754453375e-02,-1.143006545555903086e+00,1.113469313029766816e-01
-4.346111248903990198e-02,-1.049706056846842817e+00,1.412615318207105508e-01
3.106603018365679258e-02,-1.118465601930562103e+00,1.996878559389803354e-01
-6.174553720881703622e-02,-1.076938052422400371e+00,2.778919024507855440e-01
-1.713457182704045123e-02,-1.034338591907546290e+00,-2.285452064752676316e-01
3.548045547268077748e-02,-1.098613583905906133e+00,-3.060906946971224674e-01
-5.162865042477313149e-02,-1.078352342386852403e+00,-2.338456032362737913e-01
-7.746812500752078834e-02,-1.091915531365929004e+00,-1.445091500442857724e-01
-1.975138883108479987e-02,-1.129238162579751847e+00,-1.360966707333363945e-01
-5.188398546686748269e-02,-1.104956021260818710e+00,-4.812950244116948745e-02
5.742505528032186557e-02,-1.072905791808056009e+00,-6.779296875201634709e-02
-3.891498033930591849e-02,-1.055215770644394979e+00,-3.687850416133209297e-02
-3.369133938993539717e-02,-1.079419954694534223e+00,3.270197567692596785e-02
-2.168144223779563950e-02,-1.096337931076103001e+00,8.657289286944561124e-02
-8.119743588275010748e-02,-1.095624197331182881e+00,7.465052924614987151e-02
2.057706667828721608e-02,-1.102399889896616525e+00,1.081512748619641168e-01
-9.997525485413775309e-03,-1.036306916390467681e+00,1.640459777179161804e-01
-6.583904035823823220e-02,-1.221086536455916693e+00,2.139412040936633785e-01
-2.590315077094914459e-02,-1.111420319089974740e+00,2.872263367644204424e-01
-2.033339942292430175e-02,-1.085121255105147453e+00,-2.909479982761660199e-01
-5.316623148031477536e-02,-1.164909059217689835e+00,-2.790645121394123573e-01
-3.822269411815427953e-02,-1.106947108515541789e+00,-2.334625588337154167e-01
-4.299301950743165956e-02,-1.116551515767366221e+00,-2.040034750446483580e-01
-5.200879640239728513e-02,-1.094735257342482004e+00,-1.308627424178480381e-01
-7.271404599558772830e-02,-1.154599653041850527e+00,-1.179814914699517381e-01
-5.496571712603313953e-02,-1.090624559303241314e+00,-5.200868522913691672e-02
-1.144093719034877318e-03,-1.111682411159409911e+00,8.175462104024476540e-02
-2.187812854598216242e-02,-1.000928893322700741e+00,9.358195371106059479e-02
-1.007902651109702542e-02,-1.079071066534381895e+00,6.864273708352962300e-02
8.719116606622830806e-03,-1.066215178180871082e+00,1.379427160365101213e-01
-7.453523278812156094e-02,-1.080060691873824252e+00,1.508876850829007632e-01
-1.124158763701699551e-02,-9.965916842418250932e-01,1.798264741632242536e-01
-5.110011867886796524e-03,-1.009716286559953380e+00,2.110899207315487802e-01
-2.729212886337967908e-02,-1.103370439960796645e+00,2.451032845863123921e-01
-6.545795449150742726e-03,-1.067843515898403872e+00,-3.207101669600713745e-01
-5.029009041446417388e-02,-1.067314959282863018e+00,-2.268391109652622695e-01
-4.310054219500660672e-02,-1.049140454232870390e+00,-1.629589601785282893e-01
-2.545213100498289541e-02,-1.145474985942102064e+00,-1.928347971939471106e-01
6.154103886096173176e-03,-1.109835897362341894e+00,-1.919750444248794485e-01
-7.502406624627787346e-02,-1.133479250293653706e+00,-8.806646060083733740e-02
9.301936922407631411e-03,-1.091772553141844293e+00,-6.593738368878107603e-02
4.087554056236755023e-02,-1.113219604737752721e+00,-2.687017417822174653e-02
-3.010311614836087835e-02,-1.142938488701181310e+00,1.414253045484769461e-03
4.100681224391126978e-02,-1.064347098680956893e+00,5.767641321771554280e-02
-6.624102079273644708e-03,-1.084593049755090632e+00,1.503358855802512384e-01
-8.889555507388451072e-03,-1.088152329404663998e+00,2.505606423747150924e-01
-2.631990576896870229e-02,-1.044892676396206532e+00,1.452005634387961430e-01
1.616676971233154889e-02,-1.079704861569375174e+00,2.259185594821120635e-01
8.027828133895506535e-03,-1.131296490101886265e+00,3.039446110700748660e-01
5.091753510676864936e-02,-1.131581366799617294e+00,-3.095089642721860490e-01
3.730402512180851227e-02,-1.079263849930924168e+00,-2.446127985696205653e-01
1.446854685624981429e-01,-1.111309909215153491e+00,-2.631044092359258735e-01
-6.674720054676282210e-02,-1.073683626459050799e+00,-1.389250818168101254e-01
8.266106017218573243e-02,-1.033558827914555778e+00,-1.533698451698638499e-01
4.476444343087170041e-02,-1.068084891146437787e+00,-9.693222113102727133e-02
5.101628259229204487e-02,-1.061499711101514531e+00,-4.352034814336790125e-03
6.774219013874625134e-03,-1.035187370393483297e+00,-1.425468982949827483e-02
-8.832408455685381715e-03,-1.091044863298485712e+00,4.482905456081759388e-02
1.565383382350209532e-02,-1.065484593315007888e+00,1.170737216052339380e-02
3.864426846293986945e-03,-1.066219487598342397e+00,8.345005803472198280e-02
3.276823661643902402e-02,-1.151565066996425912e+00,1.307128254012671909e-01
1.032822157047816602e-01,-1.049823338781822546e+00,1.840854836067559175e-01
5.974172787024731313e-02,-1.184462360887569510e+00,1.667814718850552935e-01
9.431169348682565123e-04,-1.021577347496648747e+00,2.884297097589206826e-01
6.451523547064622055e-02,-1.052429349351883037e+00,-2.274479369211218072e-01
-6.618589096206578537e-03,-1.041414776223142713e+00,-2.632912308180745398e-01
8.905254407112389581e-02,-1.136964780741292591e+00,-1.972147387108193761e-01
-4.204117240787547116e-02,-1.099748698848565631e+00,-1.146416434778735755e-01
-2.031498288486907611e-03,-1.075532436167249362e+00,-3.698786479619244061e-02
3.493578279901927985e-02,-1.132909181575078028e+00,-7.222723205336624430e-02
6.458833779566355848e-02,-1.162386091083086992e+00,-1.478240045174065986e-01
9.271663049981310190e-02,-1.107777189895657433e+00,-4.346074235994232260e-02
2.352650297155127468e-02,-1.087833813327322208e+00,1.045567960844329819e-01
8.734513406725050166e-02,-1.145664463968380398e+00,7.163137160021375294e-02
1.139031822772369751e-02,-1.143850636697416379e+00,3.726601752596327838e-02
9.088424818020501839e-02,-1.055896573302176122e+00,1.542097675188805472e-01
9.606047997725894461e-02,-1.108678183489150815e+00,2.079124394614831339e-01
7.738481341675239322e-02,-1.152361699405358930e+00,1.637783243552592971e-01
1.239552205770324406e-02,-1.066071723327411958e+00,2.031511794124528092e-01
-7.035389756678951667e-03,-1.125089815321716369e+00,-2.269270666871744946e-01
6.683733673976080536e-02,-1.100357399524205748e+00,-1.563068347509808109e-01
5.979246479800463809e-03,-1.075587066297076122e+00,-1.880414189923752255e-01
2.536572564054952877e-02,-1.152247133629757725e+00,-1.899597178277208087e-01
6.530653942395971134e-02,-1.068769906796423808e+00,-1.234515764846136482e-01
1.123770886292374815e-01,-1.052937910132966781e+00,-5.742782251934766546e-02
2.027999247843510766e-02,-1.132255364179715729e+00,-5.443189651577129418e-02
8.238292505184093006e-02,-1.115970502188675217e+00,-1.897914109313402625e-03
1.294753764812762997e-02,-1.138076391355187456e+00,5.503014840732258633e-02
8.806306810202058077e-02,-1.068073393385805536e+00,7.013962659192811422e-02
-3.483044516631338128e-02,-1.093587967054065579e+00,1.058752631739198202e-01
5.596239910567939180e-02,-1.078537427599870258e+00,1.187784893337938963e-01
6.543820481835369018e-02,-1.112458992813319059e+00,2.206001970857211780e-01
4.910631018052269425e-02,-1.130152659543656402e+00,2.445155184123830872e-01
2.294923455943146187e-02,-9.895295159235176774e-01,2.246413664984739378e-01
1.280182171714424610e-01,-1.057614139254513752e+00,-2.534840487979743706e-01
-7.634144617147634038e-03,-1.087552553991107063e+00,-2.759523880625973091e-01
2.769146254297243787e-02,-1.078589201904470496e+00,-2.085637381433937676e-01
1.430355722910504612e-01,-1.062131877567451976e+00,-2.356172042042165848e-01
4.071945912851332450e-02,-1.040635532401818608e+00,-8.111692736977471618e-02
4.929631701332492372e-02,-9.761320209187911434e-01,-1.435278364192164036e-01
1.110918630970702953e-01,-1.147924489646011237e+00,-7.444104022152205069e-02
6.672491670013494525e-02,-1.047848147036803290e+00,-2.382659847543187881e-02
1.214501593323144418e-01,-1.132544157444667743e+00,3.378309554668833953e-02
8.016626512944655114e-02,-1.137742485918642688e+00,6.086039091079323282e-02
1.400917641603919295e-01,-1.162836413127337654e+00,6.153672325683383348e-02
7.171094061775543094e-02,-1.064966019847873868e+00,2.008723652600245824e-01
7.200056248455337371e-02,-1.093596720797843203e+00,1.917918150533624022e-01
6.518563387906566031e-02,-1.134711186319284471e+00,2.397372732277427698e-01
1.401811946485333749e-01,-1.220445533046932596e+00,3.144396703940143256e-01
8.545223097698302628e-02,-1.097608145412204195e+00,-2.793955232533442690e-01
1.044233866074993355e-01,-1.050588915192893769e+00,-2.009475677436677321e-01
1.249662418964790772e-01,-1.077955346357788668e+00,-2.086745927773402398e-01
8.040719877928266535e-02,-1.057519175982462034e+00,-8.618169605961834012e-02
9.563377777394618806e-02,-1.086149379535451542e+00,-2.092522621835947727e-01
6.094030999157770689e-03,-1.081205316420731144e+00,-1.455578181571882679e-01
4.043250930276053035e-02,-1.080119949408153479e+00,-8.389016772984529691e-02
1.206036409421860078e-01,-1.142288237243122229e+00,-3.651014547693133550e-02
6.757367092451292689e-02,-1.081555505907925596e+00,9.349040172601902343e-02
1.096221815148333001e-01,-1.060565468873092332e+00,4.544972710126111981e-03
1.240937743093979695e-01,-1.089262630613214267e+00,6.701175774161721721e-02
1.171013152065202845e-01,-1.156106380121590060e+00,1.712318971165817938e-01
7.592823566593467910e-02,-1.166992554217129330e+00,1.593438204764889565e-01
8.212258044450347627e-02,-1.097238927887302928e+00,2.283018238217335849e-01
6.657791140455873724e-02,-1.000629621385887624e+00,2.203728714250188514e-01
8.872677345145192629e-02,-1.122216602817401210e+00,-2.488779453833409594e-01
1.333319795724511314e-01,-1.003070663956201480e+00,-1.566040781098816670e-01
9.896824206794509193e-02,-1.098533593964746258e+00,-2.179227997858930177e-01
1.199884359448255833e-01,-1.133790688206512964e+00,-2.260123967121291377e-01
1.184693562950480811e-01,-1.131350617943129633e+00,-1.196745618451019871e-01
1.220519987178947524e-01,-1.108036910199158065e+00,-4.872524717435805508e-02
6.470448702345724112e-02,-1.097308851544152697e+00,-9.520550046881562367e-02
1.639039051022327942e-01,-1.076062510936949268e+00,-5.201598793923795788e-02
2.196669335468112716e-02,-1.170495256342382495e+00,-3.803015826641248376e-03
1.362347343218098250e-01,-1.055320519784090694e+00,5.577990965642823373e-02
7.977043271533827695e-02,-1.110409361937931605e+00,1.302824940357083794e-01
2.646426143282465393e-02,-1.114729892396038036e+00,1.012051742640249219e-01
1.595368172704935139e-01,-1.091622810576464930e+00,1.498957210818638308e-01
1.578501826010390297e-01,-1.065612537321954489e+00,1.720866297084534535e-01
1.729442479100677388e-01,-1.093795429799215846e+00,3.260665130201119699e-01
8.977798345582199691e-02,-1.054262606220317533e+00,-3.183580891859415507e-01
1.251709529281281597e-01,-1.016025561920707032e+00,-1.909874035305165751e-01
7.635245023379849671e-02,-1.072754512070938748e+00,-2.256263819246361046e-01
1.367590392163606505e-01,-1.109649130697779373e+00,-9.870430358112387836e-02
5.775620620131483030e-03,-1.088520112652336502e+00,-1.285810202180415474e-01
1.505184858811740023e-01,-1.160089878168662603e+00,-9.390035856805575842e-02
1.503327634213411645e-01,-1.122205010222825816e+00,-7.115364918117078608e-02
1.753656781059119707e-01,-1.073565120668508843e+00,-2.565159741139921151e-02
1.163198587267204182e-01,-1.112105755157072107e+00,-3.858713261184049809e-03
1.244022240812639596e-01,-1.087815837423664389e+00,-1.919599134123699258e-03
1.075084046856516901e-01,-1.111934066022113754e+00,1.051434137509508204e-01
5.480382484021138062e-02,-1.118878633483585627e+00,6.136158753993221915e-02
4.078842726935393015e-02,-1.126849698172283754e+00,1.628431100942801801e-01
1.162667059267179781e-01,-1.101211485323636774e+00,2.641627688244711503e-01
1.577427152120858267e-01,-1.104609595273891687e+00,2.674834018766552024e-01
1.526031096260768716e-01,-1.038102159243386557e+00,-2.892781972395684909e-01
1.042736939101302912e-01,-1.060747540938601130e+00,-2.962639227477139592e-01
8.729106429805086331e-02,-1.134705393481739710e+00,-1.934417956435766639e-01
1.018863901540847938e-01,-1.061759526970505796e+00,-1.309340848175752914e-01
1.692925755517240560e-01,-1.143943084029342527e+00,-1.976321613074989159e-01
1.664674679140204228e-01,-1.129400224421729382e+00,-8.348673426281810750e-02
1.742074545787687945e-01,-1.084636876186728660e+00,-7.770044699469166871e-03
9.045741480670410617e-02,-1.094286413632531652e+00,-4.731535155802628345e-02
1.975205630642185017e-01,-1.086412281687084258e+00,-1.153536270003383338e-02
9.437293034667249003e-02,-1.113055043014672618e+00,3.287352447523539389e-02
1.081815971090584333e-01,-1.115538545399168413e+00,1.023698765496707935e-01
1.331755617899602062e-01,-1.017415540141534125e+00,1.493886684002223575e-01
1.071573305058309694e-01,-1.097481963578279762e+00,1.860192478220391854e-01
8.631790701771663299e-02,-1.044919981475022963e+00,2.199032853832995071e-01
1.760988709163569810e-01,-1.129150138273520954e+00,2.881355523533200014e-01
1.473997777658272723e-01,-1.143583440587311761e+00,-3.098425085347928931e-01
1.919061109933002940e-01,-1.057668259406669087e+00,-2.725601118118189392e-01
1.105217500817391729e-01,-1.075617402203202344e+00,-2.041532772717677691e-01
1.533399772639040259e-01,-1.179162622608422417e+00,-2.034316203440720838e-01
1.587173531223776135e-01,-1.143006877531438370e+00,-2.159449097208784585e-01
1.739041308685781440e-01,-1.077734195741093304e+00,-6.116554420534012909e-02
1.357201855187458173e-01,-1.047694843131033116e+00,-5.036554366427891533e-02
1.640844391792720125e-01,-1.104679302577922462e+00,-1.499497038507592306e-01
1.111885689078631195e-01,-1.105114533570029423e+00,2.531039694290415643e-04
1.031259968079935585e-01,-1.126041949758187055e+00,1.700011000329798572e-02
1.928061224393669004e-01,-1.057632499430125161e+00,1.288083281002698199e-01
1.218468608070952391e-01,-1.032956236902041969e+00,8.596829610499377716e-02
1.566221294738581737e-01,-1.146616430828316213e+00,2.594597700438051602e-01
2.101332094907609749e-01,-1.061954456595214369e+00,1.696044801830809967e-01
1.492762425066459508e-01,-1.117615153022175623e+00,2.221989913894606428e-01
1.356757784911196696e-01,-1.097950941894586752e+00,-2.961897686936459939e-01
1.462672606163401001e-01,-1.138038096505556540e+00,-2.017752789142063796e-01
2.121877073700191296e-01,-1.062261671866295165e+00,-2.896432104841891175e-01
1.683612916609860677e-01,-1.082254019032486081e+00,-1.722196092147391389e-01
2.167159883724130987e-01,-1.159303054534615018e+00,-1.555259884489282873e-01
2.081041349711205690e-01,-1.173006787582519195e+00,-2.088215936787741200e-01
2.380559191141183861e-01,-1.077742135029967185e+00,-5.801340739183106360e-02
1.343253790269854919e-01,-1.110949566246686171e+00,-5.396388083647730982e-02
1.646507198901697999e-01,-1.076346447133095019e+00,5.838932840633026533e-04
1.583645079712346082e-01,-1.091255292062542015e+00,-2.108201976910510644e-02
2.086347274783637573e-01,-1.062905092286138053e+00,2.279270903198295228e-02
1.421708021035154035e-01,-1.112566280299424282e+00,1.655461959164090946e-01
1.740551820779417391e-01,-1.080670494167444096e+00,1.904509055309922538e-01
1.117553457578115556e-01,-1.013334245772731679e+00,2.854563804454516296e-01
1.125272270069603980e-01,-1.049784749527935324e+00,2.921351215975452331e-01
1.702280635696252209e-01,-1.052420980209580970e+00,-3.106584092491285198e-01
2.353211827478705886e-01,-1.036542248657426502e+00,-2.517668688170577873e-01
1.687883507984530296e-01,-1.062381510929349515e+00,-1.595003242819891531e-01
1.756810271112010102e-01,-1.140534565122641952e+00,-1.907621156429056830e-01
1.966524884285941188e-01,-1.041664686897141312e+00,-1.114762754928176614e-01
1.265854313203351456e-01,-1.092215550541746127e+00,-1.070888363643689029e-01
2.276836485586156700e-01,-1.087143559615561861e+00,-1.155998991431223533e-01
1.827521279468444226e-01,-1.093523713732009739e+00,-2.141432054331854698e-02
2.123890574775913476e-01,-1.073268369208179029e+00,-1.189954865545926610e-02
1.194828442096436683e-01,-1.076292082990033316e+00,6.941332859367771446e-02
1.669813522015690388e-01,-1.191934171367726503e+00,2.853269945246422745e-02
1.616093673382769658e-01,-1.095573251833300787e+00,1.815329509694967591e-01
1.726601860629014273e-01,-1.100667602806678635e+00,2.299046351353064011e-01
9.231139863696345704e-02,-1.102732513230438638e+00,1.995423989123683572e-01
1.973600282260850880e-01,-1.064760912732918730e+00,2.869629247429492103e-01
1.953384925432258001e-01,-1.063677240098624521e+00,-2.981290870378021096e-01
1.632480071330064397e-01,-1.091587832474519404e+00,-2.863677606661745312e-01
1.818601293486274140e-01,-1.070005450482560461e+00,-1.635343140163283138e-01
1.722876332130933996e-01,-1.088078466418338275e+00,-1.379528297800282632e-01
1.275346166052147290e-01,-1.058555481106993934e+00,-1.535445356607103018e-01
2.008603050916894506e-01,-1.130181358272289494e+00,-1.318960422999168325e-01
1.723751402954515621e-01,-1.019852816203702384e+00,-5.863373999333273273e-02
1.775486444148952903e-01,-1.041192856562314972e+00,6.875384219723602863e-02
2.237816897524825821e-01,-1.007431165670249706e+00,-2.116364091949729520e-02
1.472096794583434287e-01,-1.120766558018905235e+00,5.506540377047768053e-02
2.625581337234499379e-01,-1.101330169219946420e+00,6.555499380568240164e-02
1.873558151435048280e-01,-1.082660722369477746e+00,2.121310094665810886e-01
1.986257167855558503e-01,-1.037504781440222512e+00,2.374902238280504063e-01
1.261571246800167190e-01,-1.165643355135146830e+00,1.705946242737769181e-01
1.218991318081220354e-01,-1.092414086134987139e+00,2.547362515678655570e-01
2.139134345070814736e-01,-1.068557299471140531e+00,-2.874721385138530039e-01
2.332005173807453757e-01,-1.071347470698936766e+00,-2.497974851611420299e-01
1.730271648866322232e-01,-1.051267689972002817e+00,-2.928274204187987784e-01
1.641265885634861643e-01,-1.075552635265335288e+00,-1.931521289271305175e-01
1.985835677865351312e-01,-1.068405490651284984e+00,-1.178251808412279916e-01
2.232220316161671048e-01,-1.004995471314814592e+00,-7.999603801440488549e-02
1.686896324112847623e-01,-9.819818915057062503e-01,-2.403743369473206049e-02
1.549588503122392436e-01,-1.068780730617751473e+00,-3.861851245102165819e-02
2.630301534406488395e-01,-1.044787548511303621e+00,-2.905642212519619905e-02
2.198771896605918319e-01,-1.123459604858533245e+00,8.828133815566019393e-02
2.130189798816678193e-01,-1.119661857676043093e+00,8.081817156617006337e-02
1.798262256878562504e-01,-1.113559223411846322e+00,1.387991977498199414e-01
2.670739663601551239e-01,-1.095548909065671372e+00,1.431194563016505161e-01
2.068337958173736835e-01,-1.128478813330610731e+00,2.581647526259950864e-01
2.035908827232335572e-01,-1.157423505355154036e+00,2.761364744983600406e-01
2.341467520114069445e-01,-1.005435721588011644e+00,-2.988560090056745500e-01
1.893780270059535475e-01,-1.034841739090103463e+00,-2.833887782091392138e-01
2.556664670312003285e-01,-1.045850063022691900e+00,-2.083487250431769466e-01
2.703749957128879222e-01,-1.066145054980044637e+00,-1.806783762466793730e-01
3.020722137006807140e-01,-1.031663382510636939e+00,-1.034994440222328504e-01
2.159429946404629597e-01,-1.039122274268087454e+00,-5.316893026234235237e-02
2.532112876961801207e-01,-1.048037701676741928e+00,-7.281591310599662414e-02
1.732859894939978718e-01,-1.075108032458857776e+00,-6.447513758843054221e-02
1.469270119538690078e-01,-1.044285826336722733e+00,3.052488935909279319e-02
2.005266169389949837e-01,-1.083119709663013408e+00,6.170402240977802127e-02
3.097169198316317429e-01,-1.087163220894738158e+00,5.408339059380779662e-02
2.242922224092105954e-01,-1.029763184313407631e+00,1.411631992494239152e-01
2.099874615540644474e-01,-1.207559968503306935e+00,1.470793904750612446e-01
2.860925494383839141e-01,-9.923415662049246411e-01,2.491290748911114683e-01
1.578654290758530476e-01,-1.121414407071784858e+00,2.688598258875748437e-01
2.210280167479443947e-01,-1.094078609976231187e+00,-2.837323480075411575e-01
2.322666864292704247e-01,-9.881147936211585048e-01,-2.097077117571283789e-01
2.826950255174460191e-01,-1.101855293226500221e+00,-2.458919915532462586e-01
2.871814098243364866e-01,-1.080417275971516267e+00,-2.368188958569726332e-01
1.769405851379953765e-01,-1.016526725502080009e+00,-1.360542813981545640e-01
1.995264590730892185e-01,-1.064024640513091313e+00,-7.013692209970770475e-02
2.522531209250112871e-01,-1.110577022329201302e+00,-3.769423744404610394e-02
2.436981375269747230e-01,-1.098198431242099371e+00,-2.626750095430161608e-02
2.307910786661634961e-01,-1.046867870237566667e+00,-3.823426865196825203e-02
2.294302412788814527e-01,-1.121571913977162493e+00,1.387802440593413622e-01
2.558425503561267966e-01,-1.157162011039727378e+00,1.606118330803307515e-01
2.181593357325701810e-01,-1.112040937169140875e+00,1.773998997187826998e-01
2.757691612795397651e-01,-1.114067296469816837e+00,1.815665151390618293e-01
2.727758522909719541e-01,-1.074875457076984508e+00,2.022682724421363543e-01
2.564637320784714514e-01,-1.007696614106882160e+00,3.178959204884578282e-01
2.957008634304464922e-01,-1.109751699266604552e+00,-2.540881994592330551e-01
2.446160129501960545e-01,-1.117749580651884456e+00,-2.116715912300441149e-01
3.213351074645928174e-01,-1.069959975960082632e+00,-1.832758095276106891e-01
2.689628914420661432e-01,-1.116060530522815064e+00,-2.225244594922139441e-01
2.704803760165747639e-01,-1.071154434963419222e+00,-1.327929721533321616e-01
2.659626732095071722e-01,-1.103208355533209062e+00,-9.973656356117803490e-02
2.270859454308164216e-01,-1.052359653413261098e+00,-1.051451062842795325e-01
3.003738737847318485e-01,-1.091613855321941884e+00,-7.966923986308979688e-03
2.355535084746199770e-01,-1.036511272296295916e+00,-9.825978584670033711e-03
2.705139518818732713e-01,-1.147224848626124505e+00,1.339791992480708904e-01
2.893402414989713622e-01,-1.030763630903313466e+00,1.695473043652978851e-01
2.892841306024207526e-01,-1.140279176000402073e+00,8.884385707836245372e-02
2.836522713441285704e-01,-1.024512772066654698e+00,1.956105690194507862e-01
1.933086663280252082e-01,-1.146467318026348048e+00,2.005906513676577740e-01
2.598685493841699223e-01,-1.110448382954755786e+00,3.532421404985172098e-01
2.939695830691798073e-01,-1.077197224647776785e+00,-3.019557022194944707e-01
2.620398140037922818e-01,-1.040263544744716162e+00,-2.512008981765274651e-01
2.551495850462759951e-01,-1.111893828744981771e+00,-2.063916242698882186e-01
2.950832821041819987e-01,-1.054043132728422316e+00,-2.883089974813759504e-01
2.650910111952645143e-01,-1.056692532455423938e+00,-1.747121973641183046e-01
2.811973025782765756e-01,-1.197491915456939227e+00,-1.068432750360062133e-01
2.714146246765234416e-01,-1.029847367514312273e+00,-4.175902032620128213e-02
2.562447438559558033e-01,-1.171096132188661487e+00,-4.876336409173231967e-02
3.137411217749091485e-01,-1.023498140992221472e+00,-3.467229430053798273e-02
3.042825378638360778e-01,-1.104968390211216844e+00,7.257274500201017775e-02
2.380638146955576795e-01,-1.109153448785184626e+00,1.137253537607106624e-01
2.506480097467768120e-01,-1.101619422945933735e+00,1.914553943107373257e-01
2.888601894085863209e-01,-1.104753512819052874e+00,2.163762604816379664e-01
2.756039734911967520e-01,-1.107443918513233427e+00,1.568163143549845817e-01
3.143451642551856051e-01,-1.065081638745015713e+00,2.331292525984501318e-01
1.664498455410979849e-01,-1.124068437727770320e+00,-2.171769296761829060e-01
3.098551860321189233e-01,-1.034283370163217697e+00,-2.481954489723541268e-01
2.527770988768382465e-01,-1.058266098030832048e+00,-2.240729337888648920e-01
2.683038412994890876e-01,-1.053342965089375527e+00,-1.891810043189497970e-01
2.954941818187513114e-01,-1.050475769419499938e+00,-1.120658541835657940e-01
2.630578693644842758e-01,-1.143964615960177067e+00,-6.517467634195861503e-03
3.440636741241389629e-01,-1.101691248314334404e+00,-9.891732968149234695e-02
3.129131457277750106e-01,-1.175048787041330423e+00,-9.021899692126803677e-03
2.590836812940511269e-01,-1.111348250760662904e+00,4.273302718441888970e-03
2.919666667943685012e-01,-1.046014906852060999e+00,-3.630245638789768303e-03
3.179687754000458111e-01,-1.145093425402701648e+00,5.379519205648825020e-02
3.256345895721757255e-01,-1.106850683949981651e+00,1.481951483499953093e-01
3.257316749757114827e-01,-1.119807425040422633e+00,1.361933818090600157e-01
3.076973734580037423e-01,-1.051526439938737623e+00,2.040173216613135054e-01
2.536961396683962144e-01,-1.170761134129285841e+00,3.128141850559368886e-01
3.515063784292278837e-01,-1.084128321104814496e+00,-2.918777434317694208e-01
2.652670212917514481e-01,-1.137575716230766698e+00,-2.386937972256037988e-01
2.851267842079044934e-01,-1.096369175117900996e+00,-2.505745439393520790e-01
3.215350313202043342e-01,-1.134562141398087975e+00,-1.538680786644944787e-01
3.164960098515817721e-01,-1.050105295755320300e+00,-1.322727201011078546e-01
2.731553405064807705e-01,-1.061009683152893235e+00,-1.158318966702726743e-01
3.341244074857985802e-01,-1.096934060070246630e+00,-8.058078873058749370e-02
2.086101144525110140e-01,-1.113204705787831816e+00,-3.812397969235669509e-02
3.130329366036552763e-01,-1.075382474489655849e+00,4.801494220833535387e-02
2.741604637727712013e-01,-1.099056305719502857e+00,1.015100972134654750e-01
3.252775475199001787e-01,-1.063336906084616285e+00,7.307439480381172636e-02
