-1.548217366232393921e+00,-9.173845497440867858e-01,-3.259612807211844515e-02
-1.512299399797742971e+00,-9.743057547246817274e-01,-1.578081249561145982e-02
-1.580204027008521583e+00,-9.413901967213389455e-01,-2.383581659473230085e-02
-1.601935957564896817e+00,-9.740302265604857679e-01,1.217781355264819787e-01
-1.586826196616104356e+00,-9.176447333060427924e-01,1.544369819262267074e-01
-1.584742530238965497e+00,-1.018112850216138732e+00,3.010080883961580578e-01
-1.549515868710733324e+00,-9.735381540814057599e-01,2.881623197592630414e-01
-1.576341712392792527e+00,-9.686859811720688329e-01,3.458626994001913757e-01
-1.529410322352364293e+00,-1.001822594865694693e+00,3.660959225098896486e-01
-1.509983062390773956e+00,-9.470871272105731986e-01,-4.181316794319051011e-01
-1.498366964052211037e+00,-9.365870581828196206e-01,-4.158005271365128319e-01
-1.537393100558160031e+00,-9.699139770649575221e-01,-3.105268470728454466e-01
-1.583144214936321070e+00,-9.121570497670895561e-01,-3.264588214781589670e-01
-1.528852775498112271e+00,-9.393472455155669198e-01,-1.881278805973023993e-01
-1.493884113062871943e+00,-9.613056533266624015e-01,-1.312794889788595487e-01
-1.540155517401934349e+00,-9.806370333859361077e-01,-1.162062829887348242e-01
-1.516905920590371881e+00,-9.774578415856269853e-01,-8.543170107880496134e-02
-1.458425415083898224e+00,-8.786280276290467928e-01,-2.706870815705311739e-02
-1.524034508476313832e+00,-9.711253753203634709e-01,4.769254274776049685e-02
-1.521430507060832271e+00,-9.617558227909699387e-01,2.832403218885828911e-02
-1.509833151557279152e+00,-9.752071806865229009e-01,2.401726520887315364e-01
-1.480161128604752241e+00,-8.839161228549503591e-01,3.242844130109609480e-01
-1.536887539212302922e+00,-1.003519338128804783e+00,3.821351311650879046e-01
-1.524671545356605540e+00,-9.898505451897809948e-01,4.095701955770014169e-01
-1.446930560096246543e+00,-9.882473988010356258e-01,-5.130491787073696575e-01
-1.485336444649414611e+00,-9.327067026081018453e-01,-3.962107522305380325e-01
-1.529207605885000820e+00,-9.445249116886539342e-01,-3.350426900461533353e-01
-1.474093196567204167e+00,-9.846715154254992441e-01,-2.855141486732680756e-01
-1.542043581134933561e+00,-9.882014723094417752e-01,-2.020810038655956320e-01
-1.397235497195299381e+00,-9.374990065779926773e-01,-1.120323620826715605e-01
-1.614826031687319308e+00,-9.441824575704877986e-01,-7.228363214353583643e-02
-1.489345106528009000e+00,-9.690950673701839158e-01,-6.539629872836236202e-02
-1.531625573936216345e+00,-9.654884376907463261e-01,7.684566842302666123e-02
-1.450277432409434075e+00,-9.305164249452575476e-01,9.291837734137896321e-02
-1.433735736015614437e+00,-1.081289518690287776e+00,2.289050291414317928e-01
-1.499131361334037127e+00,-1.054877393321487444e+00,1.257813458611341251e-01
-1.499206473723928568e+00,-9.892099705596798520e-01,2.963235252963513089e-01
-1.487460963211156395e+00,-9.600068340894049035e-01,3.048521320224519271e-01
-1.520002307703179900e+00,-9.054845403015090444e-01,3.752772786957936368e-01
-1.470333555810546367e+00,-9.119515744913132549e-01,-4.235876315201795861e-01
-1.435703526411489239e+00,-9.498107878032004958e-01,-4.036194173986227263e-01
-1.421258800902450492e+00,-9.761786527236552269e-01,-3.183846551469419195e-01
-1.488831581442390473e+00,-1.001555098688505341e+00,-2.610216920911483940e-01
-1.488508401600506792e+00,-9.431425620108540020e-01,-2.516048561372980497e-01
-1.450943363157745525e+00,-9.590061120839680209e-01,-1.706478267983819186e-01
-1.455961740916907443e+00,-9.794374705869007824e-01,-6.729610597625448887e-02
-1.481617176942029435e+00,-9.798196217591887969e-01,4.030210889234532579e-03
-1.477999210825808873e+00,-9.791400757244057562e-01,9.523002248873008169e-03
-1.419886958562415868e+00,-9.757088818026862231e-01,2.824899274655931491e-02
-1.473004744257379262e+00,-9.520629939619132953e-01,1.455779049721148688e-01
-1.473657398824638864e+00,-1.022064692784926176e+00,2.061838124855760179e-01
-1.365527940577442312e+00,-9.307066512879463849e-01,2.874188560946606685e-01
-1.442422817587180717e+00,-9.993243626331222984e-01,3.976920351728067127e-01
-1.442393232257313862e+00,-1.019818879197371908e+00,4.198792683267756898e-01
-1.466372080191727267e+00,-9.582244891744520210e-01,-3.949852306304462157e-01
-1.374874959990945777e+00,-9.719269441896780659e-01,-3.600154819726798516e-01
-1.377611873685813837e+00,-9.051167785876441663e-01,-3.494639863767056154e-01
-1.436806918813325673e+00,-9.622137325352411175e-01,-1.996793972153725338e-01
-1.471303137831347030e+00,-9.485417131145132963e-01,-2.430062123806540075e-01
-1.353816360252874107e+00,-1.061262364824674176e+00,-1.591883643896915834e-01
-1.400480914205521010e+00,-8.946353872888921366e-01,-1.360817824905850015e-01
-1.353349945608441462e+00,-9.894381773698062155e-01,-2.304176560877203850e-02
-1.499275796801146088e+00,-9.768601857396846944e-01,3.240773552472046848e-02
-1.426035538335279407e+00,-9.735549779288145134e-01,1.099591826958934981e-01
-1.497454951789508160e+00,-9.291322745057722932e-01,1.692528652067843420e-01
-1.486249324933406335e+00,-9.414583589030566246e-01,2.666861353055583472e-01
-1.449298767484734407e+00,-1.029257061291660724e+00,2.166107909255049480e-01
-1.488210074852274412e+00,-9.130193833549621329e-01,3.355416989670969574e-01
-1.439938496469586937e+00,-9.555903230506219703e-01,4.149037866323859181e-01
-1.313107540208036328e+00,-9.810378766633430780e-01,-4.916726174816173911e-01
-1.345929803837565331e+00,-1.007259253531260557e+00,-4.037086480351047002e-01
-1.323997424119234934e+00,-1.020209773601720604e+00,-3.308153029350905938e-01
-1.304730663027799498e+00,-1.038837161522891517e+00,-2.902036097459434472e-01
-1.375198413104769646e+00,-9.919601420690766780e-01,-2.751486574873451829e-01
-1.389013944561180658e+00,-9.507314960142844162e-01,-1.521374899489142118e-01
-1.412072555053875966e+00,-8.789733270270306820e-01,-1.734785767865387740e-01
-1.424594327500876778e+00,-9.514107465110549500e-01,-3.855445166042151262e-03
-1.412530054396308854e+00,-1.046618655815913623e+00,-1.880076698589167039e-03
-1.364655700041009778e+00,-9.916209949912051513e-01,1.004729977923151385e-01
-1.466089694530313903e+00,-1.001391786801424377e+00,8.415355313468533827e-02
-1.407144927831512016e+00,-9.582014669661834683e-01,2.174458771948485913e-01
-1.478108819537768737e+00,-1.022913606251787622e+00,2.747822862423794921e-01
-1.370129506916593076e+00,-9.355227390450649994e-01,3.240969623100193320e-01
-1.422434005069336926e+00,-9.515869550479865158e-01,3.575769823161012995e-01
-1.391947991929498585e+00,-9.827752923443878741e-01,-4.575199237851935719e-01
-1.362461633364324465e+00,-1.034722431263673581e+00,-3.033352034483872695e-01
-1.300787010047383285e+00,-9.458391992262347170e-01,-3.793604176274207318e-01
-1.396725823372109376e+00,-9.943853441409401528e-01,-3.165977807168303126e-01
-1.354605167476345962e+00,-9.547150808016166001e-01,-1.403237601966881853e-01
-1.342587921217797575e+00,-9.744470708528151226e-01,-1.550840086420002539e-01
-1.317810843188031544e+00,-1.020900114351107613e+00,-1.520837323382337736e-01
-1.325039226112370017e+00,-9.459002941731963210e-01,-9.520608883823836188e-02
-1.314842814079283606e+00,-9.570547242471898475e-01,7.082740704250796437e-02
-1.398741152529341836e+00,-1.046230950440180996e+00,1.104259318618519142e-01
-1.380936076186640493e+00,-9.949004841156090517e-01,1.242865228000000488e-01
-1.417983872960794312e+00,-9.686621837883692132e-01,2.918997521906835368e-01
-1.425531996493267117e+00,-1.057172509591675968e+00,2.593853281666922972e-01
-1.340052356791488597e+00,-9.363693229875723611e-01,3.406202960653638701e-01
-1.360188669900019409e+00,-9.743850189485124824e-01,4.257360007636221133e-01
-1.355623337105887227e+00,-1.009057572086119681e+00,-3.821942357267051893e-01
-1.335692695855929424e+00,-9.573740398425796272e-01,-4.190811078573308812e-01
-1.362614054136121133e+00,-1.087506921967497986e+00,-2.673966724389930105e-01
-1.336974287826670604e+00,-1.017831983002178919e+00,-2.093116815437442435e-01
-1.354945614015009347e+00,-9.858760519521275745e-01,-1.939732964653967384e-01
-1.249977955510861660e+00,-9.946060940407202011e-01,-1.075435907652008971e-01
-1.306575258414566676e+00,-9.557624851862711601e-01,-8.574078749243627118e-02
-1.323200798733404460e+00,-8.722088100216074391e-01,-5.519893971296163659e-02
-1.303787011344002877e+00,-1.010155290853833154e+00,6.786671598295912489e-02
-1.332218280990904669e+00,-9.929499953377983745e-01,4.938488976466051672e-02
-1.388648474033922220e+00,-1.044950463041435462e+00,1.724577604885317583e-01
-1.387618818188550485e+00,-1.003261494454621428e+00,2.634146645527595809e-01
-1.266871038336714106e+00,-1.104377390307721418e+00,3.104970742365543157e-01
-1.337720942582387940e+00,-9.675833106887364865e-01,2.882449284146048618e-01
-1.372091443360887508e+00,-9.478825490709779089e-01,3.949095952669751108e-01
-1.284393724452193908e+00,-1.076052392205800734e+00,-3.840978038027317853e-01
-1.354316648657320155e+00,-1.000007690387143322e+00,-3.666242106675988710e-01
-1.320199436474080779e+00,-9.911568846526855880e-01,-3.671885062696840230e-01
-1.317902522338060933e+00,-1.030822048233977606e+00,-3.200008512724132892e-01
-1.415992239885633719e+00,-1.010426844713109951e+00,-2.188236131998055056e-01
-1.342062442846085002e+00,-1.035658054632105696e+00,-1.134513484102828706e-01
-1.320031780721433901e+00,-1.031587235622585030e+00,-1.051008171332774160e-01
-1.302843395652143910e+00,-1.007263292405287780e+00,6.962265591987593094e-03
-1.270404933998768859e+00,-1.022164265330671507e+00,5.948559124553885746e-02
-1.310228800011876027e+00,-1.006605396159180321e+00,4.792645383660072700e-02
-1.347273635115478596e+00,-1.036128892796582157e+00,1.589045365670462839e-01
-1.375223178716192374e+00,-1.026891530176203826e+00,2.105245837596908531e-01
-1.305160156872639865e+00,-9.935473740299808343e-01,2.279870510521610494e-01
-1.295622576100401435e+00,-9.791198662031841415e-01,3.012251941682120848e-01
-1.358518737620442174e+00,-9.520473091733465676e-01,3.753541115953282215e-01
-1.276529733052957027e+00,-1.033738810461132474e+00,-4.055357367427772641e-01
-1.213784085244393074e+00,-1.037639009897011189e+00,-3.856603335038400471e-01
-1.236389512517590328e+00,-1.122317592534852970e+00,-3.880916516858897714e-01
-1.308783296550534825e+00,-1.021932357456511120e+00,-3.037535531045081338e-01
-1.277017237245541281e+00,-9.812469185540637628e-01,-1.752871932037651237e-01
-1.328151026947819169e+00,-9.471791890847550688e-01,-1.341318133561162362e-01
-1.252525058375808964e+00,-1.007194087199660304e+00,-6.974293266187625573e-02
-1.299660555195206513e+00,-1.016562532934639940e+00,3.123125740867067901e-02
-1.367615486815125125e+00,-1.065465301711376656e+00,6.963745933363840734e-02
-1.344536084179267732e+00,-1.055745137074355799e+00,7.634208703743401714e-02
-1.338756314722691521e+00,-1.039367945657848624e+00,2.012063893333614906e-01
-1.229930086615456775e+00,-9.532270285612584049e-01,2.445437255765112727e-01
-1.329527159549240389e+00,-1.086425701939836896e+00,3.110231870510169472e-01
-1.259985441482462276e+00,-9.937530992176499822e-01,4.022457786253783030e-01
-1.304975387198102910e+00,-1.018116555606492390e+00,3.701350026938096116e-01
-1.216291540815117367e+00,-1.015930306856950960e+00,-4.759735131058398516e-01
-1.272859382487346203e+00,-9.994998098551790555e-01,-3.080215139935092994e-01
-1.298231320958850299e+00,-9.485767289435227401e-01,-2.549251891371385748e-01
-1.198191369022221897e+00,-1.022188168595036695e+00,-2.550011506373580095e-01
-1.271256205191604316e+00,-1.020672679687122164e+00,-2.383548202085569168e-01
-1.299291489438350267e+00,-9.906204448490933956e-01,-9.271063068854173972e-02
-1.304164135900515165e+00,-9.899207701326228070e-01,-7.263058173867682765e-02
-1.333871443670376689e+00,-1.004030946202907559e+00,-3.790641393019687083e-03
-1.279758898933247790e+00,-9.455754511370942916e-01,1.474201795073070732e-02
-1.263163606500751657e+00,-1.008284257253417193e+00,9.233015761603098615e-02
-1.182376018109123184e+00,-1.042907248915487806e+00,1.497954903536893867e-01
-1.241487426197699584e+00,-9.411246943326312397e-01,1.897946751516067787e-01
-1.280389216374676620e+00,-1.089079997535947086e+00,2.773216562296946797e-01
-1.263854202144488958e+00,-9.796780215608640319e-01,3.477579195538031964e-01
-1.251226726264962785e+00,-9.855987577536443611e-01,3.415330071057848249e-01
-1.242679332756800203e+00,-9.418729395679403815e-01,-4.226363188049094277e-01
-1.259161025108719523e+00,-9.509284542712539423e-01,-3.684415658048378339e-01
-1.296502851497283837e+00,-9.966964861482048299e-01,-3.875943568187661392e-01
-1.259462615786612227e+00,-1.026484767925172070e+00,-1.766110444380964983e-01
-1.241970042454943135e+00,-1.004329760554461659e+00,-1.872552412243470021e-01
-1.239376294391328015e+00,-1.054511774624797615e+00,-1.190351676081914251e-01
-1.255697730404899515e+00,-1.101100435030220925e+00,-1.099607506427114217e-01
-1.226370285497790924e+00,-1.069357020892963028e+00,-4.740453171312730002e-02
-1.167814938669916591e+00,-1.087562800242469541e+00,9.668726601063243331e-04
-1.281190128123144367e+00,-1.056088246338795056e+00,2.744188120187265878e-02
-1.180357296642270626e+00,-1.010087319608485190e+00,1.151882109853921282e-01
-1.157420603201694487e+00,-9.978440354809008372e-01,1.821222393872437284e-01
-1.282009203249153018e+00,-1.074445609601385243e+00,3.528871404286345048e-01
-1.111356014658055447e+00,-1.047818795555944149e+00,3.044406961890852026e-01
-1.265600862109403701e+00,-1.075072994182705077e+00,4.151442171936328696e-01
-1.127818851943119371e+00,-1.057742172535806269e+00,-4.280661464461377741e-01
-1.222392669250782271e+00,-1.009612428439012000e+00,-3.668350656840689838e-01
-1.199842853667865583e+00,-1.083542730652242492e+00,-2.872278838267965373e-01
-1.152653540661743969e+00,-1.034243981680039948e+00,-2.078535408437794385e-01
-1.219424967410119631e+00,-9.869719340873159830e-01,-1.563118231512793388e-01
-1.196169533415048170e+00,-1.079444172321728068e+00,-1.475183513209417652e-01
-1.182633689688353584e+00,-1.005022004230032850e+00,-3.532389920817175649e-02
-1.172832841651137770e+00,-1.102499900935117072e+00,-1.944504985876970016e-02
-1.167467222520810699e+00,-1.101192502990001376e+00,3.212443815603414216e-02
-1.238652935713718817e+00,-1.056890001626225040e+00,8.913147063848647633e-02
-1.211427455486651761e+00,-1.051294197707875799e+00,1.745012477647596150e-01
-1.161251776571310845e+00,-1.030643600642560109e+00,1.916168324303570702e-01
-1.196879795882370257e+00,-1.042034513933884909e+00,2.069271174988144002e-01
-1.299937474251761760e+00,-1.043556468316906072e+00,2.907842461859667660e-01
-1.202799407184813374e+00,-1.012176632992879410e+00,3.786960974888040621e-01
-1.159921353669270960e+00,-1.087554930868783520e+00,-3.976994627581981745e-01
-1.250561863316480782e+00,-1.018039155693529541e+00,-3.685745546701857944e-01
-1.099701693793672996e+00,-1.048796588459405266e+00,-3.616715772753834046e-01
-1.147429662435274889e+00,-1.023563077816508793e+00,-2.478319387989269540e-01
-1.173183013587068002e+00,-1.114759156964278519e+00,-2.324242948343182014e-01
-1.187746283061180463e+00,-1.064320938832616026e+00,-1.727152395729723844e-01
-1.190039668803446249e+00,-9.839274459827410668e-01,-9.602485910997451968e-02
-1.284642955700572742e+00,-1.091797822948992192e+00,-4.422676547164984540e-02
-1.179417192286507099e+00,-1.073090887501239932e+00,1.955083759971336724e-02
-1.195513671116195331e+00,-1.041272018964020774e+00,6.656003390631987093e-02
-1.206134037104581669e+00,-1.058218614996627061e+00,1.568481557217458189e-01
-1.214551477586929940e+00,-1.049416184065956825e+00,2.099129480596401143e-01
-1.206216331311584566e+00,-1.030233051561061597e+00,3.151848699008510946e-01
-1.253854934411497535e+00,-9.875036280388871379e-01,2.937708407907922425e-01
-1.177181514001364837e+00,-1.113473470336683757e+00,3.724068172373929952e-01
-1.198376894750635691e+00,-1.076201963573759413e+00,-3.901130872715979914e-01
-1.105779037849284219e+00,-1.027647068939985031e+00,-3.801011668067200144e-01
-1.176921918153991165e+00,-1.128378077002896385e+00,-2.692642263523075674e-01
-1.239596698894386728e+00,-1.019551881148233807e+00,-2.034115433966389164e-01
-1.094227326171443249e+00,-1.065386845408182293e+00,-1.577597787213966818e-01
-1.170060708115966630e+00,-1.082765392747804034e+00,-1.445043058011011017e-01
-1.140673387659847382e+00,-1.097107550332795611e+00,-4.533447185512613775e-02
-1.173936007497082379e+00,-1.036416557145178441e+00,-7.865824676849367258e-02
-1.177598937657533318e+00,-1.041758300241979462e+00,5.594425565609392054e-02
-1.173939894164102604e+00,-1.094135969189787172e+00,1.227682961355898716e-01
-1.133259293938392753e+00,-1.085216404892339614e+00,8.046908093467525225e-02
-1.091214858732341808e+00,-9.973116095203118370e-01,1.957029846278403595e-01
-1.164738205130300130e+00,-1.078309360595287592e+00,2.204149062204688592e-01
-1.178718078397836599e+00,-1.098404372646063942e+00,2.833768736019495749e-01
-1.067847581205534135e+00,-1.119386237207214974e+00,3.726870006399209956e-01
-1.154834098768084738e+00,-1.025164793091817295e+00,-4.417720340081160435e-01
-1.069821729742844285e+00,-1.066894349377004003e+00,-3.437425460992274417e-01
-1.048064334755282934e+00,-1.065601891460708384e+00,-3.358553554832963695e-01
-1.197820701242218844e+00,-1.086582422473888254e+00,-2.059365992951699698e-01
-1.172986001375992959e+00,-1.051647040440364833e+00,-1.723338932964920689e-01
-1.138051064817488855e+00,-1.105229648524692410e+00,-1.280125298919645715e-01
-1.101174334552556200e+00,-1.106802710979695847e+00,-9.656280306586299822e-02
-1.130157432786922600e+00,-1.082300329085967627e+00,-1.265039153347746574e-02
-1.187318597847139001e+00,-1.126499390446756843e+00,1.748176189405870745e-02
-1.106762611284665576e+00,-1.051469708142139137e+00,8.009586372282320732e-02
-1.049084304184571659e+00,-1.093503394589115052e+00,1.550699889405572907e-01
-1.139383275023858832e+00,-1.057175274809752930e+00,2.423558444896714015e-01
-1.133530089441892486e+00,-1.065941418299825916e+00,2.778613191240823510e-01
-1.116872117336168202e+00,-1.004904327268046238e+00,3.026575430219622387e-01
-1.147514575903225031e+00,-1.043098262921010155e+00,3.622938312735838884e-01
-1.076558897443529395e+00,-1.006498568421458906e+00,-4.614797068937814828e-01
-1.089531247761402977e+00,-1.075627935545388381e+00,-3.624753311470308992e-01
-1.092659224838177234e+00,-1.089031073139591577e+00,-2.688566147658278394e-01
-1.067525138814169106e+00,-1.120004704418312347e+00,-1.724622454536865468e-01
-1.079566709098090271e+00,-1.011498207026447549e+00,-2.085523041187953563e-01
-1.161354022651786444e+00,-1.128346668515341156e+00,-1.383632641977709243e-01
-1.134132666911649379e+00,-1.069251336561397370e+00,-2.755429161961815698e-02
-1.050588646080861999e+00,-1.100523640163320716e+00,-4.895682696799189687e-02
-1.060562349180143027e+00,-1.052774007489156949e+00,3.271119816843737899e-03
-1.111806613334873406e+00,-1.141226783926636346e+00,7.614916231732868357e-02
-1.115159382614140382e+00,-1.021040257516238503e+00,1.286395734391448942e-01
-1.150124015948893907e+00,-1.092194343673977386e+00,1.999399946194063138e-01
-1.146966738896389559e+00,-1.049075347371076994e+00,2.155850245150692512e-01
-1.103092081839698979e+00,-1.123925889548836654e+00,3.119387477241138962e-01
-1.158571116230718401e+00,-1.107080414004489866e+00,3.279354993078610336e-01
-1.077256200023005261e+00,-1.086653713040373725e+00,-4.348099364479234841e-01
-1.037137622927844394e+00,-1.011462034334021043e+00,-2.947360748799160435e-01
-1.081564321855183364e+00,-1.162322827422033633e+00,-3.499253757436955881e-01
-1.045349048495256339e+00,-1.086452971369344933e+00,-2.381475276097792804e-01
-1.048979484643296045e+00,-1.095166527904283926e+00,-2.237627988631894493e-01
-1.072350016685939211e+00,-1.073189172537174274e+00,-1.349799922613102998e-01
-1.110841900665024751e+00,-1.014593691122196439e+00,-1.203084156339296884e-01
-1.081492128029341693e+00,-1.080355527178931574e+00,7.785390010608848887e-02
-1.112982611526643462e+00,-1.061830348364995791e+00,1.090122603212368285e-01
-1.091530673938504448e+00,-1.087153299971309828e+00,8.290278657949511076e-02
-1.126229323424817963e+00,-1.143677970857855275e+00,1.738069521270074747e-01
-1.011813570953348895e+00,-1.070706062062571018e+00,2.349388024034895495e-01
-1.061498147168233874e+00,-1.090363290493317816e+00,2.438770870651481015e-01
-1.114949050016888599e+00,-1.085069293049503170e+00,3.097216534704038682e-01
-1.073852185128709280e+00,-1.114741874562117818e+00,3.733581614677984328e-01
-1.045502923475689405e+00,-1.061772955760512893e+00,-4.040041095637332269e-01
-1.121270354699667182e+00,-1.154365464277543385e+00,-3.325026774339489011e-01
-1.061046496152385332e+00,-1.109634003256791956e+00,-2.630007364632407363e-01
-1.082857695137440901e+00,-1.117619842603390756e+00,-2.418539108078637256e-01
-1.033174634280560777e+00,-1.130627183065513019e+00,-1.897504369217649922e-01
-1.048451938622314561e+00,-1.067942944577633835e+00,-2.119033901499248196e-01
-1.033315167219326813e+00,-1.092888123423911617e+00,-9.719244986410358056e-02
-1.070854816822051303e+00,-1.069907975422574653e+00,6.102932886323027273e-03
-1.144265252690204848e+00,-1.101024679399415396e+00,1.415258003532508524e-01
-1.088972435022959040e+00,-1.104992577497230899e+00,6.693519799106059653e-02
-1.015945144606277495e+00,-1.117486213212078194e+00,5.727002026055749706e-02
-1.101380644221749749e+00,-1.051645095547149245e+00,1.113305190300986902e-01
-1.082213679683314833e+00,-1.111929287651389098e+00,2.622087255852050824e-01
-1.093117902236115047e+00,-1.108314538363655011e+00,2.961665396540869022e-01
-1.103586044995737758e+00,-1.192988714359048741e+00,3.152147244104905877e-01
-1.051145886554233799e+00,-1.131191464198990193e+00,-4.195869645187267905e-01
-9.789576219809150714e-01,-1.115717320097658005e+00,-3.572279237014349129e-01
-1.026958043997260761e+00,-1.103308485933471417e+00,-2.805569022933593892e-01
-1.069257071980380447e+00,-1.125882040417588659e+00,-1.668568697912622134e-01
-9.813812922298756902e-01,-1.097719282648259131e+00,-1.517706075391670462e-01
-1.009462326796461085e+00,-1.053795709145920689e+00,-1.030243436033188575e-01
-9.657671643264386097e-01,-1.107150571631985381e+00,-1.319832933005307685e-02
-1.042309893518685415e+00,-1.089688616249690156e+00,2.506175795450740762e-02
-1.030736959264110908e+00,-1.030823187147205555e+00,2.715907271669954284e-02
-1.040358243469430288e+00,-1.111224973238125413e+00,8.373167887214316707e-03
-9.786099096781785134e-01,-1.074392779510863871e+00,2.194959284163781610e-01
-1.120148610267653000e+00,-1.156414566578196856e+00,1.493709207835823838e-01
-1.036399531538352070e+00,-1.048420715386034319e+00,2.431811376151970239e-01
-1.048752678298336738e+00,-1.105379648311102692e+00,3.034453905511539928e-01
-1.088022575084305110e+00,-1.064498155108438704e+00,4.132871084548253582e-01
-9.140645767411573752e-01,-1.070187498918936830e+00,-4.427587061809067914e-01
-9.959662447222298320e-01,-1.091967302351289248e+00,-3.942290047417719712e-01
-1.010642584252354981e+00,-1.097242543693183414e+00,-3.128643098718851268e-01
-1.036011546084717239e+00,-1.133271501881302878e+00,-2.957525719647033924e-01
-1.067907694529146800e+00,-1.066501650405725421e+00,-1.908019478951139269e-01
-9.543776746560790336e-01,-1.065345128810418096e+00,-1.547594621251659475e-01
-9.860374714888319181e-01,-1.024689197031648069e+00,-4.293909092526826399e-02
-1.013112937269526670e+00,-1.073952144181061774e+00,-5.828359074781478549e-02
-9.830177442006569066e-01,-1.127356252941538406e+00,-1.029112863948465628e-02
-1.087662164078294857e+00,-1.072363819932228957e+00,7.238054342170804900e-02
-1.009543615760228219e+00,-1.130526066580144429e+00,9.361026401022247423e-02
-9.871362447188167799e-01,-1.097916815351673847e+00,2.031320453758133915e-01
-9.662444368677325368e-01,-1.033902213732383446e+00,2.826543531861896996e-01
-1.000025942866378470e+00,-1.176427652543538427e+00,2.481956538587048455e-01
-1.109042043381833542e+00,-1.098406698660114866e+00,3.512380197699854212e-01
-1.008163032346167221e+00,-1.046651010783643754e+00,-4.333329210336536175e-01
-1.013575540981592082e+00,-1.029242677270766126e+00,-3.290299316168832644e-01
-9.099695651176614719e-01,-1.161388276709446110e+00,-3.038382487520859265e-01
-1.067625822313800654e+00,-1.131685409185115843e+00,-2.490963083412629508e-01
-1.017726120322251626e+00,-1.076903320890686411e+00,-1.679137820774692091e-01
-1.000925009250407838e+00,-1.119081207779075715e+00,-1.220156847834992786e-01
-9.910942536613007725e-01,-1.046432721991644721e+00,-3.197343141936682259e-02
-9.875493207970229559e-01,-1.123342150889754976e+00,3.260023665691211270e-03
-1.012116786685471226e+00,-1.122307404896779159e+00,-4.890537801156238928e-03
-9.541830619678202119e-01,-1.040792008236946842e+00,5.025225666420372883e-02
-9.949164783596978756e-01,-1.163379444954365516e+00,1.559481836582275460e-01
-9.679835716388650591e-01,-1.105807310995176929e+00,1.731306183189850745e-01
-1.010516393411288627e+00,-1.147640081130831824e+00,3.250584080005063381e-01
-1.015301010417229977e+00,-1.117514251502704337e+00,3.167358836213484130e-01
-1.053118991038294538e+00,-1.130073665190233667e+00,3.082516103853296108e-01
-1.010095008724530175e+00,-1.138077365758092707e+00,-3.792756372901292528e-01
-9.798750322203655383e-01,-1.140122572463381667e+00,-3.499403427420947343e-01
-9.796337089268278842e-01,-1.119292238274395057e+00,-2.924734389715347715e-01
-9.318033368818048334e-01,-1.108405198076552578e+00,-2.544986082746077960e-01
-8.966503862203252240e-01,-1.089062078990069127e+00,-2.189683692796311476e-01
-9.278870097785734128e-01,-1.146058878228519928e+00,-1.166337594189649218e-01
-9.044692868442723022e-01,-1.164941898495571282e+00,-1.219175824788036600e-01
-9.243534943652849112e-01,-1.107328217286241090e+00,6.680133232173167401e-03
-1.013847126885375483e+00,-1.126604776008999664e+00,9.179735613661409166e-02
-9.922440767058585687e-01,-1.100331416901137560e+00,6.848679366252613532e-02
-9.779432012864971435e-01,-1.185664946223465632e+00,1.431934105378498412e-01
-8.940759754675040583e-01,-1.151348419797033840e+00,2.323407575852201867e-01
-1.039282133849668943e+00,-1.116741156953104941e+00,2.007077849431274097e-01
-9.776702626415550990e-01,-1.123285820669513990e+00,2.848431791342051489e-01
-9.322648674705502625e-01,-1.091958065045934179e+00,2.779929795741592491e-01
-9.362437993081668131e-01,-1.064253981564312390e+00,-3.971578569725863206e-01
-9.781602030396302494e-01,-1.128346352550346765e+00,-3.037350590426308727e-01
-9.134428105068971293e-01,-1.078765724099465029e+00,-3.020899002190459703e-01
-9.158261738339795732e-01,-1.135978239533647960e+00,-1.394626817520124018e-01
-9.361452736580027079e-01,-1.071042020144854723e+00,-1.623899021369780982e-01
-9.025553786511257837e-01,-1.125840357309870532e+00,-7.439225275964844730e-02
-8.830692232785464224e-01,-1.133413288929066232e+00,-2.136958190509535144e-02
-9.937834173932476034e-01,-1.115247359787463033e+00,-2.476592160168983661e-02
-8.992507547415505842e-01,-1.226324810931680220e+00,-9.951776582945159877e-03
-9.932045520857865073e-01,-1.098750377784130317e+00,7.261728429887290281e-02
-9.299810825257995850e-01,-1.121414861689942644e+00,9.923164286387857469e-02
-9.645450657243963555e-01,-1.154913942537354243e+00,1.930538126943723842e-01
-9.396134868263851248e-01,-1.114845874993129593e+00,2.182534403707551973e-01
-9.718704499292646348e-01,-1.103710162212193868e+00,2.901276958637836745e-01
-8.952761600006494680e-01,-1.212037270574028991e+00,3.020408241899576463e-01
-8.636957818631588735e-01,-1.153795741135885677e+00,-3.274032431331841408e-01
-9.641802576839466621e-01,-1.136894128856920760e+00,-3.546771413656754635e-01
-9.330058315129931001e-01,-1.178187013846857756e+00,-2.626754941192186998e-01
-9.067375842645055695e-01,-1.046028433231835697e+00,-2.243396124855401019e-01
-8.766545117794259934e-01,-1.113854507351099254e+00,-2.310831669065176452e-01
-9.481235107635440640e-01,-1.099619262881381676e+00,-5.515483282344225968e-02
-8.974239368679288731e-01,-1.134653662640413119e+00,-2.033501785908928966e-02
-9.565416047363873853e-01,-1.126545758909270667e+00,-1.286539282999682281e-02
-8.948561044775833473e-01,-1.071921496291337927e+00,2.343553556219006573e-03
-8.972704693796536013e-01,-1.133414434673487792e+00,8.891577227318910037e-02
-9.332050829352693810e-01,-1.037778732191246167e+00,2.153612919443558260e-01
-9.352720771436336955e-01,-1.148355346377325725e+00,2.120536121766785631e-01
-9.298794144019408847e-01,-1.161757293599587459e+00,2.377196173135429635e-01
-9.424314263697743943e-01,-1.096540088582114603e+00,2.760125083473350949e-01
-9.730530332294927698e-01,-1.117309996852435372e+00,2.928680858529497666e-01
-8.457991817137612278e-01,-1.122179974726886131e+00,-3.616919020763749715e-01
-9.455523652840547300e-01,-1.208889661173104813e+00,-3.417532220529992393e-01
-8.833774869572622590e-01,-1.136642649950865946e+00,-3.461923938932008893e-01
-9.396586838636811212e-01,-1.153725165565391730e+00,-2.123988602403001358e-01
-9.223658341235204672e-01,-1.087313011899971427e+00,-1.865165266712553449e-01
-8.466523606290347059e-01,-1.191589193732167651e+00,-1.317300479746168484e-01
-9.010603062393689466e-01,-1.122023059784483801e+00,-8.549506877018971107e-02
-8.888517695564279730e-01,-1.129394034244384226e+00,1.055953881840804298e-02
-9.511089821609755024e-01,-1.106427971866725590e+00,-1.958642508166887758e-02
-9.343056989683226066e-01,-1.124043042927914238e+00,1.280235744749747828e-01
-8.353146752298308275e-01,-1.157594352526006176e+00,9.500672267830295725e-02
-9.062474189761943189e-01,-1.227116209140502123e+00,1.332156801824522507e-01
-8.678534942347484460e-01,-1.107712751630250958e+00,1.925046475233851417e-01
-9.532645484554627124e-01,-1.185849879978115640e+00,2.750829307975647953e-01
-9.561526392129231500e-01,-1.151250340091236390e+00,3.527743605068386912e-01
-9.173897082537002534e-01,-1.145448407582727812e+00,-3.621628725191070042e-01
-8.917498874170119993e-01,-1.115461930614367603e+00,-3.087883519899138340e-01
-8.467806514924297590e-01,-1.129362925847929411e+00,-2.777099772659135657e-01
-8.320681870429411653e-01,-1.108244988405335585e+00,-2.041965527929020807e-01
-8.370067882941615300e-01,-1.049782711386548772e+00,-1.551800597921781932e-01
-8.694481769643050972e-01,-1.128402665372874480e+00,-1.629792858852081028e-01
-8.685526473933873337e-01,-1.144164318830602545e+00,-9.431155232486793105e-02
-8.775655234827022255e-01,-1.074977446756120170e+00,-1.158154119649263819e-01
-9.451820266596768771e-01,-1.157442021004067678e+00,-5.381921746807107054e-04
-9.154010107778293159e-01,-1.154163168276865159e+00,4.575499242052939730e-02
-8.710540025539239561e-01,-1.227185226566975818e+00,4.574503654223369131e-02
-9.476784202505639243e-01,-1.103829799623855079e+00,1.670983169261765489e-01
-8.602478468362679820e-01,-1.142043310219074792e+00,2.136865088648259858e-01
-7.996446827868006757e-01,-1.114148663731937106e+00,2.190503568575550564e-01
-9.167330035388014942e-01,-1.133094232503317311e+00,4.147760298061449191e-01
-8.367012591138455191e-01,-1.185440796460524693e+00,-3.407237796818706199e-01
-8.460916449191329125e-01,-1.132721841002322094e+00,-2.902224824345420173e-01
-8.404330305776939181e-01,-1.192571994359579390e+00,-3.458757278718425088e-01
-7.933781276493089285e-01,-1.157999764431300038e+00,-2.304926098097626608e-01
-7.968352962222771119e-01,-1.157521873313762217e+00,-1.646564027185085377e-01
-9.320073698857352928e-01,-1.199816674021355389e+00,-1.690098666730736054e-01
-8.494916276029305102e-01,-1.064152471171676551e+00,-1.071408552539951375e-01
-9.095692908693262524e-01,-1.129338313248679615e+00,1.250597854586689428e-02
-8.727927672970955397e-01,-1.145469294194927823e+00,8.797948365678681659e-03
-8.644369439565102731e-01,-1.159282625977188230e+00,9.054905466573258399e-02
-8.556497441522472602e-01,-1.152661819823515454e+00,9.589767547133638825e-02
-8.573158604330898269e-01,-1.243960995304928208e+00,1.680965413550198628e-01
-7.878860315550275661e-01,-1.212261894539580886e+00,2.788573193680329299e-01
-8.747997025060175735e-01,-1.137247732813608803e+00,3.003044368164605182e-01
-8.223738112384948451e-01,-1.213673970454972162e+00,3.627529316883186250e-01
-8.736628196739465446e-01,-1.180900015172732020e+00,-3.886123200171490155e-01
-8.901122585256903141e-01,-1.066230066731913118e+00,-3.320700304871137543e-01
-8.487551277781366643e-01,-1.100774640133759918e+00,-2.801191872146085449e-01
-8.668693377294872660e-01,-1.101068680525510768e+00,-1.692097453599463175e-01
-8.382097509065310481e-01,-1.138322342804893417e+00,-1.540444537912919187e-01
-8.823587434969720755e-01,-1.111117053276543309e+00,-1.363894370018103042e-01
-8.483712421601455889e-01,-1.147137527029769455e+00,-5.396968998967448250e-02
-8.456714640571948438e-01,-1.112895925403748709e+00,-6.862441106442962457e-02
-8.517660652594570836e-01,-1.198174041344995500e+00,5.624213045518758336e-02
-8.682435528416786452e-01,-1.141724168368591030e+00,1.461337817573126197e-01
-8.503629845970916978e-01,-1.116556088875582109e+00,1.423461010659976822e-01
-7.765680865307238445e-01,-1.106933835431903379e+00,2.092555708851605856e-01
-8.254106916038463915e-01,-1.177802852779469944e+00,2.134030140461569414e-01
-8.824176710891935560e-01,-1.178821979937445752e+00,2.496645796671533024e-01
-8.230077629418032226e-01,-1.229037685707029093e+00,3.685508526872350865e-01
-8.456255558169777364e-01,-1.198943271900274832e+00,-3.994831548248814479e-01
-7.947850423346071169e-01,-1.199876936121837767e+00,-2.830277521889155157e-01
-8.078568353887961573e-01,-1.205263129803663791e+00,-2.504606750930355452e-01
-7.547262299663998197e-01,-1.149265961651306567e+00,-2.214301918187300544e-01
-8.151564760879512761e-01,-1.174222345816704483e+00,-1.423319604771685620e-01
-8.409820548082073133e-01,-1.140537237263328230e+00,-1.542775353371086677e-01
-7.077675005219653537e-01,-1.158984934492130359e+00,-3.753774849689136411e-02
-8.058201934080051476e-01,-1.263214218121386123e+00,-4.117095855344722610e-02
-7.766805983156126469e-01,-1.275619213277830566e+00,1.028517978458277637e-01
-7.808241812775156276e-01,-1.090823741267839653e+00,1.175043185022365128e-01
-8.059649209206530829e-01,-1.170716175147275440e+00,1.753811992176940726e-01
-8.022463553790387669e-01,-1.205036493666338471e+00,1.651580696229593137e-01
-8.494706980059077983e-01,-1.184897247256940789e+00,2.138882826615110533e-01
-8.208221557911959954e-01,-1.215473417933691458e+00,2.881857215413628492e-01
-8.998096313544881042e-01,-1.197072703428686102e+00,3.331092561880540370e-01
-7.765940767197123673e-01,-1.184986411830793340e+00,-3.315522225004201573e-01
-8.434702006013239384e-01,-1.152698488550113698e+00,-3.879930567771580630e-01
-8.365025488274832055e-01,-1.112894164222295812e+00,-3.217176019731520786e-01
-7.343695284586373440e-01,-1.153142613511590753e+00,-2.649676779313333563e-01
-8.003020372619343847e-01,-1.163119486718168893e+00,-1.747831604341854306e-01
-7.392111890809732744e-01,-1.089835094530898552e+00,-1.306706047290058514e-01
-7.310573250100719234e-01,-1.147634865655684511e+00,-3.894683423795660543e-02
-8.318223227341530190e-01,-1.215043660197952624e+00,1.654852919083023982e-02
-7.975454279035885108e-01,-1.116345804080630444e+00,-2.326852565836277920e-02
-8.459424321365381916e-01,-1.147949096861396789e+00,1.184966305864193631e-01
-7.909723650707684017e-01,-1.207711050336937486e+00,1.289133667453648824e-01
-7.766220485711226029e-01,-1.142435237918349999e+00,2.321021365105020440e-01
-7.816323945633948389e-01,-1.201997739202685267e+00,1.800074725045182622e-01
-7.750402702266308008e-01,-1.194505743047505009e+00,2.847338453822875759e-01
-7.791672928311185187e-01,-1.180921024559140609e+00,2.875009557854458775e-01
-7.184769419482811559e-01,-1.229179412501729241e+00,-3.887675117300077865e-01
-7.869844129696165203e-01,-1.195293419957899062e+00,-2.837548346916574094e-01
-7.328936585922298796e-01,-1.161403083487983601e+00,-3.254041407192531099e-01
-8.203794874273125926e-01,-1.151509897056469001e+00,-3.120086876053104752e-01
-7.896862044695421856e-01,-1.192444044820737847e+00,-2.238916708006734591e-01
-7.689428141551118978e-01,-1.195768853138356347e+00,-1.872041530387227870e-01
-7.365949754029078589e-01,-1.158873368434863771e+00,-8.434052691717208727e-02
-8.084598846752867329e-01,-1.149145277932298592e+00,-7.282699849798149327e-02
-8.608789141493026209e-01,-1.241284086255221242e+00,5.568126658738721535e-02
-7.909216538903153237e-01,-1.149953620708441537e+00,2.801055439424746801e-02
-7.219112178089617249e-01,-1.172649865950987857e+00,1.137316300446803152e-01
-7.907667252240365707e-01,-1.154185790898982988e+00,1.443038925348616719e-01
-8.093667615681842120e-01,-1.171789641349590516e+00,2.071897224553279071e-01
-8.133919431478603412e-01,-1.166353895410896069e+00,3.331587230056781146e-01
-8.480448106274820486e-01,-1.181338364639051619e+00,2.734908474979196868e-01
-7.203851349490174583e-01,-1.175286615986172123e+00,-3.529633568902938445e-01
-7.661513190225962555e-01,-1.195139280587536934e+00,-3.377611678781094473e-01
-7.615811607451902221e-01,-1.162068048624129935e+00,-3.157568795050209043e-01
-7.978276596605785587e-01,-1.208812427473521023e+00,-2.546962669098941090e-01
-7.300961735852962153e-01,-1.199100140698777128e+00,-1.743252146849850748e-01
-7.379642985124253984e-01,-1.157003130800040358e+00,-1.138840763432147768e-01
-7.329867474579575548e-01,-1.164870268948325016e+00,-7.541572627499643078e-02
-8.435976750729961005e-01,-1.175106623432178532e+00,-1.781380493476496935e-02
-7.107650190324198425e-01,-1.191312122450254307e+00,-4.770724700733201123e-03
-7.119137941421663784e-01,-1.185877499275870717e+00,7.849392986897353597e-02
-7.927187471241069483e-01,-1.239102555849032949e+00,2.011517530922415919e-01
-8.134620108678749517e-01,-1.220556275216631237e+00,2.069726227662420370e-01
-7.823388492422335139e-01,-1.178677442523354157e+00,1.722066703446051283e-01
-7.880255672853803128e-01,-1.236450542283540788e+00,2.493516454463773624e-01
-7.951122781093086234e-01,-1.127603277212010813e+00,3.142867218075006130e-01
-6.535250989628470508e-01,-1.184468497581336210e+00,-3.203435716677837108e-01
-6.359381586343499926e-01,-1.121254723652961083e+00,-3.899309888733522578e-01
-6.915712359386523289e-01,-1.190142930757681627e+00,-3.151638314872611257e-01
-6.857300135821536857e-01,-1.220938817836186852e+00,-1.635192256420123780e-01
-7.988814396883834323e-01,-1.198877468552405068e+00,-2.046847352122576902e-01
-7.310181813930238803e-01,-1.195199662628699144e+00,-1.735102839788715823e-02
-7.212166815782141693e-01,-1.137361505082932434e+00,-5.724985434197611689e-02
-6.527774532452514933e-01,-1.144633915458401319e+00,-9.667910763472981062e-05
-7.667205048116211286e-01,-1.199079595300904355e+00,2.492822164390190789e-02
-7.078298184313532859e-01,-1.266428695343676303e+00,5.220094049721486773e-02
-7.237109760857459717e-01,-1.176620951007164573e+00,1.024932853009513922e-01
-7.451924803943971165e-01,-1.134437475204090440e+00,1.932647871395932471e-01
-7.322532762976774467e-01,-1.160678221673304478e+00,2.290528444116372575e-01
-7.667334552863249719e-01,-1.184206169193345648e+00,2.458851783648293432e-01
-7.896942338195842570e-01,-1.208971254648790739e+00,2.939520080914617695e-01
-7.061391210626808412e-01,-1.211031959425076909e+00,-3.545536315764457047e-01
-7.334303936081291164e-01,-1.207951691081057710e+00,-3.492234685436939046e-01
-6.843270505397006653e-01,-1.182733333085251193e+00,-2.733503001870587479e-01
-7.198514262557049737e-01,-1.176077641189588130e+00,-2.201001924086117834e-01
-6.753346749116945213e-01,-1.210174090770523625e+00,-1.675926662673789258e-01
-7.692815707812885595e-01,-1.200600102219163912e+00,-1.207562352515173659e-01
-6.622719467232984769e-01,-1.163331131309981670e+00,-2.918933019965191250e-02
-7.864214280941296265e-01,-1.231005869500353400e+00,-8.055400663891387064e-03
-8.239238387004423902e-01,-1.306663675198196595e+00,5.449546010383421457e-02
-7.321923704827173474e-01,-1.181178992239758641e+00,-3.963410700065639336e-02
-7.304535995026953943e-01,-1.148314310217993572e+00,1.016386689886797645e-01
-7.669507845189970086e-01,-1.209464056751240690e+00,1.732577083282971220e-01
-7.854595684477218009e-01,-1.214059584369644007e+00,2.682397698441995049e-01
-7.441745680622698922e-01,-1.163922924089437094e+00,3.162659148274581389e-01
-7.465106816242632615e-01,-1.211996524778293338e+00,3.808219678284253673e-01
-7.425599805781712970e-01,-1.239248194781840784e+00,-3.646451863438522345e-01
-7.479659607432150858e-01,-1.186040775800745628e+00,-3.482509579390662413e-01
-7.702060479153326478e-01,-1.281994503525712981e+00,-2.730316094502262536e-01
-6.842755926401827837e-01,-1.220899763462101273e+00,-1.816131865866851824e-01
-7.313128412416083357e-01,-1.246319404026176025e+00,-1.584009183016964473e-01
-7.346521400709178362e-01,-1.198617154824784592e+00,-9.721479363184862277e-02
-6.703097809479156011e-01,-1.255974413576533610e+00,-8.439335968437923496e-02
-7.085049026869786326e-01,-1.196570299204855470e+00,-6.887424228096440670e-02
-7.467213728493289349e-01,-1.126134986803961846e+00,4.619772321894879963e-03
-7.550596312895966333e-01,-1.223846137909714304e+00,1.985326035855716764e-02
-7.446429275352193233e-01,-1.179882446488013770e+00,5.032426898601100040e-02
-6.374407085224739200e-01,-1.210955726220301010e+00,1.523796837720001462e-01
-7.162786025630530906e-01,-1.243747542765539782e+00,2.603631261144117026e-01
-7.117310622488970395e-01,-1.216706463326384879e+00,2.979271280085366569e-01
-6.608544578407347103e-01,-1.148817612401390909e+00,2.820382396637615141e-01
-7.014942695006033402e-01,-1.170233671906019568e+00,-2.502225637357426979e-01
-6.684939074709259632e-01,-1.135913478577700975e+00,-3.990755551500447251e-01
-6.254811878384917145e-01,-1.195690236870164735e+00,-2.611234338459431092e-01
-6.111710935344044637e-01,-1.290808335615978741e+00,-2.498906598103437238e-01
-7.374855608821371256e-01,-1.173754173922526123e+00,-1.722209281241347534e-01
-6.505838561827148592e-01,-1.173355348853034608e+00,-8.869960980642294102e-02
-7.279570661245043928e-01,-1.257857180327851543e+00,-1.410274382592059395e-01
-6.660059397096954603e-01,-1.173552239171676836e+00,-3.120988320948767103e-02
-7.413848706158934210e-01,-1.173890517164855485e+00,1.934446178950484027e-02
-7.404467228803172096e-01,-1.164306364471916266e+00,-4.631435365563527085e-03
-6.893722924095494475e-01,-1.156149136197540228e+00,1.006584745026291028e-01
-6.570346997013808421e-01,-1.235359676931161443e+00,2.067849833967745077e-01
-6.382616485963467090e-01,-1.186570718753336751e+00,1.870066633117733468e-01
-6.901123708390319855e-01,-1.218185481937873682e+00,2.887513649587487574e-01
-6.430255024318056734e-01,-1.189309028310389982e+00,3.778469357373965831e-01
-6.947784896746620475e-01,-1.200965194563204719e+00,-3.940251746754015461e-01
-6.201349324713886224e-01,-1.235802147813759300e+00,-3.959953213485011281e-01
-6.312283132256597540e-01,-1.233508214588576291e+00,-3.219681715552880075e-01
-6.427033040634808625e-01,-1.202421725180821799e+00,-2.440811968925386266e-01
-7.306024170111596883e-01,-1.193446914916315826e+00,-8.677402660392022349e-02
-6.253928908045036650e-01,-1.198778643354040163e+00,-1.277806466812259623e-01
-6.284860150645719123e-01,-1.174556875210273077e+00,-8.813193867519693303e-02
-7.001631825647343099e-01,-1.185376856522054156e+00,-4.029063413314131620e-02
-6.622906189811451627e-01,-1.154478891216990766e+00,-1.092902706406170821e-02
-7.331786871148917584e-01,-1.203101415233039040e+00,1.102698718276561296e-01
-6.608168184304036297e-01,-1.213608163078927049e+00,1.996323682777180197e-01
-6.523814529843893206e-01,-1.178441734001860253e+00,2.123813305355322367e-01
-6.313800414703614194e-01,-1.191653957560037780e+00,2.114565051133384388e-01
-7.063602353809744772e-01,-1.216744793971569427e+00,2.855974256327815097e-01
-6.253233465988189410e-01,-1.221993849311423297e+00,3.585699314815808947e-01
-7.147593317099638632e-01,-1.186925808122931691e+00,-3.937228267745927490e-01
-5.696641890327799329e-01,-1.157289712658062797e+00,-2.821614491041215533e-01
-5.775547461774507285e-01,-1.119864635200756853e+00,-2.636956934835268940e-01
-6.822490362694080268e-01,-1.148448387719462449e+00,-1.861878250966397252e-01
-6.341603323152399385e-01,-1.188268448706549130e+00,-2.040564134005807273e-01
-6.329051633806892507e-01,-1.266553231476758024e+00,-1.584234061043421349e-01
-6.491471251683545995e-01,-1.207031015209725000e+00,-9.409651628722782990e-02
-6.611912843083913582e-01,-1.236921281985233989e+00,-6.104180042108186405e-02
-7.248330558174608251e-01,-1.251848629424777037e+00,7.349271423932175751e-02
-6.828407715461278782e-01,-1.290958596552109761e+00,1.014177390292696490e-01
-6.670103889626788352e-01,-1.223683193955198645e+00,1.025651100118580711e-01
-6.273549671279748940e-01,-1.257246158630995758e+00,1.569571852423983505e-01
-5.988904807981946243e-01,-1.295866728789434985e+00,2.223854768651606639e-01
-6.331360571047186525e-01,-1.220775773957264221e+00,2.150080065348450309e-01
-6.044583803388794419e-01,-1.280206064341494088e+00,3.151307174449277104e-01
-6.437583402063333793e-01,-1.219839671878453879e+00,-3.272503185343078047e-01
-6.537350773755270517e-01,-1.233408974454669904e+00,-3.477938370172103388e-01
-6.214508121995018231e-01,-1.190092910453045549e+00,-2.781055803889215805e-01
-6.310148821847324507e-01,-1.254441004346126265e+00,-1.493152333557365985e-01
-6.025879756361861572e-01,-1.237360166972832465e+00,-2.106628893291230820e-01
-6.677629734056258481e-01,-1.150367626363757889e+00,-1.152980108304296480e-01
-6.422935414548526234e-01,-1.263892561941325710e+00,-9.855861489343199777e-02
-6.756221600918225212e-01,-1.286805920769287903e+00,-6.315001171717175843e-02
-6.733579067298641752e-01,-1.200279220905808186e+00,-2.091021048458962389e-02
-6.743848541131897134e-01,-1.213345250545833531e+00,5.664111127458093531e-02
-5.295187702285369946e-01,-1.290377265778835492e+00,1.267963839736273024e-01
-6.317811607011357689e-01,-1.272782056253456195e+00,1.411930313122718716e-01
-6.207946791913849793e-01,-1.156116240693710662e+00,1.588416545964748683e-01
-5.840064112729728141e-01,-1.242032951570930299e+00,2.520691392745469384e-01
-5.911378062198900940e-01,-1.278276226189571707e+00,2.843262036463876652e-01
-6.356639083313873062e-01,-1.260354802895176318e+00,-3.628081610825845127e-01
-6.375302335632678785e-01,-1.155104448472399126e+00,-3.192670885725928387e-01
-5.814999050221925092e-01,-1.233963555602203721e+00,-2.688403111695342185e-01
-5.959865923842473379e-01,-1.271740289175579353e+00,-1.352053584682652576e-01
-5.922992416229997392e-01,-1.159480879738519876e+00,-2.332979823721297308e-01
-6.375801220404428982e-01,-1.276357930707044730e+00,-1.223013083741573276e-01
-6.610667044667886127e-01,-1.223392321837223129e+00,-7.454648190423110443e-02
-6.912357822679983110e-01,-1.218179478839555685e+00,-7.379730889022530216e-03
-5.582527419272429459e-01,-1.189600865895684256e+00,-4.201746266225218213e-03
-5.898669380778605031e-01,-1.306695640508634071e+00,4.681699015221797017e-02
-5.355080516272522351e-01,-1.177839884905620860e+00,2.025113550508925164e-01
-5.835933378308213459e-01,-1.175259328012877136e+00,1.154989063466517196e-01
-6.359138544173390528e-01,-1.310740431790295535e+00,1.838688070687317100e-01
-5.932045217413128846e-01,-1.189609214334200304e+00,2.832233596885518900e-01
-6.224784397039742068e-01,-1.279168906299610775e+00,2.956627836302868628e-01
-6.230390110689963956e-01,-1.199765337441796920e+00,-3.689490497816950709e-01
-5.364916323558057698e-01,-1.229297297948376499e+00,-3.619825351640014177e-01
-5.737177936915620613e-01,-1.193183336347886980e+00,-1.917349215635053561e-01
-5.706249588886874724e-01,-1.231441552847039933e+00,-2.603466725265481951e-01
-6.399593954886179104e-01,-1.174443073716115782e+00,-2.246093641935434926e-01
-5.028579963660589902e-01,-1.239782318125201011e+00,-8.560185919384089015e-02
-5.998803799273959569e-01,-1.252875232306135844e+00,-2.825543468467949654e-02
-5.346190986625681818e-01,-1.212899438757274906e+00,-2.131692048487159735e-03
-6.287380019574183576e-01,-1.240107267196138396e+00,2.531557463977976083e-02
-5.924722356361786790e-01,-1.221598513452676782e+00,1.072250587948883893e-01
