1.038544273279737640e+00,-1.832963632992063774e+00,-1.910401836432455980e-01
1.047522117779296602e+00,-1.835183676143518516e+00,-1.134564444256160598e-01
1.058764327978075181e+00,-1.835031318841651160e+00,-2.730424927857515172e-02
1.044340247376603692e+00,-1.840922011919840839e+00,3.880141599083619663e-02
1.046528635957108877e+00,-1.850033166602742529e+00,9.482559909039427193e-02
1.039837073649128696e+00,-1.861504314140574712e+00,1.747176716887837988e-01
1.053442984007421979e+00,-1.834552323195837165e+00,2.598351480056457774e-01
1.054432345804713123e+00,-1.826727457245367559e+00,3.279613735705687594e-01
1.045512766789538528e+00,-1.839145970897248850e+00,3.965839596160769531e-01
1.049549159886174809e+00,-1.857257029823081718e+00,4.910408583278459971e-01
1.065320794263150628e+00,-1.787767182880749317e+00,-5.635049825662044043e-01
1.064278953400912053e+00,-1.800023668873598881e+00,-4.878081470517632301e-01
1.055195506085019108e+00,-1.795240354746930223e+00,-4.046926396519904268e-01
1.059282099004467570e+00,-1.789911991397378221e+00,-3.329157849624700405e-01
1.056208191211831737e+00,-1.789280548688704453e+00,-2.610349714015216538e-01
1.061840876542432088e+00,-1.790622283358458411e+00,-1.903286255789438941e-01
1.077004573512327479e+00,-1.809362966008087659e+00,-9.849987810336562066e-02
1.057660371990377657e+00,-1.808196640527954813e+00,-4.385756068726473500e-02
1.057747011688703331e+00,-1.815839309334422502e+00,4.619215113324524891e-02
1.075387305386735548e+00,-1.820741824334358494e+00,1.092286063144412012e-01
1.059413199218570467e+00,-1.824674695516007361e+00,1.968714741010272884e-01
1.080034852082336405e+00,-1.836701249936267377e+00,2.438846127579507306e-01
1.082261945333723663e+00,-1.823171157824943656e+00,3.285643765096957214e-01
1.073136796300501183e+00,-1.804414923958781003e+00,4.168159981008527359e-01
1.081952165212624939e+00,-1.824001833470144884e+00,4.864560288683829059e-01
1.070225796788338846e+00,-1.780541428305751017e+00,-5.490522837862854555e-01
1.073528219377819504e+00,-1.784082605863564153e+00,-4.891727125525358599e-01
1.089039021429496934e+00,-1.779756464200497934e+00,-4.140967471487898011e-01
1.100091959948836573e+00,-1.779570427074681493e+00,-3.169966368936991685e-01
1.087963406024696766e+00,-1.766105491413568096e+00,-2.487467850987356011e-01
1.082098580820557210e+00,-1.772156712152676228e+00,-1.840170693090535103e-01
1.095495383330902461e+00,-1.794341442592879199e+00,-1.046900753110639182e-01
1.095969599565654207e+00,-1.806560199634913211e+00,-4.223013995022181083e-02
1.092567096720084452e+00,-1.804462324997582190e+00,4.304233374448507982e-02
1.101255147734506723e+00,-1.794392314284201539e+00,1.004330175121715268e-01
1.085402823938429462e+00,-1.800369870723787846e+00,1.677862110442983612e-01
1.085132687265726092e+00,-1.783320169514967413e+00,2.621764953405584797e-01
1.109319746099623138e+00,-1.809039790914597656e+00,3.346164485476839645e-01
1.090852765352539944e+00,-1.807429913443087788e+00,4.129988935033955810e-01
1.097987229843749413e+00,-1.800026482651341242e+00,4.983262560300056876e-01
1.104576613351283765e+00,-1.771447615056943814e+00,-5.440592068474283671e-01
1.118758537770856432e+00,-1.753991883070197488e+00,-4.747243000501514820e-01
1.111823948244349713e+00,-1.759462500821772357e+00,-4.041004807602911475e-01
1.108449247155656403e+00,-1.752406116127081859e+00,-3.259638904241515256e-01
1.115968276419523120e+00,-1.754775150926771055e+00,-2.658197250372857368e-01
1.102974680052453582e+00,-1.767661012182726310e+00,-1.804289651968038755e-01
1.122383064519818729e+00,-1.766146983187050212e+00,-1.146769303833087700e-01
1.124289049347653391e+00,-1.757979029076470523e+00,-5.887332292811198187e-02
1.117064450550674382e+00,-1.762618154136911031e+00,4.746377013965404762e-02
1.102208533119285461e+00,-1.773899264139126020e+00,1.185881206842605839e-01
1.115547187613783686e+00,-1.779535114744938751e+00,2.029457343993028018e-01
1.126596137431104205e+00,-1.790688566079405408e+00,2.548915926626006412e-01
1.122627561068983537e+00,-1.788935344294295460e+00,3.346530133869676793e-01
1.122581548400167550e+00,-1.793249361517681217e+00,4.036342146217361537e-01
1.124615185011981877e+00,-1.787408888086611691e+00,4.994138955396427715e-01
1.116795566825202091e+00,-1.729773740110498226e+00,-5.642485026540254855e-01
1.117634039993268935e+00,-1.737289087289120904e+00,-4.851375134870781203e-01
1.127880703877140567e+00,-1.742222875590227149e+00,-4.071839741861659756e-01
1.126095261973266259e+00,-1.733633832881322112e+00,-3.371860701695775786e-01
1.114650700015737073e+00,-1.731027088142494952e+00,-2.601632914388211093e-01
1.133564295922345755e+00,-1.738739265001031820e+00,-1.856473944922414632e-01
1.137050815949390392e+00,-1.742402825987616310e+00,-9.234523111951914442e-02
1.138136834569814626e+00,-1.727197357312848514e+00,-4.202724198192879512e-02
1.120152286661822982e+00,-1.737954975944662195e+00,2.646640214456353474e-02
1.140735597356658637e+00,-1.741904229973282314e+00,1.018813435675486323e-01
1.139062052033550598e+00,-1.751249477551890976e+00,1.939559859614809478e-01
1.136929689804061061e+00,-1.763640411605873703e+00,2.465211524363197237e-01
1.130540579612679730e+00,-1.753326960370104493e+00,3.279509404822400498e-01
1.139361912120390619e+00,-1.766849248854381660e+00,3.982675599983266923e-01
1.142241059074285969e+00,-1.750388642859475929e+00,4.938111745973452482e-01
1.147094521535584555e+00,-1.719091957129342596e+00,-5.388460307160289897e-01
1.137701732369925223e+00,-1.717735017488706273e+00,-4.716394562377270727e-01
1.132320709768357192e+00,-1.716488784010635982e+00,-4.072900928456082426e-01
1.152002515904257285e+00,-1.720839413360785164e+00,-3.138295749079312857e-01
1.154736018339559855e+00,-1.724672138228448892e+00,-2.652208227491726911e-01
1.150810663469437722e+00,-1.727239778245762913e+00,-1.896875665917496512e-01
1.144192074149162242e+00,-1.721705961759223191e+00,-9.030122483835917313e-02
1.162552610235569439e+00,-1.721196106425736838e+00,-3.857018255835295562e-02
1.170390458088152563e+00,-1.720434244740407514e+00,3.714583985615771411e-02
1.169331894584947351e+00,-1.729026546308641388e+00,1.054901310135539089e-01
1.162885742710670245e+00,-1.738013485311668882e+00,1.876786469311976790e-01
1.144985349822894793e+00,-1.735155845686171983e+00,2.455754119062342478e-01
1.168201256328243565e+00,-1.736089837469747321e+00,3.339684544894900298e-01
1.152404796531525832e+00,-1.715948764730421683e+00,4.042725025308465114e-01
1.162005792527943893e+00,-1.732703102747157331e+00,4.802613801233380220e-01
1.155286046313596549e+00,-1.691003921345996197e+00,-5.457946046654288397e-01
1.158371206949130539e+00,-1.686441616614931638e+00,-4.771259447729434555e-01
1.162479152569292573e+00,-1.697350054701682653e+00,-3.945639996421438367e-01
1.163093004819087950e+00,-1.685584949205948035e+00,-3.273852422183171074e-01
1.172595839718761468e+00,-1.692001504136116052e+00,-2.374842124586736269e-01
1.176383574615373906e+00,-1.699934138526168592e+00,-1.778264792163854191e-01
1.173367055438170103e+00,-1.701221792873553129e+00,-9.904858235247503140e-02
1.171832062919573314e+00,-1.703431651152661264e+00,-3.185355921989107414e-02
1.177086729593624259e+00,-1.699221734004728646e+00,4.543222087781878527e-02
1.184582298428301206e+00,-1.707695477280018137e+00,1.166051894870523964e-01
1.164466523471325843e+00,-1.704435590302566084e+00,1.746542273206963536e-01
1.187349098545247950e+00,-1.701105246506004143e+00,2.637504927088887285e-01
1.177938006909031499e+00,-1.721021019149601372e+00,3.279338201253542695e-01
1.176137806798867702e+00,-1.723397585061562154e+00,3.967727738228350454e-01
1.194146744381986425e+00,-1.711721005947632879e+00,4.818605466248070957e-01
1.178743574384311099e+00,-1.667483626563174282e+00,-5.610933924513871185e-01
1.190064677964845385e+00,-1.663901865741280517e+00,-4.849054694599054249e-01
1.192605822208516519e+00,-1.671635547398650168e+00,-3.871033889719112664e-01
1.183543473316986727e+00,-1.669258105165268846e+00,-3.257353339342402010e-01
1.185219893287458692e+00,-1.669413133792187365e+00,-2.400766903372363037e-01
1.200861661615084897e+00,-1.684389408985456082e+00,-1.827791616961695342e-01
1.201233453474950252e+00,-1.675410107443089380e+00,-1.100375126276971482e-01
1.189308572314050627e+00,-1.672050935853077736e+00,-2.464993592186305246e-02
1.201555344687660121e+00,-1.686140614792140280e+00,4.011184904430828424e-02
1.201233725822840492e+00,-1.689281141858844038e+00,1.026317944507451480e-01
1.199451632508139687e+00,-1.689856676636587007e+00,1.751184990950972742e-01
1.221388168349798020e+00,-1.668849133077316083e+00,2.568393765667494333e-01
1.197205252412442800e+00,-1.693042011243229172e+00,3.359274450499424858e-01
1.197427876502111577e+00,-1.703855102073384087e+00,3.982061248156827382e-01
1.210712616058537749e+00,-1.710243566405982962e+00,4.884080273256719562e-01
1.206611195946855064e+00,-1.647754186778247032e+00,-5.333704900519481429e-01
1.196960283592968022e+00,-1.660590366825798192e+00,-4.757052780148474103e-01
1.215466619392316705e+00,-1.649762196399010783e+00,-4.045811290093100920e-01
1.201466561679337852e+00,-1.667899576698109509e+00,-3.305841477041075449e-01
1.236022478318653750e+00,-1.643525043484762360e+00,-2.557077693788559203e-01
1.233579140995120227e+00,-1.669491282002162791e+00,-1.793319930015121744e-01
1.207832668397951004e+00,-1.650495645077384665e+00,-1.075753769358312462e-01
1.218399597516783395e+00,-1.653801207936925088e+00,-3.316183523731158767e-02
1.218531915018827627e+00,-1.665844074041460177e+00,2.552095898857608888e-02
1.218195946042096578e+00,-1.662199530134807368e+00,9.821059071353860359e-02
1.221175906719785598e+00,-1.678985773732025066e+00,1.976570304757070129e-01
1.228897049810310671e+00,-1.679645669296972343e+00,2.578478883665791810e-01
1.224646976487357319e+00,-1.680274411482914454e+00,3.383185235037455829e-01
1.217622818553988573e+00,-1.663459871348447416e+00,4.066310451954558425e-01
1.231718084038182504e+00,-1.682315162624151483e+00,4.781844624719996384e-01
1.230429573069572902e+00,-1.622275511965279859e+00,-5.448339089124559775e-01
1.228251056742322378e+00,-1.634629404428069366e+00,-4.723067829181546440e-01
1.238986002350148441e+00,-1.627964738120047938e+00,-3.961062492040610117e-01
1.232175204750450392e+00,-1.618959588658901438e+00,-3.296301728985151502e-01
1.244103361710676925e+00,-1.642318077461011328e+00,-2.446418497163009853e-01
1.240865099929128190e+00,-1.637649634080116767e+00,-1.772917789239804587e-01
1.223939603309867286e+00,-1.630074171712939890e+00,-1.051911722178325570e-01
1.235188638857895427e+00,-1.634966730204586272e+00,-4.026144425651657921e-02
1.260649125578195973e+00,-1.641913894736199753e+00,3.654757505349566504e-02
1.236764315742223452e+00,-1.645524732512088528e+00,9.431559851024322316e-02
1.252305110454977610e+00,-1.654468205494499689e+00,1.726872817957063322e-01
1.247429346309229414e+00,-1.656081330423518683e+00,2.471643790402716645e-01
1.247902966278572112e+00,-1.654625226701256890e+00,3.331797313242109704e-01
1.261107962195024523e+00,-1.647783221176911228e+00,4.002273781069277114e-01
1.252088211481447777e+00,-1.648097325909900990e+00,4.881024108004742290e-01
1.242048746540945325e+00,-1.603772746454257492e+00,-5.423275799580298262e-01
1.257813688230260185e+00,-1.611710821441524111e+00,-4.757855984416639039e-01
1.247581661086677229e+00,-1.601165853890869295e+00,-3.985460218317688486e-01
1.260360516504437589e+00,-1.615496583947776399e+00,-3.262496737814411518e-01
1.264253824834201012e+00,-1.617942852927934938e+00,-2.657975540971704298e-01
1.260245365214425872e+00,-1.618173486179478537e+00,-1.814303165877249602e-01
1.266202124808391005e+00,-1.610675077109417597e+00,-1.001283888254491661e-01
1.282010506171349373e+00,-1.608181084220753787e+00,-3.123727732333567847e-02
1.265628724911795899e+00,-1.626907263902221956e+00,4.945475054363038248e-02
1.266016258988996501e+00,-1.609675667516285547e+00,1.015273654093872685e-01
1.253594789180445979e+00,-1.618300410229215780e+00,1.932322661761677884e-01
1.262287593422528609e+00,-1.636037578728099184e+00,2.596068825751508546e-01
1.271801145208480976e+00,-1.631961616106254898e+00,3.267427205722342465e-01
1.268250222189478027e+00,-1.628931048673479154e+00,4.098851670440595840e-01
1.270404878424897799e+00,-1.647856322290484066e+00,4.874715331737938806e-01
1.263396353328181787e+00,-1.580812249449250251e+00,-5.324876427825609992e-01
1.274658033883637298e+00,-1.587395487671267702e+00,-4.718082427725913131e-01
1.259362747428575569e+00,-1.592938260048897270e+00,-4.004552912856131353e-01
1.273574028797215263e+00,-1.595615408716108297e+00,-3.198682877532780244e-01
1.267666345223264601e+00,-1.592292832983283724e+00,-2.608968215776860111e-01
1.278628929714892726e+00,-1.574349356752886786e+00,-1.758096060368303515e-01
1.275402043604756841e+00,-1.590230833733382143e+00,-1.063323576849939389e-01
1.281068275469106288e+00,-1.601654554296899180e+00,-2.937198066201566343e-02
1.281180278013968721e+00,-1.581281019625384365e+00,3.930723124463215978e-02
1.283416483244639306e+00,-1.604957866625511098e+00,1.180443666934970909e-01
1.282894080992910801e+00,-1.607098434122083086e+00,1.809401876744547166e-01
1.280607464026915610e+00,-1.608336435331376491e+00,2.531173781634069031e-01
1.289456440289182826e+00,-1.612187397231041430e+00,3.190103351503685292e-01
1.306612359392163469e+00,-1.615655745833378454e+00,3.936144843685527306e-01
1.282407734077900763e+00,-1.617572174622558423e+00,4.691243320811398498e-01
1.307969313374993003e+00,-1.554386451292162796e+00,-5.495938460120449731e-01
1.283590041238892310e+00,-1.566555830803362914e+00,-4.708382496145468998e-01
1.293044982562683076e+00,-1.565469486519760034e+00,-3.862689621972164589e-01
1.293662102438221106e+00,-1.556269347649152479e+00,-3.212618051934396091e-01
1.287670426751460484e+00,-1.571873790714433117e+00,-2.576245642898328803e-01
1.288370866807887039e+00,-1.570639815089591051e+00,-1.770991808242812493e-01
1.310154619970898660e+00,-1.579583141227404619e+00,-1.101389218123139668e-01
1.304159640272598342e+00,-1.580087910793096739e+00,-3.387877929775567898e-02
1.308087472262100315e+00,-1.574204779555945732e+00,4.166934773481470455e-02
1.308951368064100951e+00,-1.580081476132272345e+00,1.205183253544044597e-01
1.305219534947245741e+00,-1.592036008251038748e+00,1.679561026070182650e-01
1.301013902854229798e+00,-1.584422537156569222e+00,2.445322782119077054e-01
1.322123587936718359e+00,-1.588954754286926008e+00,3.300443928899713941e-01
1.311612462155843817e+00,-1.585950063514435460e+00,4.007143946987211658e-01
1.314567912231523250e+00,-1.589081537365903074e+00,4.755444363199824998e-01
1.311599740428362804e+00,-1.545197602461112485e+00,-5.416338363096664388e-01
1.312127614626531935e+00,-1.536771154945480111e+00,-4.689543156974237403e-01
1.306749355374130728e+00,-1.529032013941255652e+00,-3.786622684198717170e-01
1.319954932278127435e+00,-1.543914345328571303e+00,-3.223715689256023698e-01
1.295144518288065205e+00,-1.540999938548833326e+00,-2.454443605621431934e-01
1.321107240290665175e+00,-1.556385381267674672e+00,-1.735571038186553561e-01
1.335153552666767052e+00,-1.547080792286306128e+00,-1.112655014050948354e-01
1.330279907410956364e+00,-1.559017382270432961e+00,-3.477737747979636057e-02
1.328672087751636921e+00,-1.560524462103352050e+00,2.942675908010782687e-02
1.320174387537775385e+00,-1.558340479197432904e+00,1.178834592275013332e-01
1.319578729451413412e+00,-1.551992256477525700e+00,1.941083896958601951e-01
1.328383879140637491e+00,-1.561758961623364472e+00,2.662980530868064855e-01
1.346262683947542005e+00,-1.561174422716384180e+00,3.191623605254534368e-01
1.349849635324094077e+00,-1.557645793537463463e+00,4.248637013484098390e-01
1.326885400877578780e+00,-1.577824083178402281e+00,4.751857422532744235e-01
1.336235219802246466e+00,-1.517338687159788702e+00,-5.448723873143643814e-01
1.342930923549489064e+00,-1.522213649327892382e+00,-4.692937120487328251e-01
1.337608204124197453e+00,-1.531966283416497099e+00,-3.915113284147343498e-01
1.321814236459140091e+00,-1.528955252207778504e+00,-3.287958761962115339e-01
1.345125743233174020e+00,-1.546506377140413502e+00,-2.479615200237393624e-01
1.331630798294988871e+00,-1.535241408689531406e+00,-1.765725226732856867e-01
1.333170667689923095e+00,-1.536139221528936449e+00,-9.943861433301473540e-02
1.358289213499994208e+00,-1.537259911671424728e+00,-3.796111143027205287e-02
1.352173409719012120e+00,-1.538851291397780541e+00,4.329512238153868098e-02
1.363341678559366166e+00,-1.539579491680890921e+00,1.141597776543484266e-01
1.342229232523743043e+00,-1.526723942614512719e+00,1.637154568894113038e-01
1.348943983469488295e+00,-1.539259005472195296e+00,2.447296395518407941e-01
1.362985715945027154e+00,-1.553904832290296856e+00,3.320928953204755896e-01
1.363893439889541703e+00,-1.549997922859561061e+00,4.039900624770960680e-01
1.360305308843515082e+00,-1.555554510882407149e+00,4.749702653120614348e-01
1.347954019344730803e+00,-1.500786263708901558e+00,-5.430723677706829067e-01
1.342948235207261698e+00,-1.502381965924093343e+00,-4.849141861040894841e-01
1.361128403516438823e+00,-1.497875337060274870e+00,-3.845767230562394667e-01
1.369621482489475905e+00,-1.503682773627817104e+00,-3.212152505177196526e-01
1.365051901181630445e+00,-1.516687651288316507e+00,-2.419572282252761553e-01
1.362597643442488682e+00,-1.503660006310547415e+00,-1.771456448721627774e-01
1.372940545574108828e+00,-1.528517859175801075e+00,-1.006286932265036682e-01
1.355775405708548043e+00,-1.523198061774411638e+00,-3.130123398780104010e-02
1.365063421630694940e+00,-1.543816707411897138e+00,3.694292247795135514e-02
1.364820699958345651e+00,-1.524054394032142046e+00,1.234720663623573716e-01
1.370328657906846104e+00,-1.510567224447611601e+00,1.905909565010696360e-01
1.377375294512667159e+00,-1.517548539392463036e+00,2.430436545213333355e-01
1.384158717666171823e+00,-1.518798019101170960e+00,3.348004496824817933e-01
1.373778807209672159e+00,-1.525979748096194744e+00,3.954988731329137086e-01
1.375577667536209026e+00,-1.523244515746352112e+00,4.649481468321814415e-01
1.376824974039159377e+00,-1.487060063697734025e+00,-5.388538921530733328e-01
1.395006840748195920e+00,-1.499575337994390800e+00,-4.534937917567152255e-01
1.390260970909664273e+00,-1.488171641251445410e+00,-3.910933117059611219e-01
1.395675549434491236e+00,-1.492921092625847379e+00,-3.247370036451318609e-01
1.390685301405628849e+00,-1.487172744112031930e+00,-2.495560489853737296e-01
1.387480731988441907e+00,-1.496174959732307519e+00,-1.650250567166301752e-01
1.381849350612135874e+00,-1.490543719157793934e+00,-1.138884037100972302e-01
1.391282346152842742e+00,-1.500940719937501777e+00,-2.908819383302429021e-02
1.398703784984668852e+00,-1.503577472802717363e+00,3.565501638369327625e-02
1.383871142890888972e+00,-1.495544986086714712e+00,1.045053191701898615e-01
1.389557101761757840e+00,-1.499054198718499320e+00,1.697017783188524975e-01
1.390310401550975072e+00,-1.505742151820878449e+00,2.585413290892322191e-01
1.402975862864583423e+00,-1.506683354178635970e+00,3.222333275500117722e-01
1.401193824092709317e+00,-1.516015074240882887e+00,4.045631264929778204e-01
1.398436737873172575e+00,-1.508358500360659882e+00,4.926066459231904782e-01
1.402091139333898839e+00,-1.450085312218958977e+00,-5.311802240643445083e-01
1.396261278210197965e+00,-1.467829382187722853e+00,-4.684069114848790627e-01
1.409375223820187317e+00,-1.465632543573385682e+00,-3.895822661017052657e-01
1.411777776522976424e+00,-1.474374218684651794e+00,-3.211958227447134218e-01
1.401299648916294327e+00,-1.463934305506613631e+00,-2.561722974869908853e-01
1.413080352020163577e+00,-1.467828723259735790e+00,-1.780757849533539938e-01
1.397113688309397306e+00,-1.467254913548453388e+00,-1.055175930657162170e-01
1.416084413351445193e+00,-1.469553908319088054e+00,-3.398901597813430014e-02
1.403001389322595660e+00,-1.483262333996963278e+00,5.438405507064748845e-02
1.407577349618243767e+00,-1.469905569122630817e+00,9.292080283478003355e-02
1.415447784025927191e+00,-1.478540967076910295e+00,1.743404279519973343e-01
1.427493991882568647e+00,-1.489879980364796852e+00,2.496098535233446658e-01
1.417165863519848079e+00,-1.480208315886035519e+00,3.275000392194153953e-01
1.415960608051652914e+00,-1.472110179242305472e+00,4.228057958044886266e-01
1.415747810532884010e+00,-1.491533519856447443e+00,4.722932172143450291e-01
1.406160988787457100e+00,-1.429217363297974330e+00,-5.480646871209196025e-01
1.424237863106635693e+00,-1.449750990021369867e+00,-4.764048798677824603e-01
1.419411748279467256e+00,-1.437206169654684507e+00,-3.778205503739880955e-01
1.411426806334593387e+00,-1.450550228083704374e+00,-3.255084489164029593e-01
1.422939992624346894e+00,-1.453587318253491523e+00,-2.554742212191465911e-01
1.412450082865093215e+00,-1.442320432055886226e+00,-1.779461350563087407e-01
1.428091053079934225e+00,-1.468168993795241350e+00,-1.043555330539003567e-01
1.439557475012242183e+00,-1.451166823799036054e+00,-3.951346991356960436e-02
1.433720215930574637e+00,-1.456108477111791810e+00,3.520341716366216789e-02
1.422028458008643970e+00,-1.468350701930762892e+00,1.110780677398276045e-01
1.430395454040349179e+00,-1.467650160261251724e+00,1.713569748614752475e-01
1.443555429598399886e+00,-1.459087954786125740e+00,2.443780036348243145e-01
1.431036387188010517e+00,-1.460900339975299778e+00,3.190971723278390182e-01
1.446753722413105070e+00,-1.472899559736411623e+00,4.019388714207720037e-01
1.434008826838590656e+00,-1.482158189150655891e+00,4.812785573481646040e-01
1.434558273156917307e+00,-1.428736678872429833e+00,-5.415731391766269720e-01
1.437826529743837289e+00,-1.419435324241705487e+00,-4.580942482253664849e-01
1.461240971227124819e+00,-1.426523443791484658e+00,-3.945419681472621676e-01
1.439792349661730420e+00,-1.432852129355134618e+00,-3.161087649149639245e-01
1.444386180832206712e+00,-1.424949645069886195e+00,-2.432451251881974641e-01
1.446517455464260582e+00,-1.438574679259449596e+00,-1.751427903070789660e-01
1.453697014049411429e+00,-1.432151767713819579e+00,-1.159651877683632593e-01
1.458522972653075067e+00,-1.426405156744194880e+00,-3.357263933495901326e-02
1.452272350083408714e+00,-1.440192428003790992e+00,4.779318334262926821e-02
1.436068199850791594e+00,-1.455368597938231590e+00,8.647995090357457615e-02
1.455766926651727466e+00,-1.436141305279613700e+00,1.856559838958274644e-01
1.465879324106408532e+00,-1.438141624160945486e+00,2.515297246977680201e-01
1.459125882930046414e+00,-1.447971685021854915e+00,3.151590622839396949e-01
1.465676677234735825e+00,-1.437262357624587095e+00,4.020589412075575297e-01
1.452781058355978816e+00,-1.456416444449501801e+00,4.676764919173575508e-01
1.458456864587026391e+00,-1.398174016824185628e+00,-5.484489813297687144e-01
1.459114205869881609e+00,-1.388601447404699929e+00,-4.610602240373213867e-01
1.459672618437942937e+00,-1.395808745974534304e+00,-3.869827162281340716e-01
1.470263773912349636e+00,-1.402291635351665899e+00,-3.295375930949526189e-01
1.470983805539281430e+00,-1.414005182777703373e+00,-2.510115479567821550e-01
1.469291545430245538e+00,-1.405431370408322556e+00,-1.979833014380359135e-01
1.464384163839366870e+00,-1.406625326134705922e+00,-1.232463173313342875e-01
1.476762492335849775e+00,-1.401918493475242222e+00,-2.795724086021609406e-02
1.465776302355155325e+00,-1.432148857312886436e+00,3.598050614532793956e-02
1.478029918263340514e+00,-1.403331124705199606e+00,1.046814895494386083e-01
1.470975344071591584e+00,-1.425813584827954283e+00,1.888503579273846933e-01
1.475744364050093349e+00,-1.417218388369972493e+00,2.393224097260558680e-01
1.476691469958607117e+00,-1.422615413031020015e+00,3.202096107821971183e-01
1.483941259298238391e+00,-1.424955282284029456e+00,4.161008884396330543e-01
1.480625233692703935e+00,-1.414830366756697932e+00,4.749931664974295087e-01
1.469691448152173674e+00,-1.382089067980245778e+00,-5.373988859205014457e-01
1.491975139776066772e+00,-1.394434344223912658e+00,-4.701144054330572142e-01
1.481391664575872458e+00,-1.391776319657202610e+00,-3.971883652969435685e-01
1.494722589418775227e+00,-1.391663754116394980e+00,-3.288214036139041618e-01
1.483758614871992565e+00,-1.376617333245142571e+00,-2.461972417227810128e-01
1.496479691369060117e+00,-1.392107695796795275e+00,-1.779433176891006552e-01
1.506351927712222594e+00,-1.398491782238325598e+00,-9.641697760347915647e-02
1.487368811385666012e+00,-1.386973769951004298e+00,-4.482616476446438236e-02
1.498426902239807790e+00,-1.392319056615916706e+00,4.504151032125979642e-02
1.495297322577196164e+00,-1.380812411297530184e+00,1.140649954328955690e-01
1.501315428251399409e+00,-1.392435271277914666e+00,1.763291820104626040e-01
1.499346590990591865e+00,-1.401834828348698547e+00,2.578202609067030138e-01
1.487920186592952554e+00,-1.415352200187976139e+00,3.252475589317354587e-01
1.504517573539964737e+00,-1.407519914671962358e+00,4.084102731028595445e-01
1.502106238238026803e+00,-1.412560755971429272e+00,4.720906210544745796e-01
1.508583709033722409e+00,-1.359024199909394603e+00,-5.443118850499550909e-01
1.506886961157560378e+00,-1.360335071566707299e+00,-4.766026499860716581e-01
1.493818554835351975e+00,-1.368322051504720749e+00,-3.800657831732633385e-01
1.508065915415566227e+00,-1.371636879410362164e+00,-3.179933537296619206e-01
1.508527011109750182e+00,-1.355941570226422810e+00,-2.532761639222344541e-01
1.520642554765277765e+00,-1.367125931458940791e+00,-1.782568011031757937e-01
1.510865579542515880e+00,-1.371657205809784008e+00,-1.129214442553417991e-01
1.509841971870138577e+00,-1.370552617435631726e+00,-4.658746091021074426e-02
1.513089459131400139e+00,-1.381606281362677935e+00,3.950084332484379845e-02
1.525816853515447047e+00,-1.370286992692696826e+00,1.064854737048947092e-01
1.521480817393124907e+00,-1.373385567486461234e+00,1.743707252484565373e-01
1.518121951289052030e+00,-1.386889452679643586e+00,2.542936425387578581e-01
1.537520219977017710e+00,-1.369234744815059690e+00,3.237387347121363224e-01
1.524246887303091658e+00,-1.376689517608529201e+00,4.041124328196049054e-01
1.525265992593468178e+00,-1.387783247450711910e+00,4.738457117152378717e-01
1.518039205099641187e+00,-1.323301073731376620e+00,-5.399785473823940363e-01
1.500802788822361622e+00,-1.347663878977986229e+00,-4.664791081798767558e-01
1.522919153073730714e+00,-1.349032331428416276e+00,-4.074850282016171388e-01
1.507907868007084318e+00,-1.346350841478825666e+00,-3.163542984479998932e-01
1.533558822628505514e+00,-1.346888459102517421e+00,-2.403563955364099169e-01
1.529377383144074898e+00,-1.350927868028781287e+00,-1.710055920218265801e-01
1.531543702351453540e+00,-1.342978126779823089e+00,-9.582615538044493564e-02
1.531013501732750193e+00,-1.360241950642204101e+00,-2.592396437238593532e-02
1.538331176326310779e+00,-1.343296183116372111e+00,3.855364493395555675e-02
1.533269052460778603e+00,-1.354885722248001301e+00,1.088796298344905517e-01
1.543179051749571595e+00,-1.363176965417595810e+00,1.832562780656675494e-01
1.554659439056576886e+00,-1.371312864417301824e+00,2.543371962334597947e-01
1.539464611981635089e+00,-1.356961462557717768e+00,3.310933191634118367e-01
1.546404495663320722e+00,-1.369896264069153879e+00,3.997614939006737811e-01
1.540468562675390229e+00,-1.360413273188003869e+00,4.641738849150520152e-01
1.546448847626264333e+00,-1.342480492609591014e+00,-5.403972395689793373e-01
1.553944223625156607e+00,-1.316803288500876468e+00,-4.696212937003144683e-01
1.560947916411513425e+00,-1.340913095081375239e+00,-3.989750003727565719e-01
1.548957814618767692e+00,-1.335394310952431773e+00,-3.054797869539430666e-01
1.541195800543470940e+00,-1.322458635552059336e+00,-2.533658174773703586e-01
1.553563535251189620e+00,-1.336292267291508962e+00,-1.712257707818548857e-01
1.540184346051367781e+00,-1.332289993387857141e+00,-1.067479659590952618e-01
1.552194313143485882e+00,-1.328207640141607637e+00,-2.361081125497564367e-02
1.546490460799220479e+00,-1.344507727087443039e+00,3.235205965824419772e-02
1.564376318442201930e+00,-1.336465888972404592e+00,1.150964238751562979e-01
1.562624854607792546e+00,-1.341713518652759340e+00,1.878746281500344173e-01
1.554983490485512432e+00,-1.339281772663261316e+00,2.445758367689067903e-01
1.553916145407310712e+00,-1.350402016179267584e+00,3.251387746363383346e-01
1.565683994654620159e+00,-1.344538420083637886e+00,4.052973052588551561e-01
1.560890973285446126e+00,-1.344316930850591119e+00,4.834714809926275447e-01
1.544400382298678487e+00,-1.296456485106406875e+00,-5.580305285214026689e-01
1.567740786995705182e+00,-1.295089386132929565e+00,-4.754426807820515410e-01
1.573165186554298378e+00,-1.299775344144622036e+00,-4.049658815402000789e-01
1.560007724332935553e+00,-1.306246293400945335e+00,-3.116075520453728820e-01
1.581411461165009191e+00,-1.309733799702884172e+00,-2.517100701681762032e-01
1.579651502189300949e+00,-1.310616357609311278e+00,-1.832711771204406648e-01
1.577122843109847183e+00,-1.309484377950449252e+00,-9.333948176967689359e-02
1.569697437734611789e+00,-1.308837180437396608e+00,-4.889189550820527419e-02
1.585630419346423237e+00,-1.325893649610818459e+00,3.775826737854928034e-02
1.584470046774682173e+00,-1.306236507829834359e+00,1.020283805425590690e-01
1.576638486418884044e+00,-1.313359494282448470e+00,1.888766666261660898e-01
1.582610901412200510e+00,-1.306412427453881753e+00,2.487403045138104341e-01
1.581745978462488766e+00,-1.322771204102765052e+00,3.194971276373896329e-01
1.604290254732942067e+00,-1.296871530056796562e+00,4.096024970976610557e-01
1.593837467106554051e+00,-1.317073561788930425e+00,4.797329472413536799e-01
1.587408422888831216e+00,-1.284493170699804843e+00,-5.455197318309632504e-01
1.578277721788490684e+00,-1.276688686961055197e+00,-4.707586359082975846e-01
1.597362744518507238e+00,-1.276919329438745976e+00,-4.011808515277875964e-01
1.590993140428812458e+00,-1.292271612465722530e+00,-3.245171746860472939e-01
1.590375836299829704e+00,-1.288538199459873690e+00,-2.619241904911747687e-01
1.605411239059399309e+00,-1.280983284486775897e+00,-1.847734452062016197e-01
1.596469182883542004e+00,-1.293245598205784219e+00,-1.015003672821006980e-01
1.585934119152639710e+00,-1.293702790277182046e+00,-4.710308674843029231e-02
1.594148613616060972e+00,-1.295577771218882734e+00,5.050212067687420703e-02
1.593486444581600825e+00,-1.301524483788112807e+00,1.102115906320726563e-01
1.603281167065519153e+00,-1.298101380194452981e+00,1.795388701120030628e-01
1.608836755486249714e+00,-1.287223894987951311e+00,2.697160821167774447e-01
1.604488812603522385e+00,-1.282878018737511949e+00,3.109934517084299577e-01
1.608557770194667613e+00,-1.292565438291863877e+00,4.082443750870711763e-01
1.619156306038233684e+00,-1.300841676577731310e+00,4.833091496307034829e-01
1.602226532576990214e+00,-1.273572253787618624e+00,-5.382842069923651218e-01
1.622399311785282627e+00,-1.250802712860429766e+00,-4.617887329652798356e-01
1.604097779604500840e+00,-1.261286726697608662e+00,-3.898205198003160121e-01
1.597550050366432606e+00,-1.259453898642497904e+00,-3.302586980533862571e-01
1.620285640314474529e+00,-1.261975317049421230e+00,-2.682395922182178594e-01
1.610244184237258347e+00,-1.278348464208300284e+00,-1.737182230678103734e-01
1.621216504319794360e+00,-1.271383896224711263e+00,-1.160645055211219634e-01
1.614843552749054334e+00,-1.272928134638588116e+00,-2.903418225478655509e-02
1.622422042522630115e+00,-1.286142349579385114e+00,3.601899643166871223e-02
1.625742877560592659e+00,-1.271166699859673122e+00,1.107171380426315022e-01
1.624858335627592743e+00,-1.265872468471530121e+00,1.576903795188084323e-01
1.633251783715694128e+00,-1.264521220685511205e+00,2.417466445328842750e-01
1.637820229115830584e+00,-1.268009937135409659e+00,3.275893864472752548e-01
1.614562573208031759e+00,-1.269971773394886538e+00,3.987995353021281386e-01
1.642856026300668182e+00,-1.290051399979714741e+00,4.658492568032646108e-01
1.631421618117879335e+00,-1.228684253391934655e+00,-5.382354149620737216e-01
1.637603587431842200e+00,-1.244346921872246714e+00,-4.714314116755737305e-01
1.618017591297145952e+00,-1.241165438085806150e+00,-4.044522535233422977e-01
1.623635104959587849e+00,-1.236737188076779903e+00,-3.379189722210352298e-01
1.632877430932425655e+00,-1.228782767140926602e+00,-2.473275724465427983e-01
1.631859600870558591e+00,-1.241563709520892678e+00,-1.728362794296520177e-01
1.651627051194701767e+00,-1.250644490472442749e+00,-1.059579017789875899e-01
1.629575013098569114e+00,-1.249553857019692238e+00,-3.494674644904125632e-02
1.645870074782870507e+00,-1.245426224102020418e+00,4.183373774310994442e-02
1.635632564387467403e+00,-1.257652019219569040e+00,1.072917357826913970e-01
1.651387560248802178e+00,-1.240278850154173051e+00,1.708361804390200467e-01
1.648501935979247657e+00,-1.258319191752207855e+00,2.638100691098237971e-01
1.652435442752426153e+00,-1.259052120040019540e+00,3.211198397176080466e-01
1.660656543791260376e+00,-1.265394667404536877e+00,3.950632624303938023e-01
1.659490460065971007e+00,-1.254157842137046730e+00,4.907828737866011259e-01
1.651248426376136669e+00,-1.231894543586610657e+00,-5.459907774968399963e-01
1.639278914482347860e+00,-1.204682899277597086e+00,-4.544204024452569435e-01
1.647058377522467643e+00,-1.212802003687731833e+00,-3.880494172515852047e-01
1.648365988284686390e+00,-1.224315350043343020e+00,-3.357075392001883651e-01
1.653843752459066563e+00,-1.214960974040170116e+00,-2.534739737950791882e-01
1.646584317224346838e+00,-1.219516184362855249e+00,-1.914447612432063350e-01
1.667368588493404857e+00,-1.227334729291487125e+00,-1.133815480841916523e-01
1.674014981346934716e+00,-1.229661919904897704e+00,-2.822762616829938703e-02
1.663281103954563855e+00,-1.230008337610377644e+00,3.047892673768454533e-02
1.668382260560208996e+00,-1.237712324039464740e+00,1.053185580028215967e-01
1.668954769035483787e+00,-1.230921514476581047e+00,1.811150717166840063e-01
1.656376709220623633e+00,-1.230921048508949900e+00,2.542399608805918643e-01
1.660331692190812003e+00,-1.235152941309983765e+00,3.296430592524002279e-01
1.673304407695218821e+00,-1.254697555304232326e+00,4.117742078110496751e-01
1.672341364121775031e+00,-1.233885274171178770e+00,4.702442005247249313e-01
1.662016306134664667e+00,-1.200445121965083350e+00,-5.456507543217765654e-01
1.668775831140999699e+00,-1.193074696621258868e+00,-4.724023614399937010e-01
1.671966870731507626e+00,-1.197865428594331760e+00,-3.941537020519783607e-01
1.681570740698197008e+00,-1.205941364880119826e+00,-3.386575681423729667e-01
1.669504663562710656e+00,-1.194962276650570754e+00,-2.535208561821552520e-01
1.677165533105057005e+00,-1.223346925646885852e+00,-1.822231371451964455e-01
1.685682776782580605e+00,-1.208346590904885831e+00,-1.188390468765106317e-01
1.668403141308325122e+00,-1.203807941081355803e+00,-4.739872443831347204e-02
1.674705202447946073e+00,-1.204141468999141651e+00,3.491689314708504299e-02
1.676180613924990626e+00,-1.214637049736445151e+00,1.065145855124596669e-01
1.686469320751018408e+00,-1.209236006907232319e+00,1.843375432494930022e-01
1.690828710705945426e+00,-1.213881219063114081e+00,2.530894990617166274e-01
1.688389722284861394e+00,-1.231013740643163601e+00,3.291826268262115218e-01
1.701265238366427957e+00,-1.220749450648850987e+00,4.008082972111659537e-01
1.696200409779191398e+00,-1.210328033663872649e+00,4.856000274594143851e-01
1.687105415119948049e+00,-1.182455582238303160e+00,-5.518903797848825343e-01
1.689026852167494042e+00,-1.178825035115395048e+00,-4.681858252404502707e-01
1.690223943278202245e+00,-1.188244934156390986e+00,-3.997669251603902518e-01
1.701302253024702171e+00,-1.179162491458586315e+00,-3.314304381000151012e-01
1.682809897905421348e+00,-1.178868965398697677e+00,-2.578886310025808593e-01
1.707646721363056397e+00,-1.185356824687508137e+00,-1.766453872240172085e-01
1.696830010951314804e+00,-1.192470920397588063e+00,-1.049859465482061299e-01
1.698487522079823009e+00,-1.194430396333567179e+00,-3.643004379712436180e-02
1.703316436773693709e+00,-1.181947862224749013e+00,3.161091575698236900e-02
1.697724864408396206e+00,-1.202249489313014896e+00,1.070883668777045661e-01
1.707914516523564741e+00,-1.183845178192709735e+00,1.827751137744248466e-01
1.724467533782072293e+00,-1.177485661269202177e+00,2.652974010466820354e-01
1.725132202397824166e+00,-1.191726877531345652e+00,3.253646700559322258e-01
1.702031903242866573e+00,-1.208970652500473530e+00,3.941533811182512670e-01
1.712779840136922749e+00,-1.187490677888350499e+00,4.918778166157697362e-01
1.717735321686749694e+00,-1.166101009086632168e+00,-5.550089879794791736e-01
1.702543395877447630e+00,-1.143228137392641397e+00,-4.766107344087902598e-01
1.720973050156686446e+00,-1.146095067498967390e+00,-4.080125729366561593e-01
1.726973951029747489e+00,-1.156457452032332522e+00,-3.296888802373860172e-01
1.721189815659268874e+00,-1.147799799964704270e+00,-2.526805122971247375e-01
1.712985811423843430e+00,-1.167794123523430594e+00,-1.924989139749794242e-01
1.729557847512277480e+00,-1.153441783300130252e+00,-1.131525109900393122e-01
1.732685604680169300e+00,-1.172698786954665895e+00,-3.014487706096515007e-02
1.739490196571797043e+00,-1.160090474326737509e+00,3.448202324868099994e-02
1.726114825835941557e+00,-1.159879990563013941e+00,1.049285140098562275e-01
1.733068722451730936e+00,-1.159746680402183205e+00,1.668754085738649029e-01
1.739581529696437201e+00,-1.169364504675062699e+00,2.634383046780309767e-01
1.734484372732919333e+00,-1.160034384808024122e+00,3.364917280869381133e-01
1.730353633825856496e+00,-1.166949020231476286e+00,4.118500412613331219e-01
1.722387329734871519e+00,-1.183671483735749819e+00,4.844780760675149178e-01
1.737289609631318843e+00,-1.131410216829544346e+00,-5.521000258212546141e-01
1.728451874238849717e+00,-1.129435213185700393e+00,-4.700721778245571802e-01
1.731092722081541302e+00,-1.140549087484334478e+00,-4.004426253393471025e-01
1.740803632110842880e+00,-1.138144471182684692e+00,-3.081064993640571514e-01
1.731978136190343243e+00,-1.138537730317113361e+00,-2.548331292367435608e-01
1.751753796575202360e+00,-1.127445566331826132e+00,-1.803546830440304893e-01
1.748072377977301528e+00,-1.146116416124506321e+00,-1.032402462442610913e-01
1.731150166126500523e+00,-1.143826863623851553e+00,-2.396323403695546986e-02
1.746418951912917850e+00,-1.148984505192785166e+00,4.871534110942736528e-02
1.741868792640617780e+00,-1.147470607694374145e+00,1.133762484524911268e-01
1.745044346276389380e+00,-1.151957196249927540e+00,1.873571478489443887e-01
1.753258864938013417e+00,-1.150422005698235495e+00,2.493700139407688254e-01
1.762563615978452569e+00,-1.156767835588997428e+00,3.274873676700629233e-01
1.772078828937452721e+00,-1.146967429939086847e+00,4.001740182623970687e-01
1.757833856241488135e+00,-1.149351888542376576e+00,4.934801478672469766e-01
1.733848202431895524e+00,-1.104366379383507235e+00,-5.585452875806609097e-01
1.752529229207821393e+00,-1.113729187537289889e+00,-4.725188193894502287e-01
1.746058930289575040e+00,-1.108758769455556736e+00,-3.964767457458670541e-01
1.750999506766626856e+00,-1.121739164102364850e+00,-3.337428582654795028e-01
1.748479387242578120e+00,-1.107319002305861888e+00,-2.635233462813140748e-01
1.761676755506185188e+00,-1.117739230459386945e+00,-1.844973077618044244e-01
1.772168951037410123e+00,-1.127292211672904054e+00,-1.178737176135588594e-01
1.767939187850600113e+00,-1.116533607174075682e+00,-4.121109472864643852e-02
1.785307976066181412e+00,-1.128665408377024448e+00,5.115628178271310750e-02
1.786451077682027266e+00,-1.114643037545297810e+00,1.124394888126077491e-01
1.776179870784092563e+00,-1.127523523384186044e+00,1.800235890449209675e-01
1.762509265654537138e+00,-1.139323555868192672e+00,2.480985593776181553e-01
1.764314578854654370e+00,-1.118858727066403658e+00,3.331971175456053258e-01
1.784198426324030917e+00,-1.128840952704279088e+00,4.262212317575748144e-01
1.784523450224057894e+00,-1.130759146019963302e+00,4.898103801445922167e-01
1.780308618711279323e+00,-1.082085856261631340e+00,-5.538861984368940172e-01
1.770535496899539041e+00,-1.086817714094972853e+00,-4.888672224953064527e-01
1.772694315331045267e+00,-1.084768181313399582e+00,-3.992361213237548556e-01
1.788604403489409300e+00,-1.092356860517765815e+00,-3.195957957968950103e-01
1.783748036247114976e+00,-1.089134471754818367e+00,-2.578276808907054019e-01
1.795203459346337072e+00,-1.094021924652999633e+00,-1.733185037730886058e-01
1.785077832345967730e+00,-1.104014097311661446e+00,-1.012922263822420149e-01
1.786267125349062956e+00,-1.097992647955289280e+00,-3.605771621356575196e-02
1.781798708830927058e+00,-1.091815119573224413e+00,2.743527229240097509e-02
1.779156126271336236e+00,-1.094399760998218785e+00,1.043405983690283839e-01
1.800125308119103984e+00,-1.096115977768829408e+00,1.970986789911304826e-01
1.804621406901010916e+00,-1.108084625661929223e+00,2.674601632158778441e-01
1.800499482273223428e+00,-1.115778830518077580e+00,3.160350382695111260e-01
1.806030212167485161e+00,-1.105570781075397857e+00,3.935930115321996103e-01
1.814070479444713335e+00,-1.107469273552727840e+00,5.045873457677997331e-01
1.788909813411968974e+00,-1.072839958751522271e+00,-5.649708762466552070e-01
1.792078303574137221e+00,-1.074243202351663484e+00,-4.779668711582538143e-01
1.797626748941231867e+00,-1.074345125398542988e+00,-3.915476196656060281e-01
1.800862005404675337e+00,-1.068459209624533779e+00,-3.156820633960932820e-01
1.794788428505149636e+00,-1.071640436303583410e+00,-2.552224891534599083e-01
1.809113903086476904e+00,-1.091147781334677713e+00,-1.718894972210746885e-01
1.829211157200095750e+00,-1.089480814653868812e+00,-1.249361482932007938e-01
1.817231645190431566e+00,-1.075219227033664238e+00,-4.576323326999584551e-02
1.824393225600586588e+00,-1.073994535364245495e+00,4.581029936678435860e-02
1.815560051690489729e+00,-1.090584397444306797e+00,1.073771989984664693e-01
1.827868037214127162e+00,-1.083005057363033652e+00,2.078693033710556082e-01
1.820419333497166781e+00,-1.079945861664063589e+00,2.740180695488252938e-01
1.818037692828014196e+00,-1.078913078406625203e+00,3.358929699941093916e-01
1.831828180797018035e+00,-1.072629422098768659e+00,3.958434404097691539e-01
1.829800621961311213e+00,-1.088776999653898514e+00,4.950755192853415476e-01
1.802734226360985792e+00,-1.034854574824976448e+00,-5.717355417706897480e-01
1.826920467436725204e+00,-1.048434292509629939e+00,-4.825790108066587147e-01
1.837348515259412896e+00,-1.057210793196823095e+00,-4.041893319364840975e-01
1.820926343184211760e+00,-1.060618867192755665e+00,-3.282463859271191886e-01
1.834041742490114091e+00,-1.058711890542718859e+00,-2.719393846576312335e-01
1.827871229466526914e+00,-1.050283714892543019e+00,-1.881841114900597856e-01
1.825240688919804954e+00,-1.057861264152825553e+00,-1.103767174314964628e-01
1.826285687700000882e+00,-1.057272010942895024e+00,-4.275300616094079853e-02
1.835880781914989823e+00,-1.052407691532191159e+00,3.983972033659644030e-02
1.840782433897789838e+00,-1.052411642126162672e+00,1.207810269703482597e-01
1.845714946292948522e+00,-1.056973184940971588e+00,1.722311519854251571e-01
1.851043716190038158e+00,-1.071388344696897255e+00,2.734869732424214384e-01
1.831527221761456214e+00,-1.056371228462927636e+00,3.415676026209160110e-01
1.835565326012137399e+00,-1.072856558228718837e+00,4.179264411955717629e-01
1.842253520341022410e+00,-1.056569234487850784e+00,4.957176700149021342e-01
1.837488897731218707e+00,-1.024572268703611622e+00,-5.622470588581709450e-01
1.839701720977879651e+00,-1.019067854430224740e+00,-4.824547491164092317e-01
1.840137949645120896e+00,-1.018320629898919361e+00,-4.283281693340223462e-01
1.844376133506439697e+00,-1.032513121721365001e+00,-3.480164881736927951e-01
1.853698448151948064e+00,-1.024087842418584859e+00,-2.664967631618850308e-01
1.846333021880559144e+00,-1.036167646761705585e+00,-1.861750838017650622e-01
1.850751212551013714e+00,-1.034007298987625667e+00,-1.177151758793626435e-01
1.856742057724155126e+00,-1.020562384349027019e+00,-4.421082100148601007e-02
1.864003359459480480e+00,-1.045020101628538978e+00,3.678830960398543626e-02
1.848253764198664939e+00,-1.039387776180054734e+00,1.149518313718496387e-01
1.863236504221599255e+00,-1.032138178464100386e+00,1.938423002126063999e-01
1.868217770402272881e+00,-1.043190326054144856e+00,2.642804506239019302e-01
1.864988479370696561e+00,-1.020546452063250564e+00,3.339726209418877878e-01
1.872594542073765966e+00,-1.033869635412329124e+00,4.239618280790822813e-01
1.875876633118365611e+00,-1.051288481228565663e+00,5.000312697709342613e-01
1.860004662949464205e+00,-9.995107176373271285e-01,-5.790178264149395959e-01
1.855747773823750890e+00,-9.957743391984773540e-01,-4.809363969221343016e-01
1.868822897360741697e+00,-1.005102771294178021e+00,-4.075431310131655827e-01
1.865433967524791958e+00,-1.013061935550457537e+00,-3.381760651833594644e-01
1.874525495107704609e+00,-1.002022953999343713e+00,-2.634575667863310877e-01
1.872170528142189205e+00,-9.911283823797728543e-01,-1.951920513667207147e-01
1.876434360825052217e+00,-1.008513544028032838e+00,-1.187755513058206258e-01
1.894057664873216362e+00,-1.004276032422223963e+00,-4.503525368499941561e-02
1.868533565236518035e+00,-1.003861551077659398e+00,4.788406632036989324e-02
1.889513963803805208e+00,-1.001718842014101885e+00,1.100203014552956493e-01
1.875011980268907807e+00,-1.021527996221952783e+00,1.856585468079615941e-01
1.888832147940387562e+00,-1.008829605569746102e+00,2.731488328092773199e-01
1.894632436318090640e+00,-1.013719448806237100e+00,3.331525795833817361e-01
1.892388817133857648e+00,-1.014254697371452352e+00,4.071985267983440626e-01
1.905114579819379594e+00,-1.010428786343032570e+00,4.921973889297110438e-01
1.878271161277471402e+00,-9.726947644005928817e-01,-5.485540136222901708e-01
1.881467187580111000e+00,-9.776502627130223555e-01,-4.879871999513604730e-01
1.890539504602312793e+00,-9.916858479510252122e-01,-4.270811202027275932e-01
1.900401867433606728e+00,-9.814038069098839356e-01,-3.379715350414721486e-01
1.894277645226127182e+00,-9.885188700948409624e-01,-2.640918500130486346e-01
1.892201494241825044e+00,-9.864956973847809341e-01,-1.880075772932563727e-01
1.890348597381778406e+00,-9.810288693455129216e-01,-1.025831381064356979e-01
1.886717875732047967e+00,-9.786410372011870029e-01,-4.205056718852596270e-02
1.901566453413475077e+00,-9.902077875965185072e-01,2.511849176184235977e-02
1.912369226215664186e+00,-9.863656972528035416e-01,1.167207466106219699e-01
1.917600835702580886e+00,-1.003080049507766525e+00,2.052930359016245376e-01
1.913473119021661173e+00,-9.838576225523507635e-01,2.616035237842153638e-01
1.914318226947649082e+00,-9.891416553238073783e-01,3.626592758729457744e-01
1.912401688755935858e+00,-9.914450285484301961e-01,4.191284305591508330e-01
1.916769010147936658e+00,-9.902582605255404458e-01,4.910011493222952161e-01
1.924051951747405731e+00,-9.486228965744171182e-01,-5.673238768986500480e-01
1.908824137985230429e+00,-9.538600543006853227e-01,-4.783734410569212003e-01
1.907374163171116743e+00,-9.599531052004999232e-01,-4.173849414335665253e-01
1.918635365614542732e+00,-9.572905590208584670e-01,-3.476398992123560516e-01
1.897900349448432999e+00,-9.712868807109887870e-01,-2.676337049254695621e-01
1.914601033830522825e+00,-9.678665915192088409e-01,-1.866062990493833340e-01
1.909044656050572941e+00,-9.668664938500388661e-01,-1.137568750539908746e-01
1.924834568034117677e+00,-9.581520441260886756e-01,-3.795493319047917036e-02
1.923620011932981821e+00,-9.772540870008895597e-01,3.628040845776266121e-02
1.932732028793434420e+00,-9.597554286734579776e-01,1.041572736309894914e-01
1.933902888888786809e+00,-9.658054857670835824e-01,1.794628872028942168e-01
1.938358011612143272e+00,-9.846629056126877666e-01,2.731073967324139651e-01
1.949021094447207059e+00,-9.806012325925154149e-01,3.464789933449493597e-01
1.946800386709547581e+00,-9.619742648139716357e-01,4.160445591175091495e-01
1.946452138444541236e+00,-9.841835524514523925e-01,4.959734887190634933e-01
1.918317037939257563e+00,-9.363122239855188322e-01,-5.810751054359005741e-01
1.927235728052059560e+00,-9.258557413476052877e-01,-5.098168975183443585e-01
