9.407965998329566037e-01,2.101272699292517032e+00,4.582317962802233691e-01
9.368983242240216391e-01,2.106998217047178823e+00,5.376858542558830001e-01
8.853754825349112734e-01,2.070924461104589831e+00,-5.954318335393837813e-01
8.768162065102257374e-01,2.069660895104524112e+00,-5.106395574612135890e-01
8.898064710345925388e-01,2.081441681050086867e+00,-4.364007058731076416e-01
9.039462871180561354e-01,2.077816172479849399e+00,-3.522163825578975560e-01
8.919870663264251043e-01,2.072376779567315364e+00,-2.719664547177544911e-01
8.933711823591888868e-01,2.071710876039157156e+00,-1.992144293242550379e-01
8.838028801668159629e-01,2.074148270758914059e+00,-1.295321305796862110e-01
8.892792017525891213e-01,2.091129503119052657e+00,-3.151229059658715304e-02
8.833810314542009934e-01,2.094031940634319966e+00,4.068258596284494294e-02
9.106533484337948625e-01,2.095118055612204877e+00,1.265707477236635292e-01
8.917966909711362300e-01,2.108899355538274012e+00,1.878984186489171815e-01
8.921952841852450744e-01,2.091659083341558478e+00,2.820018142312854525e-01
9.091788473361885892e-01,2.102120439941313368e+00,3.740880396455700252e-01
9.020380436576354022e-01,2.109412588186293291e+00,4.344436463993140984e-01
9.035446732552482318e-01,2.097589863243784158e+00,5.190896605680574982e-01
8.457191856192420865e-01,2.068333758755170226e+00,-5.880386746635209994e-01
8.577032669102572227e-01,2.079685001452668658e+00,-5.126707524087669166e-01
8.371261662059802378e-01,2.080874262370408623e+00,-4.357034014983860448e-01
8.458705954479615041e-01,2.075681230576942760e+00,-3.257981972942305959e-01
8.434515691765959167e-01,2.090724488110403900e+00,-2.760596841583284333e-01
8.368679143862138847e-01,2.067953371805208107e+00,-1.854173392970197287e-01
8.600014402567931482e-01,2.100699839405879565e+00,-1.297614731163046209e-01
8.751027874563694908e-01,2.086880227624037243e+00,-3.552370923352424908e-02
8.507464042090024936e-01,2.087126881061025063e+00,3.823193637201810491e-02
8.522660095745515640e-01,2.087920172560600918e+00,1.258729358475197124e-01
8.517402138783234378e-01,2.089094511906208762e+00,1.918892071227331353e-01
8.651773340666509826e-01,2.089223154059107745e+00,2.724648172682155867e-01
8.602363027084474201e-01,2.093833956365662718e+00,3.580020512182575665e-01
8.573259326949744796e-01,2.111929055541888367e+00,4.366540602223444312e-01
8.703699535907785112e-01,2.113539604341628575e+00,5.240183623445721084e-01
8.176606487263287093e-01,2.076321783392341747e+00,-5.978764872607804648e-01
8.124093717082062627e-01,2.078691071684268810e+00,-5.215307496696464096e-01
8.047572829157998431e-01,2.056484348029608444e+00,-4.240308654809460398e-01
8.105185667107503988e-01,2.068932038077216262e+00,-3.588778726811445163e-01
8.086277217774449078e-01,2.068213947535526120e+00,-2.683862076999611324e-01
8.290792400530102579e-01,2.073044913681782564e+00,-1.948016203000322855e-01
8.232871440969290466e-01,2.085538569763612848e+00,-1.286978470390124085e-01
8.091186260380830442e-01,2.073753494078480752e+00,-3.535646008060771422e-02
8.228395010562243872e-01,2.100506274738221713e+00,3.181100930751258604e-02
8.202714079896510357e-01,2.073359030337696751e+00,1.150549682977966559e-01
8.335769199355523851e-01,2.098607342780144158e+00,1.907741564905687248e-01
8.206877282139036778e-01,2.080541273979443329e+00,2.798670380986166828e-01
8.273190963947452126e-01,2.089366354541430049e+00,3.456242618551932932e-01
8.343002965401645765e-01,2.115406120792386435e+00,4.322876125568390626e-01
8.423022655321233954e-01,2.113131472861473181e+00,5.134684144649869220e-01
7.714168556408080857e-01,2.075806978349741261e+00,-6.018838519841902546e-01
7.888635551457824358e-01,2.058651577618476836e+00,-5.132531159790387765e-01
7.793823728806474893e-01,2.073860446197310026e+00,-4.290912271922008858e-01
7.937063424068382389e-01,2.070149160559221269e+00,-3.544689190231976594e-01
7.687550083956102842e-01,2.063704747935495298e+00,-2.779044073144937288e-01
7.791896927482652169e-01,2.075690326725150303e+00,-2.015872223861659707e-01
7.908526087547329553e-01,2.081446065127833922e+00,-1.109008426274127462e-01
7.939583960535369078e-01,2.080568663868956669e+00,-3.717539404842520184e-02
7.923720850236597446e-01,2.100733600440447990e+00,3.193088432617956218e-02
7.799001854594379557e-01,2.082371556254877021e+00,1.086580322150404038e-01
7.874035040824938214e-01,2.080298941016734293e+00,1.852329305682278993e-01
7.862997393377677557e-01,2.088073278060408100e+00,2.688320599423070778e-01
7.945254627018504268e-01,2.096413849854461553e+00,3.735328455807037096e-01
7.902300599866451947e-01,2.089291458972681426e+00,4.322649502234442442e-01
7.868971588837457842e-01,2.107954921357417799e+00,5.152751093742867772e-01
7.431181833635154277e-01,2.062921885673487221e+00,-5.828517721483938985e-01
7.585525436497707608e-01,2.055913623413033964e+00,-5.124442078761212160e-01
7.484219955975089933e-01,2.073024018133509117e+00,-4.237700220435887122e-01
7.422359241539051578e-01,2.072262403659389296e+00,-3.654509264065260998e-01
7.429832245987518791e-01,2.056860524733337581e+00,-2.815795787153889673e-01
7.625443185967784032e-01,2.082167440200606734e+00,-1.761896542029687540e-01
7.437331369555714167e-01,2.071228113146942551e+00,-1.198231799306747475e-01
7.514647106333759430e-01,2.084608913827349141e+00,-5.056233122127763019e-02
7.668646466187790667e-01,2.087253913285773255e+00,3.895073602767349513e-02
7.577013657937470281e-01,2.088880285891311139e+00,1.208103383484286919e-01
7.589425744494828763e-01,2.081780228238439445e+00,1.785968108884734284e-01
7.670249070130507052e-01,2.084227278584540155e+00,2.704793829889497458e-01
7.569148764826604259e-01,2.084582279763230961e+00,3.448119297149898066e-01
7.618380817634726743e-01,2.093406158470295431e+00,4.193881253793449448e-01
7.658875432910809966e-01,2.098968590018716718e+00,5.047603098243376163e-01
7.165389995477119411e-01,2.047046448672996011e+00,-5.738364914412933393e-01
7.130731395104494830e-01,2.065711559475563508e+00,-5.051082682372186605e-01
7.123398196020050976e-01,2.066413671450172185e+00,-4.225458512453535986e-01
7.063600238021033872e-01,2.058114697891524347e+00,-3.549515406367257930e-01
7.005475896414558035e-01,2.072437766069060494e+00,-2.757152343621355195e-01
7.153057261253654708e-01,2.083185431907887519e+00,-1.886130214688110651e-01
7.166704857775846316e-01,2.055606136756471525e+00,-1.152773378741410448e-01
7.312063940625022074e-01,2.076222061864393620e+00,-4.271608766668329171e-02
7.125984636083564361e-01,2.082699259789362323e+00,4.044557974477203111e-02
7.200830459604213862e-01,2.067016080328899719e+00,1.200354316258872844e-01
7.118614033601209368e-01,2.081339231781146548e+00,2.001062988770883344e-01
7.297760654547221781e-01,2.097100805919216882e+00,2.726180218756786289e-01
7.246340021815909083e-01,2.077220379386716775e+00,3.528570689265083660e-01
7.199762188834891719e-01,2.081917292935886010e+00,4.201936094192829096e-01
7.368510763143001352e-01,2.099333305616459810e+00,5.110169683552266973e-01
6.694946004210700075e-01,2.052512383455103784e+00,-5.719950031506374488e-01
6.881861953236456664e-01,2.053142092351418757e+00,-4.937982788256907174e-01
6.924274426471049848e-01,2.057495125021742144e+00,-4.214779897159093847e-01
6.780786281907082991e-01,2.075930978472697142e+00,-3.488630677980598116e-01
6.893572272094776743e-01,2.046301600242636187e+00,-2.643467609863001666e-01
6.903442715181717926e-01,2.072635628571775079e+00,-1.918654229777311815e-01
6.809930706344827778e-01,2.064246596342313556e+00,-1.187870411498039569e-01
6.796336596107763750e-01,2.076268896447953871e+00,-3.994618226103424652e-02
6.867305127250297181e-01,2.072430842457073208e+00,4.280059322782967662e-02
6.913042761441057227e-01,2.078983134602101490e+00,1.171624276659994496e-01
6.877135259293704062e-01,2.084149547429773985e+00,1.947513266154341505e-01
6.892927270611298729e-01,2.062718946777951423e+00,2.697538034120356976e-01
6.975932093835445214e-01,2.082403997409985941e+00,3.549670245630132670e-01
6.789861972029965775e-01,2.098280335582490608e+00,4.191351441428258218e-01
6.931047803250042216e-01,2.093830447680828932e+00,5.194995316116729489e-01
6.464328773970238196e-01,2.050956467870298283e+00,-5.703932603488843789e-01
6.439065995565597111e-01,2.046227085419221936e+00,-4.894723585773920194e-01
6.540755295767192168e-01,2.054444029765925883e+00,-4.073800483868239009e-01
6.528884958553485829e-01,2.065916017914251057e+00,-3.374233124944874818e-01
6.516629471664665552e-01,2.058198957411842667e+00,-2.683314741444602358e-01
6.423554287727250012e-01,2.055143873077840411e+00,-1.896946905094637759e-01
6.674809066796059120e-01,2.083760196322818281e+00,-1.051186956797027089e-01
6.479134039097819153e-01,2.065491862752074859e+00,-2.625756131249323833e-02
6.551791900747592212e-01,2.072357916351929674e+00,4.697425614275690248e-02
6.423893336058288384e-01,2.075991512366997416e+00,1.249533403108468166e-01
6.514183717741834911e-01,2.099536295173956013e+00,2.052428782973509391e-01
6.492542670219113576e-01,2.084399756960965355e+00,2.788454178602264300e-01
6.650473020212170905e-01,2.080373339678737388e+00,3.565835062748966000e-01
6.626346933791246174e-01,2.079341332246988472e+00,4.219150959963635095e-01
6.535256743032993310e-01,2.102731462318832456e+00,4.895148262676005113e-01
6.207660502926802826e-01,2.066448396226785889e+00,-5.593010441110617403e-01
6.067359514626552430e-01,2.051383458419663075e+00,-4.870604645559998280e-01
6.198990736958457370e-01,2.055221131199948204e+00,-4.270915798531076391e-01
6.093389436195950637e-01,2.069645684436032695e+00,-3.415014178803500999e-01
6.246257970908283275e-01,2.069536111397504374e+00,-2.634995928546726707e-01
6.230758544345259553e-01,2.060825457434231289e+00,-1.877202151765514082e-01
6.135720799687565119e-01,2.066300203681330494e+00,-1.224269477948946583e-01
6.108152601220999678e-01,2.064168893910209857e+00,-3.941546864726444555e-02
6.239812086771080457e-01,2.078184280386091931e+00,4.735195480077090957e-02
6.200306064845375609e-01,2.074452767291614652e+00,1.052677135263631880e-01
6.203411733063954880e-01,2.076565237622173932e+00,1.860714063845771982e-01
6.270023673176222667e-01,2.083138676368929243e+00,2.617775232606558422e-01
6.203349692004422877e-01,2.083327493797400454e+00,3.496934747100188257e-01
6.200552472130007597e-01,2.077294543678566807e+00,4.258343711299580336e-01
6.166557950320933346e-01,2.099742904189358050e+00,4.997559816178144265e-01
5.823802746522144247e-01,2.062699397830728643e+00,-5.584837874360826238e-01
5.907242017941717327e-01,2.054494432169625906e+00,-4.827179953349908792e-01
5.908418877996551855e-01,2.052242227047022194e+00,-4.127010938553901109e-01
5.701038229131693003e-01,2.057555740747360584e+00,-3.344416094904167913e-01
5.926789971878271279e-01,2.069956829059673709e+00,-2.679612248420838450e-01
5.863312471331533215e-01,2.066725660959479516e+00,-1.769548163249143602e-01
5.780867150062544146e-01,2.071751668998190077e+00,-1.159276949566286907e-01
5.872150235535819052e-01,2.054669914175697443e+00,-2.745458215343382288e-02
6.032421511521407487e-01,2.071788304185286034e+00,4.636412016110501993e-02
5.847203890509853341e-01,2.064142092823719299e+00,1.090998138628638120e-01
5.862472661507089899e-01,2.071452083562844049e+00,1.942382565623491097e-01
5.938706231201139607e-01,2.091719108969937402e+00,2.734883420069966764e-01
5.918876198764667640e-01,2.067659483636124840e+00,3.409043546776371336e-01
6.063184703736150816e-01,2.077169068443239119e+00,4.185751260284281128e-01
5.937027573509152667e-01,2.071742796177560741e+00,4.989673409802479753e-01
5.468827949938123156e-01,2.039943405307355295e+00,-5.748866951419686622e-01
5.605857735298656053e-01,2.047828788615393858e+00,-5.019209908768130779e-01
5.505518996202114490e-01,2.050572364305644157e+00,-4.140490131042460775e-01
5.398506842691358498e-01,2.065567420069623239e+00,-3.266394613992941176e-01
5.577004651664208001e-01,2.052564655769737456e+00,-2.722514556875385017e-01
5.538420219157154101e-01,2.063194696211411827e+00,-1.710854177508871199e-01
5.401644368330537072e-01,2.062938305700141584e+00,-1.115607187357638697e-01
5.585402542854782659e-01,2.062052886310218103e+00,-5.022966591001370995e-02
5.537954866342971183e-01,2.074028701335030700e+00,4.459519842267255230e-02
5.481005112179564431e-01,2.069462752693000507e+00,1.098448335711627727e-01
5.542150462826209711e-01,2.082699797361581506e+00,1.928423630683032686e-01
5.460515164074775107e-01,2.073625181783089744e+00,2.682880189045658281e-01
5.622471084088874749e-01,2.091352101509459160e+00,3.453514450855817985e-01
5.685828943662349921e-01,2.080762133895777577e+00,4.179008365642715717e-01
5.619490335610849430e-01,2.077790484758964329e+00,5.144877535231470178e-01
5.136079911812293508e-01,2.056008596560032764e+00,-5.602709716471993007e-01
5.071945452171950919e-01,2.040139879996415662e+00,-4.890831249213024035e-01
5.095268613072213570e-01,2.071142317927225029e+00,-4.118407191811321866e-01
5.011045548475365763e-01,2.059033333450639880e+00,-3.351851137025264049e-01
5.225196303272966469e-01,2.071997088019260413e+00,-2.566482809523489284e-01
5.192876241406330085e-01,2.055510488597618757e+00,-1.724867315721313743e-01
5.289366958482711878e-01,2.065454822201321594e+00,-1.051666194853960457e-01
5.157311059522592389e-01,2.066774757674432639e+00,-3.760291149047792492e-02
5.240049314084482823e-01,2.078072794712412907e+00,2.908684023707981334e-02
5.252211258610262057e-01,2.074893060841789261e+00,1.030730613252869160e-01
5.228083823919082995e-01,2.078622730855771650e+00,1.828912745311162824e-01
5.267001339107112434e-01,2.068757808001102649e+00,2.547154568297682609e-01
5.308886268200501135e-01,2.072097166697947301e+00,3.343193844629027689e-01
5.154801628812496483e-01,2.094752073065588416e+00,4.092470192645557003e-01
5.168688079344874176e-01,2.086822338660578868e+00,4.953197375752553255e-01
4.796468002047112877e-01,2.040748636226827895e+00,-5.463290375452961589e-01
4.661168818825802140e-01,2.049230238298249684e+00,-4.863398110104015792e-01
4.932706331089492524e-01,2.052964406210317172e+00,-4.101878178024482291e-01
4.997514037591919145e-01,2.042747855206982877e+00,-3.330314292239260343e-01
4.872032867288791924e-01,2.052875533843101508e+00,-2.568972505826094266e-01
5.013781399977169650e-01,2.057666428081582399e+00,-1.890315961987802107e-01
4.857376891545516218e-01,2.050773022554757130e+00,-1.045909647770466577e-01
4.918012686341324824e-01,2.049493099908143101e+00,-2.519967579746174025e-02
4.862968224088343727e-01,2.064909483199967255e+00,2.997345462949464051e-02
4.835295026565355481e-01,2.073856994116457297e+00,1.043203466437186144e-01
4.924255888266348968e-01,2.064852584413883640e+00,1.942641727745979818e-01
4.986931256257177147e-01,2.064712900840901977e+00,2.505088813455039198e-01
4.943660956243530191e-01,2.071578026677291184e+00,3.320657785691635278e-01
5.019014684196834164e-01,2.073945350994080616e+00,4.103316703365586515e-01
4.813633531554032396e-01,2.076741726036114066e+00,4.963242564685034774e-01
4.473244579899716133e-01,2.042243581190704482e+00,-5.574416757059007521e-01
4.548563159791278454e-01,2.044082847119822688e+00,-4.823237606743596695e-01
4.606432406394287415e-01,2.057552579326840547e+00,-4.105047164012429750e-01
4.525538848066050224e-01,2.051939079247035558e+00,-3.295455179903052922e-01
4.515013122925136679e-01,2.052495739369368355e+00,-2.530772986636534161e-01
4.557387175115464872e-01,2.058470906864583228e+00,-1.972586304259172363e-01
4.645676067984350066e-01,2.061566559228741546e+00,-1.091980559600290723e-01
4.650046571689182562e-01,2.059710815830424480e+00,-4.296965298127252558e-02
4.720034729289709352e-01,2.077410044018002111e+00,2.784395932945856952e-02
4.557259975974957134e-01,2.063095718741480677e+00,1.164791112733359890e-01
4.613173596862688575e-01,2.075624630017037564e+00,1.887839733833715228e-01
4.602345972674048991e-01,2.077719835299359996e+00,2.595864717740316574e-01
4.451920514447499921e-01,2.076634848629071328e+00,3.353775788026581717e-01
4.605458329319226940e-01,2.067774272419056203e+00,4.273752998977111695e-01
4.693005701481033909e-01,2.083132162132364407e+00,4.842625382139021384e-01
4.271063199409060873e-01,2.044840106059803819e+00,-5.619711566109346634e-01
4.131248121379853533e-01,2.057891636831810533e+00,-4.639846933367311466e-01
4.205204690738764683e-01,2.038001585524887194e+00,-3.870079316242778233e-01
4.260054081940965465e-01,2.038650046648323055e+00,-3.419627485486084195e-01
4.393400885189230887e-01,2.041461145619205997e+00,-2.618926315267711691e-01
4.275336806162238212e-01,2.044872727325373063e+00,-1.779650704584139487e-01
4.124354765883275209e-01,2.055735596204757432e+00,-1.021150368858667196e-01
4.299934049469448238e-01,2.066153899962475116e+00,-3.486762641612444619e-02
4.385976279331537109e-01,2.049653527706730483e+00,4.056220726204280702e-02
4.315026567988187733e-01,2.054539487422871957e+00,9.775854408871505197e-02
4.199587321539477447e-01,2.069031295637166590e+00,1.771229447361716836e-01
4.321419946420871905e-01,2.059632658128937255e+00,2.565948687613197055e-01
4.314295975223169655e-01,2.076936564180190459e+00,3.458788416226099005e-01
4.363291706707466133e-01,2.073045813408815441e+00,4.251202861986679848e-01
4.304410452126575803e-01,2.079222359527742814e+00,5.007085269418996010e-01
4.002257664214365906e-01,2.030667839909371164e+00,-5.449172331437839301e-01
3.827850239709785218e-01,2.041187351789529814e+00,-4.815952928661163535e-01
3.952364614379028640e-01,2.042449685458865183e+00,-3.992294128631003747e-01
3.880440904906894972e-01,2.037250088395227809e+00,-3.340955944060566285e-01
3.903313003580141660e-01,2.049895580493359848e+00,-2.402734079873090067e-01
4.001424921293727510e-01,2.055661454782482078e+00,-1.904136682885943510e-01
3.966332553180422771e-01,2.062731014875039293e+00,-1.021234478902736387e-01
3.972676337307969874e-01,2.055096901427384992e+00,-4.168015743263166206e-02
3.922031155751703468e-01,2.061138739369572814e+00,4.800514131567700654e-02
4.126951529464742419e-01,2.062027255000733916e+00,1.147012555598620892e-01
3.955212366007896940e-01,2.073826211286601051e+00,1.821289010249269313e-01
4.058917246807758339e-01,2.058347521309060735e+00,2.492744944756471737e-01
4.010445177111059967e-01,2.063313507761242782e+00,3.445535615505627147e-01
4.042200475766856149e-01,2.070288449697605504e+00,4.009657460484907787e-01
4.079200008992116544e-01,2.071650919182002504e+00,5.018426656608704350e-01
3.700234787814498105e-01,2.039921335620862752e+00,-5.693369394828501351e-01
3.609930468941802140e-01,2.037793115032265678e+00,-4.825498773256446383e-01
3.678915757698513200e-01,2.027539058749098899e+00,-4.104124940319684445e-01
3.648225839258670278e-01,2.048758445049226218e+00,-3.278877514192098941e-01
3.614563640193784733e-01,2.028387095127209161e+00,-2.482753733012208197e-01
3.552851732872375767e-01,2.023897993640979109e+00,-1.791526422233727656e-01
3.559129571727212005e-01,2.040894880425292435e+00,-1.129876493960325634e-01
3.632015441958202917e-01,2.056322352081706217e+00,-3.165132822723400186e-02
3.674533060399513551e-01,2.071553886791442700e+00,3.165255258020961693e-02
3.759475626902465950e-01,2.060299073687779092e+00,1.129451111178857298e-01
3.715066463303116628e-01,2.057404011955265233e+00,1.935611814622459625e-01
3.684634228212825269e-01,2.059870134870899872e+00,2.588616983577144426e-01
3.726518087141201252e-01,2.074188557455247217e+00,3.227102305424014439e-01
3.794533690722791119e-01,2.060178921967836363e+00,4.177289616252910509e-01
3.701341268204184631e-01,2.071183327120678541e+00,4.716194653252590019e-01
3.376535708031904726e-01,2.034752757022022962e+00,-5.597952450579652961e-01
3.385513459984553775e-01,2.043652218708964963e+00,-4.869782676375953301e-01
3.240644231808434972e-01,2.048666395069333568e+00,-4.044489871408548654e-01
3.400498924104417009e-01,2.049194692347241720e+00,-3.321743074528171746e-01
3.096253549768558377e-01,2.042233912247654271e+00,-2.647719681795967506e-01
3.268856424313041353e-01,2.049305196573200760e+00,-1.798739204360759458e-01
3.310360335734245929e-01,2.045405369943147811e+00,-1.182746644699317479e-01
3.449907877616047447e-01,2.049987859560337355e+00,-2.538237927382932038e-02
3.338143046676497194e-01,2.063508837331768930e+00,5.134117064669269787e-02
3.375888345250913081e-01,2.046336382349531746e+00,1.150398833025837730e-01
3.485347136615973285e-01,2.066006078924090161e+00,1.852238816524707232e-01
3.290381038854205409e-01,2.054636828375193236e+00,2.591484140120248747e-01
3.334427002828252440e-01,2.065551186091139080e+00,3.370192486103542051e-01
3.365104034616231976e-01,2.066792691754097522e+00,4.092933335910889370e-01
3.371382545571262601e-01,2.071672116757112381e+00,4.682305931544832323e-01
2.971877759330016078e-01,2.028901725764930664e+00,-5.595678628950611078e-01
3.054148992844366028e-01,2.041321059157906959e+00,-4.806583762408398464e-01
2.984837502726174208e-01,2.027151414906635196e+00,-3.993268307221168878e-01
3.134627093544922194e-01,2.045310142409371590e+00,-3.344842220314336867e-01
2.841608918427677710e-01,2.044415382728357766e+00,-2.585778775325407453e-01
3.006144260877708918e-01,2.035366789350692596e+00,-1.982412658821001150e-01
3.006411987654101226e-01,2.046587464152320290e+00,-1.055999736231304914e-01
3.022251331860819623e-01,2.064272612933874207e+00,-3.801032722417416881e-02
3.102069441265814520e-01,2.061039791346368055e+00,3.699663928251549494e-02
2.916039185609975992e-01,2.063105897822726575e+00,9.071237298278610195e-02
3.127223356358429518e-01,2.054209532673470839e+00,1.716643783784603250e-01
2.904160964256700117e-01,2.053132213741513556e+00,2.480724455563947661e-01
3.038740328748227304e-01,2.069626894423850061e+00,3.352952063115393622e-01
3.182639265256494987e-01,2.063661901801116194e+00,4.057475248373610399e-01
3.188318676392642437e-01,2.059017855570958400e+00,4.862338492914289323e-01
2.597036858864733566e-01,2.042710892884764373e+00,-5.421119460730025041e-01
2.687516537092081159e-01,2.028747399133835394e+00,-4.645694796893179435e-01
2.748914630256001357e-01,2.013584502770410012e+00,-3.933792119065256943e-01
2.917065073971638611e-01,2.035016227161472457e+00,-3.303629870273515623e-01
2.732094800042512706e-01,2.036772792584747194e+00,-2.515209619411982178e-01
2.762835880093531538e-01,2.059172549737690705e+00,-1.657625434884339721e-01
2.638174111888409445e-01,2.042481554172162816e+00,-1.092731959167530659e-01
2.551831984574945977e-01,2.034882957094492628e+00,-4.462335047404770993e-02
2.691993100149597806e-01,2.050543922873346414e+00,4.512432694113378134e-02
2.742393095360295407e-01,2.059684055142722237e+00,1.079705741553218939e-01
2.626177115359938918e-01,2.047049623115369865e+00,1.754489642940359195e-01
2.672642691411444282e-01,2.070840986131127437e+00,2.632475379729343756e-01
2.799179827881736471e-01,2.054420200179218003e+00,3.216426982408686630e-01
2.727377682510027102e-01,2.052695689836554038e+00,4.202533155647211194e-01
2.828660527411668291e-01,2.060005331038327725e+00,4.910304186017476202e-01
2.510319165174043077e-01,2.017270477740127355e+00,-5.544746939179677758e-01
2.333127819623536658e-01,2.024788502264299961e+00,-4.737057681191608749e-01
2.484688084458230029e-01,2.042649456086272686e+00,-3.883496153888381097e-01
2.363206913409403587e-01,2.026343056410671029e+00,-3.207169659694339980e-01
2.382824725498593199e-01,2.039086796869279627e+00,-2.535415777345725319e-01
2.523323114890630992e-01,2.038791996225364667e+00,-1.812451100280185745e-01
2.529008346787535721e-01,2.043401528035475589e+00,-9.270025822234942425e-02
2.432325678054203244e-01,2.058665248425371797e+00,-5.028973990317767151e-02
2.468366720744017972e-01,2.056373669157715245e+00,3.551543015988428698e-02
2.511680239302544471e-01,2.066400308394215291e+00,1.000603851526334909e-01
2.599452168899112348e-01,2.066043208255929020e+00,1.727722978867017034e-01
2.302706902182515836e-01,2.057595206895025619e+00,2.592004102034198287e-01
2.380543599354648654e-01,2.052920142979171025e+00,3.131186594366391351e-01
2.429606120474108732e-01,2.067205938928100561e+00,4.017545535690671965e-01
2.453694163503072068e-01,2.072368715616468293e+00,4.850238691143794467e-01
2.175265966670385243e-01,2.015037235354093070e+00,-5.545596006782227416e-01
2.167627020116788261e-01,2.024562466139874672e+00,-4.763431520612811387e-01
2.091538740660484896e-01,2.037207504093028199e+00,-3.922453778761601506e-01
2.174453839590358983e-01,2.047414159114462784e+00,-3.234513540356510619e-01
2.179063725697913956e-01,2.030588344918024202e+00,-2.452233609849583940e-01
2.187160356474461276e-01,2.052675430959141956e+00,-1.742980531043143988e-01
2.176059854353739054e-01,2.030673734020024046e+00,-1.057750012437714687e-01
2.072213648206651937e-01,2.045980244248633007e+00,-2.923807805110446856e-02
1.971173320136591911e-01,2.038202301351154766e+00,2.755742275255230328e-02
2.188729264533198771e-01,2.035952510767360835e+00,1.199109549829020238e-01
2.018235382216565232e-01,2.068574546964073946e+00,1.779582455194950452e-01
2.087082049133386075e-01,2.046010049121228302e+00,2.524019213185019761e-01
2.058994809573150286e-01,2.052842430092920889e+00,3.292188686546019816e-01
2.218900127062932437e-01,2.058560950386175481e+00,4.012029461295741339e-01
2.017234690921480000e-01,2.067496549381012905e+00,4.792786532452447124e-01
1.921488737205931108e-01,2.028298215231354007e+00,-5.692113851580117290e-01
1.984160848005183109e-01,2.034098074339445894e+00,-4.502171781611610801e-01
1.807530911520421057e-01,2.034486080135515795e+00,-3.860088207295325202e-01
1.827167568473236081e-01,2.023595556939700835e+00,-3.241990735975336380e-01
1.765647553234103995e-01,2.038631228439061971e+00,-2.570699817019400091e-01
1.654917945215245156e-01,2.046056531675052526e+00,-1.899437660678797435e-01
1.996724226631183541e-01,2.030249797474049878e+00,-1.115188066322043287e-01
1.849586129822484160e-01,2.034819139731847581e+00,-2.240269758667114836e-02
1.950277503668494949e-01,2.068928893321286377e+00,4.623214616880382682e-02
2.024008938513333911e-01,2.045051693044778407e+00,1.151031632601611787e-01
1.796153901168002776e-01,2.047697172515117181e+00,1.709927057496813119e-01
1.824955431951161278e-01,2.049154140145920788e+00,2.622338404993453942e-01
1.824206583640800017e-01,2.041897493177978085e+00,3.363529245150807534e-01
1.984702196107165084e-01,2.059387919320455396e+00,4.017517185571636840e-01
1.864022624812650408e-01,2.051856949129406527e+00,4.846364563346278187e-01
1.378793770876335645e-01,2.010929427519675627e+00,-5.432291474871357995e-01
1.475662363760068263e-01,2.020800565762757905e+00,-4.675173779398698048e-01
1.508362161340440211e-01,2.047960268303180342e+00,-3.803720837904957519e-01
1.430317472828614433e-01,2.029118493427978898e+00,-3.162857656166383480e-01
1.389826397515639966e-01,2.042968566067786096e+00,-2.465617483646641017e-01
1.633287855427358881e-01,2.034695598275030104e+00,-1.782152796269188544e-01
1.575396969353889676e-01,2.043390206282273525e+00,-1.035181650439676027e-01
1.513358468508155530e-01,2.034093623070241552e+00,-3.053175395425726524e-02
1.416112052537087107e-01,2.034479255627641869e+00,2.707981602802289611e-02
1.609847294608072743e-01,2.040519861640137211e+00,1.171438436738175964e-01
1.448687579661115943e-01,2.038070733386794231e+00,1.806678735243407163e-01
1.696169753879357978e-01,2.039627253216591551e+00,2.461896218254190638e-01
1.651412215524150351e-01,2.046453448424412791e+00,3.325822765057249719e-01
1.602242606725235163e-01,2.051092379270715860e+00,4.097120065724896287e-01
1.492534243794727267e-01,2.051560623561414776e+00,4.991335645373687346e-01
1.293276289470552398e-01,2.024929054654314164e+00,-5.357860299910405244e-01
1.240341616777493744e-01,2.023694991382435582e+00,-4.677032462074761643e-01
1.201250569490649039e-01,2.026663007962638208e+00,-3.909127785866622906e-01
1.252048477931374804e-01,2.032585078228287490e+00,-3.222253489035348251e-01
1.201801402199612345e-01,2.015777854486615617e+00,-2.375659824746467474e-01
1.208382432279605928e-01,2.035096724808279856e+00,-1.761681169974811667e-01
1.297076028310028828e-01,2.040755422324734614e+00,-1.067978135158649394e-01
1.290794370306199701e-01,2.031383582874672467e+00,-2.969694720620393025e-02
1.350617782148003376e-01,2.041572615646384481e+00,4.260001613865549430e-02
1.221213545443526893e-01,2.046796717857932713e+00,1.076426245062681586e-01
1.091902781371859033e-01,2.050106729900214919e+00,1.710546289251968499e-01
1.220693843344919371e-01,2.057795178237360911e+00,2.494110503214725660e-01
1.340325449633463784e-01,2.044428722853675051e+00,3.332085555922978393e-01
1.256081455345693931e-01,2.052599834812741442e+00,4.023716582982610479e-01
1.259266646572412829e-01,2.054317628227299686e+00,4.834029921702614474e-01
1.024863615803172784e-01,2.017290596578240613e+00,-5.344696707457170515e-01
9.302080595126849261e-02,2.024994003174246160e+00,-4.709939729364732153e-01
8.709808738890574553e-02,2.030909700056034328e+00,-3.899807753280806755e-01
8.689441141555875880e-02,2.027148079406516423e+00,-3.388014374997869171e-01
8.345535732714154387e-02,2.027914647239064561e+00,-2.416666568366608037e-01
8.734744428603467836e-02,2.040840630471154160e+00,-1.811075797511191854e-01
9.901421092250943523e-02,2.044008103226106154e+00,-1.163012944052521092e-01
9.948540179535028671e-02,2.037765891815687791e+00,-3.251454605774775630e-02
8.070681573402205267e-02,2.039914268867167646e+00,4.095234308631850312e-02
7.900739728643819959e-02,2.036534818465544738e+00,1.033800231657225621e-01
9.294779955894613699e-02,2.041581098062927424e+00,1.929930317737451051e-01
9.540216714860108582e-02,2.056035654316080041e+00,2.500402806488006835e-01
9.948833491495644166e-02,2.059985883330802015e+00,3.219504848929821139e-01
1.025278299823164790e-01,2.042263111515334906e+00,3.937678837417672439e-01
9.721594191180836508e-02,2.053155053456940049e+00,4.783892274598471328e-01
8.395063688336458496e-02,2.021938720669120393e+00,-5.438018693270463277e-01
6.001714519103158035e-02,2.025329970844451655e+00,-4.584344953783585086e-01
6.070187071805538404e-02,2.005370102957974243e+00,-3.968854829001262630e-01
8.277469774071166686e-02,2.029340302591602807e+00,-3.186144520596123630e-01
6.733065118849258790e-02,2.025839450962837685e+00,-2.496212803196509733e-01
6.559372483043603153e-02,2.045304790047060894e+00,-1.850030028359497536e-01
8.535487009031336725e-02,2.030392519790894745e+00,-9.975893217571601967e-02
5.415367159100430844e-02,2.031471827131813956e+00,-2.919020965154976027e-02
5.328082873541819392e-02,2.043415609379008124e+00,2.975057310749045295e-02
4.808625234436697538e-02,2.049757086366960301e+00,1.121032570063327100e-01
4.405640601348094487e-02,2.045909862107240240e+00,1.817855365509183085e-01
6.735257726593457672e-02,2.041405526031676576e+00,2.694922398326802249e-01
6.283930279625564441e-02,2.044126472603383426e+00,3.277128777840260798e-01
5.359754313654578606e-02,2.049657435989459042e+00,3.947047059589269269e-01
5.876912299133747047e-02,2.050138564995540591e+00,4.719618518227338133e-01
4.919181113192527821e-02,2.021241004472367653e+00,-5.380048679419835445e-01
2.566174564353472867e-02,2.023047716700923093e+00,-4.713809613507817242e-01
3.306895945715174201e-02,2.020927830181871165e+00,-4.017908141160316249e-01
3.427636560371311730e-02,2.029294644241000700e+00,-3.127768032398821063e-01
4.445710356327217672e-02,2.030912631497050924e+00,-2.395496763557888598e-01
4.197063147534542404e-02,2.026057057672077555e+00,-1.727644089500317282e-01
2.071577680068360794e-02,2.024988241874151385e+00,-9.339245539761929782e-02
4.347770278394563065e-02,2.031517772403996336e+00,-4.937611069120341478e-02
3.853913598186940043e-02,2.032771230949379060e+00,4.417960868911335881e-02
3.337877499470156412e-02,2.032124910903486903e+00,1.017011554694738501e-01
2.417775351346096446e-02,2.048019199517955080e+00,1.836832616113406591e-01
3.136541717849747335e-02,2.029639034613843762e+00,2.611056880422718551e-01
2.990133521159184585e-02,2.046067311625369367e+00,3.152747478482909593e-01
4.239583022509142013e-02,2.044448324383353999e+00,4.034386392328412896e-01
3.364487999216476954e-02,2.051044739793600247e+00,4.865952553110121093e-01
4.453480114961830098e-03,2.001386428102299497e+00,-5.342425500978416064e-01
4.728411553128850087e-03,2.017957580724195843e+00,-4.720956021176470063e-01
6.515049522261564911e-03,2.023465174992431503e+00,-3.903573797049365024e-01
-1.012151950501567060e-02,2.018467919840227776e+00,-3.154012145691217905e-01
9.396465800387814732e-04,2.016591825691327333e+00,-2.371596216123388889e-01
6.895637679343411854e-03,2.029818194828745703e+00,-1.862332389005085242e-01
1.982780755650735346e-02,2.041129100614948566e+00,-1.076464461965628006e-01
-3.006321536420261675e-03,2.028264920889871092e+00,-4.487023383304658553e-02
6.275979251331734177e-03,2.036341601160735593e+00,3.099701739122792329e-02
2.295849685642322238e-02,2.026126707401937566e+00,1.043017249430053389e-01
2.450728129636813371e-02,2.048640116272075318e+00,1.651655720407477490e-01
1.467672777563213890e-02,2.032479286510155525e+00,2.576921642430107795e-01
1.782617379771524874e-02,2.043304420823257139e+00,3.324591033307311982e-01
8.568351470932366112e-03,2.052292512507072342e+00,4.057787377224660874e-01
6.716731645944377070e-03,2.045905154619388266e+00,4.764924969086785089e-01
-4.300456153374378199e-02,1.997929308086713762e+00,-5.379563322052351992e-01
-3.322589352062676332e-02,2.013020210153359191e+00,-4.733330112028723557e-01
-1.866372601049219593e-02,2.018432569056514581e+00,-3.896543968143257874e-01
-1.659654560060146861e-02,2.006766963329853493e+00,-3.118925506684899762e-01
-2.756682621466540611e-02,2.008564420068069456e+00,-2.550699179832371932e-01
-1.073537983065486409e-02,2.031415978342702378e+00,-1.816045116619862398e-01
-2.715887107470790068e-02,2.026385678989719885e+00,-1.242241941917286152e-01
-3.283620481262894408e-02,2.024129351242138330e+00,-3.859853088454053005e-02
-1.377448084007281207e-02,2.030010774993237899e+00,3.233405067531613941e-02
-2.687684875488147856e-02,2.027371613577777953e+00,9.468032835172385253e-02
-2.137237011204522197e-02,2.031773865100786836e+00,1.692927351679635317e-01
-1.419335452984756343e-02,2.027128230661844555e+00,2.545913366924333898e-01
-3.142932470273517020e-02,2.043632826767545652e+00,3.263262901370490021e-01
-1.397267153549475519e-02,2.035057480883872838e+00,4.179506541409145903e-01
-1.815048909546482930e-02,2.042529245604892463e+00,4.742207873105149241e-01
-5.243176444658591284e-02,2.012179048347861876e+00,-5.441729402223722811e-01
-6.083551733513714588e-02,2.012608325905245632e+00,-4.558948144279736936e-01
-5.324722226059998287e-02,2.006448053696593625e+00,-3.896578545919617831e-01
-5.464497500239018368e-02,2.013571549110076297e+00,-3.073135784003976356e-01
-5.360260695305318207e-02,2.015770038984445733e+00,-2.610680514945197817e-01
-4.343558600114124507e-02,2.033413597167598841e+00,-1.795013066516019662e-01
-5.637671470912999916e-02,2.029386735098059003e+00,-1.057744217320242819e-01
-6.068794453111845538e-02,2.027651000630187106e+00,-2.522788423547983952e-02
-4.034511992275880560e-02,2.025507315626161819e+00,3.090516259130476548e-02
-6.442103362967327440e-02,2.027198252808721346e+00,1.026888533206024579e-01
-5.437960278797341479e-02,2.029232024640038379e+00,1.656766389302563869e-01
-4.491123431635545005e-02,2.025601835266395589e+00,2.563373223199618689e-01
-2.493012502826911364e-02,2.038424014957846975e+00,3.092228934662063500e-01
-4.669822562957279266e-02,2.030623604374774072e+00,4.054085642412851298e-01
-4.502691897579833707e-02,2.046494557398880865e+00,4.804742624110124316e-01
-8.171645474872463177e-02,1.989933397010071214e+00,-5.438442661272563372e-01
-6.541555132008004814e-02,1.993988208197700063e+00,-4.669954808427609350e-01
-7.698512154845588151e-02,2.012791940999986817e+00,-3.994420242941860155e-01
-7.029451474067996419e-02,2.007201420141934811e+00,-3.160356862920315479e-01
-8.732581328683126920e-02,2.022158420047646121e+00,-2.421920140495759377e-01
-6.446272560321307521e-02,2.022801024581683649e+00,-1.808949762285834983e-01
-7.862006285171266318e-02,2.022877030646897722e+00,-1.133977582717082960e-01
-8.004012265277606064e-02,2.020422154044048124e+00,-4.738162061458457003e-02
-7.983690449025493407e-02,2.013484207880036347e+00,3.375313974992254218e-02
-9.762474048489866441e-02,2.030443559805618747e+00,1.111469318826696639e-01
-7.590479354500767606e-02,2.042664583297732595e+00,1.746055751798519518e-01
-7.166080163495185118e-02,2.028010688224060054e+00,2.457314667346890968e-01
-8.457881229734072470e-02,2.040068264700979128e+00,3.248275008233754702e-01
-9.237147906740854342e-02,2.054253751612086010e+00,4.012351018963338789e-01
-8.375680684238125118e-02,2.052607916351876671e+00,4.675803722116665950e-01
-1.074554417244375643e-01,1.996120984182873981e+00,-5.477502589485663265e-01
-1.103300728934729358e-01,2.006953514501164548e+00,-4.625384788148001469e-01
-1.143169098852854365e-01,2.000326392500325401e+00,-3.764350576649616031e-01
-9.999083050371529446e-02,2.007666495390149297e+00,-3.354997385210206629e-01
-1.101071833947817324e-01,2.022664931450777637e+00,-2.409765516135090047e-01
-1.210296139313659231e-01,2.014289375118250458e+00,-1.795268772659781298e-01
-1.156489239622540827e-01,2.014420571455656450e+00,-1.099427307962755201e-01
-1.142777963834901434e-01,2.010295415819356890e+00,-3.481075269654148457e-02
-1.038698318464016668e-01,2.035478992013192379e+00,1.300203359510783765e-02
-1.066438826736463702e-01,2.030266537730363474e+00,9.731437374902394966e-02
-1.031471984167865868e-01,2.029463803605650263e+00,1.879449364716865578e-01
-1.163451547529740920e-01,2.039389312605501825e+00,2.576033459859440322e-01
-1.188176972055628861e-01,2.031471089451042378e+00,3.150534677756666180e-01
-1.037470659302043158e-01,2.038048062801668170e+00,3.976480140815083497e-01
-1.054279248488639020e-01,2.025314623305909389e+00,4.555492755704212415e-01
-1.306124096054083195e-01,2.003124083134836919e+00,-5.550339217179575124e-01
-1.442571884524094517e-01,2.007971191347246886e+00,-4.625012835813360201e-01
-1.320117770024877846e-01,2.003716598062045051e+00,-3.945032428548855830e-01
-1.444766413283305739e-01,2.020498036810728593e+00,-3.227566884862381191e-01
-1.389004165950595004e-01,2.013040145005705384e+00,-2.528990596615491859e-01
-1.369007815310435972e-01,2.017206868322070523e+00,-1.738372798559836008e-01
-1.308387126729241845e-01,2.011775728087988657e+00,-1.140435014017128074e-01
-1.311663911749590961e-01,2.025798087217345333e+00,-4.650931368477098649e-02
-1.216740217388043166e-01,2.015481148552343171e+00,3.420869494502659647e-02
-1.298144075002154174e-01,2.019515859350343945e+00,1.081439354627789229e-01
-1.240157899277859049e-01,2.023120902104048824e+00,1.950667082458963086e-01
-1.318316204255625679e-01,2.030421389461221526e+00,2.351110812013141038e-01
-1.397899909033704646e-01,2.039727584484511524e+00,3.130076505195932279e-01
-1.332328946864645980e-01,2.037449637669189961e+00,4.119138527393133020e-01
-1.303984942787585477e-01,2.041391489783229485e+00,4.760272595277252328e-01
-1.659382987745075533e-01,1.996673935200196759e+00,-5.380061880678130848e-01
-1.786921338311270591e-01,2.007929068934527272e+00,-4.689073293709782875e-01
-1.769043508611397864e-01,2.018368905604279728e+00,-3.934757013455894570e-01
-1.688802565767459074e-01,2.013332330448247998e+00,-3.247496967185170558e-01
-1.698027383278079283e-01,2.002654845297135555e+00,-2.471189618174466640e-01
-1.656887951197303088e-01,2.015110451491409993e+00,-1.837202883928990560e-01
-1.675532304805009420e-01,2.003427382235722032e+00,-1.213970618595860973e-01
-1.528426363185184100e-01,2.031959375411554802e+00,-5.896398866368601777e-02
-1.763955989975756755e-01,2.032249542316539870e+00,3.974740703827970428e-02
-1.618536232353081361e-01,2.021422676636015936e+00,1.053530436369732454e-01
-1.721368677308463824e-01,2.029180913877799863e+00,1.808597851078598551e-01
-1.641050237655393707e-01,2.020933455828208825e+00,2.475740401060726736e-01
-1.593165373596532319e-01,2.031203830574006552e+00,3.185151224996336516e-01
-1.683542663746262491e-01,2.033297932413527409e+00,3.864833104967091981e-01
-1.676192044869097286e-01,2.037212756539144021e+00,4.738004768139375544e-01
-1.951096683355414418e-01,2.000948007686476515e+00,-5.488508599707353497e-01
-1.820327964265640308e-01,1.997388806370290704e+00,-4.632990906116689622e-01
-1.890114172229062917e-01,2.008759122313271028e+00,-3.839469789099871355e-01
-1.897084477475834419e-01,2.007368112238708147e+00,-3.268621178891437662e-01
-1.969274387948818650e-01,2.012881925055382215e+00,-2.728193268167170560e-01
-1.835362900537340081e-01,2.008444880528168941e+00,-1.922354644925610145e-01
-2.013185242385968632e-01,2.008854658469209742e+00,-9.835333261506040703e-02
-1.958098824073651323e-01,2.014141757637506469e+00,-3.634135752536839931e-02
-2.003947010099862702e-01,2.028611387437682101e+00,5.522335293603251871e-02
-2.070889324427337419e-01,2.025958942716423294e+00,1.163916767754748921e-01
-2.032040140938882189e-01,2.016752685324111116e+00,1.768045998778691175e-01
-2.041080156886811436e-01,2.022765514869469872e+00,2.626354452341277401e-01
-1.858872154766967877e-01,2.024866458308742345e+00,3.384446584130566538e-01
-1.982819211810021021e-01,2.025009374158306841e+00,4.044844875923859773e-01
-1.813776231337567435e-01,2.050731355334283190e+00,4.627113738690696865e-01
-2.253393971093106130e-01,1.995536016055707407e+00,-5.421301817604400330e-01
-2.203313690975106653e-01,1.999773103342159297e+00,-4.745635036495080006e-01
-2.364397664724129100e-01,2.001885636778500732e+00,-3.842036816105554586e-01
-2.290843518230998577e-01,2.005438831048912629e+00,-3.155163324713174955e-01
-2.220099521018452926e-01,2.005881929516066364e+00,-2.315094826823573260e-01
-2.200873723279089256e-01,2.020626231095670633e+00,-1.616495823754584005e-01
-2.135476276164479104e-01,2.004824067728307568e+00,-9.725375734160461583e-02
-2.389889803624198894e-01,2.009682346855310886e+00,-4.611163950915105753e-02
-2.391306909970349059e-01,2.005178286333400006e+00,2.954751323006454822e-02
-2.169879019849620672e-01,2.009742143364330325e+00,9.135194434166285515e-02
-2.285430199437899768e-01,2.016601010276812378e+00,1.945616000438425974e-01
-2.271620002455317922e-01,2.013428650600683767e+00,2.568803337576896495e-01
-2.324964818618976969e-01,2.014172511065209559e+00,3.313623252621260007e-01
-2.321552545549805113e-01,2.029136857994228382e+00,3.974029308513576386e-01
-2.167447737146439568e-01,2.025715821050875221e+00,4.660499796829851715e-01
-2.587070399416444566e-01,1.991338477022145170e+00,-5.397778795677498076e-01
-2.628828469309527072e-01,1.999376360868859948e+00,-4.580212750000136057e-01
-2.389420367250460753e-01,1.989547293667066397e+00,-3.955711587701244425e-01
-2.552680644787130859e-01,2.009347139761882950e+00,-3.352462551036676230e-01
-2.644379183794119403e-01,1.996225971761907303e+00,-2.454413687699724678e-01
-2.491028211165596806e-01,2.012776597256407562e+00,-1.888777717387900013e-01
-2.338323018121541419e-01,2.006577913161324833e+00,-1.116588105195991387e-01
-2.469335353878456540e-01,2.021160443053114264e+00,-4.454537123806719123e-02
-2.499690564708995366e-01,2.015238638562106388e+00,3.748902469168802210e-02
-2.560404227957597811e-01,2.012283910489155669e+00,1.096704607791506858e-01
-2.545034918134943536e-01,2.024840799971654892e+00,1.732081995432950827e-01
-2.485786864989881495e-01,2.034116295846780886e+00,2.627734305033362916e-01
-2.553821874921093915e-01,2.032727351415739570e+00,3.143915832480979611e-01
-2.707841427991954375e-01,2.014503775817888087e+00,4.028614767547652464e-01
-2.563319705358818035e-01,2.028188305528397350e+00,4.627145835085787473e-01
-2.712949070799767215e-01,1.975322823019246110e+00,-5.473475496889141922e-01
-2.716197038743916048e-01,1.997108414211222982e+00,-4.625588934820669129e-01
-2.872767528263289738e-01,1.988232102524499556e+00,-3.981690558184591833e-01
-2.861376802335189318e-01,1.991746099807368164e+00,-3.203479643445064085e-01
-2.937634236353904305e-01,2.000059125507768876e+00,-2.531071611814070255e-01
-2.855349036086627379e-01,2.011725785003963374e+00,-1.625557046537678962e-01
-2.827803236770355944e-01,2.020382952085864048e+00,-1.110383965009670293e-01
-2.817938757146481454e-01,2.010509342355005558e+00,-3.938046285772825450e-02
-2.812539596956089571e-01,1.999342517951253173e+00,3.145810004759341111e-02
-2.860948734678366856e-01,2.016762156080816215e+00,1.101815865351618989e-01
-2.685698653888918819e-01,2.010785703757377529e+00,1.880775122575525649e-01
-2.840750094209701371e-01,2.024189842139687112e+00,2.535423827106896288e-01
-2.837251873355277065e-01,2.014724746126273836e+00,3.117738207515303728e-01
-2.789760441474297692e-01,2.017129821511446597e+00,4.001834475656552148e-01
-2.739432458806860815e-01,2.018456977950177311e+00,4.817321577714320791e-01
-3.166401113780551446e-01,1.997367358116553415e+00,-5.481898446658307611e-01
-3.227022917371936694e-01,1.985828653270322430e+00,-4.605370245135584906e-01
-3.182583482376267203e-01,2.001776760691630574e+00,-3.887299316079008693e-01
-2.912591943682573681e-01,1.997540752625156069e+00,-3.132572140719694920e-01
-2.919477112296712251e-01,2.018659095732200370e+00,-2.405277429013237822e-01
-3.153781193744205069e-01,2.013961811662488000e+00,-1.864865431047808275e-01
-3.080011573241613343e-01,2.011812993443993225e+00,-1.071675323720101686e-01
-3.026095571884976909e-01,2.005243811234291851e+00,-3.974590771814919682e-02
-3.120299555581368400e-01,2.017657959944153312e+00,4.139114026533181195e-02
-3.177856295069954595e-01,2.004718983824640421e+00,8.531381298611358244e-02
-3.037431060497822188e-01,2.021550097742509600e+00,1.781044409201330281e-01
-3.013736346121146936e-01,2.005725863520199770e+00,2.507178200323565420e-01
-3.140394903187795350e-01,2.029270118616940177e+00,3.247241516400896089e-01
-3.063593200133427064e-01,2.048460702192735461e+00,3.934673768544887373e-01
-3.101587923812856307e-01,2.025885804441414084e+00,4.768109969779819601e-01
-3.358843608600871611e-01,1.989301351583779409e+00,-5.404587433820917663e-01
-3.347107490905156801e-01,1.991002161240171153e+00,-4.486104237115686733e-01
-3.358457398008332095e-01,1.997610020182009727e+00,-3.999575579002238035e-01
-3.427250032258533086e-01,1.997612033777487195e+00,-3.117745836728614273e-01
-3.336790227918565721e-01,2.001098552036479905e+00,-2.456038203121007069e-01
-3.287057934895584732e-01,2.004790734914137840e+00,-1.661373584851720542e-01
-3.386435873797629670e-01,2.003095328312185064e+00,-1.146218456504677352e-01
-3.367133026280635377e-01,2.006558570070189340e+00,-3.074317622146998177e-02
-3.438633094917741273e-01,2.004567927968364138e+00,3.118233824881009447e-02
-3.416180524479032754e-01,2.021240614912314104e+00,1.026094753282185412e-01
-3.381535885019608667e-01,2.015404755467279596e+00,1.726207022962878701e-01
-3.370772731664007371e-01,2.013053252733688847e+00,2.549000348786070180e-01
-3.425769045028894122e-01,2.033016472341500958e+00,3.170732048438090755e-01
-3.477863140417908339e-01,2.032189170444631987e+00,4.059101131982761901e-01
-3.381747642584180258e-01,2.018053264272253511e+00,4.663932851559753900e-01
-3.661229104104810617e-01,1.994043976289937348e+00,-5.394523519447893545e-01
-3.574537810013222461e-01,1.982173311004939986e+00,-4.611878410906133929e-01
-3.788312657922706661e-01,1.994950583504952801e+00,-3.980641112064930431e-01
-3.651778065951603591e-01,1.997919684914706728e+00,-3.207003410122450937e-01
-3.645037724080166242e-01,1.994217389706926191e+00,-2.486900811652566490e-01
-3.750162313532574565e-01,2.004375158600824047e+00,-1.724557553123964027e-01
-3.713878858271734695e-01,2.000272960583988624e+00,-1.098999065258135927e-01
-3.675292103315611625e-01,2.005183597574036636e+00,-2.180801154573546591e-02
-3.723398769425110832e-01,2.018976930578257001e+00,3.703944792632792721e-02
-3.557512135000996389e-01,2.012877630973179954e+00,1.039773054538280367e-01
-3.655328949740462297e-01,2.010234839829884379e+00,1.701351034262748030e-01
-3.636654017363780689e-01,2.013478160512895965e+00,2.554910363901501946e-01
-3.783123231918507079e-01,2.026658656928365776e+00,3.193734226383093122e-01
-3.751365841565618697e-01,2.019982590226094832e+00,4.019702288881569219e-01
-3.735659881754058720e-01,2.030832808514975163e+00,4.766452059871159608e-01
