1.191316710219183506e+00,6.845907198262160875e+00,-8.454589179540435984e-01
1.211806844444549336e+00,6.844564660999778560e+00,-6.137002593241414061e-01
1.205038724505734127e+00,6.844365961847838520e+00,-3.540575360473872113e-01
1.220289129469200873e+00,6.870343220682653573e+00,-1.412932248198984775e-01
1.211714772722928268e+00,6.888974022770828043e+00,1.191447418094084276e-01
1.214118800919627539e+00,6.878332688103057535e+00,3.583545715196562731e-01
1.232634476753006636e+00,6.890122307481097330e+00,5.903746894836938708e-01
1.224699507590325531e+00,6.889987959469386247e+00,8.766760537423484712e-01
1.222714818611437382e+00,6.900980048399184774e+00,1.114776989293259746e+00
1.238437149520435820e+00,6.919013229249611818e+00,1.362548534919551857e+00
6.479146291347275266e-01,3.974536055285224467e+00,-1.076188341685266892e+00
7.625760466244235758e-01,4.724894765841742839e+00,-1.100650220942063884e+00
9.506703310060466983e-01,5.811743857476294295e+00,-1.141043326011653036e+00
1.120477061978296218e+00,6.822437404241102676e+00,-1.101134909891773761e+00
1.119960001131793836e+00,6.838978763447682852e+00,-8.566651717143238809e-01
1.104636234264879890e+00,6.848201175878679159e+00,-6.122318834104485408e-01
1.119351000108199212e+00,6.865492699264198251e+00,-3.668997203653627803e-01
1.122305429242768549e+00,6.854035111425345939e+00,-1.148084155899961878e-01
1.130839286097190088e+00,6.871768342903571636e+00,1.206568536134976499e-01
1.117431892317835018e+00,6.878938054470920882e+00,3.625468747781145362e-01
1.128463170655130243e+00,6.896281056509520724e+00,6.013834203100187903e-01
1.125150043437544989e+00,6.893178720555051875e+00,8.556723830960679678e-01
1.123811677672908127e+00,6.908948530896844353e+00,1.109283037636806135e+00
1.110295222458685283e+00,6.917688083173996638e+00,1.371757813136869286e+00
5.815655327709934319e-01,3.967363362491812762e+00,-1.074446821984867295e+00
6.797028886625455790e-01,4.731644495980777521e+00,-1.103791170933248633e+00
8.600916088252051894e-01,5.800363808568459234e+00,-1.158406438679705497e+00
1.024408075000863283e+00,6.831998828868315776e+00,-1.093109399698930950e+00
9.958586137983755915e-01,6.847262915301741693e+00,-8.464588139961166657e-01
1.011898935737909344e+00,6.854331146434371469e+00,-6.109065610844794936e-01
1.013595240311524481e+00,6.879139326953297662e+00,-3.565585217183200872e-01
1.015427019790788643e+00,6.878111906525966823e+00,-1.173802098939903393e-01
1.044596956880770477e+00,6.883287683087344178e+00,1.276596552389195616e-01
1.007648356018849389e+00,6.894326607387903927e+00,3.651070151716154788e-01
1.021711186469410837e+00,6.903129344212472596e+00,6.127427640141116516e-01
1.018094462563420510e+00,6.905034519734440046e+00,8.529629406206085118e-01
1.015151351021533754e+00,6.929794241292279722e+00,1.102138296415227314e+00
1.017890614347562561e+00,6.931871191739760185e+00,1.354912238179737383e+00
5.181104856748599552e-01,3.970136004442822664e+00,-1.077361832291144239e+00
6.267155245157033372e-01,4.725112678733863092e+00,-1.102657352245518751e+00
7.640604686688059477e-01,5.812065643423153460e+00,-1.141332616005955147e+00
9.083005177704567279e-01,6.835405415295630505e+00,-1.101898977642157051e+00
9.156035810061814439e-01,6.864106013240091286e+00,-8.490096483444805608e-01
9.202071332684076399e-01,6.860574091073811331e+00,-6.067767040582942029e-01
9.181099075591564462e-01,6.879026065594413986e+00,-3.743205405029635391e-01
9.098118727269507433e-01,6.868347198808434584e+00,-1.052954776344999510e-01
9.261910275610131249e-01,6.908306268656026816e+00,1.152626035752344902e-01
9.130253928454877821e-01,6.908044912971331719e+00,3.593809447888683950e-01
9.306206057481987148e-01,6.917214275091810194e+00,6.098406619996833422e-01
9.239072334544587983e-01,6.915062187731227716e+00,8.662556343384947288e-01
9.238826045316311797e-01,6.928523065838805728e+00,1.108387365642412137e+00
9.250344380779182973e-01,6.928758944698598654e+00,1.357377040365553178e+00
4.722886774996049031e-01,3.984473770445121410e+00,-1.068368228934179820e+00
5.505766458259808704e-01,4.742606500704972028e+00,-1.100963995845075205e+00
6.851673179365163069e-01,5.860953158882385772e+00,-1.139004563338238407e+00
8.076604494229498998e-01,6.851188804494983131e+00,-1.101141999278290484e+00
8.274707957788766111e-01,6.870065793322835290e+00,-8.364421052090188491e-01
8.161501460843842981e-01,6.866305145866808957e+00,-6.197482756398030590e-01
8.227732564257967951e-01,6.884937691790360859e+00,-3.746150101994258352e-01
8.212691570099867056e-01,6.885987146725072172e+00,-1.208631770879045886e-01
8.053289887870747066e-01,6.897853326780985839e+00,1.175510742453062529e-01
8.147273591834396367e-01,6.905026200120275348e+00,3.717179917529463418e-01
8.224594725013706364e-01,6.909781949316793792e+00,6.027225888468025206e-01
8.144524213199050289e-01,6.920482681176476802e+00,8.624038452987884407e-01
8.254508819114757534e-01,6.932865785264087144e+00,1.108876502008693921e+00
8.066884307467597770e-01,6.937585421934309160e+00,1.362628309970376650e+00
4.240417873318796937e-01,3.995743026325217162e+00,-1.083956580858121521e+00
4.997058452545191098e-01,4.742037039863207681e+00,-1.103392849940831422e+00
6.135604603813153979e-01,5.868980390154599824e+00,-1.140790911012335762e+00
7.094630317055712343e-01,6.883377149607969869e+00,-1.101001285993186141e+00
7.207220050576457204e-01,6.874375240865785663e+00,-8.495873627067187517e-01
7.196968602640946289e-01,6.869306134969966671e+00,-6.092165237879054729e-01
7.077796060073336948e-01,6.882021668989049878e+00,-3.399449364266592388e-01
7.093285023066590034e-01,6.898481842550521215e+00,-1.260039839780665305e-01
7.196302805217137388e-01,6.906320264013627863e+00,1.259100981135928277e-01
7.055973159390188654e-01,6.905791876455452893e+00,3.674052397623484012e-01
7.212389049574677857e-01,6.931150307544924338e+00,6.029775921831966867e-01
7.283190870483104984e-01,6.921779589884445194e+00,8.538962431673620124e-01
7.192251128598542431e-01,6.922664469880135840e+00,1.112342005530922329e+00
7.224912425097037572e-01,6.945762453544794823e+00,1.350777053491112767e+00
3.613068214319295479e-01,4.006089696088188212e+00,-1.069863632679967091e+00
4.215296154340985590e-01,4.736393968839941238e+00,-1.102806548192580394e+00
5.309283932008225237e-01,5.844244874153759817e+00,-1.137510915608018980e+00
6.140966009836291706e-01,6.857019388617127120e+00,-1.096200049012306721e+00
5.994203197884455658e-01,6.871141814431621420e+00,-8.337673876928337613e-01
6.162300947176478916e-01,6.900420243374866480e+00,-6.027669184816578651e-01
6.087464541770807314e-01,6.897737587955866445e+00,-3.541696611913299209e-01
6.167770761334581131e-01,6.881341968554559152e+00,-1.120610713009997372e-01
6.164558168665473792e-01,6.908066970720354583e+00,1.085945267081684651e-01
6.101483221681137659e-01,6.919319422422939958e+00,3.642275895055542834e-01
6.317082937236868645e-01,6.921543108637322028e+00,6.013319361726587875e-01
6.216111138953976933e-01,6.924590951005795247e+00,8.493790103520252321e-01
6.146878133745702355e-01,6.937166202640168144e+00,1.099907004558198453e+00
6.342939420556545915e-01,6.951637514929752015e+00,1.343971417596951712e+00
2.972275150227050022e-01,4.007579808719338388e+00,-1.065806544305632597e+00
3.611708400427737220e-01,4.758252118172337397e+00,-1.100833485431299108e+00
4.473788110763046721e-01,5.850951365687542705e+00,-1.126576443878545719e+00
5.036015777369593494e-01,6.863793249749178038e+00,-1.101921368420567759e+00
5.125139713062206726e-01,6.863884359246600120e+00,-8.372487405400013127e-01
5.134952937049698241e-01,6.895482495631227948e+00,-6.201837394229497979e-01
5.082788125010794245e-01,6.883006415116853738e+00,-3.585533006465658201e-01
5.116487259992756886e-01,6.927842965624322780e+00,-1.183125004600651953e-01
5.207527570362959768e-01,6.908821400226829113e+00,1.223561978095867586e-01
5.213472790702130544e-01,6.929276950594623230e+00,3.650685592381576194e-01
5.082106361729712418e-01,6.925630408337957178e+00,6.238411390395866007e-01
5.277703807798994617e-01,6.947106200151910826e+00,8.512803082683714218e-01
5.149871044803022713e-01,6.946177246181376219e+00,1.121332295153737002e+00
5.129890652558015685e-01,6.964492670746058600e+00,1.357960876586825405e+00
2.484631024146458367e-01,4.017965752370579402e+00,-1.065387398972415856e+00
2.801487617362341531e-01,4.766489341463489460e+00,-1.101867485901837806e+00
3.604424777466557761e-01,5.849564319720620631e+00,-1.146257933266681572e+00
4.158809454709002096e-01,6.877695102388260651e+00,-1.108141901732152990e+00
4.159344793459517353e-01,6.881391082529244585e+00,-8.509973537881729833e-01
4.142923902973364436e-01,6.911104059101232266e+00,-5.856394280945689257e-01
4.188413845942568492e-01,6.913632535589000483e+00,-3.783625492047175132e-01
4.316164086098219776e-01,6.916517808699955694e+00,-1.199186316660343921e-01
4.373341847714757313e-01,6.922095316325187930e+00,1.179327510592680234e-01
4.092801222145802664e-01,6.943953530242654715e+00,3.654918084309735082e-01
4.143428099691748301e-01,6.941863412145458767e+00,5.934554888743758250e-01
4.239534616271433132e-01,6.931983068152963057e+00,8.572585100102331213e-01
4.210001328637517082e-01,6.958515784282925054e+00,1.098670789648582780e+00
4.098480932111694397e-01,6.969817251847360673e+00,1.357220421189919479e+00
1.925188303950866875e-01,4.006030728037996091e+00,-1.067811401938647098e+00
2.225705869511656609e-01,4.785539660439289023e+00,-1.093015949750925309e+00
2.872474013125504988e-01,5.855014109468999806e+00,-1.147189149832776422e+00
3.175791733297065877e-01,6.880256386124301571e+00,-1.065233500827521773e+00
3.089226288086673877e-01,6.886677844494698775e+00,-8.472742031578016642e-01
3.316988467242963923e-01,6.912609030958008383e+00,-6.122170676112215215e-01
3.245467366644108620e-01,6.898183479977469723e+00,-3.624136596947122313e-01
3.063767417009538030e-01,6.932991026859138373e+00,-1.121030898727297942e-01
3.281761593362678697e-01,6.934139693468242882e+00,1.341691153316909024e-01
3.204956693661382139e-01,6.940015346048487466e+00,3.794777058384654622e-01
3.282268423574994376e-01,6.946915363148622014e+00,6.066196761867813647e-01
3.313103832682375294e-01,6.956859569474445060e+00,8.715184609143358241e-01
3.219431916507691782e-01,6.974140789623485936e+00,1.107335335149028044e+00
3.161152005807693066e-01,6.985606013043364371e+00,1.356149370908010798e+00
1.276756043245312333e-01,4.014731425795688757e+00,-1.083642501754117138e+00
1.503754173199847444e-01,4.775129778526777891e+00,-1.099292067328762279e+00
1.913333348164480419e-01,5.866411410374959168e+00,-1.143205257028765631e+00
2.251547534729953226e-01,6.898623841190950401e+00,-1.102625792269354754e+00
2.346746197847617843e-01,6.900927141029380429e+00,-8.406399959852796089e-01
2.272654999148235877e-01,6.906717137124904760e+00,-5.859049986219660999e-01
2.207140244655701744e-01,6.926052723538517419e+00,-3.632541798473869488e-01
2.140658463683523804e-01,6.926867455017764463e+00,-1.371816719308236454e-01
2.172984514960078495e-01,6.934810096251834644e+00,1.223670036597830912e-01
2.195837335948376545e-01,6.939344016950303562e+00,3.554852249835900313e-01
2.160545727571783203e-01,6.941104173931635479e+00,6.074886368685823435e-01
2.297996686007721945e-01,6.945959815517803726e+00,8.508569833024577367e-01
2.319124228669961485e-01,6.991426977949340760e+00,1.113774468232953341e+00
2.163470103351037011e-01,6.965910691755532902e+00,1.355432502825943741e+00
7.243332960190117242e-02,3.999839058638944955e+00,-1.054579504224876008e+00
7.870062748249868900e-02,4.767078077802008984e+00,-1.110774568231441606e+00
9.328657779366553160e-02,5.879722973396199315e+00,-1.133379447741458268e+00
1.110601934151178999e-01,6.898041271011759790e+00,-1.088577479296480188e+00
1.186273575263991492e-01,6.907732358024190944e+00,-8.529189154548708629e-01
1.179353371037684395e-01,6.918547048119030762e+00,-6.107042645552912541e-01
1.308497569169371211e-01,6.908616955201230425e+00,-3.649877216935284441e-01
1.254264651930204477e-01,6.946604644325768518e+00,-1.311381456173965621e-01
1.188663521307417453e-01,6.929298779987975720e+00,1.346568961588629210e-01
1.352768954719158201e-01,6.949454238647708948e+00,3.719835316845434003e-01
1.027156291412862771e-01,6.959814246685650296e+00,6.069368368457229712e-01
1.221555264203049718e-01,6.972460270065601762e+00,8.584350036171300991e-01
1.339712740751469178e-01,6.976822182161771302e+00,1.104362745592896600e+00
1.286329674343380247e-01,6.982029177649308416e+00,1.356608939976050809e+00
1.301591321257127010e-02,4.016180270995510782e+00,-1.074269317396108425e+00
1.709917233211330143e-02,4.763561004656529541e+00,-1.115911697761968302e+00
2.043351586079794266e-02,5.871648001479177204e+00,-1.151372818702313561e+00
1.731866680395788283e-02,6.896807394888667453e+00,-1.085465950894525688e+00
2.580484595453305663e-02,6.923238542446989996e+00,-8.448361313770488268e-01
1.771176867917025749e-02,6.912430926721511604e+00,-6.016254678608172757e-01
1.880359629087863249e-02,6.930879951982100273e+00,-3.648045255878392124e-01
3.270071912421677884e-02,6.942328611568986396e+00,-1.194483494819314207e-01
2.675945656430412170e-02,6.943215362201060614e+00,1.311216232932142511e-01
2.788900568708175751e-02,6.949615856931496083e+00,3.596775741717162522e-01
2.403314326751224139e-02,6.964215823094761504e+00,6.084989950791485080e-01
2.110994301855123600e-02,6.971301727260330594e+00,8.482815129529366338e-01
3.963587966104888810e-02,6.992904389161556544e+00,1.104713427884088217e+00
2.162462161146734216e-02,6.985376174950702399e+00,1.353658913221299276e+00
-4.091164217082998711e-02,4.026410129832146190e+00,-1.088487600987581461e+00
-4.111606305978550424e-02,4.797178733766172876e+00,-1.105848495366871909e+00
-6.131053307159960164e-02,5.882997425916195233e+00,-1.147188446024710151e+00
-7.714052673397957249e-02,6.909885235764726907e+00,-1.090714272420006070e+00
-6.765147496668016958e-02,6.921138561293346037e+00,-8.541571796229376901e-01
-7.646464235423580669e-02,6.928581325161422555e+00,-6.274689838595826075e-01
-7.408876734208803827e-02,6.924997021555434173e+00,-3.694765210499799668e-01
-7.735055752210807933e-02,6.944473187632161704e+00,-1.174562770391394950e-01
-7.420673739463511109e-02,6.963207946603649390e+00,1.157399879908969781e-01
-7.531544230423498076e-02,6.969300789449611067e+00,3.782418923416155376e-01
-7.152512627551679825e-02,6.967397310755037765e+00,6.097613892347069076e-01
-8.737952137998777902e-02,6.967681712021573937e+00,8.601219989954297374e-01
-8.634751574093221804e-02,6.984897321665667569e+00,1.095632486719477994e+00
-8.059062864005775428e-02,6.994099819444826061e+00,1.360279651847323468e+00
-1.052336937667551764e-01,4.016286198213360414e+00,-1.077187966531470087e+00
-1.175609239735058986e-01,4.787424666953106644e+00,-1.088779849481281481e+00
-1.455708798524035785e-01,5.899221433384207458e+00,-1.137832635232943312e+00
-1.737112689558112100e-01,6.916417312540652951e+00,-1.098392762063690409e+00
-1.679559164422601558e-01,6.924085099010350852e+00,-8.584673407954007684e-01
-1.813376757246936144e-01,6.937246677189805588e+00,-6.038119312351137857e-01
-1.829275003089688989e-01,6.966703093785042711e+00,-3.554656937921636395e-01
-1.772315918480944774e-01,6.939744350113574711e+00,-1.089422621572689875e-01
-1.561056062504112274e-01,6.977586533400780056e+00,1.283751964101705612e-01
-1.888814136493915941e-01,6.963994767200912150e+00,3.477168679202105039e-01
-1.640190501279204793e-01,6.966391607187031099e+00,6.138775582096777095e-01
-1.724548290243426429e-01,6.987877213278703259e+00,8.692541934865695152e-01
-1.768271289562190485e-01,6.991595256432157512e+00,1.089825502721434969e+00
-1.760804970036863593e-01,6.999348412986198475e+00,1.357058638265126183e+00
-1.465474151913657430e-01,4.010803590445651601e+00,-1.082397538457450237e+00
-1.889990696154348060e-01,4.775647199261693565e+00,-1.092869674085885867e+00
-2.288976282696947584e-01,5.888469457541921415e+00,-1.151198915158322400e+00
-2.705900688389772379e-01,6.911572775819725400e+00,-1.087351139387236376e+00
-2.732818864319784824e-01,6.932692732812030911e+00,-8.309994652027969941e-01
-2.735140876120313869e-01,6.949433106234673474e+00,-6.171863530998339398e-01
-2.694292329556328136e-01,6.963893737491975600e+00,-3.703741488815758820e-01
-2.668816341726691910e-01,6.964521038819102117e+00,-1.125306128074106404e-01
-2.753962914870186074e-01,6.963358809877791877e+00,1.245209238229187110e-01
-2.776651630753710909e-01,6.979929375152557292e+00,3.774340267221419909e-01
-2.718607275429225645e-01,6.995099807000800141e+00,6.018953571218078613e-01
-2.816061779882074179e-01,6.991081149601089173e+00,8.596123097761196874e-01
-2.628798864700012117e-01,6.989711581055586542e+00,1.125930417101316250e+00
-2.800409357279365907e-01,7.005443109610854258e+00,1.356963541922012739e+00
-2.101619388317751136e-01,3.991373152697403892e+00,-1.070013990689677508e+00
-2.643440763678132632e-01,4.791294082263722665e+00,-1.097331896000873552e+00
-3.116946339519904852e-01,5.835987053128500079e+00,-1.125670099243236688e+00
-3.726300264811210905e-01,6.924957063561824278e+00,-1.097147476019546541e+00
-3.822065346514026962e-01,6.941551855894239509e+00,-8.339817907515449935e-01
-3.776062850376258329e-01,6.939596975873156381e+00,-6.073757585401738934e-01
-3.590819173438356549e-01,6.960706945047137495e+00,-3.571580252085506113e-01
-3.878111794946519364e-01,6.971178426121985794e+00,-1.190001647394740986e-01
-3.808127241734650115e-01,6.958174048241899001e+00,1.201107831865327880e-01
-3.603236070777852684e-01,6.976693536876706681e+00,3.711661172215287574e-01
-3.763529358424299032e-01,6.978582662421576543e+00,6.252603242505387904e-01
-3.719826168540318889e-01,6.999220254071327751e+00,8.604060026154409790e-01
-3.820027897558775920e-01,7.015121127939853984e+00,1.115996526774279962e+00
-3.811666919714900015e-01,7.013749898494733515e+00,1.364956292816815964e+00
-2.822679603428991935e-01,3.970477962632002367e+00,-1.074876382664547547e+00
-3.215590002226093036e-01,4.750758467849101052e+00,-1.091761780113158498e+00
-3.899828401135854716e-01,5.848134829901201037e+00,-1.133002005509357923e+00
-4.797558108247941822e-01,6.947796631597348949e+00,-1.101250366414994630e+00
-4.673272506707121243e-01,6.952095083701384404e+00,-8.507066511368553963e-01
-4.782031247992167278e-01,6.956115785635182291e+00,-6.156973597395873909e-01
-4.825130952147256291e-01,6.964089140548395562e+00,-3.734167969814548016e-01
-4.765426774378385688e-01,6.968597656450294053e+00,-1.100759908700140871e-01
-4.697610218723992093e-01,6.976772291371177381e+00,1.284527010001957625e-01
-4.839987479120931857e-01,6.987742295630310352e+00,3.861633930169119933e-01
-4.878465162349198692e-01,7.001085427129924099e+00,6.176617885660247165e-01
-4.846406736411384975e-01,7.004064329153353086e+00,8.636953435816080438e-01
-4.842510506715900220e-01,7.026346185520146115e+00,1.122796811781421988e+00
-4.641086347148907776e-01,7.022061683662746745e+00,1.363295094967765797e+00
-3.332885876375910050e-01,3.997688918341611330e+00,-1.081107492085015220e+00
-3.873094630388149162e-01,4.753715092129018771e+00,-1.099988258446032541e+00
-4.748351093382091603e-01,5.869465690951343184e+00,-1.137566865768523394e+00
-5.726428374849432679e-01,6.949930407241438068e+00,-1.092640537133879430e+00
-5.618723589720781009e-01,6.944455714126355872e+00,-8.798706032338495797e-01
-5.710520146683165654e-01,6.942756906161449137e+00,-6.036865508582066608e-01
-5.734264890027692685e-01,6.962749320700262423e+00,-3.617901417385857021e-01
-5.693645867887531242e-01,6.962268999437967842e+00,-1.296592053950493262e-01
-5.659069246429198063e-01,6.991150030705322038e+00,1.204660162843015359e-01
-5.770635590772482670e-01,6.994422551544898781e+00,3.704414722347267874e-01
-5.895660129063000632e-01,7.002136839638431809e+00,6.187717761607202105e-01
-5.641522505967563328e-01,7.015449360981066640e+00,8.718190188218010173e-01
-5.854171149006422992e-01,7.018560821976011610e+00,1.109482883173034784e+00
-5.750041518228690141e-01,7.030560485182227204e+00,1.366139753799075596e+00
-3.902631310479957594e-01,3.987303778906763352e+00,-1.089250419354937272e+00
-4.607138639596795038e-01,4.742138042805615683e+00,-1.100474353111584147e+00
-5.569604634745778382e-01,5.874262608800152385e+00,-1.146615217429906686e+00
-6.698885374945118265e-01,6.938905784762818385e+00,-1.105736680933496974e+00
-6.680073781593870441e-01,6.949477478282904741e+00,-8.537556802709639348e-01
-6.887540028014123017e-01,6.961050022278218563e+00,-6.264897745268734885e-01
-6.787736576774406894e-01,6.973057578211791174e+00,-3.752967766314396214e-01
-6.849542151362338904e-01,6.976418033477903791e+00,-1.271160437476618887e-01
-6.750285589185207602e-01,6.989036394291835208e+00,1.322661169239025825e-01
-6.698231054187435696e-01,6.998042550797101136e+00,3.804077206601194083e-01
-6.787159010564818296e-01,7.013381282924119553e+00,6.076838558883438379e-01
-6.782406063944480534e-01,7.021534695724747088e+00,8.688789364571397611e-01
-6.745885814559685612e-01,7.008599049575135354e+00,1.117324536555272418e+00
-6.899191590111983796e-01,7.027061023911356230e+00,1.372666854706415362e+00
-4.460747027239994611e-01,3.976572300093253798e+00,-1.093122498192649283e+00
-5.497269695706504811e-01,4.755337895259647674e+00,-1.123431895632452493e+00
-6.396631328458947108e-01,5.822757053543233141e+00,-1.137756302712562340e+00
-7.775411159855126764e-01,6.952796745161856862e+00,-1.111402587366558947e+00
-7.667126311492495905e-01,6.969851689658982608e+00,-8.623396914312041472e-01
-7.705113365262188374e-01,6.968333346682750395e+00,-6.326892796396361707e-01
-7.860071612462716795e-01,6.983023334752342492e+00,-3.739879520072001418e-01
-7.744721006448945788e-01,6.991352528844804404e+00,-1.307133808025612298e-01
-7.736915997663483813e-01,6.993348091350281237e+00,1.234479645518293256e-01
-7.836330755134095494e-01,7.004821954568539510e+00,3.879708024456322013e-01
-7.879424146509795834e-01,7.006945744230244522e+00,6.152318129694918092e-01
-7.884751759890632483e-01,7.037201278088952350e+00,8.729634119103670820e-01
-7.948058282661253360e-01,7.033929568667820043e+00,1.115165858986837621e+00
-7.893095257458835334e-01,7.036228201312222374e+00,1.372855870236312725e+00
-5.010831537143373149e-01,3.954942885460942747e+00,-1.080165064144610998e+00
-5.880489721520288926e-01,4.745033892498720540e+00,-1.095367991053270096e+00
-7.436848955478354561e-01,5.832139798436766220e+00,-1.141344762624423081e+00
-8.912773972708942782e-01,6.966823541651136154e+00,-1.116076464124327483e+00
-8.798429714544309110e-01,6.971264341324908465e+00,-8.586036289083446293e-01
-8.708538470433153655e-01,6.972361640198220911e+00,-6.128406439693263597e-01
-8.808107030669932724e-01,6.991566045613057057e+00,-3.588658958445227198e-01
-8.763891824531599983e-01,6.985188864545373910e+00,-1.461310778847799696e-01
-8.763824587496367169e-01,7.017516775994446121e+00,1.158869643244419129e-01
-8.809248417206411164e-01,7.044712615999830341e+00,3.711656649980638600e-01
-8.850225208605009275e-01,7.024941510080646268e+00,6.119204651806769979e-01
-8.839915971095423375e-01,7.025071877568592527e+00,8.886265477096010335e-01
-8.903445285200390913e-01,7.041804808553099093e+00,1.126689995702544689e+00
-8.793675428428509022e-01,7.048738697856890667e+00,1.386418286672967293e+00
-5.375848331437032002e-01,3.960466002130457852e+00,-1.086234900789648794e+00
-6.537001393346374423e-01,4.721165704567392929e+00,-1.108814734728126972e+00
-8.242700014986016344e-01,5.792271953545574448e+00,-1.142834249611028419e+00
-9.714993606435303741e-01,6.973536641976267880e+00,-1.116486517904653031e+00
-9.770695657917390919e-01,6.969615785115066409e+00,-8.670433895816586078e-01
-9.766888689531606493e-01,6.986618626526349907e+00,-6.139949815957178592e-01
-9.732535156403420151e-01,7.004403266928891370e+00,-3.634041132674541430e-01
-9.810401588413687479e-01,7.014413374192598027e+00,-1.071390248949378454e-01
-9.768666881640037936e-01,7.017179376690826587e+00,1.136622410959338830e-01
-1.001254133498429955e+00,7.019919332311366666e+00,3.672079951338801940e-01
-9.977947292548869918e-01,7.021568061191145738e+00,6.103439070526289756e-01
-9.816698032741337787e-01,7.033241409025468904e+00,8.797307065461120734e-01
-9.868823089289693318e-01,7.049559038144472822e+00,1.134879664407291822e+00
-1.004408659624482558e+00,7.049939223162414947e+00,1.377300417968976731e+00
-6.126053156375260711e-01,3.961230692211592963e+00,-1.073462111911995587e+00
-7.299194122032278687e-01,4.717834716715769261e+00,-1.099961733970315825e+00
-8.961425217001903754e-01,5.812897173989064470e+00,-1.138432023676796634e+00
-1.088905655488479729e+00,6.961391461128706659e+00,-1.100601594067766698e+00
-1.084978197624071550e+00,6.982304258565458888e+00,-8.851423124593426062e-01
-1.082281821501654084e+00,6.976551494929342567e+00,-6.020181037600825791e-01
-1.091654737528954033e+00,6.997014065198430721e+00,-3.715644891003231920e-01
-1.093647574989651039e+00,7.003469542495111888e+00,-1.288396130944983176e-01
-1.088506175351328542e+00,7.013449252556196001e+00,1.242185870480279480e-01
-1.087650086627452328e+00,7.010184415700698501e+00,3.775338538011270839e-01
-1.086235400825599884e+00,7.035634893107236110e+00,6.177469777199263712e-01
-1.078783509239813476e+00,7.051400637882701439e+00,8.769760326341294876e-01
-1.083457678044793093e+00,7.054724566050453838e+00,1.133558041356149459e+00
-1.106491387216196998e+00,7.066449964494299962e+00,1.378142892530728414e+00
-6.761527199820703826e-01,3.990180652001027006e+00,-1.073362109675390696e+00
-7.924396618545441751e-01,4.709861444692019283e+00,-1.102613692954769409e+00
-9.928200989221548367e-01,5.813675352529255491e+00,-1.141674315516892246e+00
-1.190615555358260691e+00,6.989522916565539923e+00,-1.118716600790037763e+00
-1.191421109132676293e+00,6.996320126730857680e+00,-8.810558786866378167e-01
-1.188258971537339725e+00,7.004434676925790804e+00,-6.290695366009830813e-01
-1.188936117101921930e+00,7.011730146934788799e+00,-3.732120208743816558e-01
-1.202479465960392124e+00,7.004154033387798073e+00,-1.180943183313700878e-01
-1.192263073433823539e+00,7.037431621636035750e+00,1.284236379407657502e-01
-1.195722106311866373e+00,7.025896012415089764e+00,3.730257450804014274e-01
-1.190847907625014912e+00,7.061666928265253773e+00,6.143363405299842039e-01
-1.196790689482419179e+00,7.049905529562722428e+00,8.724552596221765155e-01
-1.186610467684669379e+00,7.048583024282693010e+00,1.131646659169971869e+00
-7.199699566580891608e-01,3.975217377702647603e+00,-1.078151312664273220e+00
-8.627383956232318463e-01,4.679302268016982680e+00,-1.105619291728285214e+00
-1.059679298820161986e+00,5.774230712476871474e+00,-1.152560544982428992e+00
-1.289899380676651885e+00,6.988651363374246195e+00,-1.128407590293463825e+00
-1.298252315703791293e+00,7.019479439088547323e+00,-8.816794540152765869e-01
-1.283807017379598792e+00,7.014186830047766996e+00,-6.272121135571745443e-01
-1.285524430559961795e+00,6.994926743271616232e+00,-3.753679618887771352e-01
-1.300720263706583335e+00,7.022479580516642450e+00,-1.308479555484477475e-01
-1.299134499770079776e+00,7.030682961954959787e+00,1.249245763366695350e-01
-1.306090508458464639e+00,7.044254069197640966e+00,3.618885081274713089e-01
-1.309527747523867580e+00,7.060482406077145612e+00,6.266604126319096357e-01
-1.301589635904353504e+00,7.057457463248866247e+00,8.766391413355181239e-01
-1.306503557537116667e+00,7.061741345633011591e+00,1.155440583878712957e+00
-7.881605399616697927e-01,3.926545119501755998e+00,-1.093023265396226407e+00
-9.341097093535635221e-01,4.688259226093689946e+00,-1.107498316209152733e+00
-1.155852170381818089e+00,5.785624235368404200e+00,-1.148328996499150545e+00
-1.401830221660385956e+00,6.995378948133567754e+00,-1.128728216552885577e+00
-1.393164796390318205e+00,6.995991000510022317e+00,-8.771033058545796290e-01
-1.395073175882465932e+00,7.017092519826940489e+00,-6.294966956525592794e-01
-1.391496997549736658e+00,7.043616863377660131e+00,-3.758415102299481614e-01
-1.384423092361501073e+00,7.018541429625015482e+00,-1.257543048213930759e-01
-1.391319040843564947e+00,7.018974247450028514e+00,1.324636295309337131e-01
-1.389258967804759326e+00,7.025640445586009974e+00,3.726352979532316367e-01
-1.403660109814761858e+00,7.046668506498938278e+00,6.387996748308484296e-01
-1.402456530178199490e+00,7.059378110554415997e+00,8.883129305597853298e-01
-1.403316023499114662e+00,7.071295601053954272e+00,1.144507806323941113e+00
-8.392612664964799185e-01,3.923628017951070301e+00,-1.075528783232341912e+00
-1.005871319412120046e+00,4.699712310676133598e+00,-1.101827287038499525e+00
-1.244244002312171471e+00,5.749130124544358011e+00,-1.147708245777761427e+00
-1.496760633104142979e+00,6.997806990371219449e+00,-1.127177101727394160e+00
-1.494566664677531298e+00,6.999295757360951775e+00,-8.815113296853560598e-01
-1.506930031017810867e+00,7.023337918887657239e+00,-6.310321906717448748e-01
-1.492006615573472139e+00,7.023616961838444972e+00,-3.888558865949435228e-01
-1.509783391579829992e+00,7.032481159819406358e+00,-1.211629354987569240e-01
-1.512082133634171432e+00,7.032012862081629123e+00,1.169319453252989499e-01
-1.510804077185567529e+00,7.062874601241505346e+00,3.757608898811927722e-01
-1.512120458401582157e+00,7.065511851318206915e+00,6.432868497087235182e-01
-1.519527946613640434e+00,7.065273807037048215e+00,8.808880769127722665e-01
-1.522772342485888775e+00,7.080780529773434750e+00,1.142265599744726856e+00
-9.099081230940532228e-01,3.922540173232276661e+00,-1.089113081677051564e+00
-1.062618096085944819e+00,4.645331760756977957e+00,-1.097065237241940050e+00
-1.321518394622070103e+00,5.690698232886874486e+00,-1.104168997358341731e+00
-1.603582934121065673e+00,7.004799224456746742e+00,-1.146294957166246853e+00
-1.601258251194900728e+00,7.013258317715210133e+00,-8.767299820390319631e-01
-1.610221122374754898e+00,7.029754498355154091e+00,-6.372088292346343996e-01
-1.608984452653748010e+00,7.024693205755214720e+00,-3.753302031860032972e-01
-1.605217823342810268e+00,7.052815434984068155e+00,-1.115213933479529546e-01
-1.611553615409310858e+00,7.065055153076562178e+00,1.337063805382210369e-01
-1.615831071986185252e+00,7.064297510524642831e+00,3.775067820557360676e-01
-1.624180461556303356e+00,7.069112719386829724e+00,6.396104619135111191e-01
-1.623301840197782120e+00,7.066744099169867788e+00,8.815874970060927351e-01
-1.614529342123856903e+00,7.089752936793571436e+00,1.154781389392326441e+00
-9.581618768046133994e-01,3.888926422602686728e+00,-1.073789492393717682e+00
-1.133553237402947556e+00,4.657238420533646561e+00,-1.102799241578325429e+00
-1.389233284202059160e+00,5.717895177832212461e+00,-1.138989688823001112e+00
-1.714583962734131273e+00,7.009678513243135178e+00,-1.148913917583357591e+00
-1.702913796598479745e+00,7.028865409950596721e+00,-8.902335519458042246e-01
-1.712804215944948805e+00,7.028181750500479552e+00,-6.167065601907004702e-01
-1.736130877841614017e+00,7.037599395488911114e+00,-3.723897438069249666e-01
-1.722198936024994076e+00,7.041887004737461098e+00,-1.173069441471512736e-01
-1.715726980979727756e+00,7.057324333871986433e+00,1.378905064718018714e-01
-1.725240337819401004e+00,7.063166746777987726e+00,3.892719904112625362e-01
-1.728101380023020495e+00,7.081859501041673610e+00,6.327695392971163235e-01
-1.737224049114542312e+00,7.077648808515869305e+00,8.988051881737958437e-01
-1.728525026828171329e+00,7.073464638203720511e+00,1.148470571937339813e+00
-1.017023407016067305e+00,3.887582329943346959e+00,-1.071768979198645555e+00
-1.211646271801793517e+00,4.618902610170087186e+00,-1.085471044136410157e+00
-1.459974057414539894e+00,5.659887441623021154e+00,-1.141755649429178066e+00
-1.822735391227114921e+00,7.004957468720495406e+00,-1.156073686466503325e+00
-1.833940116446352686e+00,7.047033055147657876e+00,-8.885690733040882971e-01
-1.819223979535744107e+00,7.049153013212336560e+00,-6.455749754608279822e-01
-1.829636069918209929e+00,7.031733539587080806e+00,-3.737382138696907496e-01
-1.825355365637375771e+00,7.057823428170923563e+00,-1.345298133335166568e-01
-1.838392818895672631e+00,7.068520784980328209e+00,1.286052642841777061e-01
-1.840327079904026553e+00,7.079684528284809097e+00,3.842365002456091805e-01
-1.834402830228457182e+00,7.075221498711303347e+00,6.381556526942523400e-01
-1.828949189897920657e+00,7.094531221146646693e+00,9.024183227760943504e-01
-1.839392433327769805e+00,7.099113391731637357e+00,1.186285214018644396e+00
-1.056783425138472454e+00,3.862156880040192419e+00,-1.071187342867037318e+00
-1.270568373601773438e+00,4.623926382414220271e+00,-1.105952949661972440e+00
-1.566599335317094166e+00,5.685183894809989091e+00,-1.152662272481578931e+00
-1.941230908865604565e+00,7.025528910150781847e+00,-1.152741683718283561e+00
-1.943261215137486619e+00,7.046074409013701079e+00,-9.033052183296985671e-01
-1.945330113704443420e+00,7.056320516036067581e+00,-6.496314470956160436e-01
-1.937826653593492710e+00,7.066015715947054687e+00,-3.813957373499495263e-01
-1.935365897991982109e+00,7.059673149223613109e+00,-1.221797490026089728e-01
-1.953540494890430468e+00,7.078276531333476562e+00,1.336628244779112518e-01
-1.938265421794058474e+00,7.064846087695607402e+00,3.709388168638469985e-01
-1.943952486692238413e+00,7.096983886325782365e+00,6.408781293732143114e-01
-1.951188186619570608e+00,7.101259277352144572e+00,9.047416204861354894e-01
-1.948246216310215218e+00,7.091336839330080188e+00,1.170008885127579168e+00
-1.110575031572191618e+00,3.853762311558059928e+00,-1.090883797983708936e+00
-1.335532252058372782e+00,4.581579148698679660e+00,-1.092874861811634846e+00
-1.653470664597401107e+00,5.660671502246697351e+00,-1.133589678840853265e+00
-2.050233346655548683e+00,7.029435584780080681e+00,-1.158699395207464455e+00
-2.035065737175846046e+00,7.055631810684325878e+00,-8.948354985059794320e-01
-2.052800356997630082e+00,7.050429062907190847e+00,-6.537737602537646575e-01
-2.070194542570480856e+00,7.052354720576476055e+00,-3.871143290572927609e-01
-2.066427625718999739e+00,7.084083016895918128e+00,-1.271885100897362786e-01
-2.059068018615984208e+00,7.080519730643821674e+00,1.278410279419863460e-01
-2.052570031256863547e+00,7.088335276041038746e+00,3.864445713909616664e-01
-2.054020723959219197e+00,7.096973660447211785e+00,6.534244967808550131e-01
-2.059472614236634858e+00,7.100563575033924657e+00,9.185368383062660902e-01
-2.078019943094070232e+00,7.110785371800506738e+00,1.175677568768553893e+00
-1.173964860416997658e+00,3.832223739879903057e+00,-1.083950773013873770e+00
-1.409949162610451889e+00,4.581926911810931813e+00,-1.126261955169556961e+00
-1.719102030680383919e+00,5.603690103137611622e+00,-1.136614672037600249e+00
-2.151645611550038861e+00,7.042186101382617913e+00,-1.159748327051699279e+00
-2.165188158241151406e+00,7.048282479180753235e+00,-8.956809822951492528e-01
-2.170364800532735394e+00,7.059393245726394817e+00,-6.429571212775702094e-01
-2.140952453072058503e+00,7.062678749611372098e+00,-4.055903823542628128e-01
-2.160576536210280896e+00,7.068084822818000212e+00,-1.254358628330477232e-01
-2.174259650472063043e+00,7.081978902944856102e+00,1.404742485085769266e-01
-2.162005762734430458e+00,7.108542371295111906e+00,3.943766180335953053e-01
-2.167807244288513235e+00,7.114872875241416317e+00,6.479948211013805137e-01
-2.180661912497375621e+00,7.126794773967685792e+00,9.113681782935446618e-01
-2.181005909548632271e+00,7.120655904438066841e+00,1.188349928364681896e+00
-1.218357848570330360e+00,3.830816824527882858e+00,-1.073489825020132571e+00
-1.457037094677039235e+00,4.540163453652513503e+00,-1.110304382224875264e+00
-1.798466789837469104e+00,5.621404492920949458e+00,-1.134679503641911502e+00
-2.268268677528398225e+00,7.048148001937026841e+00,-1.175796918367179922e+00
-2.283559607117330970e+00,7.060497331298579482e+00,-9.147134134681640383e-01
-2.276367213839198822e+00,7.067954653546454580e+00,-6.570747929746847404e-01
-2.286531113475141375e+00,7.064995748252008489e+00,-3.816470764078047639e-01
-2.292666602823971722e+00,7.074125359254358258e+00,-1.263283095153452940e-01
-2.268818884419816939e+00,7.099555197710909482e+00,1.269343117188135028e-01
-2.281016300830998933e+00,7.098619771226726272e+00,3.921904789537298819e-01
-2.299240351587795494e+00,7.100446227653175235e+00,6.575607755818453359e-01
-2.300714636114591372e+00,7.114411743523929132e+00,9.182030122965653129e-01
-2.304611614183726509e+00,7.124902276496924536e+00,1.182313405959477315e+00
-1.290749539879313845e+00,3.794208535705012153e+00,-1.059391139482359856e+00
-1.529110615553026076e+00,4.535230881784833024e+00,-1.099419233766278925e+00
-1.871406673087835371e+00,5.571603553743861958e+00,-1.142417038547766772e+00
-2.385301326073880013e+00,7.053765289622631052e+00,-1.173115416624047169e+00
-2.396437962744845773e+00,7.062555515516615756e+00,-9.108339019219390265e-01
-2.393820777280899481e+00,7.071115380686980423e+00,-6.584494827648306181e-01
-2.383856314171310498e+00,7.086207504614444375e+00,-3.844598017549062385e-01
-2.401898691964989396e+00,7.110070097394828537e+00,-1.334114521865104042e-01
-2.395340270404920702e+00,7.108142709546942051e+00,1.273062314837372366e-01
-2.403684347830321588e+00,7.111725981403649754e+00,3.900168305061330609e-01
-2.408953278332665704e+00,7.116557035209488014e+00,6.547685959127880206e-01
-2.406337050054491833e+00,7.131795083761129916e+00,9.253301389190462523e-01
-2.401346640801672816e+00,7.134021561690479629e+00,1.197879043813042887e+00
-1.346423033808302971e+00,3.805357748453791267e+00,-1.074695222533732730e+00
-1.611397770137634078e+00,4.528331342386572089e+00,-1.106819800996997394e+00
-1.951708584364505228e+00,5.517673447088760952e+00,-1.161330737507939137e+00
-2.490086878808311699e+00,7.057037093321102184e+00,-1.176033929105292808e+00
-2.491691047654904345e+00,7.092499506264100084e+00,-9.381945928793842260e-01
-2.485733240531894594e+00,7.080175036038664160e+00,-6.508212987031397612e-01
-2.502193190759899100e+00,7.094582953993418428e+00,-3.810446179101833475e-01
-2.512018017826781691e+00,7.094655627644444351e+00,-1.269757804653344202e-01
-2.502818777459475896e+00,7.121571951934298816e+00,1.195415066232504292e-01
-2.523540176892547393e+00,7.138220711273574715e+00,4.115477873892628424e-01
-2.524599012162960232e+00,7.121464385423172061e+00,6.619323554644195307e-01
-2.523183907353046873e+00,7.132243247731555158e+00,9.162623138291561276e-01
-2.525632690697720673e+00,7.145513913710191289e+00,1.192973483519875755e+00
-1.373540158388850685e+00,3.755920036818388486e+00,-1.084020347465115774e+00
-1.660532882611780003e+00,4.478105566149484851e+00,-1.111352345130055763e+00
-2.032094272328308637e+00,5.485393275713729366e+00,-1.129445623162969481e+00
-2.615529401371410767e+00,7.063415851925777922e+00,-1.187570134946469569e+00
-2.609899700915117027e+00,7.068684486409036793e+00,-9.346595766810539274e-01
-2.636734012422162099e+00,7.089809877076632461e+00,-6.666127218836331858e-01
-2.614871848100679408e+00,7.093770657817887404e+00,-3.742632139567292904e-01
-2.628521214094087011e+00,7.094331559769339712e+00,-1.245043396101132571e-01
-2.630798293427881074e+00,7.124142923071965505e+00,1.286627201163527134e-01
-2.623307097489020911e+00,7.115033888135716467e+00,3.910545825471776205e-01
-2.622129768177713149e+00,7.125729766504488971e+00,6.741137309249268794e-01
-2.635366514155886186e+00,7.141772098995597062e+00,9.303165633233689835e-01
-2.657758204494873766e+00,7.145987990941637058e+00,1.216270917893670145e+00
-1.439720340083936456e+00,3.759493441393950697e+00,-1.081020620648202257e+00
-1.703751863165997582e+00,4.457104650443153737e+00,-1.092797664925753809e+00
-2.129774706469994339e+00,5.487657920887139440e+00,-1.139742467549277327e+00
-2.733659431121603589e+00,7.082380440972280589e+00,-1.199528475555112772e+00
-2.752501166017118805e+00,7.078356468425943682e+00,-9.369222873047038380e-01
-2.736427547245702474e+00,7.104885854313471860e+00,-6.538605942278180594e-01
-2.739889230372331674e+00,7.106118758628349852e+00,-4.022316097811824420e-01
-2.751768363509589754e+00,7.114713228652315813e+00,-1.335149318195481827e-01
-2.756822115613025925e+00,7.109544102411226696e+00,1.133587350943095484e-01
-2.768645642363113613e+00,7.118738688625971811e+00,4.175185415898373664e-01
-2.754304509815135749e+00,7.131951246676389466e+00,6.837133153779246797e-01
-2.758709459005878717e+00,7.143029370309776027e+00,9.473714712354239786e-01
-2.753260625189238642e+00,7.173369393390274240e+00,1.222157572684979154e+00
-1.515806117649969975e+00,3.727570453241933812e+00,-1.070729295067003539e+00
-1.784734994290326560e+00,4.417726486552703058e+00,-1.083752034775355533e+00
-2.205955032699859597e+00,5.471549926284508203e+00,-1.136599928690828820e+00
-2.849419067415274842e+00,7.036155547400424481e+00,-1.195241089151015679e+00
-2.861835247995335063e+00,7.112816674975181108e+00,-9.327520695986449839e-01
-2.868117166800995488e+00,7.109210877528278516e+00,-6.786553152932366384e-01
-2.875999837628299360e+00,7.121966398603404080e+00,-4.021628886783431556e-01
-2.872374060151825059e+00,7.115669161710465929e+00,-1.373616411424998518e-01
-2.890558557851719002e+00,7.128121836503849451e+00,1.318111331197707181e-01
-2.867306693741301871e+00,7.142128422782066721e+00,4.022255922153284424e-01
-2.886173410978497778e+00,7.149566082946104295e+00,6.815599165639973922e-01
-2.876404970759499857e+00,7.168739744346725118e+00,9.532905474943913493e-01
-2.892930452624494109e+00,7.167290687334380017e+00,1.229163244528407972e+00
-1.557946319159313697e+00,3.720300644932601930e+00,-1.089263304607473559e+00
-1.859130212288069295e+00,4.431498073381272107e+00,-1.102283722875973648e+00
-2.270662676937782010e+00,5.417211740404723308e+00,-1.124656679126428527e+00
-2.924707633983705257e+00,6.980196909577217390e+00,-1.202148420433123643e+00
-2.987369665140289676e+00,7.115014613070694161e+00,-9.480844364449785289e-01
-2.980943786676529594e+00,7.112600576870754310e+00,-6.835213055484420375e-01
-2.996505984076993201e+00,7.122444150388129280e+00,-4.029990538157584012e-01
-2.991327225463293438e+00,7.126314349623926070e+00,-1.376098027520007705e-01
-2.996019148683468192e+00,7.146792681442033945e+00,1.149565773952452019e-01
-2.992021491836771574e+00,7.151260283176159582e+00,4.011396345832380916e-01
-3.001878561161897885e+00,7.156932710560276689e+00,6.808060704240204153e-01
-3.001133414416135015e+00,7.167135545660808127e+00,9.568441902887580008e-01
-3.006410736210821888e+00,7.176856927860385760e+00,1.217524878400507937e+00
-1.612999966425634479e+00,3.685186559571583143e+00,-1.075224786591120196e+00
-1.897636833064531903e+00,4.392438757968182728e+00,-1.095401235182755117e+00
-2.336736491934322313e+00,5.371952930651282543e+00,-1.143057487477476819e+00
-3.016391676912386188e+00,6.931875048586737087e+00,-1.210558687662419475e+00
-3.102467507824542725e+00,7.119708198726070414e+00,-9.602438273307022376e-01
-3.109674014921155916e+00,7.105231168435731881e+00,-6.813737323216679798e-01
-3.101732951747059985e+00,7.121630123919525879e+00,-4.102465454650254251e-01
-3.108578015572758702e+00,7.142473874740326245e+00,-1.182407301278796258e-01
-3.124550299913277929e+00,7.152236512043699257e+00,1.280647833440398120e-01
-3.112606142216531424e+00,7.160126729477577001e+00,4.371909892414066467e-01
-3.127280008517827170e+00,7.159281367311612243e+00,6.892082947846238650e-01
-3.127216098924961329e+00,7.183878681420943657e+00,9.557207604541486656e-01
-3.128675159043798892e+00,7.179769750822471153e+00,1.247335653445327042e+00
-1.647876372817677515e+00,3.653403396695626526e+00,-1.073436078430853202e+00
-1.977128317436747551e+00,4.357449110154457905e+00,-1.108660817139365484e+00
-2.415670666900759489e+00,5.339488038937570735e+00,-1.130880312640941909e+00
-3.177092904536094053e+00,6.974760327016067407e+00,-1.210044473479890303e+00
-3.221059241238970028e+00,7.123545999388200656e+00,-9.623134189312062547e-01
-3.233322470384473402e+00,7.125730881485984547e+00,-6.797235698855120800e-01
-3.248916786597105144e+00,7.138989593638705777e+00,-4.147808169219981411e-01
-3.236074186995789415e+00,7.132994230932207635e+00,-1.274167108298358830e-01
-3.240199608911491502e+00,7.162896111872872673e+00,1.468578214829800721e-01
-3.241434080621806046e+00,7.178173610135421434e+00,4.258779479431126225e-01
-3.236429412551067308e+00,7.160842150768085723e+00,6.881271054582661639e-01
-3.256741833732210711e+00,7.165824545612543339e+00,9.678046730113748497e-01
-3.254242736075580122e+00,7.185625462097219085e+00,1.255053899972924603e+00
-1.703176097333616967e+00,3.630612407275119580e+00,-1.086574399789006495e+00
-2.038728004930407067e+00,4.316903342927145282e+00,-1.082423168243201950e+00
-2.495154304737268181e+00,5.299622072987010490e+00,-1.135642044137208817e+00
-3.262660701672001284e+00,6.906078601769144676e+00,-1.209316912424245327e+00
-3.366655427533252087e+00,7.133427289931007387e+00,-9.493324022897504655e-01
-3.369003675303648304e+00,7.147155355130643706e+00,-6.962041133825106476e-01
-3.354894130968536725e+00,7.147830952415456629e+00,-4.172719673291284681e-01
-3.367131109500596686e+00,7.151699797921729385e+00,-1.463429681642363644e-01
-3.376987761954311829e+00,7.164023992802460938e+00,1.359301771182991614e-01
-3.378694006615683421e+00,7.166856209908917918e+00,4.144354311066552055e-01
-3.395990828768758796e+00,7.186910501678523744e+00,6.821012948544676879e-01
-3.386240393679499583e+00,7.198657992365474989e+00,9.780621329087297866e-01
-3.386241046435571889e+00,7.212387463425089074e+00,1.265241565240216692e+00
-1.771071924058644997e+00,3.621031743581736961e+00,-1.075293464732538506e+00
-2.092530209678133524e+00,4.289448054626958218e+00,-1.116379944459420903e+00
-2.595736074604964916e+00,5.312038186510921633e+00,-1.138515098333173770e+00
-3.361021165630988516e+00,6.865947451014860370e+00,-1.221154880110559615e+00
-3.489081989247408089e+00,7.124762189935183621e+00,-9.692115307350321896e-01
-3.489806385064677219e+00,7.169440117945592661e+00,-6.926314342546590064e-01
-3.492407600337884332e+00,7.174861587705993138e+00,-4.196281936049838235e-01
-3.496260676902298137e+00,7.165682222226258169e+00,-1.452388983310281267e-01
-3.502866303461526165e+00,7.185658346542717290e+00,1.318307469644630636e-01
-3.506608829412423578e+00,7.175123421587773720e+00,4.214244188648697542e-01
-3.513007094402064823e+00,7.191315814297529307e+00,6.937922764135006082e-01
-3.515781661689078241e+00,7.200674058319286530e+00,9.840617124686972250e-01
-3.524803685371689532e+00,7.217879751860002635e+00,1.262984360374807213e+00
-1.805954806666653978e+00,3.574679080147030952e+00,-1.070577813578682980e+00
-2.152548678705436647e+00,4.254304253336916197e+00,-1.105564345339657972e+00
-2.665544101908928987e+00,5.278646375551660164e+00,-1.150039759123640204e+00
-3.444355234165445978e+00,6.797680088291184752e+00,-1.208279123487325801e+00
-3.605059557157633598e+00,7.145369987284793112e+00,-9.917845594300523926e-01
-3.633244600436146943e+00,7.153125613087795820e+00,-7.093233513414048952e-01
-3.620273160420656833e+00,7.161829085488936819e+00,-4.244425282854804582e-01
-3.625513447720515980e+00,7.176408402207724357e+00,-1.560237716963498722e-01
-3.632634093143622511e+00,7.180095197768650905e+00,1.462582473854100729e-01
-3.644291387003406602e+00,7.179859070998198867e+00,4.174451574920612917e-01
-3.642577604736203956e+00,7.220581315108831610e+00,7.106112611256552025e-01
-3.652506292068133487e+00,7.207654374813682985e+00,9.894444084262526973e-01
-3.676662174038046071e+00,7.209523979898386337e+00,1.279758806188727283e+00
-1.876609525485126495e+00,3.576550047922068210e+00,-1.088428331095717239e+00
-2.205046491619826909e+00,4.210136072993880596e+00,-1.080816689468300451e+00
-2.738887935054476142e+00,5.233658420270292488e+00,-1.143251330321267911e+00
-3.539258098521520068e+00,6.746467843815110221e+00,-1.215112723950538376e+00
-3.750038359042483282e+00,7.157404490438912248e+00,-9.793760996938692953e-01
-3.767546351338759703e+00,7.153884214349738535e+00,-7.076194363626157058e-01
-3.759057089534543206e+00,7.168241717757936726e+00,-4.242670174975249342e-01
-3.783740788813167999e+00,7.190091898235477785e+00,-1.444367080424791283e-01
-3.779592329563746578e+00,7.199391473099241878e+00,1.447985929093829616e-01
-3.787493345864331840e+00,7.188185439552453815e+00,4.269860226984495410e-01
-3.793203569556674370e+00,7.211564707463739232e+00,6.997470490880689509e-01
