-1.756668048233118640e+01,-5.719081439594887684e+00,3.277532924783577162e-01
-1.757948061856985333e+01,-5.729337053934479229e+00,9.844174255170732302e-01
-3.756293039602343509e+00,-1.277611083827564942e+00,-1.057296277545369589e+00
-4.459722106126067231e+00,-1.517632903358265617e+00,-1.093147804847170113e+00
-5.463157313042651175e+00,-1.856844343087993732e+00,-1.112698384629203119e+00
-7.011948702693087121e+00,-2.391555139494873305e+00,-1.179210545198376314e+00
-9.811075942597710764e+00,-3.350014837627850905e+00,-1.266311064205933423e+00
-1.592781275626042436e+01,-5.449949905559821950e+00,-1.479774916411652042e+00
-1.795355644877759360e+01,-6.115407620585424198e+00,-9.860599755219138229e-01
-1.797321674732324936e+01,-6.141468792344970673e+00,-3.280449584129558893e-01
-1.800289472313413341e+01,-6.144464735224718588e+00,3.249988594024148525e-01
-1.802173359354060267e+01,-6.154067513956545277e+00,9.969317303335585301e-01
-3.719316463582602150e+00,-1.333965240804035890e+00,-1.060406935994480770e+00
-4.449683164307905336e+00,-1.589051533432417340e+00,-1.083416646027210328e+00
-5.455750251283119745e+00,-1.962645202896409202e+00,-1.123111963593976581e+00
-6.964072363336285321e+00,-2.497094274572096317e+00,-1.167801704178078381e+00
-9.796912301062983275e+00,-3.503761773362583209e+00,-1.268425100475672807e+00
-1.603210401827236709e+01,-5.752993818059418452e+00,-1.494276038279320318e+00
-1.844064185792817767e+01,-6.590197243954420081e+00,-1.021214059455089362e+00
-1.845202541964320275e+01,-6.594873086237353910e+00,-3.409621652013585802e-01
-1.847056794262064372e+01,-6.610295959943989885e+00,3.424906422987726851e-01
-3.716173522320592060e+00,-1.400884286409864954e+00,-1.067834125591782479e+00
-4.402587952493945522e+00,-1.637304819236433451e+00,-1.084716553972015385e+00
-5.412714563355885744e+00,-2.019001885412429864e+00,-1.134911895021101902e+00
-6.919317215891797268e+00,-2.589972405130825717e+00,-1.157740401135682884e+00
-9.621894360287541303e+00,-3.588956783007007267e+00,-1.253230363430877459e+00
-1.578414553769508721e+01,-5.901430511663925849e+00,-1.465560785949726830e+00
-1.892755439784640359e+01,-7.061589025561713306e+00,-1.057812675594833829e+00
-1.893705903381497535e+01,-7.081627544269637475e+00,-3.507567477381085541e-01
-1.896045701846739462e+01,-7.093036473131932418e+00,3.691807518160103441e-01
-3.700069720016419872e+00,-1.454876338099349242e+00,-1.065714113113426897e+00
-4.363287871468148893e+00,-1.705346075235181003e+00,-1.093742431367145773e+00
-5.357464564782364214e+00,-2.083940577240023462e+00,-1.130236573397366051e+00
-6.873731108431655912e+00,-2.687769278711261478e+00,-1.160720648721849324e+00
-9.602201714522912823e+00,-3.740790881293503567e+00,-1.255422061152157376e+00
-1.589316961610069612e+01,-6.198377446890583009e+00,-1.493496663073010877e+00
-1.942651521591741215e+01,-7.585494401103634488e+00,-1.084982798215181399e+00
-1.944830443269663789e+01,-7.586762918518067167e+00,-3.814293944973166095e-01
-1.946848632075887409e+01,-7.596446574272909480e+00,3.496391424016276894e-01
-3.680766846990412677e+00,-1.496203576613945652e+00,-1.063723718235389359e+00
-4.349415780777550644e+00,-1.772363908914667219e+00,-1.087499590409073624e+00
-5.331511611826668329e+00,-2.175972302704463957e+00,-1.116351349696725670e+00
-6.895711436314758025e+00,-2.810909834183733746e+00,-1.173720493189865488e+00
-9.570675409751999041e+00,-3.901567321184440829e+00,-1.273879036142002485e+00
-1.562392740291442195e+01,-6.359004929382104265e+00,-1.479331565183797048e+00
-2.001319143368455045e+01,-8.131166720061401065e+00,-1.142123403305723262e+00
-2.003575315676641821e+01,-8.142964139508249488e+00,-3.874047429253201780e-01
-2.004534209198426353e+01,-8.148472665995766917e+00,3.867528692425877823e-01
-3.641020491871367337e+00,-1.553167587439349129e+00,-1.064725183057445790e+00
-4.322818451479405688e+00,-1.814452232290592271e+00,-1.088684587927208236e+00
-5.308508349709620155e+00,-2.252901321035912563e+00,-1.106646998073420152e+00
-6.869208014106806814e+00,-2.896066705185520895e+00,-1.174248637059728262e+00
-9.569906476701268261e+00,-4.050312616345485672e+00,-1.271956755477766654e+00
-1.578050447641195042e+01,-6.673746107022448193e+00,-1.496059051871362566e+00
-2.060154799034268791e+01,-8.721299285152044334e+00,-1.177081298061396497e+00
-2.060250283449160236e+01,-8.733800479019910412e+00,-4.015437359227493341e-01
-2.062071124804688438e+01,-8.736961770206239208e+00,3.772282898763325565e-01
-3.607397746405649475e+00,-1.596980285073900774e+00,-1.065184669033060416e+00
-4.312702872681016153e+00,-1.899546886893543673e+00,-1.086078044997710323e+00
-5.257763030106118229e+00,-2.320120266106724838e+00,-1.119399512712786704e+00
-6.762122535211247509e+00,-2.982922697528397116e+00,-1.168405804507012258e+00
-9.415539204722415789e+00,-4.146116178567342381e+00,-1.274817666402683347e+00
-1.548676696075044035e+01,-6.819832508692680761e+00,-1.478152000730453386e+00
-2.128092727432323272e+01,-9.372936536670055219e+00,-1.217368284679667845e+00
-2.130545884561547609e+01,-9.383125555496269143e+00,-4.115010921246436970e-01
-2.133114239275374402e+01,-9.394284095436756132e+00,3.989709284868483974e-01
-3.617958347530055185e+00,-1.642551183404989068e+00,-1.062098200692660699e+00
-4.265268665785661995e+00,-1.952321527835237269e+00,-1.088700099748987737e+00
-5.260710597459634208e+00,-2.409007059035304099e+00,-1.139888839660217812e+00
-6.720042316790618031e+00,-3.092207076650033581e+00,-1.162068645766842989e+00
-9.400976278667727115e+00,-4.320600747042331768e+00,-1.259587713149686650e+00
-1.499162270704742994e+01,-6.863058275445585998e+00,-1.442626366010617556e+00
-1.500567976878739174e+01,-6.871233077840171788e+00,-8.668908214948776170e-01
-1.501298051222229724e+01,-6.880715004949551350e+00,-2.867456628731984147e-01
-1.503683411912969881e+01,-6.869867613811867280e+00,2.794799917462558736e-01
-1.504964382912731757e+01,-6.887606337204837281e+00,8.652758500407156106e-01
-3.595726926927629297e+00,-1.702329967483341422e+00,-1.063526855685632544e+00
-4.249006766993661088e+00,-2.032350148195287698e+00,-1.075716059549790993e+00
-5.219724214930572259e+00,-2.482088793329372045e+00,-1.126949784859206272e+00
-6.670533096892389047e+00,-3.186988968186875049e+00,-1.174095849149299209e+00
-9.388049712837688077e+00,-4.464890072273457911e+00,-1.284981611060515228e+00
-1.477975207841281780e+01,-7.051459745926996980e+00,-1.442107036629013850e+00
-1.480529937616734415e+01,-7.040232613697459563e+00,-8.547281495744188939e-01
-1.483706072119277231e+01,-7.047484647128951174e+00,-2.909246578625442892e-01
-1.482969299440177302e+01,-7.051874621621024630e+00,2.894833975018614725e-01
-1.485314048564518963e+01,-7.066502817463937269e+00,8.657859118584697589e-01
-3.541671031198252440e+00,-1.764599541348985889e+00,-1.061543471935117111e+00
-4.216305814120326012e+00,-2.071312554287055629e+00,-1.088046860670542015e+00
-5.185729111031244898e+00,-2.553521905926261937e+00,-1.125569113823361667e+00
-6.656747562524432560e+00,-3.266224118456719783e+00,-1.168933710710302387e+00
-9.250817815985522330e+00,-4.565072880486576778e+00,-1.259294193117905358e+00
-1.462418777912248302e+01,-7.203753055615548462e+00,-1.428519560283074696e+00
-1.461288022284521304e+01,-7.208248050350500868e+00,-8.459064748905049669e-01
-1.463497822300766416e+01,-7.222022242474440468e+00,-2.774580938177939049e-01
-1.465563235808557074e+01,-7.226018138085378517e+00,2.951726898918606290e-01
-1.469133893714633743e+01,-7.237501391181702992e+00,8.693661033586460585e-01
-3.533390279845900483e+00,-1.799762303368135363e+00,-1.080145441080763158e+00
-4.189434483938836884e+00,-2.137169852531070724e+00,-1.085626063983541334e+00
-5.138007623162854642e+00,-2.630964941375101507e+00,-1.128165098947413458e+00
-6.612931172488016429e+00,-3.376555087283822143e+00,-1.179369167509736416e+00
-9.232582389416609914e+00,-4.724965974266794433e+00,-1.280226911227687836e+00
-1.440093265946779333e+01,-7.360054003128298383e+00,-1.422680733891925620e+00
-1.442506667927093922e+01,-7.381441037206732503e+00,-8.521553365420241333e-01
-1.444665523983875310e+01,-7.375204168606063426e+00,-2.683485513328934813e-01
-1.448698083650581836e+01,-7.372327555022189394e+00,2.781507675798777779e-01
-1.448326316224772192e+01,-7.398668890817788224e+00,8.452114758823703333e-01
-3.518854144187361754e+00,-1.840240638052980549e+00,-1.063347140690624748e+00
-4.177597039717178440e+00,-2.198931833411078340e+00,-1.092656054399262500e+00
-5.108508110765758836e+00,-2.704625448617993921e+00,-1.121248056380129476e+00
-6.575613795035144094e+00,-3.473089265822940419e+00,-1.163141251865077441e+00
-9.082892947137821693e+00,-4.810213137152621776e+00,-1.264495292320672926e+00
-1.423800426383086659e+01,-7.518918661648902102e+00,-1.409623658849846528e+00
-1.424761373400094477e+01,-7.539894301180780189e+00,-8.447317468496667869e-01
-1.425797703154962015e+01,-7.551162179588415846e+00,-2.790853221938331963e-01
-1.428369641003027546e+01,-7.555179792058540400e+00,2.865224780926432513e-01
-1.428837375457151992e+01,-7.573044977752309670e+00,8.427306222051949014e-01
-3.482272520304536823e+00,-1.910696430974767823e+00,-1.064733740726253597e+00
-4.135079924094594794e+00,-2.267967418513680222e+00,-1.079022106240959955e+00
-5.054043222028206550e+00,-2.781983414427457113e+00,-1.122394586266568517e+00
-6.473588941434507582e+00,-3.542770419237068147e+00,-1.160296326759739927e+00
-9.078175911774319928e+00,-4.968715192348869714e+00,-1.274886973519825384e+00
-1.405802979278290366e+01,-7.687924361744618018e+00,-1.414747780526216525e+00
-1.406931257295997106e+01,-7.711869565880459909e+00,-8.343054929557552901e-01
-1.408785592987907265e+01,-7.707912290824776136e+00,-2.736062957750092783e-01
-1.410529854674220651e+01,-7.726733133693953981e+00,2.772146305397891197e-01
-1.411085075505808462e+01,-7.714409023199662485e+00,8.412228724613564079e-01
-3.438332381769120705e+00,-1.955976279816891150e+00,-1.064058875261249648e+00
-4.097082385562997864e+00,-2.307139376437607581e+00,-1.095292426987546586e+00
-5.031118825873824640e+00,-2.865301393492525328e+00,-1.130217372824490862e+00
-6.436985332044362629e+00,-3.646353793467278503e+00,-1.161661210572123348e+00
-8.945420425081627158e+00,-5.071846967032133335e+00,-1.261247590280327735e+00
-1.386775106899233556e+01,-7.839133155878531767e+00,-1.396882977655758085e+00
-1.388286406322210809e+01,-7.846749877770598403e+00,-8.318791499228350705e-01
-1.389156008863696279e+01,-7.862635626649399079e+00,-2.739570078945377518e-01
-1.391608205651115071e+01,-7.870023107611288538e+00,2.770308018044843612e-01
-1.393591257670075123e+01,-7.892471812930883956e+00,8.403468796835458221e-01
-3.405827578427711000e+00,-1.998216066408569747e+00,-1.061299214439360261e+00
-4.045302008332842369e+00,-2.375536304272959587e+00,-1.092877792784365143e+00
-4.993654202179862445e+00,-2.920645239912763369e+00,-1.125231469926168515e+00
-6.413754545087513748e+00,-3.762673215690129691e+00,-1.159977163089376484e+00
-8.937198099866890288e+00,-5.234358892321393952e+00,-1.266504186989759750e+00
-1.369559764458592532e+01,-8.015276722828769351e+00,-1.383477540552149998e+00
-1.369384681575115259e+01,-8.022594915107791991e+00,-8.461381382665196238e-01
-1.372641808098033422e+01,-8.021806343556635355e+00,-2.739457091088772223e-01
-1.375464247531047768e+01,-8.035885597408102043e+00,2.811508624440578474e-01
-1.375394872039176519e+01,-8.042300868186030627e+00,8.238184740108126514e-01
-3.381809580457507902e+00,-2.049545467580528246e+00,-1.061852086502733883e+00
-4.044068897567116849e+00,-2.423812423127537308e+00,-1.088198588009176904e+00
-4.960503242699796367e+00,-2.991163531828815891e+00,-1.133825847526791053e+00
-6.383785389226309448e+00,-3.859952002556473083e+00,-1.177499712536987042e+00
-8.795602842878908589e+00,-5.324439922417115056e+00,-1.268678018346637737e+00
-1.351395023767777381e+01,-8.155834903743956588e+00,-1.379445442253680598e+00
-1.352525723663391943e+01,-8.183550144821452932e+00,-8.200952776225443053e-01
-1.353635061362936653e+01,-8.192512468147890914e+00,-2.810759264591456419e-01
-1.354967038473696128e+01,-8.194312865992573691e+00,2.646922431299406631e-01
-1.357743373837820577e+01,-8.214068797116013343e+00,8.320152555092242830e-01
-3.374484253761433905e+00,-2.096139168327885383e+00,-1.060710310610516460e+00
-3.970448283377076670e+00,-2.488358261096841773e+00,-1.083408879809125702e+00
-4.878409348131644840e+00,-3.061985739950368934e+00,-1.112850585720104313e+00
-6.276587168800426220e+00,-3.929882413191316815e+00,-1.167935062617957653e+00
-8.794567887928243621e+00,-5.496907310124314883e+00,-1.261157190476788204e+00
-1.334378724134680816e+01,-8.329965620378878555e+00,-1.381119584910661890e+00
-1.334080936383275429e+01,-8.338968441083986605e+00,-8.154723983291322087e-01
-1.336723971491916174e+01,-8.335289634333099329e+00,-2.709873988186684013e-01
-1.337912231307477384e+01,-8.362428848349161115e+00,2.809492451789764589e-01
-1.340652917875825878e+01,-8.351910713805898112e+00,8.201116318217839263e-01
-3.330918712457461961e+00,-2.149143976447004611e+00,-1.061185519377067177e+00
-3.941003479298897716e+00,-2.562001402477581014e+00,-1.071195400473087478e+00
-4.846102890028138432e+00,-3.125357098981895287e+00,-1.125788161816598354e+00
-6.259772809290736539e+00,-4.020218618069221428e+00,-1.168604186235440379e+00
-8.648153985361730633e+00,-5.579883329976214057e+00,-1.253655922040943338e+00
-1.316897845866868089e+01,-8.474601868318522691e+00,-1.376923188840707191e+00
-1.317571920903612614e+01,-8.488900113237344058e+00,-8.127264780395558885e-01
-1.317991060961770167e+01,-8.511688307514456042e+00,-2.792502815981659503e-01
-1.321270336921521427e+01,-8.517117632508195868e+00,2.738609657085567251e-01
-1.321426601183147831e+01,-8.524502230194904939e+00,8.305910563296313720e-01
-3.297993759170228412e+00,-2.219612211571153182e+00,-1.063945938437023342e+00
-3.915041458348150538e+00,-2.604610156409244315e+00,-1.089505041372836880e+00
-4.806061664453040727e+00,-3.198963584056691456e+00,-1.133657726089300821e+00
-6.145841451546833589e+00,-4.101175863831064028e+00,-1.174427578667299299e+00
-8.664917401017518728e+00,-5.760701037720626694e+00,-1.282411115393801149e+00
-1.299078954620736148e+01,-8.635732116984266682e+00,-1.373168957012749436e+00
-1.300183845324227150e+01,-8.648441145617038472e+00,-8.071290622026691119e-01
-1.303298926449889095e+01,-8.654313941474711669e+00,-2.636815529177533590e-01
-1.303938434089761422e+01,-8.669660491840010863e+00,2.798668422129587663e-01
-1.305651608962319976e+01,-8.665393031098705734e+00,8.142692767453901803e-01
-3.273828461423402114e+00,-2.249197685895427234e+00,-1.048825095242801320e+00
-3.885180385484824583e+00,-2.649565202012205578e+00,-1.092357193951591476e+00
-4.785322618595665212e+00,-3.275102587788186526e+00,-1.145381080659532369e+00
-6.131018537565018356e+00,-4.215097977777359617e+00,-1.176863396641711024e+00
-8.526341987236854436e+00,-5.844608786313092885e+00,-1.283663566004081824e+00
-1.282490640351166178e+01,-8.791234931850052448e+00,-1.350539801598259926e+00
-1.282666528639800063e+01,-8.798982729576529493e+00,-8.164235190382501672e-01
-1.283714970628847674e+01,-8.816617810191907267e+00,-2.589392628895799131e-01
-1.285945838453177004e+01,-8.815871536523722796e+00,2.638377023463117088e-01
-1.289150988933745090e+01,-8.824024986573988372e+00,8.130169545858580982e-01
-3.240927119437216675e+00,-2.290866105982953815e+00,-1.058838428445687097e+00
-3.847736047207198862e+00,-2.713225392871740915e+00,-1.086858347535107461e+00
-4.691074173610146225e+00,-3.317931719290930115e+00,-1.113082329222198741e+00
-6.092094452176918473e+00,-4.313642113164720016e+00,-1.178272859632972347e+00
-8.527981517466622918e+00,-6.037574391218735848e+00,-1.263527252635414433e+00
-1.263007742964279601e+01,-8.944532734139816199e+00,-1.356641180308644667e+00
-1.264401389673104070e+01,-8.955353336773290707e+00,-8.018687940654092294e-01
-1.267712250760667736e+01,-8.954417832949170375e+00,-2.602544684535691433e-01
-1.268849901706318306e+01,-8.975087715661180354e+00,2.670544703861965075e-01
-1.270680535368629016e+01,-8.983592604923144265e+00,8.148372468850331174e-01
-3.197301538340307836e+00,-2.342760995003263069e+00,-1.061665534031491109e+00
-3.820683946906254569e+00,-2.768470306835422168e+00,-1.088799474669220002e+00
-4.661422344768487491e+00,-3.407836998126496653e+00,-1.120045596017951395e+00
-6.010241532774641016e+00,-4.350301088868314459e+00,-1.176946927368532680e+00
-8.385745453419302109e+00,-6.106980303503059204e+00,-1.270634163237502667e+00
-1.247210074440481620e+01,-9.087702449377912828e+00,-1.345773385840770331e+00
-1.248205606476911989e+01,-9.116570713291238803e+00,-8.141968469387155238e-01
-1.251215320084908811e+01,-9.101513499747614588e+00,-2.794996508892344522e-01
-1.251728237967012802e+01,-9.125816288558793232e+00,2.714560669882764010e-01
-1.254887197583664538e+01,-9.139012372748178237e+00,8.127231760569331165e-01
-3.177473861457674964e+00,-2.387592942830237597e+00,-1.049068466336547711e+00
-3.758362323088409340e+00,-2.823255513952816820e+00,-1.071593717279011315e+00
-4.628064348862385380e+00,-3.483052541936398683e+00,-1.127704587545381054e+00
-5.964539370986059907e+00,-4.488201611189771789e+00,-1.169600539841965992e+00
-8.243320918917751428e+00,-6.209446684425924623e+00,-1.280112134638085930e+00
-1.230332830201136218e+01,-9.247642472371603972e+00,-1.353074085669290216e+00
-1.232445488259437916e+01,-9.263106081660241742e+00,-8.044036183651068761e-01
-1.234486244553178835e+01,-9.271443260762602279e+00,-2.691204543673935690e-01
-1.237435592005338414e+01,-9.290056715383620656e+00,2.634190687899336525e-01
-1.236887269257110766e+01,-9.286988037379902750e+00,8.170238637207181132e-01
-3.141195658206753283e+00,-2.421975935996557805e+00,-1.072239792991036555e+00
-3.720234318170091647e+00,-2.871263139621889504e+00,-1.092970248731173433e+00
-4.570638802491149733e+00,-3.529193703903607204e+00,-1.128653617909434415e+00
-5.864371710735992060e+00,-4.548142443976329830e+00,-1.177260519347287593e+00
-8.269472711498373485e+00,-6.392764358826072524e+00,-1.286976807932527889e+00
-1.214575952953738458e+01,-9.395553886554283807e+00,-1.344327777673407276e+00
-1.215122193674277362e+01,-9.412460994732464670e+00,-8.048916892356455799e-01
-1.217250072983803832e+01,-9.431697644208705711e+00,-2.725909948272324801e-01
-1.218043441627768964e+01,-9.409284422430578942e+00,2.722735858222903316e-01
-1.219211977448310513e+01,-9.434152139829238948e+00,8.130442394784334059e-01
-3.115706038683165424e+00,-2.485355886203334030e+00,-1.082211928871202655e+00
-3.692562831967039383e+00,-2.932134257862154314e+00,-1.094046013299770248e+00
-4.519080130367188808e+00,-3.612368650676408777e+00,-1.113349126571599568e+00
-5.779439053537384297e+00,-4.603507277777428186e+00,-1.165374037660930506e+00
-8.124438888708118256e+00,-6.472076398960846966e+00,-1.279409750989002559e+00
-1.196107568094863716e+01,-9.532824125967515272e+00,-1.342069278418363210e+00
-1.198230708328506999e+01,-9.554127126724798913e+00,-7.980828580741451406e-01
-1.199436326564293331e+01,-9.570065846851285585e+00,-2.566693147705907951e-01
-1.201606483521925739e+01,-9.567148315685635396e+00,2.665050090424140872e-01
-1.201750212189920752e+01,-9.593946513114568475e+00,8.046699280134935739e-01
-3.085216616101022158e+00,-2.537270812635562311e+00,-1.070634604563596826e+00
-3.650457022597081380e+00,-2.998006485455016801e+00,-1.074701749601265854e+00
-4.437006210286397412e+00,-3.653314191556151336e+00,-1.138990815924205480e+00
-5.749975504492693013e+00,-4.713071187801062933e+00,-1.185893599484957095e+00
-8.005964217120851600e+00,-6.550478970457704442e+00,-1.261133123169694503e+00
-1.180533440386115451e+01,-9.683439737009173598e+00,-1.352269531018801318e+00
-1.181208714032493212e+01,-9.696227731218941770e+00,-7.979861736802292826e-01
-1.183565337631284287e+01,-9.725647093282365319e+00,-2.713940624998706919e-01
-1.185286275139054446e+01,-9.727037977290468262e+00,2.664732486028650871e-01
-1.186851582703530816e+01,-9.726596119472892710e+00,8.023648558775804407e-01
-3.027449440471407627e+00,-2.549545185011913961e+00,-1.067268757768044640e+00
-3.583167854109290840e+00,-3.042135482379969780e+00,-1.091085416811723885e+00
-4.412742751256568674e+00,-3.725224245304338933e+00,-1.112468886654508937e+00
-5.667934175230570304e+00,-4.767227056716703437e+00,-1.174005535662982380e+00
-7.871179767257216575e+00,-6.628446031719593456e+00,-1.258868290961665082e+00
-1.165649021731100099e+01,-9.834559584211222116e+00,-1.326923190030775190e+00
-1.166476571319027222e+01,-9.855672945130983464e+00,-8.015911810289925166e-01
-1.167681961111233235e+01,-9.866340347176553394e+00,-2.693178762891784150e-01
-1.169044524605522639e+01,-9.873513713358047283e+00,2.718776589774770658e-01
-1.169240700036936609e+01,-9.880953885739216958e+00,8.141188363666137517e-01
-2.988066292008844549e+00,-2.607129376773875684e+00,-1.060645621136202976e+00
-3.566049732856187759e+00,-3.090758024118137826e+00,-1.092178977185106703e+00
-4.346256187842683083e+00,-3.768575060036663871e+00,-1.116011187336792831e+00
-5.633332054225204111e+00,-4.901466784650398090e+00,-1.187000676467640403e+00
-7.868573816681658784e+00,-6.823448034578478705e+00,-1.262172922610616199e+00
-1.146738021318909340e+01,-9.977916831302007239e+00,-1.334095337304277651e+00
-1.150019567331406378e+01,-9.994077542225261013e+00,-7.928368330709949507e-01
-1.149026005622730473e+01,-9.996753349705862490e+00,-2.693035381952933460e-01
-1.151942494741719969e+01,-1.000910229121772765e+01,2.691487295680322078e-01
-1.153456696164968065e+01,-1.002945171874645247e+01,7.956228254847064196e-01
-2.976756318216898567e+00,-2.650582996720484807e+00,-1.073353957270059000e+00
-3.508645503016741163e+00,-3.145887920014350581e+00,-1.068827455404319560e+00
-4.316371060215353772e+00,-3.849268938829526032e+00,-1.126246785788708404e+00
-5.534268023305183526e+00,-4.953233469620260898e+00,-1.174964266995834894e+00
-7.729984657912495116e+00,-6.912446843993588885e+00,-1.264533713630410228e+00
-1.204553723609845761e+01,-1.078344315622763361e+01,-1.398791941134866601e+00
-1.205653233459694640e+01,-1.078785523279264602e+01,-8.403071939700024195e-01
-1.204471412934425167e+01,-1.078660454228236887e+01,-2.710733502863127420e-01
-1.204189597918856158e+01,-1.078930314304414750e+01,2.766926780273247233e-01
-1.205305771102826284e+01,-1.077936192841280238e+01,8.477942782520888620e-01
-2.925073342723068404e+00,-2.682783557062740964e+00,-1.050941227656593036e+00
-3.457275840597351380e+00,-3.197279468209328623e+00,-1.100002779960336907e+00
-4.252358968963150687e+00,-3.889733281181280589e+00,-1.125408637322550698e+00
-5.452587349192831390e+00,-5.013811706859760520e+00,-1.169557954899931751e+00
-7.592458169399674439e+00,-7.001994084542166874e+00,-1.265117198497203388e+00
-1.255217141979853679e+01,-1.157282437454133905e+01,-1.487580945762468021e+00
-1.946724029921192667e+01,-1.793903857193105011e+01,-1.400267096747778384e+00
-1.945951602557252258e+01,-1.791951435299297657e+01,-4.676937090948675713e-01
-1.944074640619862038e+01,-1.792555041605418609e+01,4.523253772539209128e-01
-2.870312371055325329e+00,-2.738235678730132960e+00,-1.071593810212249087e+00
-3.446426666177631493e+00,-3.265659052715310207e+00,-1.098590587290788623e+00
-4.195084913769786539e+00,-3.995474954250766597e+00,-1.130439054870932214e+00
-5.415688227264403132e+00,-5.123456794379539936e+00,-1.198860803594021140e+00
-7.598413627919430979e+00,-7.191026312009864974e+00,-1.288136618314723814e+00
-1.234583151744504548e+01,-1.170780371706724843e+01,-1.484451338351464145e+00
-2.742470880643298869e+01,-2.599663360233993714e+01,-1.980148869634922537e+00
-2.742149836554195019e+01,-2.599628117737085375e+01,-6.632523718229683674e-01
-2.842737646515176131e+00,-2.786056607374292504e+00,-1.070761402033530763e+00
-3.372973181579141055e+00,-3.279985725969742916e+00,-1.104836051539151098e+00
-4.129534946381319571e+00,-4.029871989647872077e+00,-1.122339679902782494e+00
-5.315136427424670629e+00,-5.177685134527408195e+00,-1.170927906751881631e+00
-7.456807064848626432e+00,-7.268389722552687005e+00,-1.271976553777931063e+00
-1.211929425369834590e+01,-1.182838457733311621e+01,-1.477028950186630718e+00
-3.485054129942319179e+01,-3.402048860928021412e+01,-2.565192538739186734e+00
-2.798546322098059314e+00,-2.798993076877676067e+00,-1.066168482033049925e+00
-3.343469947174856571e+00,-3.351745324465262854e+00,-1.097031838915992763e+00
-4.113498531152132820e+00,-4.116798158145985376e+00,-1.126417394304003006e+00
-5.221058354460623718e+00,-5.244190855257548911e+00,-1.171530019210929918e+00
-7.346139667849977961e+00,-7.351923897339855074e+00,-1.292272978182596788e+00
-1.192572180874351595e+01,-1.197371091902134310e+01,-1.469418650999734233e+00
-3.428921410371187761e+01,-3.441170834319384397e+01,-2.544031693658912907e+00
-2.779478062642322111e+00,-2.859205495036856615e+00,-1.086464963424179864e+00
-3.285189654882891386e+00,-3.387990626885656997e+00,-1.079798131655138160e+00
-4.024188936164049046e+00,-4.159345843258348552e+00,-1.124896127943133095e+00
-5.200437158459228826e+00,-5.381681957442990161e+00,-1.198425718711489285e+00
-7.203635349363512574e+00,-7.435622399781502523e+00,-1.270445578438227363e+00
-1.206825746863393611e+01,-1.245870796797335167e+01,-1.515589308823442005e+00
-3.371251718878360037e+01,-3.481475972073683778e+01,-2.551454302247345929e+00
-5.364052164066808359e+01,-5.536776864807503529e+01,-1.350044024173589818e+00
-2.704454492456652481e+00,-2.886804328222694505e+00,-1.068093098068377156e+00
-3.228721994679042417e+00,-3.418589177335867202e+00,-1.078701535003643297e+00
-3.952382363726905101e+00,-4.213531489286684639e+00,-1.116482441078979981e+00
-5.110291240695757686e+00,-5.422132111268672894e+00,-1.188607906860931429e+00
-7.079247049903574229e+00,-7.521526404431140733e+00,-1.269435260747057592e+00
-1.186366512021076502e+01,-1.260053898365246461e+01,-1.515586679087974398e+00
-3.298761032083349676e+01,-3.504410853126598369e+01,-2.526325281834760350e+00
-3.307230132251935828e+01,-3.514220131345000908e+01,-8.624721482134051209e-01
-2.682486500610699043e+00,-2.939822722295252433e+00,-1.073254743019167012e+00
-3.193133239647709676e+00,-3.493407333629398703e+00,-1.077635412973749540e+00
-3.926143449849289091e+00,-4.303146134913756526e+00,-1.127041237139899676e+00
-5.008900454367020139e+00,-5.491830918076003876e+00,-1.188650636892113699e+00
-7.058782490987566050e+00,-7.742572577811252188e+00,-1.277306225009567031e+00
-1.163191126354065119e+01,-1.272477657154236219e+01,-1.495700368051223528e+00
-2.387999596253622414e+01,-2.612260052615223316e+01,-1.858493365192481095e+00
-2.392917672194866441e+01,-2.619656554025649697e+01,-6.213672164220381822e-01
-2.647191766796869405e+00,-2.970125535940232098e+00,-1.064643640187318496e+00
-3.132168120299253289e+00,-3.510456586930934542e+00,-1.078762955206119756e+00
-3.842652704053165280e+00,-4.340020312176912753e+00,-1.129894829536368661e+00
-4.936836002933879364e+00,-5.541680644017815460e+00,-1.167890777294398497e+00
-6.951094944734342640e+00,-7.817004268701473357e+00,-1.280063400132064322e+00
-1.142871981638626089e+01,-1.285245700187222262e+01,-1.499019228335123355e+00
-1.710032728156683035e+01,-1.925944966648579282e+01,-1.351730939836402134e+00
-1.713308967335421684e+01,-1.928955207996360954e+01,-4.476578861275667953e-01
-1.717979136004124641e+01,-1.933793975066017978e+01,4.618338553943299174e-01
-2.583354612289845420e+00,-2.998974659671521437e+00,-1.060654074412160641e+00
-3.079800575581220556e+00,-3.549655923883157982e+00,-1.087497861300833923e+00
-3.777225171744652332e+00,-4.378251081711448833e+00,-1.128677442856565127e+00
-4.889132328708027941e+00,-5.671240471991088938e+00,-1.179336567829512239e+00
-6.806626431139905620e+00,-7.902862889233570165e+00,-1.277518646303031025e+00
-1.122372759864577141e+01,-1.299492085416886944e+01,-1.493891384125862531e+00
-1.517649981295870631e+01,-1.759926139828011671e+01,-1.216795079677250646e+00
-1.518718327179148986e+01,-1.761484653583976012e+01,-4.004215645167220061e-01
-1.520945593731235235e+01,-1.763272768222892850e+01,4.104788715056509329e-01
-2.556735059680399935e+00,-3.060066521889468927e+00,-1.066202442003384432e+00
-3.039358522141392793e+00,-3.629896555113233614e+00,-1.096170005624511834e+00
-3.693946879236732261e+00,-4.416938820083105455e+00,-1.130400056376529072e+00
-4.805006311905110294e+00,-5.724599782437903350e+00,-1.178215162719071785e+00
-6.677023403769206666e+00,-7.962060759982226621e+00,-1.297183109583636362e+00
-1.100947859262874751e+01,-1.312991869304848969e+01,-1.498183653873891075e+00
-1.483906371087649134e+01,-1.770854677358353513e+01,-1.205467834447730979e+00
-1.485046097979623880e+01,-1.771602508646872565e+01,-3.933110450579295758e-01
-1.487079680787525859e+01,-1.772694689180185179e+01,4.052963419302717529e-01
-2.493971824399033643e+00,-3.091793294980738516e+00,-1.071394470852872205e+00
-2.981101065310468368e+00,-3.666204405110510489e+00,-1.091903430952053666e+00
-3.664124411029424877e+00,-4.518936389731890380e+00,-1.134120964230680650e+00
-4.713418700364332636e+00,-5.773496027504394057e+00,-1.184135622820787104e+00
-6.561352749511223159e+00,-8.060517917346425421e+00,-1.263957728168802586e+00
-1.078910128872327157e+01,-1.325892050603139616e+01,-1.500334023879069445e+00
-1.451130839969536446e+01,-1.780404613091444332e+01,-1.214783710765886315e+00
-1.450637629251390592e+01,-1.782782929603019184e+01,-4.043884879201600224e-01
-1.451173993862642853e+01,-1.782600296856412925e+01,3.972840256030170103e-01
-2.470366075514957682e+00,-3.097624263033778913e+00,-1.068947647380146027e+00
-2.913358923523174049e+00,-3.691910749500539435e+00,-1.091531949609278351e+00
-3.599732436661711610e+00,-4.539442698849627256e+00,-1.121266190608984692e+00
-4.622122160627267107e+00,-5.835278428241003290e+00,-1.188347259596301386e+00
-6.438925351686919818e+00,-8.137857996387698023e+00,-1.285221323032011309e+00
-1.057333527229057601e+01,-1.338019063003843989e+01,-1.500996255387831102e+00
-1.415064290857499785e+01,-1.788704050411408986e+01,-1.201616453861038991e+00
-1.416838512925517435e+01,-1.791351522979897837e+01,-4.041777156350891409e-01
-1.418311440972484405e+01,-1.793173490956951710e+01,4.024848130239849775e-01
-2.418086430417855759e+00,-3.160293776692461698e+00,-1.059786960285630020e+00
-2.893785609317284901e+00,-3.766777370888988230e+00,-1.104754331307755244e+00
-3.523322938429641393e+00,-4.594849755083721732e+00,-1.132383149159068791e+00
-4.519799547191022171e+00,-5.896034209484810162e+00,-1.166233323423170543e+00
-6.299406092847608107e+00,-8.201015475205480243e+00,-1.272127224173583482e+00
-9.057883128514987447e+00,-1.179460384732757028e+01,-1.304537375682806921e+00
-9.061230321723597214e+00,-1.181676142885611824e+01,-7.875197239270588234e-01
-9.080497706602612240e+00,-1.183137621108407522e+01,-2.641442732108447156e-01
-9.102453940374127583e+00,-1.185069778658002981e+01,2.714723905314198049e-01
-9.106512799086523557e+00,-1.187453640107262665e+01,7.938825464431951140e-01
-2.359914756774365241e+00,-3.175356495761546327e+00,-1.067414634037060939e+00
-2.827272398112964602e+00,-3.789708569207329791e+00,-1.101375393464975039e+00
-3.444332859759182686e+00,-4.645205891334018844e+00,-1.114355673094957533e+00
-4.440084620824068296e+00,-5.963333674118826089e+00,-1.159212575748005847e+00
-6.186348883940966381e+00,-8.276082345719444788e+00,-1.256551578575503925e+00
-8.019577692441799854e+00,-1.077204586439902734e+01,-1.169315564950209163e+00
-8.030599280010283891e+00,-1.077744273139249920e+01,-6.781048193409535685e-01
-8.034893503757162492e+00,-1.078229118804541997e+01,-2.410396441782179655e-01
-8.049376978775896418e+00,-1.080223305277144696e+01,2.328943203396270367e-01
-8.069905009534362961e+00,-1.082553665777190588e+01,7.235581202200356277e-01
-8.081088963282677895e+00,-1.083750665464347129e+01,1.176082472812516322e+00
-2.323196368366544196e+00,-3.213469647106273808e+00,-1.062617789782499544e+00
-2.768304118872935149e+00,-3.818595019272621460e+00,-1.082131186800291855e+00
-3.395063247711092025e+00,-4.676449874220446112e+00,-1.119716861321496504e+00
-4.352360130505803504e+00,-6.000802859661279243e+00,-1.180544017051598393e+00
-6.066487549854070238e+00,-8.367029815080654132e+00,-1.259401697137324971e+00
-7.155324861036522321e+00,-9.901148026361594745e+00,-1.057488243217193258e+00
-7.192086703903987299e+00,-9.914690504563832718e+00,-6.312216494978230008e-01
-7.184803843806342627e+00,-9.938396827571946091e+00,-2.190175062455069765e-01
-7.193518359021092046e+00,-9.939610229324868484e+00,2.162332192374792905e-01
-7.210710571553096138e+00,-9.960978091416137659e+00,6.421450597897486734e-01
-7.215910269021085455e+00,-9.974379959977779819e+00,1.070337192815826510e+00
-2.281662006530551068e+00,-3.249801846150417894e+00,-1.062573735126366437e+00
-2.714958597929464368e+00,-3.858628782078949104e+00,-1.094206054849141241e+00
-3.311298144864254223e+00,-4.720081623791913650e+00,-1.124414632975045070e+00
-4.316293874558294164e+00,-6.145719253408125304e+00,-1.175135043405950652e+00
-6.033576679796581743e+00,-8.605833432088202173e+00,-1.296038752877498812e+00
-6.508920462193139578e+00,-9.282551375721794784e+00,-9.843112152990278751e-01
-6.512898044314513690e+00,-9.295569908184260655e+00,-5.789545663365802675e-01
-6.517140883773690163e+00,-9.283822080921350306e+00,-1.901078375540151688e-01
-6.530461056051516167e+00,-9.322592307904747244e+00,1.882677724887994175e-01
-6.539615590718877769e+00,-9.325968090028521118e+00,6.070646807261202982e-01
-6.561323918428771051e+00,-9.309355426181173954e+00,1.000237429003752343e+00
-2.241933041817445904e+00,-3.300574289623659840e+00,-1.066875700477597944e+00
-2.664937236857666480e+00,-3.894318897525837375e+00,-1.099951695714481703e+00
-3.273141698395133581e+00,-4.820823852543376198e+00,-1.127822540735465173e+00
-4.230047347990993245e+00,-6.190533587916991820e+00,-1.183515301027740163e+00
-5.876904890334374798e+00,-8.633964190614101142e+00,-1.281821384695496002e+00
-5.877496754767811638e+00,-8.650212765739038190e+00,-9.040288790334961577e-01
-5.891967619160785041e+00,-8.656983420653640238e+00,-5.485740920543396015e-01
-5.888278471478682441e+00,-8.671559646570530688e+00,-1.782992145664091810e-01
-5.898291633182922489e+00,-8.686532000182348057e+00,1.794676518681953270e-01
-5.896117874749604582e+00,-8.703701461482024726e+00,5.522034011162479938e-01
-5.914057589870871823e+00,-8.708396974388653788e+00,9.217676348338664782e-01
-5.939378962486996372e+00,-8.716821819407895688e+00,1.276532814365803459e+00
-2.178802681084827331e+00,-3.325949085787101911e+00,-1.069169354186374266e+00
-2.595538811144074032e+00,-3.921875255973299002e+00,-1.086485791000866730e+00
-3.209893035701044450e+00,-4.849195517710031211e+00,-1.132231183903366745e+00
-4.150718728389138690e+00,-6.254154678589500804e+00,-1.182525666868690983e+00
-5.393296537870097218e+00,-8.161013909321837900e+00,-1.193751945294326600e+00
-5.393291255984307142e+00,-8.166278653119485753e+00,-8.525995902298229012e-01
-5.389256619126429726e+00,-8.186877980077881034e+00,-5.141269846483942363e-01
-5.415168129324655411e+00,-8.199194344460735806e+00,-1.738522581563933800e-01
-5.419636374992131245e+00,-8.213643297092042772e+00,1.657710481554974524e-01
-5.429593546236215040e+00,-8.221743602716935939e+00,5.153311583485864489e-01
-5.446335160139396336e+00,-8.235378187153248319e+00,8.720422419564997085e-01
-5.432366270759591664e+00,-8.237497337400705888e+00,1.214110832410691065e+00
-2.145617891847487524e+00,-3.360252128767017066e+00,-1.071600433863938884e+00
-2.550971642496174585e+00,-3.960237901928208348e+00,-1.098027998707964858e+00
-3.139574050325121046e+00,-4.893445124938508251e+00,-1.150797888816024628e+00
-4.032393072800168454e+00,-6.309388731721668364e+00,-1.176644630577555084e+00
-4.925544254784714582e+00,-7.686190756633785703e+00,-1.116772451644213460e+00
-4.932470449529687606e+00,-7.703095980587740144e+00,-8.033737582914318720e-01
-4.942353766056983844e+00,-7.714146088039337990e+00,-4.860049102537876142e-01
-4.939014897703138729e+00,-7.718846642848786743e+00,-1.499744001832470364e-01
-4.939105562601509902e+00,-7.736495525664390804e+00,1.489757989750819800e-01
-4.954409722928856397e+00,-7.722515075312072597e+00,4.707509519504926021e-01
-4.951119007576205711e+00,-7.762063772480787271e+00,8.117014219016865928e-01
-4.969946879817462637e+00,-7.764604985737623366e+00,1.132171074825737866e+00
-2.103559486560222958e+00,-3.378435784020624943e+00,-1.079026966615909577e+00
-2.485343150083227481e+00,-4.007489251040504463e+00,-1.089610550805427458e+00
-3.056390005734689108e+00,-4.936852202939380874e+00,-1.136601171158202472e+00
-3.940802741285115207e+00,-6.344105009564304787e+00,-1.179139215177855249e+00
-4.545348550013932787e+00,-7.311108957966422572e+00,-1.072888805203569662e+00
-4.542165508362475457e+00,-7.329070577539120279e+00,-7.503669327491764296e-01
-4.542038640461109722e+00,-7.346308552426325633e+00,-4.364185326954128086e-01
-4.557512585617299550e+00,-7.349605067133555991e+00,-1.463949802474442397e-01
-4.565716205520211624e+00,-7.357996987604841443e+00,1.487971634459084036e-01
-4.562197341337302703e+00,-7.373172295635085582e+00,4.668407394094621354e-01
-4.572062687858219121e+00,-7.381183887891944906e+00,7.601531573380594375e-01
-4.595329606887611718e+00,-7.404070262720543916e+00,1.070015547464653105e+00
-2.046601839886525553e+00,-3.411293545519673565e+00,-1.070353007792354871e+00
-2.438161600510009741e+00,-4.066895520405911846e+00,-1.090768319687587917e+00
-2.975382096915768049e+00,-4.983217265806784368e+00,-1.135063904052621586e+00
-3.844600164005719911e+00,-6.411868974896150597e+00,-1.184275968994252137e+00
-4.161233331912481681e+00,-6.948370690708677522e+00,-9.977009662776501475e-01
-4.170829554534382311e+00,-6.972254807087743700e+00,-7.173986716655111895e-01
-4.187614871000526762e+00,-6.976031719834658418e+00,-4.352088676205008722e-01
-4.192915450558469814e+00,-6.984215004837592389e+00,-1.344490049958879663e-01
-4.212102598865424596e+00,-6.995840944015026430e+00,1.552180292249979998e-01
-4.194668725557373357e+00,-7.005629988489070925e+00,4.402288664015362452e-01
-4.199284924700664057e+00,-7.013393497257357723e+00,7.141518175515078060e-01
-4.197698269076964195e+00,-7.035508827609396221e+00,1.007459590847998632e+00
-4.221765853968231674e+00,-7.020950795243434683e+00,1.295668006935026151e+00
-1.983257718765041311e+00,-3.449765564396091388e+00,-1.052869259064352248e+00
-2.367117008657582566e+00,-4.111302367887222253e+00,-1.098193037545002859e+00
-2.929344352171459498e+00,-5.025429848561280721e+00,-1.135732096013573278e+00
-3.762627028264180495e+00,-6.467821496920178603e+00,-1.192449049673984351e+00
-3.867416293915606929e+00,-6.670837508856111597e+00,-9.471559308324690729e-01
-3.869914504318365811e+00,-6.681258834954372006e+00,-6.667283446957741333e-01
-3.884998346857663432e+00,-6.679186588201271313e+00,-3.984978623405286413e-01
-3.878888613386908268e+00,-6.695702135279375966e+00,-1.273602936229262239e-01
-3.897829447269804071e+00,-6.710297998606882253e+00,1.354020487029104769e-01
-3.902866708195041223e+00,-6.719352947068284898e+00,4.054810447332977685e-01
-3.894531525703500030e+00,-6.724680183461104299e+00,6.714273108340044205e-01
-3.906246133381471086e+00,-6.736139839761903225e+00,9.530392794525364142e-01
-3.924341687968120329e+00,-6.743149391358540079e+00,1.237107323467770525e+00
-1.949933823669633970e+00,-3.468665874620076028e+00,-1.060748041966965260e+00
-2.336690203845059877e+00,-4.127571016697727302e+00,-1.097942270383068575e+00
-2.829273261936973594e+00,-5.070257021319601876e+00,-1.119471031203630895e+00
-3.559479334117512384e+00,-6.365002943095422694e+00,-1.166029243980965413e+00
-3.565281728348699719e+00,-6.360427109714045457e+00,-8.898494457031556060e-01
-3.593742986650567683e+00,-6.371761939858122226e+00,-6.479334952088839916e-01
-3.578695820525062743e+00,-6.382496120083044566e+00,-3.817377284094917722e-01
-3.597144248127706057e+00,-6.402142585429937860e+00,-1.261089921434417893e-01
-3.611084332782697359e+00,-6.404400366914562603e+00,1.241000208581551911e-01
-3.606360896934599936e+00,-6.395888140538880329e+00,3.809996834018374856e-01
-3.606765366803542427e+00,-6.423432222979799100e+00,6.475517233380209126e-01
-3.621136500948612280e+00,-6.436180731658417642e+00,8.888999201105121095e-01
-3.604021942785682775e+00,-6.434611142183614518e+00,1.167435384435422163e+00
-1.911476468458663591e+00,-3.492785379174976779e+00,-1.071022047917787212e+00
-2.240480765066218627e+00,-4.142354141547635926e+00,-1.076640635596700868e+00
-2.757651148631649729e+00,-5.106172843684057661e+00,-1.140562791944901955e+00
-3.319126074166864449e+00,-6.109589298316887351e+00,-1.100043953918735662e+00
-3.331606127225799518e+00,-6.132132254346030820e+00,-8.504040458103885314e-01
-3.334098568194499901e+00,-6.138157092013384108e+00,-6.155430268962389651e-01
-3.343457548465360141e+00,-6.150697849984708476e+00,-3.654863506859772904e-01
-3.351913418487968421e+00,-6.155932676655258895e+00,-1.210520585925272397e-01
-3.354916122121708089e+00,-6.163263689407036949e+00,1.182943295466134248e-01
-3.345596793180790396e+00,-6.172648221045991868e+00,3.505680903384644220e-01
-3.352786023125246651e+00,-6.179863926949959563e+00,6.146617631546563709e-01
-3.357942238173083460e+00,-6.198874881719259378e+00,8.607429332174053593e-01
-3.356012963858486575e+00,-6.199155140640050021e+00,1.120806685429204252e+00
-3.372943175434297114e+00,-6.194784955137653704e+00,1.378077190159103349e+00
-1.850792180390567809e+00,-3.527003312577675853e+00,-1.069129643038382538e+00
-2.203708719811031891e+00,-4.170570140569981987e+00,-1.098858296021081316e+00
-2.716579965258683060e+00,-5.163516436492338713e+00,-1.132965118020564432e+00
-3.114896116360655665e+00,-5.901039658104602736e+00,-1.061563537940496404e+00
-3.105123412430068175e+00,-5.910382076432157739e+00,-8.153834358980887043e-01
-3.115899222839129568e+00,-5.918464765179841436e+00,-5.885891448590703234e-01
-3.114388146246402478e+00,-5.921083884969814193e+00,-3.397616592175238814e-01
-3.103985315166363446e+00,-5.938489322012606486e+00,-1.302163901165034054e-01
-3.117372054656809333e+00,-5.956341022263702989e+00,1.055299592849671814e-01
-3.120734585608067935e+00,-5.965632460314352237e+00,3.506860082436668025e-01
-3.130337275875918479e+00,-5.951263041868045889e+00,5.839529743445373011e-01
-3.134077775522924547e+00,-5.978582504125315999e+00,8.238717946717897256e-01
-3.132791662420470136e+00,-5.996631412519424664e+00,1.080866607206791397e+00
-3.152985660438744286e+00,-5.990273298383046452e+00,1.322880084714709525e+00
-1.801969676936036935e+00,-3.563442525740384337e+00,-1.074415930337684122e+00
-2.142544974931739787e+00,-4.206427507177916247e+00,-1.089057620585381025e+00
-2.609573201368725837e+00,-5.195018988160398088e+00,-1.128800559810184900e+00
-2.866307046483763887e+00,-5.674986904073458405e+00,-1.010923565853414363e+00
-2.888356430786687579e+00,-5.694879831994210662e+00,-7.888940974599448763e-01
-2.877135570480684912e+00,-5.707961218859149533e+00,-5.628798174135263288e-01
-2.892045705539229683e+00,-5.715494239156456935e+00,-3.406038307207719384e-01
-2.899755710388249863e+00,-5.725312392043745646e+00,-1.206413418755304251e-01
-2.909296121959413561e+00,-5.719457382462852735e+00,1.158518828393860778e-01
-2.904525114400882124e+00,-5.735162811530535087e+00,3.292813263233031473e-01
-2.909933151734723555e+00,-5.730425139773211107e+00,5.608194293765603744e-01
-2.913291519712359001e+00,-5.738665624364966966e+00,7.962409058878757717e-01
-2.919649737790820598e+00,-5.751929049236821356e+00,1.014912616918070221e+00
-2.909296692015842734e+00,-5.756581875522475578e+00,1.250850440029234623e+00
-1.747519999753220921e+00,-3.588980835465942487e+00,-1.075308275811725389e+00
-2.064509192047871533e+00,-4.238436174914378185e+00,-1.088673669650280784e+00
-2.556980285295546107e+00,-5.223207401874624622e+00,-1.133651743617624552e+00
-2.684290438349286045e+00,-5.496713299018337828e+00,-9.702864609713288679e-01
-2.691503979342434238e+00,-5.500869535580529934e+00,-7.621077256826636059e-01
-2.695214844268859711e+00,-5.520236848650662331e+00,-5.438037776946432755e-01
-2.697726793086974606e+00,-5.518803834553144938e+00,-3.206080168266733366e-01
-2.706518041048819434e+00,-5.527960631162082805e+00,-9.761886658271724804e-02
-2.696089975711844833e+00,-5.551831580902748975e+00,1.153405776403203936e-01
-2.719753792195357622e+00,-5.547820289948700356e+00,3.380381705399467251e-01
-2.709390014400563818e+00,-5.550332249501117587e+00,5.398351439409423413e-01
-2.714530423427471639e+00,-5.562238593401859887e+00,7.567172184078536645e-01
-2.726052648621787533e+00,-5.579211685868918913e+00,9.817711407710434379e-01
-2.722025798064262592e+00,-5.567757667494819707e+00,1.213715468186306934e+00
-2.732386373933093804e+00,-5.580034753816752513e+00,1.426934318283569647e+00
-1.684035057847479644e+00,-3.588771966665568858e+00,-1.062636164613120382e+00
-2.021798598190552188e+00,-4.270207967858221210e+00,-1.085751274325158944e+00
-2.472344848977050535e+00,-5.208904375233523787e+00,-1.127783503034384349e+00
-2.508961841421585071e+00,-5.316385198769844500e+00,-9.525687412085348527e-01
-2.498614668019798923e+00,-5.306397119284173236e+00,-7.236767171497037188e-01
-2.507841896448636199e+00,-5.339624457397431634e+00,-5.172333895056823172e-01
-2.509055171688288510e+00,-5.326879324564568030e+00,-3.041849798274174344e-01
-2.513313377764035295e+00,-5.339969921676486209e+00,-8.942076755536941535e-02
-2.516475258931834436e+00,-5.341666699583565325e+00,9.997806028466009465e-02
-2.519692930952904586e+00,-5.351371467725352993e+00,3.153293601517626610e-01
-2.523002264490350477e+00,-5.369491424501753762e+00,5.260750170271707438e-01
-2.534854240063398212e+00,-5.370381506014552997e+00,7.224787146237025004e-01
-2.528715164232071100e+00,-5.389559536238155424e+00,9.450470968206554634e-01
-2.540186091505511889e+00,-5.388579161836440257e+00,1.157162059752316674e+00
-2.536808984123620103e+00,-5.392802014398890620e+00,1.379130742317969949e+00
-1.639330507694618522e+00,-3.620900501104259206e+00,-1.055296173390063652e+00
-1.951506357784315027e+00,-4.311963122850222874e+00,-1.088903545361483705e+00
-2.323643657460853884e+00,-5.138241081206015970e+00,-1.097099567817328980e+00
-2.339053383889139859e+00,-5.141991753446091273e+00,-8.843378924566401844e-01
-2.331699505950860285e+00,-5.137471459668454088e+00,-6.882211938205009538e-01
-2.342706300225673832e+00,-5.145675206870294893e+00,-4.800356205533161114e-01
-2.330700542777671913e+00,-5.158440715702298007e+00,-2.927488928947996061e-01
-2.346521261948249837e+00,-5.173463233132309824e+00,-9.258489580299104904e-02
-2.350162161384868664e+00,-5.153761653935309717e+00,9.655354554711872983e-02
-2.356825078615008007e+00,-5.167275684127128343e+00,2.863591715695039119e-01
-2.354357483199936318e+00,-5.192721362269709040e+00,4.944464514724574156e-01
-2.339358322394652134e+00,-5.188834373030481117e+00,6.990825158860340949e-01
-2.362488746067294088e+00,-5.195381038092547143e+00,9.019554268802172370e-01
-2.364281453871961869e+00,-5.215046895667552640e+00,1.131479063430166132e+00
-2.362833384110535118e+00,-5.220158854321879538e+00,1.325236060038225805e+00
-1.591320768145769726e+00,-3.651395732898164770e+00,-1.071161960194294993e+00
-1.897889744706647619e+00,-4.336691069772822260e+00,-1.094605947555370884e+00
-2.176303655654393765e+00,-4.992801040125447010e+00,-1.053566217197873911e+00
-2.174994375906600386e+00,-4.992992107225288301e+00,-8.640208510870097669e-01
-2.182963158076256516e+00,-5.003075931514295860e+00,-6.705141628282319521e-01
-2.197646515218995233e+00,-5.022523323018164731e+00,-4.775983496546672424e-01
-2.184858446835151291e+00,-5.006946317979195094e+00,-2.784389145658234255e-01
-2.190651402267217662e+00,-5.028475212448996423e+00,-8.416590640374940757e-02
-2.187768025660131954e+00,-5.033175291012242702e+00,9.571028707056973561e-02
-2.196817480285753188e+00,-5.033669010613312622e+00,2.895809535194551754e-01
-2.199235005355312023e+00,-5.037054856286414584e+00,4.761054873962696221e-01
-2.220151233240081901e+00,-5.046327624945647905e+00,6.755080869872397420e-01
-2.207218622294755850e+00,-5.059326425137139260e+00,8.959012541862235723e-01
-2.202922231384690566e+00,-5.051383194979059965e+00,1.082751171297791526e+00
