5.622582510113716125e-02,1.207846403121948242e+00,1.915109455585479736e-01
5.630145967006683350e-02,1.209471225738525391e+00,2.353516072034835815e-01
5.637171119451522827e-02,1.210980296134948730e+00,2.798791527748107910e-01
3.854683041572570801e-02,1.196528673171997070e+00,-3.207747042179107666e-01
3.859965875744819641e-02,1.198168516159057617e+00,-2.767620682716369629e-01
3.864744678139686584e-02,1.199651837348937988e+00,-2.333093285560607910e-01
3.869261220097541809e-02,1.201053857803344727e+00,-1.903266459703445435e-01
3.873717412352561951e-02,1.202437043190002441e+00,-1.477170735597610474e-01
3.878559544682502747e-02,1.203940153121948242e+00,-1.053856015205383301e-01
3.883214667439460754e-02,1.205385208129882812e+00,-6.320423632860183716e-02
3.887829184532165527e-02,1.206817507743835449e+00,-2.107597514986991882e-02
3.892425075173377991e-02,1.208244085311889648e+00,2.110088989138603210e-02
3.896866366267204285e-02,1.209622740745544434e+00,6.342643499374389648e-02
3.901746124029159546e-02,1.211137533187866211e+00,1.060156151652336121e-01
3.906647861003875732e-02,1.212659001350402832e+00,1.489728242158889771e-01
3.911393135786056519e-02,1.214131951332092285e+00,1.923990845680236816e-01
3.915761038661003113e-02,1.215487837791442871e+00,2.363891154527664185e-01
3.920888528227806091e-02,1.217079401016235352e+00,2.811302840709686279e-01
2.152610570192337036e-02,1.202989697456359863e+00,-3.223912417888641357e-01
2.155384421348571777e-02,1.204539895057678223e+00,-2.781340479850769043e-01
2.157920598983764648e-02,1.205957293510437012e+00,-2.344515174627304077e-01
2.160357497632503510e-02,1.207319140434265137e+00,-1.912508755922317505e-01
2.163082174956798553e-02,1.208841800689697266e+00,-1.484506577253341675e-01
2.165691554546356201e-02,1.210300087928771973e+00,-1.059043258428573608e-01
2.168241702020168304e-02,1.211725234985351562e+00,-6.351390480995178223e-02
2.170817740261554718e-02,1.213164806365966797e+00,-2.117922902107238770e-02
2.173430472612380981e-02,1.214625000953674316e+00,2.120471931993961334e-02
2.176004275679588318e-02,1.216063261032104492e+00,6.374128162860870361e-02
2.178493700921535492e-02,1.217454552650451660e+00,1.065303608775138855e-01
2.181314677000045776e-02,1.219031095504760742e+00,1.497019231319427490e-01
2.184096165001392365e-02,1.220585465431213379e+00,1.933524012565612793e-01
2.186712063848972321e-02,1.222047448158264160e+00,2.375796288251876831e-01
2.189013361930847168e-02,1.223333477973937988e+00,2.824735641479492188e-01
4.327745176851749420e-03,1.209048748016357422e+00,-3.239652216434478760e-01
4.333018790930509567e-03,1.210522055625915527e+00,-2.794724106788635254e-01
4.337897524237632751e-03,1.211885094642639160e+00,-2.355677485466003418e-01
4.343436099588871002e-03,1.213432431221008301e+00,-1.921897530555725098e-01
4.348098300397396088e-03,1.214734911918640137e+00,-1.491514295339584351e-01
4.353388212621212006e-03,1.216212630271911621e+00,-1.064053401350975037e-01
4.358647856861352921e-03,1.217682003974914551e+00,-6.381632387638092041e-02
4.363834857940673828e-03,1.219131231307983398e+00,-2.128011919558048248e-02
4.368951544165611267e-03,1.220560669898986816e+00,2.130506932735443115e-02
4.374076612293720245e-03,1.221992492675781250e+00,6.404222548007965088e-02
4.379887133836746216e-03,1.223615765571594238e+00,1.070530340075492859e-01
4.384920001029968262e-03,1.225021839141845703e+00,1.504145115613937378e-01
4.390730988234281540e-03,1.226645231246948242e+00,1.942824721336364746e-01
4.396293777972459793e-03,1.228199243545532227e+00,2.387389242649078369e-01
4.401302430778741837e-03,1.229598522186279297e+00,2.838765680789947510e-01
-1.304617337882518768e-02,1.215469121932983398e+00,-3.257022202014923096e-01
-1.306166127324104309e-02,1.216912031173706055e+00,-2.809620201587677002e-01
-1.307923719286918640e-02,1.218549489974975586e+00,-2.368753105401992798e-01
-1.309547759592533112e-02,1.220062613487243652e+00,-1.932497620582580566e-01
-1.311103347688913345e-02,1.221511840820312500e+00,-1.499912142753601074e-01
-1.312641799449920654e-02,1.222945213317871094e+00,-1.069998443126678467e-01
-1.314199157059192657e-02,1.224396109580993652e+00,-6.417148560285568237e-02
-1.315762661397457123e-02,1.225852727890014648e+00,-2.139854058623313904e-02
-1.317332684993743896e-02,1.227315545082092285e+00,2.142407372593879700e-02
-1.318933442234992981e-02,1.228806853294372559e+00,6.440265476703643799e-02
-1.320536993443965912e-02,1.230300903320312500e+00,1.076434180140495300e-01
-1.322099659591913223e-02,1.231756806373596191e+00,1.512492001056671143e-01
-1.323563419282436371e-02,1.233120560646057129e+00,1.953180581331253052e-01
-1.325280591845512390e-02,1.234720349311828613e+00,2.400187849998474121e-01
-1.326859276741743088e-02,1.236191153526306152e+00,2.854132354259490967e-01
-3.060805983841419220e-02,1.221841692924499512e+00,-3.274936974048614502e-01
-3.064237907528877258e-02,1.223211646080017090e+00,-2.824888229370117188e-01
-3.068222478032112122e-02,1.224802255630493164e+00,-2.381517738103866577e-01
-3.071950003504753113e-02,1.226290345191955566e+00,-1.942859441041946411e-01
-3.075578063726425171e-02,1.227738618850708008e+00,-1.507944166660308838e-01
-3.079467825591564178e-02,1.229291319847106934e+00,-1.075826361775398254e-01
-3.083060123026371002e-02,1.230725407600402832e+00,-6.451971828937530518e-02
-3.086726926267147064e-02,1.232189059257507324e+00,-2.151465602219104767e-02
-3.090468421578407288e-02,1.233682632446289062e+00,2.154073491692543030e-02
-3.093947283923625946e-02,1.235071420669555664e+00,6.474756449460983276e-02
-3.097728453576564789e-02,1.236580729484558105e+00,1.082205772399902344e-01
-3.101474046707153320e-02,1.238075971603393555e+00,1.520640850067138672e-01
-3.105045296251773834e-02,1.239501595497131348e+00,1.963790655136108398e-01
-3.109275735914707184e-02,1.241190314292907715e+00,2.413382828235626221e-01
-3.113237954676151276e-02,1.242772102355957031e+00,2.870061099529266357e-01
-4.837167635560035706e-02,1.228382945060729980e+00,-3.293987810611724854e-01
-4.842280969023704529e-02,1.229681491851806641e+00,-2.841139137744903564e-01
-4.848366975784301758e-02,1.231227040290832520e+00,-2.395114153623580933e-01
-4.855023697018623352e-02,1.232917428016662598e+00,-1.954259872436523438e-01
-4.860477522015571594e-02,1.234302401542663574e+00,-1.516705155372619629e-01
-4.866443946957588196e-02,1.235817551612854004e+00,-1.082036644220352173e-01
-4.872025549411773682e-02,1.237234950065612793e+00,-6.489089131355285645e-02
-4.877817630767822266e-02,1.238705873489379883e+00,-2.163841575384140015e-02
-4.883822426199913025e-02,1.240230798721313477e+00,2.166505530476570129e-02
-4.889497905969619751e-02,1.241672039031982422e+00,6.512361019849777222e-02
-4.895750060677528381e-02,1.243259668350219727e+00,1.088552698493003845e-01
-4.900905117392539978e-02,1.244568824768066406e+00,1.529320478439331055e-01
-4.906757548451423645e-02,1.246055126190185547e+00,1.975083947181701660e-01
-4.913753643631935120e-02,1.247831702232360840e+00,2.427415251731872559e-01
-4.920413345098495483e-02,1.249522924423217773e+00,2.886982262134552002e-01
-6.631284207105636597e-02,1.234368562698364258e+00,-3.312245011329650879e-01
-6.637949496507644653e-02,1.235609173774719238e+00,-2.856737673282623291e-01
-6.647630035877227783e-02,1.237411141395568848e+00,-2.408748418092727661e-01
-6.655091792345046997e-02,1.238800168037414551e+00,-1.964892894029617310e-01
-6.663453578948974609e-02,1.240356683731079102e+00,-1.525160372257232666e-01
-6.670871376991271973e-02,1.241737365722656250e+00,-1.087944358587265015e-01
-6.678939610719680786e-02,1.243239283561706543e+00,-6.524926424026489258e-02
-6.686878204345703125e-02,1.244717001914978027e+00,-2.175791375339031219e-02
-6.694702804088592529e-02,1.246173501014709473e+00,2.178337424993515015e-02
-6.703225523233413696e-02,1.247759938240051270e+00,6.548652052879333496e-02
-6.710916757583618164e-02,1.249191641807556152e+00,1.094475388526916504e-01
-6.719639897346496582e-02,1.250815391540527344e+00,1.538020521402359009e-01
-6.726325303316116333e-02,1.252059817314147949e+00,1.985924392938613892e-01
-6.736259162425994873e-02,1.253908991813659668e+00,2.440862953662872314e-01
-6.743307411670684814e-02,1.255220890045166016e+00,2.902080118656158447e-01
-8.451469987630844116e-02,1.241258859634399414e+00,-3.333638310432434082e-01
-8.461879193782806396e-02,1.242787599563598633e+00,-2.875840067863464355e-01
-8.471471071243286133e-02,1.244196414947509766e+00,-2.424068599939346313e-01
-8.480796217918395996e-02,1.245566010475158691e+00,-1.977347284555435181e-01
-8.491430431604385376e-02,1.247127771377563477e+00,-1.534823477268218994e-01
-8.501698076725006104e-02,1.248635768890380859e+00,-1.094942390918731689e-01
-8.511827141046524048e-02,1.250123381614685059e+00,-6.566778570413589478e-02
-8.521938323974609375e-02,1.251608490943908691e+00,-2.189745754003524780e-02
-8.532059937715530396e-02,1.253095030784606934e+00,2.192346565425395966e-02
-8.542117476463317871e-02,1.254572153091430664e+00,6.590147316455841064e-02
-8.551934361457824707e-02,1.256013989448547363e+00,1.101412400603294373e-01
-8.563229441642761230e-02,1.257672786712646484e+00,1.547801047563552856e-01
-8.574495464563369751e-02,1.259327530860900879e+00,1.999193876981735229e-01
-8.585233241319656372e-02,1.260904550552368164e+00,2.456621080636978149e-01
-8.594845980405807495e-02,1.262316346168518066e+00,2.921029925346374512e-01
-1.028997004032135010e-01,1.247545242309570312e+00,-3.354133963584899902e-01
-1.030216738581657410e-01,1.249024033546447754e+00,-2.893387079238891602e-01
-1.031353622674942017e-01,1.250402331352233887e+00,-2.438786029815673828e-01
-1.032667309045791626e-01,1.251995086669921875e+00,-1.989696323871612549e-01
-1.033912524580955505e-01,1.253504753112792969e+00,-1.544334590435028076e-01
-1.035128980875015259e-01,1.254979610443115234e+00,-1.101691797375679016e-01
-1.036344841122627258e-01,1.256453752517700195e+00,-6.607145816087722778e-02
-1.037575602531433105e-01,1.257945895195007324e+00,-2.203205786645412445e-02
-1.038824543356895447e-01,1.259460091590881348e+00,2.205857820808887482e-02
-1.040081977844238281e-01,1.260984539985656738e+00,6.630972027778625488e-02
-1.041326448321342468e-01,1.262493371963500977e+00,1.108287721872329712e-01
-1.042523756623268127e-01,1.263944983482360840e+00,1.557197123765945435e-01
-1.043925806879997253e-01,1.265644788742065430e+00,2.011388689279556274e-01
-1.045280396938323975e-01,1.267287015914916992e+00,2.471717894077301025e-01
-1.046513766050338745e-01,1.268782377243041992e+00,2.939157485961914062e-01
-1.216075792908668518e-01,1.254855751991271973e+00,-3.378122448921203613e-01
-1.217452585697174072e-01,1.256276488304138184e+00,-2.913925647735595703e-01
-1.218752637505531311e-01,1.257617950439453125e+00,-2.456010133028030396e-01
-1.220284104347229004e-01,1.259198307991027832e+00,-2.003714293241500854e-01
-1.221756115555763245e-01,1.260717153549194336e+00,-1.555215567350387573e-01
-1.223316118121147156e-01,1.262326955795288086e+00,-1.109565123915672302e-01
-1.224730834364891052e-01,1.263786792755126953e+00,-6.654243916273117065e-02
-1.226184815168380737e-01,1.265287160873413086e+00,-2.218910120427608490e-02
-1.227681785821914673e-01,1.266831874847412109e+00,2.221619151532649994e-02
-1.229047253727912903e-01,1.268240809440612793e+00,6.677696108818054199e-02
-1.230515986680984497e-01,1.269756436347961426e+00,1.116095557808876038e-01
-1.231950744986534119e-01,1.271236896514892578e+00,1.568192690610885620e-01
-1.233650371432304382e-01,1.272990822792053223e+00,2.025661766529083252e-01
-1.235315427184104919e-01,1.274708867073059082e+00,2.489387243986129761e-01
-1.236857771873474121e-01,1.276300430297851562e+00,2.960371077060699463e-01
-1.405037492513656616e-01,1.261508584022521973e+00,-3.401097655296325684e-01
-1.406570225954055786e-01,1.262884736061096191e+00,-2.933622598648071289e-01
-1.408374756574630737e-01,1.264504909515380859e+00,-2.473143190145492554e-01
-1.410058736801147461e-01,1.266016960144042969e+00,-2.017569541931152344e-01
-1.411694288253784180e-01,1.267485380172729492e+00,-1.565897017717361450e-01
-1.413337290287017822e-01,1.268960475921630859e+00,-1.117059662938117981e-01
-1.415065824985504150e-01,1.270512461662292480e+00,-6.699635833501815796e-02
-1.416745334863662720e-01,1.272020339965820312e+00,-2.234045602381229401e-02
-1.418383121490478516e-01,1.273490905761718750e+00,2.236628159880638123e-02
-1.420115828514099121e-01,1.275046586990356445e+00,6.723544746637344360e-02
-1.421877592802047729e-01,1.276628494262695312e+00,1.123809739947319031e-01
-1.423620730638504028e-01,1.278193473815917969e+00,1.579126268625259399e-01
-1.425281316041946411e-01,1.279684424400329590e+00,2.039350420236587524e-01
-1.427262723445892334e-01,1.281463384628295898e+00,2.506310939788818359e-01
-1.429123878479003906e-01,1.283134460449218750e+00,2.980661988258361816e-01
-1.596743911504745483e-01,1.268347144126892090e+00,-3.425345718860626221e-01
-1.598423719406127930e-01,1.269681453704833984e+00,-2.954423129558563232e-01
-1.600438654422760010e-01,1.271281838417053223e+00,-2.490622997283935547e-01
-1.602340787649154663e-01,1.272792816162109375e+00,-2.031814604997634888e-01
-1.604431718587875366e-01,1.274453639984130859e+00,-1.577181518077850342e-01
-1.606249362230300903e-01,1.275897622108459473e+00,-1.125074997544288635e-01
-1.608190089464187622e-01,1.277439117431640625e+00,-6.747607886791229248e-02
-1.610097736120223999e-01,1.278954386711120605e+00,-2.250040881335735321e-02
-1.611981838941574097e-01,1.280451059341430664e+00,2.252673916518688202e-02
-1.613999605178833008e-01,1.282053828239440918e+00,6.771983206272125244e-02
-1.615771055221557617e-01,1.283460974693298340e+00,1.131744235754013062e-01
-1.617761999368667603e-01,1.285042405128479004e+00,1.590285450220108032e-01
-1.619684100151062012e-01,1.286569237709045410e+00,2.053806483745574951e-01
-1.621997207403182983e-01,1.288406610488891602e+00,2.524172663688659668e-01
-1.623566448688507080e-01,1.289653182029724121e+00,3.000895380973815918e-01
-1.791387796401977539e-01,1.275387883186340332e+00,-3.450931310653686523e-01
-1.793736815452575684e-01,1.277060270309448242e+00,-2.977262437343597412e-01
-1.795869469642639160e-01,1.278578639030456543e+00,-2.509697377681732178e-01
-1.797898858785629272e-01,1.280023336410522461e+00,-2.047255486249923706e-01
-1.799919754266738892e-01,1.281462192535400391e+00,-1.588880270719528198e-01
-1.802152991294860840e-01,1.283052206039428711e+00,-1.133542358875274658e-01
-1.804303377866744995e-01,1.284583210945129395e+00,-6.798288971185684204e-02
-1.806443035602569580e-01,1.286106467247009277e+00,-2.266940101981163025e-02
-1.808582544326782227e-01,1.287629723548889160e+00,2.269624918699264526e-02
-1.810654252767562866e-01,1.289104700088500977e+00,6.822218000888824463e-02
-1.812962591648101807e-01,1.290748119354248047e+00,1.140341460704803467e-01
-1.815301477909088135e-01,1.292413234710693359e+00,1.602458506822586060e-01
-1.817586421966552734e-01,1.294040083885192871e+00,2.069673687219619751e-01
-1.819714009761810303e-01,1.295554757118225098e+00,2.543019354343414307e-01
-1.821561157703399658e-01,1.296869993209838867e+00,3.023445606231689453e-01
-1.987524181604385376e-01,1.281583070755004883e+00,-3.475036025047302246e-01
-1.990082859992980957e-01,1.283232927322387695e+00,-2.997986674308776855e-01
-1.992426216602325439e-01,1.284744024276733398e+00,-2.527137994766235352e-01
-1.994682103395462036e-01,1.286198616027832031e+00,-2.061487287282943726e-01
-1.997230052947998047e-01,1.287841558456420898e+00,-1.600170731544494629e-01
-1.999657899141311646e-01,1.289407014846801758e+00,-1.141568422317504883e-01
-2.002017647027969360e-01,1.290928602218627930e+00,-6.846334785223007202e-02
-2.004390805959701538e-01,1.292458891868591309e+00,-2.282960154116153717e-02
-2.006789445877075195e-01,1.294005513191223145e+00,2.285692095756530762e-02
-2.009137719869613647e-01,1.295519709587097168e+00,6.870683282613754272e-02
-2.011394798755645752e-01,1.296975135803222656e+00,1.148268803954124451e-01
-2.013983279466629028e-01,1.298644304275512695e+00,1.613593399524688721e-01
-2.016539573669433594e-01,1.300292611122131348e+00,2.084076851606369019e-01
-2.018947154283523560e-01,1.301845073699951172e+00,2.560776472091674805e-01
-2.021068185567855835e-01,1.303212642669677734e+00,3.044664859771728516e-01
-2.188427001237869263e-01,1.289024829864501953e+00,-3.503349125385284424e-01
-2.191179245710372925e-01,1.290645956993103027e+00,-3.022323250770568848e-01
-2.193725109100341797e-01,1.292145490646362305e+00,-2.547612488269805908e-01
-2.196628600358963013e-01,1.293855667114257812e+00,-2.078586369752883911e-01
-2.199345231056213379e-01,1.295455932617187500e+00,-1.613377928733825684e-01
-2.201957702636718750e-01,1.296994686126708984e+00,-1.150958538055419922e-01
-2.204524725675582886e-01,1.298506617546081543e+00,-6.902551651000976562e-02
-2.207136601209640503e-01,1.300045132637023926e+00,-2.301704697310924530e-02
-2.209807485342025757e-01,1.301618337631225586e+00,2.304490096867084503e-02
-2.212452739477157593e-01,1.303176403045654297e+00,6.927374750375747681e-02
-2.215026319026947021e-01,1.304692387580871582e+00,1.157789528369903564e-01
-2.217457294464111328e-01,1.306124210357666016e+00,1.626664400100708008e-01
-2.220304906368255615e-01,1.307801485061645508e+00,2.100990414619445801e-01
-2.223019450902938843e-01,1.309400439262390137e+00,2.581632733345031738e-01
-2.226327359676361084e-01,1.311348795890808105e+00,3.070803582668304443e-01
-2.392908632755279541e-01,1.296718358993530273e+00,-3.533205687999725342e-01
-2.396573573350906372e-01,1.298704266548156738e+00,-3.048914372920989990e-01
-2.399199008941650391e-01,1.300127029418945312e+00,-2.569856643676757812e-01
-2.402250021696090698e-01,1.301780343055725098e+00,-2.096626460552215576e-01
-2.404787987470626831e-01,1.303155660629272461e+00,-1.627087444067001343e-01
-2.407711893320083618e-01,1.304740190505981445e+00,-1.160771250724792480e-01
-2.410619854927062988e-01,1.306316018104553223e+00,-6.961692869663238525e-02
-2.413482367992401123e-01,1.307867169380187988e+00,-2.321431972086429596e-02
-2.416299879550933838e-01,1.309394001960754395e+00,2.324141934514045715e-02
-2.419121712446212769e-01,1.310923099517822266e+00,6.986245512962341309e-02
-2.422361820936203003e-01,1.312679052352905273e+00,1.167834103107452393e-01
-2.425144165754318237e-01,1.314186692237854004e+00,1.640860587358474731e-01
-2.428416758775711060e-01,1.315960168838500977e+00,2.119464278221130371e-01
-2.430725693702697754e-01,1.317211270332336426e+00,2.603625655174255371e-01
-2.434441447257995605e-01,1.319224953651428223e+00,3.097089529037475586e-01
-2.599692344665527344e-01,1.303915619850158691e+00,-3.562590181827545166e-01
-2.602716088294982910e-01,1.305432081222534180e+00,-3.073140084743499756e-01
-2.605555355548858643e-01,1.306856274604797363e+00,-2.590264081954956055e-01
-2.608889043331146240e-01,1.308528423309326172e+00,-2.113292515277862549e-01
-2.612063586711883545e-01,1.310120582580566406e+00,-1.640283763408660889e-01
-2.615178823471069336e-01,1.311683058738708496e+00,-1.170158460736274719e-01
-2.618305683135986328e-01,1.313251376152038574e+00,-7.017906755208969116e-02
-2.621414363384246826e-01,1.314810514450073242e+00,-2.340176515281200409e-02
-2.624502778053283691e-01,1.316359639167785645e+00,2.342933788895606995e-02
-2.627626955509185791e-01,1.317926526069641113e+00,7.042890787124633789e-02
-2.630731463432312012e-01,1.319483637809753418e+00,1.177117377519607544e-01
-2.633729875087738037e-01,1.320987701416015625e+00,1.653889417648315430e-01
-2.637293636798858643e-01,1.322775006294250488e+00,2.136301100254058838e-01
-2.640762627124786377e-01,1.324515104293823242e+00,2.625264823436737061e-01
-2.643950581550598145e-01,1.326113939285278320e+00,3.121827542781829834e-01
-2.809123694896697998e-01,1.310831785202026367e+00,-3.592104911804199219e-01
-2.812351286411285400e-01,1.312337994575500488e+00,-3.098556101322174072e-01
-2.816115319728851318e-01,1.314094424247741699e+00,-2.612332403659820557e-01
-2.819595038890838623e-01,1.315718054771423340e+00,-2.131203562021255493e-01
-2.822931408882141113e-01,1.317275047302246094e+00,-1.654130667448043823e-01
-2.826234698295593262e-01,1.318816423416137695e+00,-1.180010139942169189e-01
-2.829581201076507568e-01,1.320378065109252930e+00,-7.076909393072128296e-02
-2.832939028739929199e-01,1.321944832801818848e+00,-2.359849959611892700e-02
-2.836306989192962646e-01,1.323516607284545898e+00,2.362655662000179291e-02
-2.839744985103607178e-01,1.325120687484741211e+00,7.102329283952713013e-02
-2.843192517757415771e-01,1.326729536056518555e+00,1.187090277671813965e-01
-2.846555411815643311e-01,1.328298807144165039e+00,1.667973399162292480e-01
-2.849708497524261475e-01,1.329770088195800781e+00,2.153965085744857788e-01
-2.853494882583618164e-01,1.331536889076232910e+00,2.647006809711456299e-01
-2.857009768486022949e-01,1.333177089691162109e+00,3.147759437561035156e-01
-3.025322854518890381e-01,1.319271445274353027e+00,-3.626726865768432617e-01
-3.029665350914001465e-01,1.321164965629577637e+00,-3.129315972328186035e-01
-3.033545017242431641e-01,1.322856903076171875e+00,-2.638112902641296387e-01
-3.036550581455230713e-01,1.324167609214782715e+00,-2.151709944009780884e-01
-3.040634095668792725e-01,1.325948238372802734e+00,-1.670315712690353394e-01
-3.044117391109466553e-01,1.327467203140258789e+00,-1.191526949405670166e-01
-3.047683835029602051e-01,1.329022526741027832e+00,-7.145890593528747559e-02
-3.051299452781677246e-01,1.330599069595336914e+00,-2.382851392030715942e-02
-3.054962158203125000e-01,1.332196354866027832e+00,2.385711856186389923e-02
-3.058736622333526611e-01,1.333842396736145020e+00,7.171805948019027710e-02
-3.061962425708770752e-01,1.335249066352844238e+00,1.198511868715286255e-01
-3.066321909427642822e-01,1.337149977684020996e+00,1.684426963329315186e-01
-3.069892227649688721e-01,1.338706970214843750e+00,2.175335884094238281e-01
-3.073098361492156982e-01,1.340105175971984863e+00,2.672510445117950439e-01
-3.076973855495452881e-01,1.341795206069946289e+00,3.178180754184722900e-01
-3.243894577026367188e-01,1.327107310295104980e+00,-3.660657107830047607e-01
-3.247364461421966553e-01,1.328526854515075684e+00,-3.157439529895782471e-01
-3.251531720161437988e-01,1.330231785774230957e+00,-2.661828994750976562e-01
-3.255439996719360352e-01,1.331830620765686035e+00,-2.171511352062225342e-01
-3.259254693984985352e-01,1.333391308784484863e+00,-1.685396134853363037e-01
-3.263384997844696045e-01,1.335081100463867188e+00,-1.202430576086044312e-01
-3.267173767089843750e-01,1.336631059646606445e+00,-7.211206108331680298e-02
-3.271048367023468018e-01,1.338216066360473633e+00,-2.404630370438098907e-02
-3.275006711483001709e-01,1.339835524559020996e+00,2.407540380954742432e-02
-3.278661668300628662e-01,1.341330885887145996e+00,7.236561924219131470e-02
-3.282672762870788574e-01,1.342971920967102051e+00,1.209537386894226074e-01
-3.286660015583038330e-01,1.344603061676025391e+00,1.699567586183547974e-01
-3.290475606918334961e-01,1.346164107322692871e+00,2.194881588220596313e-01
-3.295100927352905273e-01,1.348056316375732422e+00,2.697496414184570312e-01
-3.299482464790344238e-01,1.349848747253417969e+00,3.208114206790924072e-01
-3.465590178966522217e-01,1.334688305854797363e+00,-3.694872856140136719e-01
-3.470341563224792480e-01,1.336518168449401855e+00,-3.187910616397857666e-01
-3.474628627300262451e-01,1.338169217109680176e+00,-2.687388658523559570e-01
-3.478668034076690674e-01,1.339724898338317871e+00,-2.192276567220687866e-01
-3.482640385627746582e-01,1.341254711151123047e+00,-1.701461970806121826e-01
-3.486986756324768066e-01,1.342928647994995117e+00,-1.213869303464889526e-01
-3.490998148918151855e-01,1.344473600387573242e+00,-7.279729098081588745e-02
-3.495135903358459473e-01,1.346067070960998535e+00,-2.427478507161140442e-02
-3.499399423599243164e-01,1.347709059715270996e+00,2.430439554154872894e-02
-3.503369390964508057e-01,1.349238157272338867e+00,7.305527478456497192e-02
-3.507756590843200684e-01,1.350927710533142090e+00,1.221099644899368286e-01
-3.512151539325714111e-01,1.352620244026184082e+00,1.715879738330841064e-01
-3.516394495964050293e-01,1.354254364967346191e+00,2.216051965951919556e-01
-3.520285785198211670e-01,1.355752944946289062e+00,2.722701430320739746e-01
-3.525020182132720947e-01,1.357576251029968262e+00,3.238139450550079346e-01
-3.693079352378845215e-01,1.342982530593872070e+00,-3.732085525989532471e-01
-3.696801364421844482e-01,1.344336032867431641e+00,-3.218849599361419678e-01
-3.701395690441131592e-01,1.346006631851196289e+00,-2.713490128517150879e-01
-3.706504404544830322e-01,1.347864508628845215e+00,-2.214050441980361938e-01
-3.710630238056182861e-01,1.349364876747131348e+00,-1.718311756849288940e-01
-3.715191781520843506e-01,1.351023674011230469e+00,-1.225867494940757751e-01
-3.719427883625030518e-01,1.352564096450805664e+00,-7.351609319448471069e-02
-3.723834753036499023e-01,1.354166746139526367e+00,-2.451446279883384705e-02
-3.728410899639129639e-01,1.355830788612365723e+00,2.454458922147750854e-02
-3.732707202434539795e-01,1.357393145561218262e+00,7.377856224775314331e-02
-3.737486302852630615e-01,1.359130978584289551e+00,1.233223751187324524e-01
-3.741364777088165283e-01,1.360541462898254395e+00,1.732544153928756714e-01
-3.745851814746856689e-01,1.362173080444335938e+00,2.237554341554641724e-01
-3.751341402530670166e-01,1.364169359207153320e+00,2.750105261802673340e-01
-3.755089640617370605e-01,1.365532517433166504e+00,3.269602060317993164e-01
-3.924062252044677734e-01,1.351039886474609375e+00,-3.769698739051818848e-01
-3.929231166839599609e-01,1.352819442749023438e+00,-3.252295255661010742e-01
-3.933941721916198730e-01,1.354441285133361816e+00,-2.741564512252807617e-01
-3.938443958759307861e-01,1.355991482734680176e+00,-2.236430943012237549e-01
-3.943511843681335449e-01,1.357736229896545410e+00,-1.735982000827789307e-01
-3.947941958904266357e-01,1.359261631965637207e+00,-1.238342747092247009e-01
-3.952752649784088135e-01,1.360917925834655762e+00,-7.427005469799041748e-02
-3.957433700561523438e-01,1.362529516220092773e+00,-2.476586215198040009e-02
-3.961997032165527344e-01,1.364100694656372070e+00,2.479442022740840912e-02
-3.966965079307556152e-01,1.365811109542846680e+00,7.453709095716476440e-02
-3.971363604068756104e-01,1.367325544357299805e+00,1.245689392089843750e-01
-3.976403176784515381e-01,1.369060635566711426e+00,1.750461161136627197e-01
-3.981342911720275879e-01,1.370761394500732422e+00,2.260791063308715820e-01
-3.985956311225891113e-01,1.372349739074707031e+00,2.777813673019409180e-01
-3.991602063179016113e-01,1.374293565750122070e+00,3.303920924663543701e-01
-4.161589443683624268e-01,1.359848618507385254e+00,-3.810507059097290039e-01
-4.165572822093963623e-01,1.361150145530700684e+00,-3.286320567131042480e-01
-4.171687364578247070e-01,1.363148212432861328e+00,-2.770991027355194092e-01
-4.176319837570190430e-01,1.364661931991577148e+00,-2.260358780622482300e-01
-4.181589484214782715e-01,1.366383790969848633e+00,-1.754511743783950806e-01
-4.186212420463562012e-01,1.367894530296325684e+00,-1.251538395881652832e-01
-4.191277623176574707e-01,1.369549512863159180e+00,-7.506082206964492798e-02
-4.196239113807678223e-01,1.371170759201049805e+00,-2.502953633666038513e-02
-4.201110303401947021e-01,1.372762560844421387e+00,2.505859360098838806e-02
-4.206447303295135498e-01,1.374506473541259766e+00,7.533249258995056152e-02
-4.211212396621704102e-01,1.376063466072082520e+00,1.259012520313262939e-01
-4.216696023941040039e-01,1.377855300903320312e+00,1.769241690635681152e-01
-4.220811128616333008e-01,1.379199981689453125e+00,2.284438908100128174e-01
-4.227201342582702637e-01,1.381288051605224609e+00,2.807865738868713379e-01
-4.231690168380737305e-01,1.382754802703857422e+00,3.338482081890106201e-01
-4.403040409088134766e-01,1.368440151214599609e+00,-3.851847350597381592e-01
-4.408650398254394531e-01,1.370183587074279785e+00,-3.323025703430175781e-01
-4.413817524909973145e-01,1.371789574623107910e+00,-2.801112830638885498e-01
-4.419714510440826416e-01,1.373622298240661621e+00,-2.285444438457489014e-01
-4.424542486667633057e-01,1.375122785568237305e+00,-1.773683428764343262e-01
-4.430003762245178223e-01,1.376820206642150879e+00,-1.265376657247543335e-01
-4.435327053070068359e-01,1.378474593162536621e+00,-7.589013874530792236e-02
-4.440575540065765381e-01,1.380105733871459961e+00,-2.530606836080551147e-02
-4.445761740207672119e-01,1.381717681884765625e+00,2.533562481403350830e-02
-4.450848400592803955e-01,1.383298516273498535e+00,7.615572214126586914e-02
-4.456624090671539307e-01,1.385093569755554199e+00,1.272980421781539917e-01
-4.461432695388793945e-01,1.386588096618652344e+00,1.788471639156341553e-01
-4.467085599899291992e-01,1.388345003128051758e+00,2.309940308332443237e-01
-4.472443759441375732e-01,1.390010237693786621e+00,2.838318347930908203e-01
-4.479042589664459229e-01,1.392061114311218262e+00,3.376083970069885254e-01
-4.651865661144256592e-01,1.377822041511535645e+00,-3.896598219871520996e-01
-4.657590389251708984e-01,1.379517793655395508e+00,-3.361487090587615967e-01
-4.662874937057495117e-01,1.381082892417907715e+00,-2.833427488803863525e-01
-4.668968915939331055e-01,1.382887959480285645e+00,-2.311743050813674927e-01
-4.673960506916046143e-01,1.384366273880004883e+00,-1.794051229953765869e-01
-4.679659307003021240e-01,1.386054277420043945e+00,-1.279888302087783813e-01
-4.685245156288146973e-01,1.387708663940429688e+00,-7.675985246896743774e-02
-4.690787196159362793e-01,1.389350175857543945e+00,-2.559606730937957764e-02
-4.696297645568847656e-01,1.390982389450073242e+00,2.562613785266876221e-02
-4.701736569404602051e-01,1.392593145370483398e+00,7.703003287315368652e-02
-4.707942605018615723e-01,1.394431352615356445e+00,1.287623792886734009e-01
-4.713154137134552002e-01,1.395974993705749512e+00,1.809095293283462524e-01
-4.719296693801879883e-01,1.397794365882873535e+00,2.336661815643310547e-01
-4.725157618522644043e-01,1.399530291557312012e+00,2.871273756027221680e-01
-4.730410873889923096e-01,1.401086211204528809e+00,3.414042890071868896e-01
-4.905113279819488525e-01,1.387008190155029297e+00,-3.942029178142547607e-01
-4.911208748817443848e-01,1.388731837272644043e+00,-3.400720059871673584e-01
-4.918152391910552979e-01,1.390695214271545410e+00,-2.867296636104583740e-01
-4.923443496227264404e-01,1.392191410064697266e+00,-2.338836342096328735e-01
-4.929602146148681641e-01,1.393932819366455078e+00,-1.815406978130340576e-01
-4.935542643070220947e-01,1.395612597465515137e+00,-1.295105218887329102e-01
-4.941397607326507568e-01,1.397268176078796387e+00,-7.767190039157867432e-02
-4.947239160537719727e-01,1.398920059204101562e+00,-2.590017952024936676e-02
-4.953083097934722900e-01,1.400572419166564941e+00,2.593077160418033600e-02
-4.958884119987487793e-01,1.402212858200073242e+00,7.794675976037979126e-02
-4.964540302753448486e-01,1.403812289237976074e+00,1.302714347839355469e-01
-4.971159994602203369e-01,1.405683994293212891e+00,1.830711364746093750e-01
-4.976263344287872314e-01,1.407127141952514648e+00,2.363927960395812988e-01
-4.982376992702484131e-01,1.408855915069580078e+00,2.904739677906036377e-01
-4.989954233169555664e-01,1.410998463630676270e+00,3.455246388912200928e-01
-5.159448981285095215e-01,1.395076990127563477e+00,-3.985542356967926025e-01
-5.165686607360839844e-01,1.396763563156127930e+00,-3.438141942024230957e-01
-5.172845721244812012e-01,1.398699402809143066e+00,-2.898767888545989990e-01
-5.178288817405700684e-01,1.400171160697937012e+00,-2.364451885223388672e-01
-5.184676051139831543e-01,1.401898145675659180e+00,-1.835257709026336670e-01
-5.190862417221069336e-01,1.403571009635925293e+00,-1.309251189231872559e-01
-5.196988582611083984e-01,1.405227541923522949e+00,-7.851980626583099365e-02
-5.203130245208740234e-01,1.406888127326965332e+00,-2.618290670216083527e-02
-5.209302902221679688e-01,1.408557176589965820e+00,2.621396817266941071e-02
-5.215460062026977539e-01,1.410221934318542480e+00,7.879888266324996948e-02
-5.221494436264038086e-01,1.411853671073913574e+00,1.316977292299270630e-01
-5.228574275970458984e-01,1.413768053054809570e+00,1.850796788930892944e-01
-5.234082341194152832e-01,1.415257334709167480e+00,2.389927655458450317e-01
-5.240684747695922852e-01,1.417042493820190430e+00,2.936783730983734131e-01
-5.246677994728088379e-01,1.418663144111633301e+00,3.492047786712646484e-01
-5.427355766296386719e-01,1.405357718467712402e+00,-4.036692678928375244e-01
-5.433723926544189453e-01,1.407006740570068359e+00,-3.482143282890319824e-01
-5.439680218696594238e-01,1.408549070358276367e+00,-2.935017049312591553e-01
-5.446687936782836914e-01,1.410363674163818359e+00,-2.394583523273468018e-01
-5.453306436538696289e-01,1.412077307701110840e+00,-1.858611553907394409e-01
-5.459746122360229492e-01,1.413744926452636719e+00,-1.325895339250564575e-01
-5.466154217720031738e-01,1.415404200553894043e+00,-7.951748371124267578e-02
-5.472610592842102051e-01,1.417075991630554199e+00,-2.651557140052318573e-02
-5.479132533073425293e-01,1.418764829635620117e+00,2.654717303812503815e-02
-5.485670566558837891e-01,1.420457720756530762e+00,7.980138808488845825e-02
-5.492110848426818848e-01,1.422125339508056641e+00,1.333754956722259521e-01
-5.498275160789489746e-01,1.423721551895141602e+00,1.873937845230102539e-01
-5.505633950233459473e-01,1.425626993179321289e+00,2.420498430728912354e-01
-5.512767434120178223e-01,1.427474141120910645e+00,2.974451482295989990e-01
-5.519285798072814941e-01,1.429162144660949707e+00,3.536974787712097168e-01
-5.700538158416748047e-01,1.415473937988281250e+00,-4.088768362998962402e-01
-5.709150433540344238e-01,1.417612433433532715e+00,-3.528253436088562012e-01
-5.715250372886657715e-01,1.419127106666564941e+00,-2.973800003528594971e-01
-5.722488760948181152e-01,1.420924544334411621e+00,-2.426172643899917603e-01
-5.729347467422485352e-01,1.422627449035644531e+00,-1.883098930120468140e-01
-5.736048221588134766e-01,1.424291372299194336e+00,-1.343348920345306396e-01
-5.742745399475097656e-01,1.425954222679138184e+00,-8.056372404098510742e-02
-5.749524831771850586e-01,1.427637577056884766e+00,-2.686442993581295013e-02
-5.756404995918273926e-01,1.429345965385437012e+00,2.689657732844352722e-02
-5.763332843780517578e-01,1.431066274642944336e+00,8.085253834724426270e-02
-5.770187377929687500e-01,1.432768344879150391e+00,1.351344138383865356e-01
-5.776781439781188965e-01,1.434405684471130371e+00,1.898689419031143188e-01
-5.784666538238525391e-01,1.436363577842712402e+00,2.452534288167953491e-01
-5.790224671363830566e-01,1.437743663787841797e+00,3.012811243534088135e-01
-5.799398422241210938e-01,1.440021514892578125e+00,3.584026694297790527e-01
-5.974357128143310547e-01,1.424292325973510742e+00,-4.138519167900085449e-01
-5.981339216232299805e-01,1.425957083702087402e+00,-3.569964468479156494e-01
-5.989491343498229980e-01,1.427900433540344238e+00,-3.009841144084930420e-01
-5.996972322463989258e-01,1.429683923721313477e+00,-2.455533891916275024e-01
-6.004078388214111328e-01,1.431378006935119629e+00,-1.905862092971801758e-01
-6.011043787002563477e-01,1.433038592338562012e+00,-1.359574645757675171e-01
-6.018031835556030273e-01,1.434704542160034180e+00,-8.153641223907470703e-02
-6.025133728981018066e-01,1.436397671699523926e+00,-2.718876861035823822e-02
-6.032366752624511719e-01,1.438122034072875977e+00,2.722140774130821228e-02
-6.039677262306213379e-01,1.439864754676818848e+00,8.182968199253082275e-02
-6.046935319900512695e-01,1.441595196723937988e+00,1.367692649364471436e-01
-6.053945422172546387e-01,1.443266391754150391e+00,1.921691298484802246e-01
-6.060442924499511719e-01,1.444815397262573242e+00,2.481522709131240845e-01
-6.068307757377624512e-01,1.446690320968627930e+00,3.049447834491729736e-01
-6.075562238693237305e-01,1.448419809341430664e+00,3.626201450824737549e-01
-6.264903545379638672e-01,1.435603976249694824e+00,-4.197012782096862793e-01
-6.272060275077819824e-01,1.437243938446044922e+00,-3.620326817035675049e-01
-6.280471682548522949e-01,1.439171433448791504e+00,-3.052235245704650879e-01
-6.288203001022338867e-01,1.440943121910095215e+00,-2.490075677633285522e-01
-6.295567154884338379e-01,1.442630529403686523e+00,-1.932644993066787720e-01
-6.302812099456787109e-01,1.444290757179260254e+00,-1.378667801618576050e-01
-6.310107111930847168e-01,1.445962309837341309e+00,-8.268104493618011475e-02
-6.317549347877502441e-01,1.447667717933654785e+00,-2.757043205201625824e-02
-6.325157880783081055e-01,1.449411273002624512e+00,2.760363742709159851e-02
-6.332874894142150879e-01,1.451179623603820801e+00,8.297937363386154175e-02
-6.340564489364624023e-01,1.452941775321960449e+00,1.386925727128982544e-01
-6.348021030426025391e-01,1.454650402069091797e+00,1.948747634887695312e-01
-6.354963183403015137e-01,1.456241130828857422e+00,2.516511976718902588e-01
-6.363372206687927246e-01,1.458168148994445801e+00,3.092524111270904541e-01
-6.371162533760070801e-01,1.459953188896179199e+00,3.677529990673065186e-01
-6.553495526313781738e-01,1.444960832595825195e+00,-4.251355528831481934e-01
-6.560842394828796387e-01,1.446580767631530762e+00,-3.667125105857849121e-01
-6.569529771804809570e-01,1.448496103286743164e+00,-3.091637194156646729e-01
-6.576170325279235840e-01,1.449960350990295410e+00,-2.521666288375854492e-01
-6.585155129432678223e-01,1.451941370964050293e+00,-1.957545131444931030e-01
-6.592683196067810059e-01,1.453601241111755371e+00,-1.396419852972030640e-01
-6.600285768508911133e-01,1.455277562141418457e+00,-8.374531567096710205e-02
-6.608066558837890625e-01,1.456993103027343750e+00,-2.792530320584774017e-02
-6.616044640541076660e-01,1.458752036094665527e+00,2.795901708304882050e-02
-6.624158620834350586e-01,1.460541129112243652e+00,8.404821902513504028e-02
-6.630929708480834961e-01,1.462034106254577637e+00,1.404521018266677856e-01
-6.640152931213378906e-01,1.464067697525024414e+00,1.973894089460372925e-01
-6.647520661354064941e-01,1.465692162513732910e+00,2.549025714397430420e-01
-6.656448841094970703e-01,1.467660665512084961e+00,3.132541775703430176e-01
-6.664748191833496094e-01,1.469490528106689453e+00,3.725202083587646484e-01
-6.861236095428466797e-01,1.457010626792907715e+00,-4.315261244773864746e-01
-6.868787407875061035e-01,1.458614110946655273e+00,-3.722172081470489502e-01
-6.877764463424682617e-01,1.460520505905151367e+00,-3.137992322444915771e-01
-6.884617209434509277e-01,1.461975693702697754e+00,-2.559438049793243408e-01
-6.892929673194885254e-01,1.463740825653076172e+00,-1.986551731824874878e-01
-6.901783347129821777e-01,1.465620994567871094e+00,-1.417311728000640869e-01
-6.909714937210083008e-01,1.467305302619934082e+00,-8.499789983034133911e-02
-6.917855143547058105e-01,1.469033837318420410e+00,-2.834296040236949921e-02
-6.926227211952209473e-01,1.470811605453491211e+00,2.837726101279258728e-02
-6.933761239051818848e-01,1.472411513328552246e+00,8.529369533061981201e-02
-6.941913366317749023e-01,1.474142789840698242e+00,1.425552666187286377e-01
-6.951661705970764160e-01,1.476212739944458008e+00,2.003478407859802246e-01
-6.959483027458190918e-01,1.477873682975769043e+00,2.587270140647888184e-01
-6.968963146209716797e-01,1.479886889457702637e+00,3.179601728916168213e-01
-6.977804899215698242e-01,1.481764435768127441e+00,3.781248331069946289e-01
-7.176117300987243652e-01,1.468956232070922852e+00,-4.380613267421722412e-01
-7.186565399169921875e-01,1.471094846725463867e+00,-3.779883384704589844e-01
-7.193962931632995605e-01,1.472609162330627441e+00,-3.185762465000152588e-01
-7.202935814857482910e-01,1.474445939064025879e+00,-2.599052190780639648e-01
-7.211568951606750488e-01,1.476213097572326660e+00,-2.017281204462051392e-01
-7.220787405967712402e-01,1.478100180625915527e+00,-1.439227014780044556e-01
-7.229059338569641113e-01,1.479793429374694824e+00,-8.631186932325363159e-02
-7.237570881843566895e-01,1.481535792350769043e+00,-2.878109179437160492e-02
-7.246344685554504395e-01,1.483331799507141113e+00,2.881598286330699921e-02
-7.254261970520019531e-01,1.484952330589294434e+00,8.661276847124099731e-02
-7.262847423553466797e-01,1.486709833145141602e+00,1.447610259056091309e-01
-7.271240353584289551e-01,1.488427877426147461e+00,2.033973187208175659e-01
-7.281401753425598145e-01,1.490507841110229492e+00,2.627365291118621826e-01
-7.288751602172851562e-01,1.492012500762939453e+00,3.227738738059997559e-01
-7.297752499580383301e-01,1.493854999542236328e+00,3.838364183902740479e-01
-7.490532994270324707e-01,1.479253888130187988e+00,-4.442840516567230225e-01
-7.501347064971923828e-01,1.481389522552490234e+00,-3.833530545234680176e-01
-7.508987188339233398e-01,1.482898354530334473e+00,-3.230942189693450928e-01
-7.518288493156433105e-01,1.484735131263732910e+00,-2.635888755321502686e-01
-7.527247667312622070e-01,1.486504554748535156e+00,-2.045858353376388550e-01
-7.536836862564086914e-01,1.488398194313049316e+00,-1.459608823060989380e-01
-7.545450925827026367e-01,1.490099310874938965e+00,-8.753395080566406250e-02
-7.554330825805664062e-01,1.491852879524230957e+00,-2.918858453631401062e-02
-7.563499212265014648e-01,1.493663549423217773e+00,2.922401018440723419e-02
-7.571787238121032715e-01,1.495300292968750000e+00,8.783947676420211792e-02
-7.580789923667907715e-01,1.497078180313110352e+00,1.468120962381362915e-01
-7.589606046676635742e-01,1.498819231986999512e+00,2.062806934118270874e-01
-7.600284218788146973e-01,1.500927925109863281e+00,2.664636075496673584e-01
-7.608038783073425293e-01,1.502459406852722168e+00,3.273561894893646240e-01
-7.617532610893249512e-01,1.504334330558776855e+00,3.892906606197357178e-01
-7.828383445739746094e-01,1.492578387260437012e+00,-4.516050815582275391e-01
-7.839602231979370117e-01,1.494717359542846680e+00,-3.896659016609191895e-01
-7.847509980201721191e-01,1.496224999427795410e+00,-3.284115493297576904e-01
-7.857171297073364258e-01,1.498067140579223633e+00,-2.679248750209808350e-01
-7.866487503051757812e-01,1.499843358993530273e+00,-2.079499959945678711e-01
-7.876476049423217773e-01,1.501747846603393555e+00,-1.483604162931442261e-01
-7.885458469390869141e-01,1.503460407257080078e+00,-8.897274732589721680e-02
-7.894732356071472168e-01,1.505228519439697266e+00,-2.966833487153053284e-02
-7.904321551322937012e-01,1.507056951522827148e+00,2.970437332987785339e-02
-7.913005948066711426e-01,1.508712649345397949e+00,8.928356319665908813e-02
-7.922449111938476562e-01,1.510513186454772949e+00,1.492263674736022949e-01
-7.931711077690124512e-01,1.512279033660888672e+00,2.096741646528244019e-01
-7.942936420440673828e-01,1.514419198036193848e+00,2.708494067192077637e-01
-7.951112985610961914e-01,1.515978336334228516e+00,3.327472507953643799e-01
-7.961123585700988770e-01,1.517886877059936523e+00,3.957060873508453369e-01
-8.162392377853393555e-01,1.503545761108398438e+00,-4.584114253520965576e-01
-8.174033761024475098e-01,1.505690217018127441e+00,-3.955360651016235352e-01
-8.182228803634643555e-01,1.507199645042419434e+00,-3.333568871021270752e-01
-8.192261457443237305e-01,1.509047746658325195e+00,-2.719580233097076416e-01
-8.201943635940551758e-01,1.510831236839294434e+00,-2.110795080661773682e-01
-8.212333917617797852e-01,1.512745141983032227e+00,-1.505927145481109619e-01
-8.221684098243713379e-01,1.514467597007751465e+00,-9.031130373477935791e-02
-8.231348395347595215e-01,1.516247749328613281e+00,-3.011466376483440399e-02
-8.241351842880249023e-01,1.518090367317199707e+00,3.015126101672649384e-02
-8.250415325164794922e-01,1.519759893417358398e+00,9.062690287828445435e-02
-8.260284066200256348e-01,1.521577715873718262e+00,1.514719873666763306e-01
-8.269970417022705078e-01,1.523362040519714355e+00,2.128302007913589478e-01
-8.281713724136352539e-01,1.525525212287902832e+00,2.749275565147399902e-01
-8.290286064147949219e-01,1.527104258537292480e+00,3.377593159675598145e-01
-8.300776481628417969e-01,1.529036641120910645e+00,4.016690254211425781e-01
-8.506512045860290527e-01,1.514818549156188965e+00,-4.655129015445709229e-01
-8.515889048576354980e-01,1.516488432884216309e+00,-4.015335738658905029e-01
-8.527113795280456543e-01,1.518487215042114258e+00,-3.385182619094848633e-01
-8.537542223930358887e-01,1.520344257354736328e+00,-2.761678695678710938e-01
-8.547608852386474609e-01,1.522136926651000977e+00,-2.143463939428329468e-01
-8.558422923088073730e-01,1.524062752723693848e+00,-1.529231816530227661e-01
-8.568155765533447266e-01,1.525795936584472656e+00,-9.170877933502197266e-02
-8.578220605850219727e-01,1.527588248252868652e+00,-3.058063425123691559e-02
-8.588644862174987793e-01,1.529444575309753418e+00,3.061779588460922241e-02
-8.598095774650573730e-01,1.531127572059631348e+00,9.202924370765686035e-02
-8.608390688896179199e-01,1.532960772514343262e+00,1.538159996271133423e-01
-8.618500828742980957e-01,1.534761190414428711e+00,2.161241322755813599e-01
-8.628044128417968750e-01,1.536460757255554199e+00,2.790953814983367920e-01
-8.639719486236572266e-01,1.538539886474609375e+00,3.429886102676391602e-01
-8.650684952735900879e-01,1.540492534637451172e+00,4.078893363475799561e-01
-8.879081606864929199e-01,1.529471039772033691e+00,-4.738727211952209473e-01
-8.888852596282958984e-01,1.531154155731201172e+00,-4.087436497211456299e-01
-8.900550007820129395e-01,1.533169031143188477e+00,-3.445960879325866699e-01
-8.911424279212951660e-01,1.535042166709899902e+00,-2.811259031295776367e-01
-8.921918869018554688e-01,1.536849975585937500e+00,-2.181942313909530640e-01
-8.933196663856506348e-01,1.538792610168457031e+00,-1.556682139635086060e-01
-8.943346142768859863e-01,1.540540933609008789e+00,-9.335488080978393555e-02
-8.953844904899597168e-01,1.542349338531494141e+00,-3.112950921058654785e-02
-8.964719772338867188e-01,1.544222593307495117e+00,3.116731718182563782e-02
-8.974581360816955566e-01,1.545921444892883301e+00,9.368093311786651611e-02
-8.985324501991271973e-01,1.547771930694580078e+00,1.565765738487243652e-01
-8.995876312255859375e-01,1.549589514732360840e+00,2.200029343366622925e-01
-9.005838632583618164e-01,1.551305651664733887e+00,2.841043770313262939e-01
-9.018027782440185547e-01,1.553405165672302246e+00,3.491443693637847900e-01
-9.029476046562194824e-01,1.555377244949340820e+00,4.152100682258605957e-01
-9.246369004249572754e-01,1.541496753692626953e+00,-4.816498160362243652e-01
-9.256553649902343750e-01,1.543194770812988281e+00,-4.154523015022277832e-01
-9.268742799758911133e-01,1.545226812362670898e+00,-3.502521812915802002e-01
-9.280070066452026367e-01,1.547115206718444824e+00,-2.857403159141540527e-01
-9.291000366210937500e-01,1.548937439918518066e+00,-2.217757254838943481e-01
-9.302744269371032715e-01,1.550895333290100098e+00,-1.582233607769012451e-01
-9.313310384750366211e-01,1.552656888961791992e+00,-9.488718956708908081e-02
-9.324235320091247559e-01,1.554478168487548828e+00,-3.164043650031089783e-02
-9.335550069808959961e-01,1.556364536285400391e+00,3.167882934212684631e-02
-9.345808029174804688e-01,1.558074593544006348e+00,9.521828591823577881e-02
-9.356979131698608398e-01,1.559937000274658203e+00,1.591458022594451904e-01
-9.367949366569519043e-01,1.561765909194946289e+00,2.236124873161315918e-01
-9.378303885459899902e-01,1.563492178916931152e+00,2.887650132179260254e-01
-9.390971064567565918e-01,1.565603971481323242e+00,3.548710048198699951e-01
-9.402866363525390625e-01,1.567587137222290039e+00,4.220190942287445068e-01
-9.646060466766357422e-01,1.557166218757629395e+00,-4.908095598220825195e-01
-9.659806489944458008e-01,1.559385180473327637e+00,-4.234899580478668213e-01
-9.669474363327026367e-01,1.560945868492126465e+00,-3.569157421588897705e-01
-9.681315422058105469e-01,1.562857270240783691e+00,-2.911772727966308594e-01
-9.692736268043518066e-01,1.564700961112976074e+00,-2.259960025548934937e-01
-9.704995155334472656e-01,1.566679954528808594e+00,-1.612343937158584595e-01
-9.716019034385681152e-01,1.568459630012512207e+00,-9.669292718172073364e-02
-9.727408289909362793e-01,1.570298194885253906e+00,-3.224253654479980469e-02
-9.739195108413696289e-01,1.572200894355773926e+00,3.228160366415977478e-02
