9.843349456787109375e-01,-1.563894033432006836e+00,-3.225490823388099670e-02
9.855543971061706543e-01,-1.565831542015075684e+00,3.229486942291259766e-02
9.867790937423706055e-01,-1.567777276039123535e+00,9.708388894796371460e-02
9.879884719848632812e-01,-1.569698691368103027e+00,1.622688323259353638e-01
9.891500473022460938e-01,-1.571544170379638672e+00,2.280013263225555420e-01
9.903885126113891602e-01,-1.573511838912963867e+00,2.944757640361785889e-01
9.917352795600891113e-01,-1.575651645660400391e+00,3.618924021720886230e-01
9.929830431938171387e-01,-1.577633976936340332e+00,4.303654134273529053e-01
1.006701827049255371e+00,-1.549777269363403320e+00,-4.951805174350738525e-01
1.008111000061035156e+00,-1.551946640014648438e+00,-4.272506237030029297e-01
1.009244918823242188e+00,-1.553692340850830078e+00,-3.601298630237579346e-01
1.010598659515380859e+00,-1.555776357650756836e+00,-2.938336431980133057e-01
1.011874198913574219e+00,-1.557739973068237305e+00,-2.280765175819396973e-01
1.013061761856079102e+00,-1.559568166732788086e+00,-1.627039015293121338e-01
1.014317631721496582e+00,-1.561501502990722656e+00,-9.758430719375610352e-02
1.015560388565063477e+00,-1.563414812088012695e+00,-3.254149481654167175e-02
1.016792416572570801e+00,-1.565311312675476074e+00,3.258097171783447266e-02
1.018103241920471191e+00,-1.567329287528991699e+00,9.794851392507553101e-02
1.019339323043823242e+00,-1.569232344627380371e+00,1.637121289968490601e-01
1.020517468452453613e+00,-1.571045875549316406e+00,2.300246953964233398e-01
1.021946310997009277e+00,-1.573245644569396973e+00,2.971329987049102783e-01
1.023131489753723145e+00,-1.575070142745971680e+00,3.650850057601928711e-01
1.024385809898376465e+00,-1.577000975608825684e+00,4.341480731964111328e-01
1.038393616676330566e+00,-1.549558043479919434e+00,-4.998082518577575684e-01
1.039680600166320801e+00,-1.551478624343872070e+00,-4.311744570732116699e-01
1.041036963462829590e+00,-1.553502678871154785e+00,-3.635025024414062500e-01
1.042313694953918457e+00,-1.555407881736755371e+00,-2.965513765811920166e-01
1.043563961982727051e+00,-1.557273626327514648e+00,-2.301716506481170654e-01
1.044880032539367676e+00,-1.559237599372863770e+00,-1.642128825187683105e-01
1.046171188354492188e+00,-1.561164259910583496e+00,-9.848895668983459473e-02
1.047452807426452637e+00,-1.563076734542846680e+00,-3.284316137433052063e-02
1.048728227615356445e+00,-1.564980030059814453e+00,3.288315236568450928e-02
1.049987912178039551e+00,-1.566859722137451172e+00,9.884826093912124634e-02
1.051329016685485840e+00,-1.568861126899719238e+00,1.652263998985290527e-01
1.052665710449218750e+00,-1.570855736732482910e+00,2.321791499853134155e-01
1.053950071334838867e+00,-1.572772383689880371e+00,2.998620867729187012e-01
1.055341362953186035e+00,-1.574848532676696777e+00,3.684972226619720459e-01
1.056612491607666016e+00,-1.576745390892028809e+00,4.381963908672332764e-01
1.070707678794860840e+00,-1.549360036849975586e+00,-5.046359300613403320e-01
1.072064518928527832e+00,-1.551323533058166504e+00,-4.353512823581695557e-01
1.073324441909790039e+00,-1.553146719932556152e+00,-3.669764101505279541e-01
1.074681639671325684e+00,-1.555110692977905273e+00,-2.993968427181243896e-01
1.076087594032287598e+00,-1.557144999504089355e+00,-2.324054092168807983e-01
1.077368974685668945e+00,-1.558999300003051758e+00,-1.657948642969131470e-01
1.078698277473449707e+00,-1.560922861099243164e+00,-9.943759441375732422e-02
1.080019950866699219e+00,-1.562835335731506348e+00,-3.315950930118560791e-02
1.081336975097656250e+00,-1.564741134643554688e+00,3.319994360208511353e-02
1.082712292671203613e+00,-1.566731333732604980e+00,9.980762004852294922e-02
1.083977460861206055e+00,-1.568562150001525879e+00,1.668118536472320557e-01
1.085313558578491211e+00,-1.570495486259460449e+00,2.343979626893997192e-01
1.086778879165649414e+00,-1.572615861892700195e+00,3.027670085430145264e-01
1.088183403015136719e+00,-1.574648380279541016e+00,3.720567822456359863e-01
1.089452028274536133e+00,-1.576484084129333496e+00,4.424121677875518799e-01
1.103652954101562500e+00,-1.549149990081787109e+00,-5.096605420112609863e-01
1.105099678039550781e+00,-1.551180601119995117e+00,-4.397051632404327393e-01
1.106430649757385254e+00,-1.553048968315124512e+00,-3.706572651863098145e-01
1.107848763465881348e+00,-1.555039405822753906e+00,-3.024050295352935791e-01
1.109205484390258789e+00,-1.556943893432617188e+00,-2.347209304571151733e-01
1.110545039176940918e+00,-1.558824062347412109e+00,-1.674495488405227661e-01
1.111897230148315430e+00,-1.560722112655639648e+00,-1.004283800721168518e-01
1.113259553909301758e+00,-1.562634468078613281e+00,-3.348990902304649353e-02
1.114635229110717773e+00,-1.564565300941467285e+00,3.353128954768180847e-02
1.116034388542175293e+00,-1.566529154777526855e+00,1.008020490407943726e-01
1.117431879043579102e+00,-1.568490862846374512e+00,1.684879660606384277e-01
1.118790745735168457e+00,-1.570398211479187012e+00,2.367492765188217163e-01
1.120268344879150391e+00,-1.572472214698791504e+00,3.057951331138610840e-01
1.121667504310607910e+00,-1.574436306953430176e+00,3.757616281509399414e-01
1.123187303543090820e+00,-1.576569557189941406e+00,4.469020068645477295e-01
1.136704683303833008e+00,-1.548168540000915527e+00,-5.146377086639404297e-01
1.138275742530822754e+00,-1.550308227539062500e+00,-4.440307617187500000e-01
1.139706134796142578e+00,-1.552256464958190918e+00,-3.743231296539306641e-01
1.141068339347839355e+00,-1.554111838340759277e+00,-3.053695261478424072e-01
1.142520666122436523e+00,-1.556089758872985840e+00,-2.370332777500152588e-01
1.143930912017822266e+00,-1.558010458946228027e+00,-1.691036969423294067e-01
1.145328998565673828e+00,-1.559914708137512207e+00,-1.014209240674972534e-01
1.146732568740844727e+00,-1.561826229095458984e+00,-3.382089734077453613e-02
1.148144483566284180e+00,-1.563749432563781738e+00,3.386254236102104187e-02
1.149555087089538574e+00,-1.565670490264892578e+00,1.017951443791389465e-01
1.150939464569091797e+00,-1.567555904388427734e+00,1.701397448778152466e-01
1.152437925338745117e+00,-1.569596886634826660e+00,2.390907704830169678e-01
1.153899908065795898e+00,-1.571588039398193359e+00,3.088034391403198242e-01
1.155259370803833008e+00,-1.573439598083496094e+00,3.794313967227935791e-01
1.156726956367492676e+00,-1.575438499450683594e+00,4.512284398078918457e-01
1.171124815940856934e+00,-1.548105359077453613e+00,-5.201357007026672363e-01
1.172571182250976562e+00,-1.550017356872558594e+00,-4.487085640430450439e-01
1.174111604690551758e+00,-1.552053570747375488e+00,-3.782880902290344238e-01
1.175557613372802734e+00,-1.553965210914611816e+00,-3.086153268814086914e-01
1.176969170570373535e+00,-1.555831074714660645e+00,-2.395355105400085449e-01
1.178455114364624023e+00,-1.557795405387878418e+00,-1.708936393260955811e-01
1.179901719093322754e+00,-1.559707522392272949e+00,-1.024949923157691956e-01
1.181347608566284180e+00,-1.561618924140930176e+00,-3.417906910181045532e-02
1.182795882225036621e+00,-1.563533306121826172e+00,3.422097116708755493e-02
1.184215307235717773e+00,-1.565409660339355469e+00,1.028697043657302856e-01
1.185727477073669434e+00,-1.567408680915832520e+00,1.719482392072677612e-01
1.187228441238403320e+00,-1.569392800331115723e+00,2.416234612464904785e-01
1.188667058944702148e+00,-1.571294426918029785e+00,3.120568990707397461e-01
1.190242052078247070e+00,-1.573376536369323730e+00,3.834851980209350586e-01
1.191683292388916016e+00,-1.575281620025634766e+00,4.560222029685974121e-01
1.206182956695556641e+00,-1.547896504402160645e+00,-5.258122682571411133e-01
1.207741618156433105e+00,-1.549896717071533203e+00,-4.536314904689788818e-01
1.209179043769836426e+00,-1.551741361618041992e+00,-3.823912441730499268e-01
1.210726022720336914e+00,-1.553726434707641602e+00,-3.119776248931884766e-01
1.212207078933715820e+00,-1.555627107620239258e+00,-2.421506494283676147e-01
1.213670372962951660e+00,-1.557505130767822266e+00,-1.727498173713684082e-01
1.215148568153381348e+00,-1.559401988983154297e+00,-1.036072671413421631e-01
1.216637372970581055e+00,-1.561312556266784668e+00,-3.454997017979621887e-02
1.218140959739685059e+00,-1.563242077827453613e+00,3.459266945719718933e-02
1.219670772552490234e+00,-1.565205454826354980e+00,1.039928421378135681e-01
1.221200585365295410e+00,-1.567168593406677246e+00,1.738216578960418701e-01
1.222688913345336914e+00,-1.569078564643859863e+00,2.442445158958435059e-01
1.224321603775024414e+00,-1.571173906326293945e+00,3.154809176921844482e-01
1.225873589515686035e+00,-1.573165416717529297e+00,3.876707255840301514e-01
1.227261543273925781e+00,-1.574946522712707520e+00,4.609631896018981934e-01
1.241855859756469727e+00,-1.547475576400756836e+00,-5.316529273986816406e-01
1.243306398391723633e+00,-1.549282908439636230e+00,-4.586135149002075195e-01
1.244889616966247559e+00,-1.551255822181701660e+00,-3.866229951381683350e-01
1.246555805206298828e+00,-1.553332090377807617e+00,-3.154487907886505127e-01
1.248005390167236328e+00,-1.555138349533081055e+00,-2.448301017284393311e-01
1.249560952186584473e+00,-1.557076811790466309e+00,-1.746681928634643555e-01
1.251096010208129883e+00,-1.558989644050598145e+00,-1.047589182853698730e-01
1.252629280090332031e+00,-1.560900211334228516e+00,-3.493402525782585144e-02
1.254164218902587891e+00,-1.562812924385070801e+00,3.497683256864547729e-02
1.255689978599548340e+00,-1.564714074134826660e+00,1.051435843110084534e-01
1.257341265678405762e+00,-1.566771864891052246e+00,1.757557541131973267e-01
1.258798599243164062e+00,-1.568587779998779297e+00,2.469474971294403076e-01
1.260374903678894043e+00,-1.570551991462707520e+00,3.189457654953002930e-01
1.262129783630371094e+00,-1.572738885879516602e+00,3.919772803783416748e-01
1.263768434524536133e+00,-1.574780702590942383e+00,4.661612510681152344e-01
1.278108954429626465e+00,-1.546768188476562500e+00,-5.376400351524353027e-01
1.279713630676269531e+00,-1.548710107803344727e+00,-4.638185799121856689e-01
1.281424522399902344e+00,-1.550780653953552246e+00,-3.910358548164367676e-01
1.283017992973327637e+00,-1.552708983421325684e+00,-3.190189898014068604e-01
1.284559249877929688e+00,-1.554574251174926758e+00,-2.476105690002441406e-01
1.286099314689636230e+00,-1.556437969207763672e+00,-1.766434609889984131e-01
1.287696480751037598e+00,-1.558370947837829590e+00,-1.059450209140777588e-01
1.289275050163269043e+00,-1.560281276702880859e+00,-3.532956540584564209e-02
1.290836691856384277e+00,-1.562171339988708496e+00,3.537236154079437256e-02
1.292469263076782227e+00,-1.564146995544433594e+00,1.063376963138580322e-01
1.294119477272033691e+00,-1.566144108772277832e+00,1.777450293302536011e-01
1.295742869377136230e+00,-1.568108677864074707e+00,2.497663199901580811e-01
1.297283172607421875e+00,-1.569972753524780273e+00,3.225659728050231934e-01
1.298975229263305664e+00,-1.572020530700683594e+00,3.963915705680847168e-01
1.300512552261352539e+00,-1.573881030082702637e+00,4.713569581508636475e-01
1.315723061561584473e+00,-1.546664595603942871e+00,-5.440943241119384766e-01
1.317499756813049316e+00,-1.548753142356872559e+00,-4.694311022758483887e-01
1.319126725196838379e+00,-1.550665736198425293e+00,-3.957273364067077637e-01
1.320864200592041016e+00,-1.552708148956298828e+00,-3.228701651096343994e-01
1.322379350662231445e+00,-1.554489254951477051e+00,-2.505861520767211914e-01
1.324026703834533691e+00,-1.556425690650939941e+00,-1.787745803594589233e-01
1.325665593147277832e+00,-1.558352351188659668e+00,-1.072227656841278076e-01
1.327290415763854980e+00,-1.560262322425842285e+00,-3.575564920902252197e-02
1.328904509544372559e+00,-1.562159776687622070e+00,3.579913452267646790e-02
1.330522179603576660e+00,-1.564061403274536133e+00,1.076155826449394226e-01
1.332293510437011719e+00,-1.566143512725830078e+00,1.798907965421676636e-01
1.333867192268371582e+00,-1.567993402481079102e+00,2.527630627155303955e-01
1.335588812828063965e+00,-1.570017218589782715e+00,3.264694213867187500e-01
1.337205171585083008e+00,-1.571917414665222168e+00,4.011507034301757812e-01
1.338991403579711914e+00,-1.574017167091369629e+00,4.770886898040771484e-01
1.353377461433410645e+00,-1.545551657676696777e+00,-5.504609942436218262e-01
1.355042934417724609e+00,-1.547453522682189941e+00,-4.748673439025878906e-01
1.356838345527648926e+00,-1.549503922462463379e+00,-4.003460407257080078e-01
1.358518481254577637e+00,-1.551422715187072754e+00,-3.266128301620483398e-01
1.360152125358581543e+00,-1.553288221359252930e+00,-2.535049319267272949e-01
1.361872673034667969e+00,-1.555253148078918457e+00,-1.808603852987289429e-01
1.363505125045776367e+00,-1.557117342948913574e+00,-1.084695160388946533e-01
1.365176200866699219e+00,-1.559025645256042480e+00,-3.617140278220176697e-02
1.366890311241149902e+00,-1.560983180999755859e+00,3.621681779623031616e-02
1.368528246879577637e+00,-1.562853693962097168e+00,1.088691204786300659e-01
1.370274424552917480e+00,-1.564847826957702637e+00,1.819761693477630615e-01
1.372001171112060547e+00,-1.566819787025451660e+00,2.557133436203002930e-01
1.373648047447204590e+00,-1.568700551986694336e+00,3.302502334117889404e-01
1.375475406646728516e+00,-1.570787310600280762e+00,4.058450758457183838e-01
1.377150297164916992e+00,-1.572700142860412598e+00,4.826147854328155518e-01
1.393081307411193848e+00,-1.545687794685363770e+00,-5.575541257858276367e-01
1.394955873489379883e+00,-1.547767639160156250e+00,-4.810416102409362793e-01
1.396679043769836426e+00,-1.549679636955261230e+00,-4.055150747299194336e-01
1.398531317710876465e+00,-1.551734805107116699e+00,-3.308588862419128418e-01
1.400285840034484863e+00,-1.553681492805480957e+00,-2.568139433860778809e-01
1.401997685432434082e+00,-1.555580854415893555e+00,-1.832133829593658447e-01
1.403702855110168457e+00,-1.557472825050354004e+00,-1.098826304078102112e-01
1.405423402786254883e+00,-1.559381842613220215e+00,-3.664264082908630371e-02
1.407163023948669434e+00,-1.561311960220336914e+00,3.668799623847007751e-02
1.408910036087036133e+00,-1.563250422477722168e+00,1.102902591228485107e-01
1.410634517669677734e+00,-1.565163731575012207e+00,1.843420416116714478e-01
1.412287473678588867e+00,-1.566997766494750977e+00,2.590150237083435059e-01
1.414110898971557617e+00,-1.569020986557006836e+00,3.345446288585662842e-01
1.415828466415405273e+00,-1.570926785469055176e+00,4.110749661922454834e-01
1.417745947837829590e+00,-1.573054313659667969e+00,4.889006614685058594e-01
1.432705163955688477e+00,-1.544614553451538086e+00,-5.645063519477844238e-01
1.434790372848510742e+00,-1.546862602233886719e+00,-4.870932400226593018e-01
1.436408162117004395e+00,-1.548606872558593750e+00,-4.105723500251770020e-01
1.438214302062988281e+00,-1.550554037094116211e+00,-3.349620997905731201e-01
1.440116524696350098e+00,-1.552604794502258301e+00,-2.600165307521820068e-01
1.441826820373535156e+00,-1.554448723793029785e+00,-1.854916960000991821e-01
1.443613648414611816e+00,-1.556375145912170410e+00,-1.112516149878501892e-01
1.445383548736572266e+00,-1.558283209800720215e+00,-3.709916770458221436e-02
1.447139739990234375e+00,-1.560176610946655273e+00,3.714424371719360352e-02
1.448986411094665527e+00,-1.562167525291442871e+00,1.116656661033630371e-01
1.450661420822143555e+00,-1.563973426818847656e+00,1.866282671689987183e-01
1.452461600303649902e+00,-1.565914154052734375e+00,2.622454762458801270e-01
1.454493045806884766e+00,-1.568104267120361328e+00,3.387534320354461670e-01
1.456100583076477051e+00,-1.569837331771850586e+00,4.162010848522186279e-01
1.458285093307495117e+00,-1.572192549705505371e+00,4.950694143772125244e-01
1.473891139030456543e+00,-1.544093370437622070e+00,-5.719673633575439453e-01
1.475883841514587402e+00,-1.546181082725524902e+00,-4.934801757335662842e-01
1.477711439132690430e+00,-1.548095703125000000e+00,-4.160019159317016602e-01
1.479676961898803711e+00,-1.550154924392700195e+00,-3.394164144992828369e-01
1.481380224227905273e+00,-1.551939249038696289e+00,-2.634290754795074463e-01
1.483238577842712402e+00,-1.553886175155639648e+00,-1.879387050867080688e-01
1.485082149505615234e+00,-1.555817484855651855e+00,-1.127196550369262695e-01
1.486902236938476562e+00,-1.557724237442016602e+00,-3.758870065212249756e-02
1.488703846931457520e+00,-1.559611678123474121e+00,3.763424605131149292e-02
1.490504741668701172e+00,-1.561498284339904785e+00,1.131312400102615356e-01
1.492483615875244141e+00,-1.563571572303771973e+00,1.891101300716400146e-01
1.494227766990661621e+00,-1.565398693084716797e+00,2.657137215137481689e-01
1.496152043342590332e+00,-1.567414641380310059e+00,3.431955575942993164e-01
1.497960329055786133e+00,-1.569309115409851074e+00,4.217023253440856934e-01
1.499988198280334473e+00,-1.571433424949645996e+00,5.015397071838378906e-01
1.516813278198242188e+00,-1.544193625450134277e+00,-5.799872875213623047e-01
1.519044637680053711e+00,-1.546465277671813965e+00,-5.004590153694152832e-01
1.520764946937561035e+00,-1.548216581344604492e+00,-4.218404889106750488e-01
1.522686123847961426e+00,-1.550172448158264160e+00,-3.441571593284606934e-01
1.524548053741455078e+00,-1.552067995071411133e+00,-2.671276032924652100e-01
1.526504039764404297e+00,-1.554059267044067383e+00,-1.905827820301055908e-01
1.528344631195068359e+00,-1.555933117866516113e+00,-1.143012493848800659e-01
1.530218124389648438e+00,-1.557840466499328613e+00,-3.811612352728843689e-02
1.532129645347595215e+00,-1.559786438941955566e+00,3.816373646259307861e-02
1.533938527107238770e+00,-1.561628103256225586e+00,1.147196069359779358e-01
1.535865426063537598e+00,-1.563589692115783691e+00,1.917515397071838379e-01
1.537763476371765137e+00,-1.565521955490112305e+00,2.694431841373443604e-01
1.539907813072204590e+00,-1.567705035209655762e+00,3.480496108531951904e-01
1.541585326194763184e+00,-1.569412827491760254e+00,4.276157915592193604e-01
1.543892860412597656e+00,-1.571761965751647949e+00,5.086454153060913086e-01
1.560694336891174316e+00,-1.544028520584106445e+00,-5.882553458213806152e-01
1.562440991401672363e+00,-1.545756459236145020e+00,-5.074149966239929199e-01
1.564413309097290039e+00,-1.547707676887512207e+00,-4.277591705322265625e-01
1.566525936126708984e+00,-1.549797892570495605e+00,-3.490163087844848633e-01
1.568339705467224121e+00,-1.551592230796813965e+00,-2.708815932273864746e-01
1.570308327674865723e+00,-1.553539872169494629e+00,-1.932557076215744019e-01
1.572244644165039062e+00,-1.555455446243286133e+00,-1.159074828028678894e-01
1.574172735214233398e+00,-1.557362914085388184e+00,-3.865177556872367859e-02
1.576095938682556152e+00,-1.559265613555908203e+00,3.869899734854698181e-02
1.578001379966735840e+00,-1.561150789260864258e+00,1.163318827748298645e-01
1.580085873603820801e+00,-1.563212990760803223e+00,1.944590061902999878e-01
1.581900954246520996e+00,-1.565008759498596191e+00,2.732238769531250000e-01
1.583900928497314453e+00,-1.566987276077270508e+00,3.528873622417449951e-01
1.586185097694396973e+00,-1.569247007369995117e+00,4.337122738361358643e-01
1.587867140769958496e+00,-1.570911169052124023e+00,5.156723260879516602e-01
1.604587078094482422e+00,-1.542640566825866699e+00,-5.964156985282897949e-01
1.606622934341430664e+00,-1.544597864151000977e+00,-5.145307779312133789e-01
1.608518123626708984e+00,-1.546419858932495117e+00,-4.337220788002014160e-01
1.610612988471984863e+00,-1.548433899879455566e+00,-3.538645505905151367e-01
1.612622261047363281e+00,-1.550365567207336426e+00,-2.746690511703491211e-01
1.614711046218872070e+00,-1.552373766899108887e+00,-1.959656476974487305e-01
1.616649031639099121e+00,-1.554236888885498047e+00,-1.175289452075958252e-01
1.618631005287170410e+00,-1.556142330169677734e+00,-3.919247165322303772e-02
1.620663285255432129e+00,-1.558096170425415039e+00,3.924167901277542114e-02
1.622557044029235840e+00,-1.559916853904724121e+00,1.179584562778472900e-01
1.624555468559265137e+00,-1.561838030815124512e+00,1.971603780984878540e-01
1.626500010490417480e+00,-1.563707590103149414e+00,2.770327925682067871e-01
1.628691196441650391e+00,-1.565814256668090820e+00,3.578364849090576172e-01
1.630796194076538086e+00,-1.567837834358215332e+00,4.397291839122772217e-01
1.632701396942138672e+00,-1.569669604301452637e+00,5.228825807571411133e-01
1.650341868400573730e+00,-1.541790485382080078e+00,-6.051577925682067871e-01
1.652694463729858398e+00,-1.543988347053527832e+00,-5.221544504165649414e-01
1.654823064804077148e+00,-1.545976877212524414e+00,-4.401960074901580811e-01
1.656831741333007812e+00,-1.547853469848632812e+00,-3.591147065162658691e-01
1.658804297447204590e+00,-1.549696326255798340e+00,-2.787283957004547119e-01
1.660916328430175781e+00,-1.551669359207153320e+00,-1.988574266433715820e-01
1.662961244583129883e+00,-1.553579807281494141e+00,-1.192669719457626343e-01
1.665000796318054199e+00,-1.555485248565673828e+00,-3.977207094430923462e-02
1.667038440704345703e+00,-1.557388901710510254e+00,3.982074558734893799e-02
1.669024705886840820e+00,-1.559244394302368164e+00,1.197018325328826904e-01
1.671174526214599609e+00,-1.561252832412719727e+00,2.000856250524520874e-01
1.673323869705200195e+00,-1.563260793685913086e+00,2.811681032180786133e-01
1.675396680831909180e+00,-1.565197348594665527e+00,3.631386160850524902e-01
1.677300572395324707e+00,-1.566975951194763184e+00,4.461752176284790039e-01
1.679439663887023926e+00,-1.568974375724792480e+00,5.306043028831481934e-01
1.698625087738037109e+00,-1.541965603828430176e+00,-6.147065758705139160e-01
1.700858116149902344e+00,-1.543992638587951660e+00,-5.303347110748291016e-01
1.702913045883178711e+00,-1.545858025550842285e+00,-4.470567107200622559e-01
1.705158472061157227e+00,-1.547896265983581543e+00,-3.647498488426208496e-01
1.707093358039855957e+00,-1.549652814865112305e+00,-2.830863296985626221e-01
1.709227800369262695e+00,-1.551590323448181152e+00,-2.019619643688201904e-01
1.711350798606872559e+00,-1.553517699241638184e+00,-1.211302727460861206e-01
1.713449478149414062e+00,-1.555422782897949219e+00,-4.039342328906059265e-02
1.715528726577758789e+00,-1.557310223579406738e+00,4.044244065880775452e-02
1.717610836029052734e+00,-1.559200286865234375e+00,1.215733587741851807e-01
1.719921946525573730e+00,-1.561298251152038574e+00,2.032255977392196655e-01
1.721953034400939941e+00,-1.563142061233520508e+00,2.855505049228668213e-01
1.724223971366882324e+00,-1.565203428268432617e+00,3.688281476497650146e-01
1.726374506950378418e+00,-1.567155718803405762e+00,4.532159268856048584e-01
1.728827953338623047e+00,-1.569382905960083008e+00,5.390558242797851562e-01
1.747320771217346191e+00,-1.541135430335998535e+00,-6.242820620536804199e-01
1.749444365501403809e+00,-1.543008446693420410e+00,-5.385425090789794922e-01
1.751437783241271973e+00,-1.544766664505004883e+00,-4.539444744586944580e-01
1.753683686256408691e+00,-1.546747446060180664e+00,-3.703561127185821533e-01
1.756047844886779785e+00,-1.548832654953002930e+00,-2.874986827373504639e-01
1.758136510848999023e+00,-1.550674915313720703e+00,-2.050973922014236450e-01
1.760266304016113281e+00,-1.552553296089172363e+00,-1.230070143938064575e-01
1.762424349784851074e+00,-1.554456830024719238e+00,-4.101924970746040344e-02
1.764617800712585449e+00,-1.556391358375549316e+00,4.107030108571052551e-02
1.766869306564331055e+00,-1.558377146720886230e+00,1.234684363007545471e-01
1.768867731094360352e+00,-1.560139775276184082e+00,2.063492536544799805e-01
1.771021842956542969e+00,-1.562039732933044434e+00,2.899502217769622803e-01
1.773479700088500977e+00,-1.564207553863525391e+00,3.745368123054504395e-01
1.775868177413940430e+00,-1.566314101219177246e+00,4.602764248847961426e-01
1.778060317039489746e+00,-1.568247675895690918e+00,5.473515391349792480e-01
1.797765493392944336e+00,-1.540448069572448730e+00,-6.343622207641601562e-01
1.800279974937438965e+00,-1.542602539062500000e+00,-5.473384261131286621e-01
1.802566170692443848e+00,-1.544561624526977539e+00,-4.614188373088836670e-01
1.804736495018005371e+00,-1.546421289443969727e+00,-3.764247298240661621e-01
1.807085156440734863e+00,-1.548433780670166016e+00,-2.921959757804870605e-01
1.809203743934631348e+00,-1.550249099731445312e+00,-2.084448039531707764e-01
1.811460256576538086e+00,-1.552182555198669434e+00,-1.250191032886505127e-01
1.813681960105895996e+00,-1.554086446762084961e+00,-4.169024527072906494e-02
1.815873742103576660e+00,-1.555964469909667969e+00,4.174062609672546387e-02
1.818221807479858398e+00,-1.557976484298706055e+00,1.254857629537582397e-01
1.820364356040954590e+00,-1.559812307357788086e+00,2.097306698560714722e-01
1.822723627090454102e+00,-1.561833858489990234e+00,2.947246134281158447e-01
1.825016260147094727e+00,-1.563798308372497559e+00,3.806546032428741455e-01
1.827138662338256836e+00,-1.565616965293884277e+00,4.677088856697082520e-01
1.829555749893188477e+00,-1.567688107490539551e+00,5.562391877174377441e-01
1.848945260047912598e+00,-1.538962602615356445e+00,-6.445827484130859375e-01
1.851378798484802246e+00,-1.540988087654113770e+00,-5.561110973358154297e-01
1.853628158569335938e+00,-1.542860269546508789e+00,-4.687886238098144531e-01
1.856102347373962402e+00,-1.544919729232788086e+00,-3.824869394302368164e-01
1.858444571495056152e+00,-1.546869277954101562e+00,-2.968899905681610107e-01
1.860724806785583496e+00,-1.548767209053039551e+00,-2.118049561977386475e-01
1.862993597984313965e+00,-1.550655603408813477e+00,-1.270308792591094971e-01
1.865278363227844238e+00,-1.552557349205017090e+00,-4.236111044883728027e-02
1.867586255073547363e+00,-1.554478287696838379e+00,4.241352155804634094e-02
1.869897603988647461e+00,-1.556402206420898438e+00,1.275016516447067261e-01
1.872176170349121094e+00,-1.558298707008361816e+00,2.131084501743316650e-01
1.874357938766479492e+00,-1.560114622116088867e+00,2.994321882724761963e-01
1.876818537712097168e+00,-1.562162756919860840e+00,3.867559432983398438e-01
1.879156947135925293e+00,-1.564109086990356445e+00,4.752449393272399902e-01
1.881855368614196777e+00,-1.566355228424072266e+00,5.652655959129333496e-01
1.904937386512756348e+00,-1.539954543113708496e+00,-6.563512682914733887e-01
1.907270789146423340e+00,-1.541840791702270508e+00,-5.662127137184143066e-01
1.909853219985961914e+00,-1.543928503990173340e+00,-4.773703515529632568e-01
1.912259936332702637e+00,-1.545873999595642090e+00,-3.894597887992858887e-01
1.914585113525390625e+00,-1.547753691673278809e+00,-3.022885024547576904e-01
1.916905403137207031e+00,-1.549629449844360352e+00,-2.156530767679214478e-01
1.919315934181213379e+00,-1.551578164100646973e+00,-1.293437331914901733e-01
1.921670675277709961e+00,-1.553481698036193848e+00,-4.313240200281143188e-02
1.923973679542541504e+00,-1.555343508720397949e+00,4.318409040570259094e-02
1.926385760307312012e+00,-1.557293415069580078e+00,1.298201829195022583e-01
1.928821921348571777e+00,-1.559262752532958984e+00,2.169936895370483398e-01
1.931214690208435059e+00,-1.561197161674499512e+00,3.049141168594360352e-01
1.933480143547058105e+00,-1.563028454780578613e+00,3.937816023826599121e-01
1.936070680618286133e+00,-1.565122723579406738e+00,4.839234352111816406e-01
1.938456892967224121e+00,-1.567051768302917480e+00,5.754709839820861816e-01
1.958709836006164551e+00,-1.537596821784973145e+00,-6.672273278236389160e-01
1.961462259292602539e+00,-1.539757370948791504e+00,-5.756987929344177246e-01
1.963953733444213867e+00,-1.541713237762451172e+00,-4.853273630142211914e-01
1.966312408447265625e+00,-1.543564796447753906e+00,-3.959280848503112793e-01
1.968639492988586426e+00,-1.545391559600830078e+00,-3.072990775108337402e-01
1.971148490905761719e+00,-1.547361135482788086e+00,-2.192413210868835449e-01
1.973576188087463379e+00,-1.549266934394836426e+00,-1.314924806356430054e-01
1.975998044013977051e+00,-1.551168084144592285e+00,-4.384895786643028259e-02
1.978417634963989258e+00,-1.553067445755004883e+00,4.390265047550201416e-02
1.980774164199829102e+00,-1.554917335510253906e+00,1.319720596075057983e-01
1.983344316482543945e+00,-1.556934952735900879e+00,2.205978184938430786e-01
1.985922694206237793e+00,-1.558959007263183594e+00,3.099969327449798584e-01
1.988419055938720703e+00,-1.560918688774108887e+00,4.003793895244598389e-01
1.990723967552185059e+00,-1.562728047370910645e+00,4.919427931308746338e-01
1.993365406990051270e+00,-1.564801573753356934e+00,5.850625038146972656e-01
2.017825126647949219e+00,-1.537841081619262695e+00,-6.797968149185180664e-01
2.020506620407104492e+00,-1.539884805679321289e+00,-5.864993929862976074e-01
2.022973775863647461e+00,-1.541764974594116211e+00,-4.944082498550415039e-01
2.025689840316772461e+00,-1.543835043907165527e+00,-4.033932685852050781e-01
2.028245925903320312e+00,-1.545783042907714844e+00,-3.131176531314849854e-01
2.030576705932617188e+00,-1.547559380531311035e+00,-2.233646064996719360e-01
2.033116340637207031e+00,-1.549494862556457520e+00,-1.339680254459381104e-01
2.035609722137451172e+00,-1.551395297050476074e+00,-4.467444866895675659e-02
2.038065671920776367e+00,-1.553267002105712891e+00,4.472834616899490356e-02
2.040749549865722656e+00,-1.555312514305114746e+00,1.344710141420364380e-01
2.043237447738647461e+00,-1.557208538055419922e+00,2.247573137283325195e-01
2.045604467391967773e+00,-1.559012532234191895e+00,3.157974481582641602e-01
2.048278093338012695e+00,-1.561050176620483398e+00,4.078914523124694824e-01
2.050809621810913086e+00,-1.562979459762573242e+00,5.012112259864807129e-01
2.053748846054077148e+00,-1.565219640731811523e+00,5.961487293243408203e-01
2.077085018157958984e+00,-1.536513090133666992e+00,-6.922810673713684082e-01
2.080243587493896484e+00,-1.538849592208862305e+00,-5.973845720291137695e-01
2.082611560821533203e+00,-1.540601253509521484e+00,-5.035426616668701172e-01
2.085291862487792969e+00,-1.542584061622619629e+00,-4.108233451843261719e-01
2.087859630584716797e+00,-1.544483542442321777e+00,-3.188752532005310059e-01
2.090395927429199219e+00,-1.546359777450561523e+00,-2.274867445230484009e-01
2.092957496643066406e+00,-1.548254728317260742e+00,-1.364369243383407593e-01
2.095525264739990234e+00,-1.550154209136962891e+00,-4.549777135252952576e-02
2.098106145858764648e+00,-1.552063345909118652e+00,4.555380716919898987e-02
2.100731849670410156e+00,-1.554005742073059082e+00,1.369437277317047119e-01
2.103358030319213867e+00,-1.555948495864868164e+00,2.288973331451416016e-01
2.105911731719970703e+00,-1.557837486267089844e+00,3.216322958469390869e-01
2.108838796615600586e+00,-1.560002803802490234e+00,4.154623150825500488e-01
2.111041784286499023e+00,-1.561632513999938965e+00,5.104166865348815918e-01
2.114262104034423828e+00,-1.564014673233032227e+00,6.071537137031555176e-01
2.140051603317260742e+00,-1.536195039749145508e+00,-7.058665752410888672e-01
2.142528533935546875e+00,-1.537973046302795410e+00,-6.088868975639343262e-01
2.145349025726318359e+00,-1.539997816085815430e+00,-5.133294463157653809e-01
2.147992849349975586e+00,-1.541895627975463867e+00,-4.187851846218109131e-01
2.150574445724487305e+00,-1.543748617172241211e+00,-3.250455260276794434e-01
2.153332948684692383e+00,-1.545728802680969238e+00,-2.319043576717376709e-01
2.155916213989257812e+00,-1.547583222389221191e+00,-1.390828639268875122e-01
2.158562660217285156e+00,-1.549482822418212891e+00,-4.638014361262321472e-02
2.161277294158935547e+00,-1.551431536674499512e+00,4.643847048282623291e-02
2.163834571838378906e+00,-1.553267121315002441e+00,1.395936757326126099e-01
2.166604042053222656e+00,-1.555255174636840820e+00,2.333336025476455688e-01
2.169353961944580078e+00,-1.557229161262512207e+00,3.278839290142059326e-01
2.171988010406494141e+00,-1.559120059013366699e+00,4.234634041786193848e-01
2.175042152404785156e+00,-1.561312317848205566e+00,5.204342603683471680e-01
2.177899122238159180e+00,-1.563363194465637207e+00,6.189389228820800781e-01
2.205783605575561523e+00,-1.536025047302246094e+00,-7.202218770980834961e-01
2.208777427673339844e+00,-1.538109779357910156e+00,-6.213939189910888672e-01
2.211511373519897461e+00,-1.540013670921325684e+00,-5.238324999809265137e-01
2.214117765426635742e+00,-1.541828632354736328e+00,-4.273308217525482178e-01
2.216983556747436523e+00,-1.543824195861816406e+00,-3.317089676856994629e-01
2.219555377960205078e+00,-1.545615196228027344e+00,-2.366294413805007935e-01
2.222322702407836914e+00,-1.547542214393615723e+00,-1.419233530759811401e-01
2.225049495697021484e+00,-1.549440979957580566e+00,-4.732734337449073792e-02
2.227744102478027344e+00,-1.551317453384399414e+00,4.738466069102287292e-02
2.230655670166015625e+00,-1.553344964981079102e+00,1.424555182456970215e-01
2.233304262161254883e+00,-1.555189371109008789e+00,2.380952239036560059e-01
2.236260890960693359e+00,-1.557248234748840332e+00,3.345932960510253906e-01
2.239151477813720703e+00,-1.559261202812194824e+00,4.321624040603637695e-01
2.241852283477783203e+00,-1.561141848564147949e+00,5.310192108154296875e-01
2.244990587234497070e+00,-1.563327312469482422e+00,6.315817832946777344e-01
2.271360635757446289e+00,-1.533890604972839355e+00,-7.343898415565490723e-01
2.274341344833374023e+00,-1.535903573036193848e+00,-6.335893869400024414e-01
2.277600765228271484e+00,-1.538104653358459473e+00,-5.342173576354980469e-01
2.280182600021362305e+00,-1.539848089218139648e+00,-4.357829689979553223e-01
2.283085346221923828e+00,-1.541808366775512695e+00,-3.382626175880432129e-01
2.285905122756958008e+00,-1.543712615966796875e+00,-2.413226515054702759e-01
2.288703441619873047e+00,-1.545602440834045410e+00,-1.447349488735198975e-01
2.291512727737426758e+00,-1.547499656677246094e+00,-4.826495423913002014e-02
2.294340372085571289e+00,-1.549409151077270508e+00,4.832451045513153076e-02
2.297166347503662109e+00,-1.551317572593688965e+00,1.452701389789581299e-01
2.299943208694458008e+00,-1.553192853927612305e+00,2.428046762943267822e-01
2.303092241287231445e+00,-1.555319547653198242e+00,3.412268757820129395e-01
2.305620431900024414e+00,-1.557026743888854980e+00,4.406445920467376709e-01
2.308506727218627930e+00,-1.558975934982299805e+00,5.414664149284362793e-01
2.311900615692138672e+00,-1.561267852783203125e+00,6.440526247024536133e-01
2.341171264648437500e+00,-1.532709360122680664e+00,-7.497914433479309082e-01
2.344037055969238281e+00,-1.534585356712341309e+00,-6.468198895454406738e-01
2.346733093261718750e+00,-1.536350369453430176e+00,-5.452187061309814453e-01
2.349802732467651367e+00,-1.538360118865966797e+00,-4.448347985744476318e-01
2.352749347686767578e+00,-1.540289163589477539e+00,-3.452822268009185791e-01
2.355837345123291016e+00,-1.542310833930969238e+00,-2.463496327400207520e-01
2.358666419982910156e+00,-1.544162869453430176e+00,-1.477464735507965088e-01
2.361561775207519531e+00,-1.546058416366577148e+00,-4.926921054720878601e-02
2.364531517028808594e+00,-1.548002719879150391e+00,4.933116957545280457e-02
2.367261648178100586e+00,-1.549790024757385254e+00,1.482848674058914185e-01
2.370169162750244141e+00,-1.551693439483642578e+00,2.478483021259307861e-01
2.373000144958496094e+00,-1.553546905517578125e+00,3.482542037963867188e-01
2.376279115676879883e+00,-1.555693507194519043e+00,4.498469531536102295e-01
2.379463911056518555e+00,-1.557778596878051758e+00,5.528231263160705566e-01
2.382386207580566406e+00,-1.559691786766052246e+00,6.574020981788635254e-01
2.414158105850219727e+00,-1.531584978103637695e+00,-7.660669684410095215e-01
2.417659759521484375e+00,-1.533806681632995605e+00,-6.610097885131835938e-01
2.420278072357177734e+00,-1.535467624664306641e+00,-5.571423172950744629e-01
2.423768997192382812e+00,-1.537682414054870605e+00,-4.546240270137786865e-01
2.426644086837768555e+00,-1.539506435394287109e+00,-3.528567850589752197e-01
2.429541110992431641e+00,-1.541344285011291504e+00,-2.517240047454833984e-01
2.432585000991821289e+00,-1.543275475502014160e+00,-1.509775668382644653e-01
2.435572624206542969e+00,-1.545170783996582031e+00,-5.034671723842620850e-02
2.438507795333862305e+00,-1.547032952308654785e+00,5.040739476680755615e-02
2.441615343093872070e+00,-1.549004316329956055e+00,1.515380293130874634e-01
2.444780588150024414e+00,-1.551012516021728516e+00,2.533029913902282715e-01
2.447377681732177734e+00,-1.552660226821899414e+00,3.558716475963592529e-01
2.450919628143310547e+00,-1.554907321929931641e+00,4.597166478633880615e-01
2.453649759292602539e+00,-1.556639194488525391e+00,5.648244023323059082e-01
2.456820249557495117e+00,-1.558650732040405273e+00,6.717166304588317871e-01
2.492218494415283203e+00,-1.531528353691101074e+00,-7.838008999824523926e-01
2.494954586029052734e+00,-1.533209800720214844e+00,-6.760735511779785156e-01
2.498172044754028320e+00,-1.535187005996704102e+00,-5.699566602706909180e-01
2.501680135726928711e+00,-1.537342786788940430e+00,-4.650626778602600098e-01
2.504604578018188477e+00,-1.539139866828918457e+00,-3.609525561332702637e-01
2.507795333862304688e+00,-1.541100621223449707e+00,-2.575200498104095459e-01
2.510882377624511719e+00,-1.542997717857360840e+00,-1.544505059719085693e-01
2.513966083526611328e+00,-1.544892787933349609e+00,-5.150484666228294373e-02
2.517052412033081055e+00,-1.546789288520812988e+00,5.156807601451873779e-02
2.520057439804077148e+00,-1.548636078834533691e+00,1.550148874521255493e-01
2.523370265960693359e+00,-1.550671815872192383e+00,2.591194212436676025e-01
2.526147365570068359e+00,-1.552378416061401367e+00,3.640572130680084229e-01
2.529282331466674805e+00,-1.554304838180541992e+00,4.701939225196838379e-01
2.532992839813232422e+00,-1.556585192680358887e+00,5.779009461402893066e-01
2.536536216735839844e+00,-1.558762550354003906e+00,6.873411536216735840e-01
2.574282646179199219e+00,-1.531639575958251953e+00,-8.026329874992370605e-01
2.577714443206787109e+00,-1.533681392669677734e+00,-6.924799680709838867e-01
2.581462621688842773e+00,-1.535911440849304199e+00,-5.838838219642639160e-01
2.584413528442382812e+00,-1.537667274475097656e+00,-4.763025045394897461e-01
2.587719440460205078e+00,-1.539634108543395996e+00,-3.697168827056884766e-01
2.590903759002685547e+00,-1.541528701782226562e+00,-2.637614905834197998e-01
2.594036817550659180e+00,-1.543392896652221680e+00,-1.581904441118240356e-01
2.597223997116088867e+00,-1.545289278030395508e+00,-5.275204032659530640e-02
2.600470304489135742e+00,-1.547220706939697266e+00,5.281797423958778381e-02
2.603688478469848633e+00,-1.549135446548461914e+00,1.587790250778198242e-01
2.606824398040771484e+00,-1.551001071929931641e+00,2.653822600841522217e-01
2.610378026962280273e+00,-1.553115487098693848e+00,3.729542195796966553e-01
2.613186359405517578e+00,-1.554786443710327148e+00,4.816052913665771484e-01
2.616405963897705078e+00,-1.556702017784118652e+00,5.917873978614807129e-01
2.620218992233276367e+00,-1.558970689773559570e+00,7.038984894752502441e-01
2.656677246093750000e+00,-1.529609799385070801e+00,-8.214122653007507324e-01
2.660036802291870117e+00,-1.531544208526611328e+00,-7.086335420608520508e-01
2.663779020309448242e+00,-1.533698678016662598e+00,-5.974758863449096680e-01
2.666744470596313477e+00,-1.535406112670898438e+00,-4.873757064342498779e-01
2.670132875442504883e+00,-1.537356972694396973e+00,-3.783089220523834229e-01
2.673449277877807617e+00,-1.539266467094421387e+00,-2.698943018913269043e-01
2.676765203475952148e+00,-1.541175723075866699e+00,-1.618735939264297485e-01
2.680052757263183594e+00,-1.543068528175354004e+00,-5.398023873567581177e-02
2.683320045471191406e+00,-1.544949650764465332e+00,5.404604226350784302e-02
2.686612129211425781e+00,-1.546845078468322754e+00,1.624690592288970947e-01
2.689871788024902344e+00,-1.548721909523010254e+00,2.715522050857543945e-01
2.693620681762695312e+00,-1.550880312919616699e+00,3.816367089748382568e-01
2.696648120880126953e+00,-1.552623510360717773e+00,4.928409159183502197e-01
2.700155019760131836e+00,-1.554642558097839355e+00,6.056349277496337891e-01
2.703344345092773438e+00,-1.556478857994079590e+00,7.201706171035766602e-01
2.744042158126831055e+00,-1.528041601181030273e+00,-8.415758609771728516e-01
2.747330665588378906e+00,-1.529872775077819824e+00,-7.259806990623474121e-01
2.751067876815795898e+00,-1.531953930854797363e+00,-6.120735406875610352e-01
2.754538536071777344e+00,-1.533886551856994629e+00,-4.993573129177093506e-01
2.757886171340942383e+00,-1.535750627517700195e+00,-3.875878155231475830e-01
2.761203765869140625e+00,-1.537598133087158203e+00,-2.765032649040222168e-01
2.764576673507690430e+00,-1.539476394653320312e+00,-1.658343225717544556e-01
2.767971754074096680e+00,-1.541367053985595703e+00,-5.530102550983428955e-02
2.771401882171630859e+00,-1.543277025222778320e+00,5.536955222487449646e-02
2.774910926818847656e+00,-1.545230984687805176e+00,1.664542257785797119e-01
2.778439760208129883e+00,-1.547196149826049805e+00,2.782292664051055908e-01
2.781893491744995117e+00,-1.549119353294372559e+00,3.909617662429809570e-01
2.785148620605468750e+00,-1.550932049751281738e+00,5.049064159393310547e-01
2.788958549499511719e+00,-1.553053617477416992e+00,6.205036640167236328e-01
2.792489051818847656e+00,-1.555019617080688477e+00,7.379137277603149414e-01
2.836917400360107422e+00,-1.526982903480529785e+00,-8.632683157920837402e-01
2.840131998062133789e+00,-1.528713226318359375e+00,-7.446450591087341309e-01
2.843871593475341797e+00,-1.530725955963134766e+00,-6.277820467948913574e-01
2.847385168075561523e+00,-1.532617211341857910e+00,-5.121597051620483398e-01
2.850827455520629883e+00,-1.534469962120056152e+00,-3.975221812725067139e-01
2.854517221450805664e+00,-1.536456108093261719e+00,-2.836162745952606201e-01
2.857949018478393555e+00,-1.538303136825561523e+00,-1.700970977544784546e-01
2.861460208892822266e+00,-1.540193080902099609e+00,-5.672256276011466980e-02
2.865061759948730469e+00,-1.542131662368774414e+00,5.679395794868469238e-02
2.868428468704223633e+00,-1.543943762779235840e+00,1.707208007574081421e-01
2.872095823287963867e+00,-1.545917749404907227e+00,2.853628098964691162e-01
2.875741481781005859e+00,-1.547880053520202637e+00,4.009962081909179688e-01
2.879235982894897461e+00,-1.549760937690734863e+00,5.178886651992797852e-01
2.883362054824829102e+00,-1.551981925964355469e+00,6.364995837211608887e-01
2.887252807617187500e+00,-1.554076194763183594e+00,7.569994926452636719e-01
2.934950351715087891e+00,-1.525983572006225586e+00,-8.863622546195983887e-01
2.939056873321533203e+00,-1.528118729591369629e+00,-7.647687196731567383e-01
2.942801475524902344e+00,-1.530065774917602539e+00,-6.447201967239379883e-01
2.946368455886840820e+00,-1.531920313835144043e+00,-5.259659290313720703e-01
2.950300455093383789e+00,-1.533964633941650391e+00,-4.082893431186676025e-01
2.953779458999633789e+00,-1.535773515701293945e+00,-2.912647426128387451e-01
2.957505941390991211e+00,-1.537711024284362793e+00,-1.746945828199386597e-01
2.961140155792236328e+00,-1.539600491523742676e+00,-5.825570598244667053e-02
2.964690446853637695e+00,-1.541446566581726074e+00,5.832555517554283142e-02
2.968519210815429688e+00,-1.543437242507934570e+00,1.753451228141784668e-01
2.971941709518432617e+00,-1.545216798782348633e+00,2.930556833744049072e-01
2.975787162780761719e+00,-1.547216057777404785e+00,4.118164479732513428e-01
2.979531288146972656e+00,-1.549162745475769043e+00,5.318859219551086426e-01
2.983007431030273438e+00,-1.550970196723937988e+00,6.535286903381347656e-01
2.987135648727416992e+00,-1.553116559982299805e+00,7.772792577743530273e-01
3.040729999542236328e+00,-1.526101469993591309e+00,-9.116176962852478027e-01
3.044810056686401367e+00,-1.528149247169494629e+00,-7.865145206451416016e-01
3.048565387725830078e+00,-1.530033946037292480e+00,-6.630254983901977539e-01
3.052749872207641602e+00,-1.532134056091308594e+00,-5.409861803054809570e-01
3.056258916854858398e+00,-1.533895134925842285e+00,-4.198714494705200195e-01
3.060150146484375000e+00,-1.535848140716552734e+00,-2.995552718639373779e-01
3.063956975936889648e+00,-1.537758708000183105e+00,-1.796639263629913330e-01
3.067723035812377930e+00,-1.539648890495300293e+00,-5.991286411881446838e-02
3.071458339691162109e+00,-1.541523575782775879e+00,5.998581275343894958e-02
3.075135231018066406e+00,-1.543368935585021973e+00,1.803193837404251099e-01
3.079254388809204102e+00,-1.545436382293701172e+00,3.014253675937652588e-01
3.082744359970092773e+00,-1.547187924385070801e+00,4.235100746154785156e-01
3.086747884750366211e+00,-1.549197077751159668e+00,5.470110774040222168e-01
3.090530395507812500e+00,-1.551095604896545410e+00,6.721524000167846680e-01
3.095050096511840820e+00,-1.553363919258117676e+00,7.994921803474426270e-01
3.145381212234497070e+00,-1.522664666175842285e+00,-9.363623261451721191e-01
3.149455070495605469e+00,-1.524636864662170410e+00,-8.078258037567138672e-01
3.153985023498535156e+00,-1.526829719543457031e+00,-6.811301708221435547e-01
3.157532930374145508e+00,-1.528547286987304688e+00,-5.556209683418273926e-01
3.161578178405761719e+00,-1.530505657196044922e+00,-4.312865436077117920e-01
3.165512084960937500e+00,-1.532410025596618652e+00,-3.076904416084289551e-01
3.169398307800292969e+00,-1.534291386604309082e+00,-1.845401227474212646e-01
3.173295021057128906e+00,-1.536177635192871094e+00,-6.153895705938339233e-02
3.177211284637451172e+00,-1.538073539733886719e+00,6.161490827798843384e-02
3.181119441986083984e+00,-1.539965510368347168e+00,1.852226108312606812e-01
3.184952974319458008e+00,-1.541821360588073730e+00,3.095801174640655518e-01
3.189355611801147461e+00,-1.543952584266662598e+00,4.350758194923400879e-01
3.192844629287719727e+00,-1.545641541481018066e+00,5.618346333503723145e-01
3.196906328201293945e+00,-1.547607779502868652e+00,6.903994083404541016e-01
3.201790094375610352e+00,-1.549971938133239746e+00,8.212496042251586914e-01
3.266536235809326172e+00,-1.523999929428100586e+00,-9.658367633819580078e-01
3.270590305328369141e+00,-1.525891423225402832e+00,-8.332092165946960449e-01
3.275182247161865234e+00,-1.528033733367919922e+00,-7.025084495544433594e-01
3.279411554336547852e+00,-1.530007004737854004e+00,-5.731552243232727051e-01
3.283442974090576172e+00,-1.531887888908386230e+00,-4.448740482330322266e-01
3.287414073944091797e+00,-1.533740520477294922e+00,-3.173730373382568359e-01
3.291392564773559570e+00,-1.535596728324890137e+00,-1.903440356254577637e-01
3.295441389083862305e+00,-1.537485718727111816e+00,-6.347444653511047363e-02
3.299567937850952148e+00,-1.539410948753356934e+00,6.355392932891845703e-02
3.303743362426757812e+00,-1.541358947753906250e+00,1.910582929849624634e-01
3.307898044586181641e+00,-1.543297290802001953e+00,3.193506002426147461e-01
3.311918497085571289e+00,-1.545173048973083496e+00,4.487321972846984863e-01
3.315659284591674805e+00,-1.546918392181396484e+00,5.794904232025146484e-01
3.320059061050415039e+00,-1.548970937728881836e+00,7.121342420578002930e-01
3.324097394943237305e+00,-1.550855040550231934e+00,8.468405604362487793e-01
3.386805772781372070e+00,-1.521474480628967285e+00,-9.948565959930419922e-01
3.391849279403686523e+00,-1.523740172386169434e+00,-8.584566712379455566e-01
3.395543813705444336e+00,-1.525399923324584961e+00,-7.235680222511291504e-01
3.399896621704101562e+00,-1.527355313301086426e+00,-5.903315544128417969e-01
3.404098033905029297e+00,-1.529242753982543945e+00,-4.582089781761169434e-01
3.408292531967163086e+00,-1.531127095222473145e+00,-3.268935978412628174e-01
3.412637948989868164e+00,-1.533079266548156738e+00,-1.960666626691818237e-01
3.416836738586425781e+00,-1.534965395927429199e+00,-6.538279354572296143e-02
3.420895099639892578e+00,-1.536788582801818848e+00,6.546045094728469849e-02
3.425147294998168945e+00,-1.538698911666870117e+00,1.967853605747222900e-01
3.429436445236206055e+00,-1.540625691413879395e+00,3.289215266704559326e-01
3.433639764785766602e+00,-1.542513966560363770e+00,4.621854424476623535e-01
3.438601732254028320e+00,-1.544743061065673828e+00,5.970519781112670898e-01
3.442313194274902344e+00,-1.546410441398620605e+00,7.335342764854431152e-01
3.446699142456054688e+00,-1.548380732536315918e+00,8.723388910293579102e-01
3.515889644622802734e+00,-1.519369244575500488e+00,-1.026280999183654785e+00
3.520989656448364258e+00,-1.521573185920715332e+00,-8.855385184288024902e-01
3.525584697723388672e+00,-1.523558855056762695e+00,-7.465553879737854004e-01
3.529893398284912109e+00,-1.525420904159545898e+00,-6.090496778488159180e-01
