-6.185010910034179688e+00,1.065402412414550781e+01,2.150320410728454590e-01
-6.192142963409423828e+00,1.066630935668945312e+01,6.463652253150939941e-01
-6.199900150299072266e+00,1.067967224121093750e+01,1.080382943153381348e+00
-2.064489126205444336e+00,3.441787242889404297e+00,-1.075406789779663086e+00
-2.464570760726928711e+00,4.108777999877929688e+00,-1.106147646903991699e+00
-3.023217678070068359e+00,5.040119647979736328e+00,-1.142429590225219727e+00
-3.905870199203491211e+00,6.511622428894042969e+00,-1.202646732330322266e+00
-5.510446548461914062e+00,9.186672210693359375e+00,-1.315340876579284668e+00
-6.314970970153808594e+00,1.052792453765869141e+01,-1.074065804481506348e+00
-6.322499275207519531e+00,1.054047584533691406e+01,-6.441578865051269531e-01
-6.330272674560546875e+00,1.055343437194824219e+01,-2.148085832595825195e-01
-6.338311195373535156e+00,1.056683635711669922e+01,2.150813639163970947e-01
-6.345616340637207031e+00,1.057901477813720703e+01,6.465131044387817383e-01
-6.353559494018554688e+00,1.059225749969482422e+01,1.080629110336303711e+00
-2.114321231842041016e+00,3.413154363632202148e+00,-1.075806021690368652e+00
-2.502993822097778320e+00,4.040589332580566406e+00,-1.097322940826416016e+00
-3.096261739730834961e+00,4.998303890228271484e+00,-1.142879724502563477e+00
-4.000302314758300781e+00,6.457698822021484375e+00,-1.203139305114746094e+00
-5.643813610076904297e+00,9.110822677612304688e+00,-1.315912485122680664e+00
-6.468078136444091797e+00,1.044143581390380859e+01,-1.074577212333679199e+00
-6.475794792175292969e+00,1.045389366149902344e+01,-6.444651484489440918e-01
-6.483756542205810547e+00,1.046674537658691406e+01,-2.149110585451126099e-01
-6.491983890533447266e+00,1.048002719879150391e+01,2.151837795972824097e-01
-6.499455451965332031e+00,1.049208831787109375e+01,6.468198299407958984e-01
-6.507574081420898438e+00,1.050519466400146484e+01,1.081138968467712402e+00
-2.164066076278686523e+00,3.384284257888793945e+00,-1.076359272003173828e+00
-2.561913251876831055e+00,4.006459712982177734e+00,-1.097900152206420898e+00
-3.169189214706420898e+00,4.956150531768798828e+00,-1.143496394157409668e+00
-4.094587802886962891e+00,6.403338909149169922e+00,-1.203807473182678223e+00
-5.776971340179443359e+00,9.034342765808105469e+00,-1.316674232482910156e+00
-6.620934009552001953e+00,1.035417747497558594e+01,-1.075240015983581543e+00
-6.628841876983642578e+00,1.036654376983642578e+01,-6.448634862899780273e-01
-6.636991500854492188e+00,1.037928867340087891e+01,-2.150438874959945679e-01
-6.645405292510986328e+00,1.039244651794433594e+01,2.153164893388748169e-01
-6.653037071228027344e+00,1.040438079833984375e+01,6.472171545028686523e-01
-6.661322593688964844e+00,1.041733932495117188e+01,1.081799030303955078e+00
-2.214017391204833984e+00,3.355598211288452148e+00,-1.077204465866088867e+00
-2.621090650558471680e+00,3.972564697265625000e+00,-1.098780155181884766e+00
-3.242451906204223633e+00,4.914309501647949219e+00,-1.144433379173278809e+00
-4.189325332641601562e+00,6.349404811859130859e+00,-1.204817533493041992e+00
-5.910801410675048828e+00,8.958500862121582031e+00,-1.317816257476806641e+00
-6.774610996246337891e+00,1.026770305633544922e+01,-1.076219558715820312e+00
-6.782715320587158203e+00,1.027998638153076172e+01,-6.454521417617797852e-01
-6.791054248809814453e+00,1.029262447357177734e+01,-2.152401953935623169e-01
-6.799649715423583984e+00,1.030565166473388672e+01,2.155126184225082397e-01
-6.807433128356933594e+00,1.031744861602783203e+01,6.478043198585510254e-01
-6.815871715545654297e+00,1.033023834228515625e+01,1.082774162292480469e+00
-2.263808488845825195e+00,3.326495647430419922e+00,-1.078153491020202637e+00
-2.680083036422729492e+00,3.938179731369018555e+00,-1.099767327308654785e+00
-3.315488338470458984e+00,4.871859550476074219e+00,-1.145481944084167480e+00
-4.283773422241210938e+00,6.294681072235107422e+00,-1.205944895744323730e+00
-6.044219970703125000e+00,8.881524085998535156e+00,-1.319084048271179199e+00
-6.927801132202148438e+00,1.017988014221191406e+01,-1.077297568321228027e+00
-6.936104774475097656e+00,1.019208240509033203e+01,-6.461002230644226074e-01
-6.944632530212402344e+00,1.020461273193359375e+01,-2.154563218355178833e-01
-6.953406810760498047e+00,1.021750545501708984e+01,2.157285213470458984e-01
-6.961336135864257812e+00,1.022915744781494141e+01,6.484505534172058105e-01
-6.969920635223388672e+00,1.024177169799804688e+01,1.083847284317016602e+00
-2.297946214675903320e+00,3.274887561798095703e+00,-1.071977496147155762e+00
-2.739504814147949219e+00,3.904168844223022461e+00,-1.101107001304626465e+00
-3.354015827178955078e+00,4.779931068420410156e+00,-1.135038852691650391e+00
-4.378956794738769531e+00,6.240612506866455078e+00,-1.207470536231994629e+00
-6.178712368011474609e+00,8.805510520935058594e+00,-1.320794105529785156e+00
-7.082277774810791016e+00,1.009321403503417969e+01,-1.078743338584899902e+00
-7.090788364410400391e+00,1.010534286499023438e+01,-6.469692587852478027e-01
-7.099506378173828125e+00,1.011776733398437500e+01,-2.157461196184158325e-01
-7.108454704284667969e+00,1.013051986694335938e+01,2.160180509090423584e-01
-7.116520404815673828e+00,1.014201450347900391e+01,6.493170857429504395e-01
-7.125231742858886719e+00,1.015442943572998047e+01,1.085285902023315430e+00
-2.347494840621948242e+00,3.245692729949951172e+00,-1.073309779167175293e+00
-2.798639774322509766e+00,3.869454622268676758e+00,-1.102501273155212402e+00
-3.426488876342773438e+00,4.737531185150146484e+00,-1.136500358581542969e+00
-4.413561344146728516e+00,6.102276802062988281e+00,-1.192805647850036621e+00
-6.192790985107421875e+00,8.562274932861328125e+00,-1.297472596168518066e+00
-7.275116920471191406e+00,1.005871963500976562e+01,-1.086074829101562500e+00
-7.282984256744384766e+00,1.006959724426269531e+01,-6.512880325317382812e-01
-7.291038990020751953e+00,1.008073425292968750e+01,-2.171595245599746704e-01
-7.299304962158203125e+00,1.009216308593750000e+01,2.174057215452194214e-01
-7.307713985443115234e+00,1.010378932952880859e+01,6.534995436668395996e-01
-7.316110610961914062e+00,1.011539936065673828e+01,1.092194676399230957e+00
-2.397536277770996094e+00,3.216901063919067383e+00,-1.075026869773864746e+00
-2.858381509780883789e+00,3.835241556167602539e+00,-1.104297161102294922e+00
-3.499727964401245117e+00,4.695769786834716797e+00,-1.138382554054260254e+00
-4.508023262023925781e+00,6.048653602600097656e+00,-1.194814205169677734e+00
-6.325547218322753906e+00,8.487320899963378906e+00,-1.299701213836669922e+00
-8.531876564025878906e+00,1.144766998291015625e+01,-1.249102473258972168e+00
-8.541017532348632812e+00,1.145993518829345703e+01,-7.490435242652893066e-01
-8.550343513488769531e+00,1.147244739532470703e+01,-2.497507035732269287e-01
-8.559874534606933594e+00,1.148523712158203125e+01,2.500291168689727783e-01
-8.569523811340332031e+00,1.149818229675292969e+01,7.515435218811035156e-01
-2.447757244110107422e+00,3.188023090362548828e+00,-1.076974272727966309e+00
-2.918350219726562500e+00,3.800935506820678711e+00,-1.106333494186401367e+00
-3.573256969451904297e+00,4.653903484344482422e+00,-1.140515208244323730e+00
-4.602874755859375000e+00,5.994904518127441406e+00,-1.197088479995727539e+00
-6.458868026733398438e+00,8.412198066711425781e+00,-1.302221059799194336e+00
-9.476188659667968750e+00,1.234203624725341797e+01,-1.361350774765014648e+00
-9.487685203552246094e+00,1.235700988769531250e+01,-8.164707422256469727e-01
-9.499347686767578125e+00,1.237219905853271484e+01,-2.722700238227844238e-01
-9.511202812194824219e+00,1.238763999938964844e+01,2.726098299026489258e-01
-9.523165702819824219e+00,1.240322017669677734e+01,8.195239901542663574e-01
-2.480437755584716797e+00,3.136609792709350586e+00,-1.071490049362182617e+00
-2.953172206878662109e+00,3.734401226043701172e+00,-1.099158287048339844e+00
-3.646214962005615234e+00,4.610780715942382812e+00,-1.142620205879211426e+00
-4.696988582611083984e+00,5.939524650573730469e+00,-1.199331998825073242e+00
-6.591148376464843750e+00,8.334763526916503906e+00,-1.304704666137695312e+00
-9.675783157348632812e+00,1.223540401458740234e+01,-1.364725470542907715e+00
-9.687566757202148438e+00,1.225030517578125000e+01,-8.184984922409057617e-01
-9.699473381042480469e+00,1.226536178588867188e+01,-2.729461789131164551e-01
-9.711532592773437500e+00,1.228061008453369141e+01,2.732855081558227539e-01
-9.723657608032226562e+00,1.229594326019287109e+01,8.215477466583251953e-01
-2.530638456344604492e+00,3.107620716094970703e+00,-1.073850870132446289e+00
-3.013056278228759766e+00,3.700029373168945312e+00,-1.101622462272644043e+00
-3.720284938812255859e+00,4.568505287170410156e+00,-1.145222663879394531e+00
-4.792564868927001953e+00,5.885263919830322266e+00,-1.202103853225708008e+00
-6.725529193878173828e+00,8.258940696716308594e+00,-1.307770848274230957e+00
-9.879402160644531250e+00,1.213189315795898438e+01,-1.368812322616577148e+00
-9.891488075256347656e+00,1.214673519134521484e+01,-8.209540843963623047e-01
-9.903644561767578125e+00,1.216166305541992188e+01,-2.737650275230407715e-01
-9.915901184082031250e+00,1.217671394348144531e+01,2.741038501262664795e-01
-9.928172111511230469e+00,1.219178199768066406e+01,8.239986300468444824e-01
-2.581056594848632812e+00,3.078480243682861328e+00,-1.076437115669250488e+00
-3.073210716247558594e+00,3.665482521057128906e+00,-1.104320406913757324e+00
-3.755847692489624023e+00,4.479678153991699219e+00,-1.136315464973449707e+00
-4.888607501983642578e+00,5.830744266510009766e+00,-1.205136895179748535e+00
-6.860584735870361328e+00,8.182763099670410156e+00,-1.311123490333557129e+00
-1.008428287506103516e+01,1.202773571014404297e+01,-1.373205423355102539e+00
-1.009668159484863281e+01,1.204252338409423828e+01,-8.235938549041748047e-01
-1.010908985137939453e+01,1.205732250213623047e+01,-2.746453285217285156e-01
-1.012154006958007812e+01,1.207217216491699219e+01,2.749835848808288574e-01
-1.013394069671630859e+01,1.208696365356445312e+01,8.266331553459167480e-01
-2.612976789474487305e+00,3.027466535568237305e+00,-1.071567416191101074e+00
-3.106953382492065430e+00,3.599801301956176758e+00,-1.097817897796630859e+00
-3.828676939010620117e+00,4.436010360717773438e+00,-1.139022946357727051e+00
-4.983575820922851562e+00,5.774107456207275391e+00,-1.208050489425659180e+00
-6.994121551513671875e+00,8.103581428527832031e+00,-1.314342141151428223e+00
-1.028646659851074219e+01,1.191818141937255859e+01,-1.377366423606872559e+00
-1.029917240142822266e+01,1.193290328979492188e+01,-8.260942101478576660e-01
-1.031182956695556641e+01,1.194756889343261719e+01,-2.754791378974914551e-01
-1.032447052001953125e+01,1.196221446990966797e+01,2.758168280124664307e-01
-1.033700084686279297e+01,1.197673225402832031e+01,8.291284441947937012e-01
-2.663431882858276367e+00,2.998082160949707031e+00,-1.074550271034240723e+00
-3.167093992233276367e+00,3.565027475357055664e+00,-1.100925087928771973e+00
-3.902956008911132812e+00,4.393348217010498047e+00,-1.142295956611633301e+00
-5.013079643249511719e+00,5.642954349517822266e+00,-1.195500612258911133e+00
-7.130410671234130859e+00,8.026320457458496094e+00,-1.318229556083679199e+00
-1.049369430541992188e+01,1.181218814849853516e+01,-1.382333755493164062e+00
-1.050673103332519531e+01,1.182686233520507812e+01,-8.290793299674987793e-01
-1.051964473724365234e+01,1.184139919281005859e+01,-2.764746248722076416e-01
-1.053246593475341797e+01,1.185583019256591797e+01,2.768115699291229248e-01
-1.054510116577148438e+01,1.187005424499511719e+01,8.321071863174438477e-01
-2.714129209518432617e+00,2.968472957611083984e+00,-1.077751398086547852e+00
-3.227537631988525391e+00,3.529993534088134766e+00,-1.104259252548217773e+00
-3.977622270584106445e+00,4.350369453430175781e+00,-1.145807027816772461e+00
-5.109192371368408203e+00,5.587980270385742188e+00,-1.199224352836608887e+00
-7.267453670501708984e+00,7.948494434356689453e+00,-1.322396636009216309e+00
-1.070231342315673828e+01,1.170523834228515625e+01,-1.387602686882019043e+00
-1.071568870544433594e+01,1.171986675262451172e+01,-8.322455883026123047e-01
-1.072885990142822266e+01,1.173427200317382812e+01,-2.775304913520812988e-01
-1.074185657501220703e+01,1.174848747253417969e+01,2.778666913509368896e-01
-1.075458431243896484e+01,1.176240730285644531e+01,8.352665305137634277e-01
-2.746354103088378906e+00,2.918716192245483398e+00,-1.073848485946655273e+00
-3.261495113372802734e+00,3.466187477111816406e+00,-1.098790407180786133e+00
-4.011612415313720703e+00,4.263382434844970703e+00,-1.137903094291687012e+00
-5.205835342407226562e+00,5.532555103302001953e+00,-1.203197598457336426e+00
-7.267312526702880859e+00,7.723411083221435547e+00,-1.302121877670288086e+00
-1.091235637664794922e+01,1.159721946716308594e+01,-1.393170833587646484e+00
-1.092608165740966797e+01,1.161180591583251953e+01,-8.355919718742370605e-01
-1.093951225280761719e+01,1.162607860565185547e+01,-2.786464095115661621e-01
-1.095267581939697266e+01,1.164006900787353516e+01,2.789817154407501221e-01
-1.096705150604248047e+01,1.165534687042236328e+01,8.387251496315002441e-01
-2.797203063964843750e+00,2.888775348663330078e+00,-1.077452898025512695e+00
-3.322063207626342773e+00,3.430818080902099609e+00,-1.102538704872131348e+00
-4.086313247680664062e+00,4.220087051391601562e+00,-1.141841411590576172e+00
-5.303020000457763672e+00,5.476625442504882812e+00,-1.207417964935302734e+00
-7.403734683990478516e+00,7.646111488342285156e+00,-1.306822180747985840e+00
-1.112385272979736328e+01,1.148801517486572266e+01,-1.399036049842834473e+00
-1.113793849945068359e+01,1.150256156921386719e+01,-8.391168713569641113e-01
-1.115162849426269531e+01,1.151669979095458984e+01,-2.798218429088592529e-01
-1.116495704650878906e+01,1.153046512603759766e+01,2.801562845706939697e-01
-1.117941188812255859e+01,1.154539299011230469e+01,8.422414064407348633e-01
-2.829160690307617188e+00,2.839313268661499023e+00,-1.073998451232910156e+00
-3.382952928543090820e+00,3.395092725753784180e+00,-1.106505632400512695e+00
-4.161425590515136719e+00,4.176358699798583984e+00,-1.146008849143981934e+00
-5.330057144165039062e+00,5.349184513092041016e+00,-1.196018695831298828e+00
-7.540544986724853516e+00,7.567604541778564453e+00,-1.311716794967651367e+00
-1.090591907501220703e+01,1.094505596160888672e+01,-1.351785063743591309e+00
-1.091928195953369141e+01,1.095846557617187500e+01,-8.107433915138244629e-01
-1.093307018280029297e+01,1.097230339050292969e+01,-2.703691720962524414e-01
-1.094736480712890625e+01,1.098664951324462891e+01,2.707226872444152832e-01
-1.096076679229736328e+01,1.100010013580322266e+01,8.138236403465270996e-01
-2.880177497863769531e+00,2.808938026428222656e+00,-1.077992081642150879e+00
-3.416328191757202148e+00,3.331827163696289062e+00,-1.101710677146911621e+00
-4.194446086883544922e+00,4.090698719024658203e+00,-1.138861179351806641e+00
-5.427056789398193359e+00,5.292821884155273438e+00,-1.200662016868591309e+00
-7.678161144256591797e+00,7.488245964050292969e+00,-1.316875934600830078e+00
-1.067888641357421875e+01,1.041475009918212891e+01,-1.305033445358276367e+00
-1.069205665588378906e+01,1.042759418487548828e+01,-7.827100157737731934e-01
-1.070554161071777344e+01,1.044074535369873047e+01,-2.610201239585876465e-01
-1.071941471099853516e+01,1.045427608489990234e+01,2.613583803176879883e-01
-1.073232173919677734e+01,1.046686363220214844e+01,7.856576442718505859e-01
-2.911882400512695312e+00,2.759656429290771484e+00,-1.074964404106140137e+00
-3.477366924285888672e+00,3.295578718185424805e+00,-1.106069445610046387e+00
-4.269623756408691406e+00,4.046418190002441406e+00,-1.143430233001708984e+00
-5.524613380432128906e+00,5.235799789428710938e+00,-1.205541610717773438e+00
-7.816581249237060547e+00,7.407949447631835938e+00,-1.322295069694519043e+00
-1.046967887878417969e+01,9.922349929809570312e+00,-1.261981368064880371e+00
-1.048268127441406250e+01,9.934672355651855469e+00,-7.568955421447753906e-01
-1.049588584899902344e+01,9.947186470031738281e+00,-2.524110674858093262e-01
-1.050936412811279297e+01,9.959959983825683594e+00,2.527351677417755127e-01
-1.052180099487304688e+01,9.971746444702148438e+00,7.597201466560363770e-01
-2.943429231643676758e+00,2.710652589797973633e+00,-1.072177290916442871e+00
-3.510363578796386719e+00,3.232751846313476562e+00,-1.101734042167663574e+00
-4.302068710327148438e+00,3.961846351623535156e+00,-1.136816024780273438e+00
-5.550075531005859375e+00,5.111156463623046875e+00,-1.195011258125305176e+00
-7.810263633728027344e+00,7.192601203918457031e+00,-1.303677201271057129e+00
-1.027639865875244141e+01,9.463706016540527344e+00,-1.222231149673461914e+00
-1.028925228118896484e+01,9.475543022155761719e+00,-7.330611348152160645e-01
-1.030219936370849609e+01,9.487465858459472656e+00,-2.444623708724975586e-01
-1.031530666351318359e+01,9.499536514282226562e+00,2.447733879089355469e-01
-1.032875633239746094e+01,9.511922836303710938e+00,7.358755469322204590e-01
-2.995963811874389648e+00,2.680812835693359375e+00,-1.077225923538208008e+00
-3.544886827468872070e+00,3.171993732452392578e+00,-1.098207235336303711e+00
-4.379475593566894531e+00,3.918790578842163086e+00,-1.142331600189208984e+00
-5.650280952453613281e+00,5.055917263031005859e+00,-1.200882077217102051e+00
-7.951742172241210938e+00,7.115283966064453125e+00,-1.310158610343933105e+00
-1.006402397155761719e+01,9.005371093750000000e+00,-1.181520581245422363e+00
-1.007671833038330078e+01,9.016730308532714844e+00,-7.086514830589294434e-01
-1.008938312530517578e+01,9.028062820434570312e+00,-2.363218814134597778e-01
-1.010208225250244141e+01,9.039425849914550781e+00,2.366193234920501709e-01
-1.011499023437500000e+01,9.050975799560546875e+00,7.113429903984069824e-01
-3.027332067489624023e+00,2.631841659545898438e+00,-1.074849724769592285e+00
-3.605992078781127930e+00,3.134905815124511719e+00,-1.103123426437377930e+00
-4.411451816558837891e+00,3.835140228271484375e+00,-1.136237263679504395e+00
-5.748367309570312500e+00,4.997401237487792969e+00,-1.206402659416198730e+00
-8.090214729309082031e+00,7.033309936523437500e+00,-1.316252112388610840e+00
-9.899867057800292969e+00,8.606550216674804688e+00,-1.147668361663818359e+00
-9.912452697753906250e+00,8.617490768432617188e+00,-6.883544921875000000e-01
-9.924899101257324219e+00,8.628311157226562500e+00,-2.295529246330261230e-01
-9.937267303466796875e+00,8.639063835144042969e+00,2.298389971256256104e-01
-9.949727058410644531e+00,8.649895668029785156e+00,6.909429430961608887e-01
-9.962057113647460938e+00,8.660615921020507812e+00,1.154878020286560059e+00
-3.060117483139038086e+00,2.584384441375732422e+00,-1.073246479034423828e+00
-3.640401124954223633e+00,3.074455738067626953e+00,-1.100074887275695801e+00
-4.489255905151367188e+00,3.791345357894897461e+00,-1.142182588577270508e+00
-5.775512695312500000e+00,4.877637386322021484e+00,-1.197324752807617188e+00
-8.086012840270996094e+00,6.828941822052001953e+00,-1.299532413482666016e+00
-9.717801094055175781e+00,8.207049369812011719e+00,-1.112829804420471191e+00
-9.730266571044921875e+00,8.217576026916503906e+00,-6.674664020538330078e-01
-9.742471694946289062e+00,8.227883338928222656e+00,-2.225868701934814453e-01
-9.754476547241210938e+00,8.238022804260253906e+00,2.228611707687377930e-01
-9.767804145812988281e+00,8.249278068542480469e+00,6.700413823127746582e-01
-9.780052185058593750e+00,8.259621620178222656e+00,1.119958400726318359e+00
-3.111438035964965820e+00,2.552337646484375000e+00,-1.078322410583496094e+00
-3.701732397079467773e+00,3.036561012268066406e+00,-1.105360984802246094e+00
-4.520756244659423828e+00,3.708412885665893555e+00,-1.136575818061828613e+00
-5.873714923858642578e+00,4.818255901336669922e+00,-1.203262567520141602e+00
-8.223727226257324219e+00,6.745990276336669922e+00,-1.306012988090515137e+00
-9.577871322631835938e+00,7.856805324554443359e+00,-1.083816647529602051e+00
-9.589732170104980469e+00,7.866535186767578125e+00,-6.500357985496520996e-01
-9.601780891418457031e+00,7.876418590545654297e+00,-2.167745679616928101e-01
-9.614017486572265625e+00,7.886456489562988281e+00,2.170508205890655518e-01
-9.626089096069335938e+00,7.896358966827392578e+00,6.525002717971801758e-01
-9.637808799743652344e+00,7.905972480773925781e+00,1.090599060058593750e+00
-3.144178152084350586e+00,2.504780769348144531e+00,-1.077133536338806152e+00
-3.736009120941162109e+00,2.976257801055908203e+00,-1.102762460708618164e+00
-4.598931312561035156e+00,3.663697004318237305e+00,-1.142928838729858398e+00
-5.900493144989013672e+00,4.700573921203613281e+00,-1.194842815399169922e+00
-8.366967201232910156e+00,6.665468692779541016e+00,-1.313475012779235840e+00
-9.420438766479492188e+00,7.504707336425781250e+00,-1.053738594055175781e+00
-9.432225227355957031e+00,7.514096260070800781e+00,-6.320040822029113770e-01
-9.444065093994140625e+00,7.523529052734375000e+00,-2.107611000537872314e-01
-9.455956459045410156e+00,7.533001899719238281e+00,2.110264599323272705e-01
-9.467558860778808594e+00,7.542244911193847656e+00,6.343716382980346680e-01
-9.480508804321289062e+00,7.552560806274414062e+00,1.060457825660705566e+00
-3.176886081695556641e+00,2.457344770431518555e+00,-1.076178789138793945e+00
-3.770239114761352539e+00,2.916307687759399414e+00,-1.100432276725769043e+00
-4.632636070251464844e+00,3.583378076553344727e+00,-1.138441681861877441e+00
-6.001990795135498047e+00,4.642584323883056641e+00,-1.201816558837890625e+00
-8.511388778686523438e+00,6.583621978759765625e+00,-1.321218132972717285e+00
-9.274411201477050781e+00,7.173825740814208984e+00,-1.025813698768615723e+00
-9.286137580871582031e+00,7.182895660400390625e+00,-6.152636408805847168e-01
-9.297782897949218750e+00,7.191904067993164062e+00,-2.051782160997390747e-01
-9.309350013732910156e+00,7.200850963592529297e+00,2.054334729909896851e-01
-9.320496559143066406e+00,7.209473133087158203e+00,6.175401210784912109e-01
-9.332831382751464844e+00,7.219014167785644531e+00,1.032275438308715820e+00
-3.209554195404052734e+00,2.409991502761840820e+00,-1.075449585914611816e+00
-3.804412364959716797e+00,2.856658935546875000e+00,-1.098359704017639160e+00
-4.711260795593261719e+00,3.537593841552734375e+00,-1.145202636718750000e+00
-6.104291439056396484e+00,4.583593368530273438e+00,-1.209040045738220215e+00
-8.504191398620605469e+00,6.385631561279296875e+00,-1.305779218673706055e+00
-9.138701438903808594e+00,6.862072944641113281e+00,-9.998371005058288574e-01
-9.150380134582519531e+00,6.870841503143310547e+00,-5.996913909912109375e-01
-9.161846160888671875e+00,6.879451274871826172e+00,-1.999849975109100342e-01
-9.173098564147949219e+00,6.887900352478027344e+00,2.002305984497070312e-01
-9.185061454772949219e+00,6.896883010864257812e+00,6.019643545150756836e-01
-9.195550918579101562e+00,6.904759407043457031e+00,1.006056666374206543e+00
-3.242173194885253906e+00,2.362684488296508789e+00,-1.074937701225280762e+00
-3.868049621582031250e+00,2.818782329559326172e+00,-1.104970812797546387e+00
-4.744740486145019531e+00,3.457657575607299805e+00,-1.141193747520446777e+00
-6.130158424377441406e+00,4.467259883880615234e+00,-1.201375722885131836e+00
-8.648295402526855469e+00,6.302313804626464844e+00,-1.313920021057128906e+00
-9.012349128723144531e+00,6.567612648010253906e+00,-9.756284356117248535e-01
-9.023989677429199219e+00,6.576095104217529297e+00,-5.851793885231018066e-01
-9.035287857055664062e+00,6.584328651428222656e+00,-1.951453089714050293e-01
-9.046241760253906250e+00,6.592310905456542969e+00,1.953818947076797485e-01
-9.057753562927246094e+00,6.600700378417968750e+00,5.873689055442810059e-01
-9.069396018981933594e+00,6.609184741973876953e+00,9.818040132522583008e-01
-3.274732589721679688e+00,2.315387725830078125e+00,-1.074634671211242676e+00
-3.902100563049316406e+00,2.758965969085693359e+00,-1.103303909301757812e+00
-4.778150081634521484e+00,3.378373622894287109e+00,-1.137482404708862305e+00
-6.232698440551757812e+00,4.406806945800781250e+00,-1.208985924720764160e+00
-8.793487548828125000e+00,6.217403411865234375e+00,-1.322322845458984375e+00
-8.895199775695800781e+00,6.289318561553955078e+00,-9.531036019325256348e-01
-8.906113624572753906e+00,6.297035217285156250e+00,-5.716320872306823730e-01
-8.917256355285644531e+00,6.304913520812988281e+00,-1.906273961067199707e-01
-8.928648948669433594e+00,6.312968730926513672e+00,1.908709555864334106e-01
-8.939000129699707031e+00,6.320287227630615234e+00,5.737428665161132812e-01
-8.950069427490234375e+00,6.328114032745361328e+00,9.589828252792358398e-01
-3.307224273681640625e+00,2.268069505691528320e+00,-1.074533820152282715e+00
-3.936061143875122070e+00,2.699321031570434570e+00,-1.101868867874145508e+00
-4.856945991516113281e+00,3.330857038497924805e+00,-1.144773364067077637e+00
-6.258126735687255859e+00,4.291776180267333984e+00,-1.201879262924194336e+00
-8.774122238159179688e+00,6.017226696014404297e+00,-1.306325554847717285e+00
-8.785081863403320312e+00,6.024743080139160156e+00,-9.319692850112915039e-01
-8.795993804931640625e+00,6.032226085662841797e+00,-5.589650869369506836e-01
-8.806990623474121094e+00,6.039767742156982422e+00,-1.864030510187149048e-01
-8.818089485168457031e+00,6.047379493713378906e+00,1.866379529237747192e-01
-8.829213142395019531e+00,6.055008411407470703e+00,5.610761046409606934e-01
-8.840185165405273438e+00,6.062532424926757812e+00,9.378149509429931641e-01
-3.341774702072143555e+00,2.222119092941284180e+00,-1.075315237045288086e+00
-3.972503662109375000e+00,2.641523361206054688e+00,-1.101373434066772461e+00
-4.893271446228027344e+00,3.253789663314819336e+00,-1.142241001129150391e+00
-6.287831306457519531e+00,4.181104660034179688e+00,-1.195968031883239746e+00
-8.652748107910156250e+00,5.753660202026367188e+00,-1.275862932205200195e+00
-8.663854598999023438e+00,5.761045455932617188e+00,-9.102677106857299805e-01
-8.674763679504394531e+00,5.768299579620361328e+00,-5.459584593772888184e-01
-8.685600280761718750e+00,5.775505065917968750e+00,-1.820654273033142090e-01
-8.696380615234375000e+00,5.782674312591552734e+00,1.822914183139801025e-01
-8.707035064697265625e+00,5.789758205413818359e+00,5.479894876480102539e-01
-8.718996047973632812e+00,5.797712326049804688e+00,9.160612225532531738e-01
-3.374151229858398438e+00,2.174654483795166016e+00,-1.075607180595397949e+00
-4.006310939788818359e+00,2.582083940505981445e+00,-1.100386977195739746e+00
-4.926332950592041016e+00,3.175041913986206055e+00,-1.139233589172363281e+00
-6.390062332153320312e+00,4.118421554565429688e+00,-1.204077243804931641e+00
-8.558071136474609375e+00,5.515711784362792969e+00,-1.250133514404296875e+00
-8.568221092224121094e+00,5.522253990173339844e+00,-8.918240666389465332e-01
-8.579143524169921875e+00,5.529293060302734375e+00,-5.349046587944030762e-01
-8.589854240417480469e+00,5.536196231842041016e+00,-1.783791184425354004e-01
-8.600367546081542969e+00,5.542972087860107422e+00,1.785974353551864624e-01
-8.611747741699218750e+00,5.550306797027587891e+00,5.369375944137573242e-01
-8.622002601623535156e+00,5.556916236877441406e+00,8.974218964576721191e-01
-8.633559226989746094e+00,5.564364433288574219e+00,1.261160492897033691e+00
-3.408694028854370117e+00,2.128491640090942383e+00,-1.076796412467956543e+00
-4.042721271514892578e+00,2.524397373199462891e+00,-1.100350499153137207e+00
-4.962744235992431641e+00,3.098887443542480469e+00,-1.137279868125915527e+00
-6.419555187225341797e+00,4.008563995361328125e+00,-1.198700308799743652e+00
-8.451864242553710938e+00,5.277599811553955078e+00,-1.223459124565124512e+00
-8.462852478027343750e+00,5.284460544586181641e+00,-8.728944063186645508e-01
-8.473136901855468750e+00,5.290882587432861328e+00,-5.235198736190795898e-01
-8.483708381652832031e+00,5.297484397888183594e+00,-1.745823770761489868e-01
-8.494599342346191406e+00,5.304284572601318359e+00,1.748064905405044556e-01
-8.504839897155761719e+00,5.310679435729980469e+00,5.254786610603332520e-01
-8.516043663024902344e+00,5.317675113677978516e+00,8.783807754516601562e-01
-8.527251243591308594e+00,5.324673652648925781e+00,1.234371781349182129e+00
-3.443238735198974609e+00,2.082167625427246094e+00,-1.078183889389038086e+00
-4.079124450683593750e+00,2.466695547103881836e+00,-1.100536227226257324e+00
-5.045055866241455078e+00,3.050806045532226562e+00,-1.146018266677856445e+00
-6.526534557342529297e+00,3.946673870086669922e+00,-1.208004236221313477e+00
-8.353815078735351562e+00,5.051651954650878906e+00,-1.198676228523254395e+00
-8.363910675048828125e+00,5.057757377624511719e+00,-8.551346063613891602e-01
-8.374231338500976562e+00,5.063997745513916016e+00,-5.128778815269470215e-01
-8.384670257568359375e+00,5.070311069488525391e+00,-1.710333377122879028e-01
-8.395263671875000000e+00,5.076716899871826172e+00,1.712494194507598877e-01
-8.406159400939941406e+00,5.083305835723876953e+00,5.148333907127380371e-01
-8.415655136108398438e+00,5.089047908782958984e+00,8.604249954223632812e-01
-8.426091194152832031e+00,5.095358371734619141e+00,1.209047079086303711e+00
-3.456756114959716797e+00,2.023350477218627930e+00,-1.073238015174865723e+00
-4.115496158599853516e+00,2.408932447433471680e+00,-1.100933790206909180e+00
-5.081274509429931641e+00,2.974233388900756836e+00,-1.144457936286926270e+00
-6.555787086486816406e+00,3.837313175201416016e+00,-1.203129172325134277e+00
-8.261137962341308594e+00,4.835510253906250000e+00,-1.175326585769653320e+00
-8.271438598632812500e+00,4.841538906097412109e+00,-8.385089635848999023e-01
-8.281798362731933594e+00,4.847602844238281250e+00,-5.029158592224121094e-01
-8.292115211486816406e+00,4.853641986846923828e+00,-1.677110642194747925e-01
-8.302425384521484375e+00,4.859676361083984375e+00,1.679195761680603027e-01
-8.312870025634765625e+00,4.865790367126464844e+00,5.048027038574218750e-01
-8.323274612426757812e+00,4.871880531311035156e+00,8.437638878822326660e-01
-8.333369255065917969e+00,4.877789497375488281e+00,1.185603022575378418e+00
-3.491166830062866211e+00,1.976958394050598145e+00,-1.075026035308837891e+00
-4.151810646057128906e+00,2.351063966751098633e+00,-1.101533174514770508e+00
-5.117443084716796875e+00,2.897876977920532227e+00,-1.143144845962524414e+00
-6.585156917572021484e+00,3.729005813598632812e+00,-1.198600888252258301e+00
-8.175391197204589844e+00,4.629514694213867188e+00,-1.153581500053405762e+00
-8.184871673583984375e+00,4.634882926940917969e+00,-8.229237794876098633e-01
-8.195276260375976562e+00,4.640775203704833984e+00,-4.935774505138397217e-01
-8.205476760864257812e+00,4.646551609039306641e+00,-1.645967662334442139e-01
-8.215513229370117188e+00,4.652235031127929688e+00,1.647980809211730957e-01
-8.226572990417480469e+00,4.658497810363769531e+00,4.954623579978942871e-01
-8.236793518066406250e+00,4.664285659790039062e+00,8.281441330909729004e-01
-8.246545791625976562e+00,4.669807910919189453e+00,1.163621664047241211e+00
-3.528042316436767578e+00,1.931684613227844238e+00,-1.077756762504577637e+00
-4.191086769104003906e+00,2.294716596603393555e+00,-1.103126406669616699e+00
-5.157324790954589844e+00,2.823754549026489258e+00,-1.142908096313476562e+00
-6.619523525238037109e+00,3.624341964721679688e+00,-1.195291399955749512e+00
-8.081090927124023438e+00,4.424583435058593750e+00,-1.131223082542419434e+00
-8.091414451599121094e+00,4.430235862731933594e+00,-8.070691227912902832e-01
-8.101463317871093750e+00,4.435738086700439453e+00,-4.840539097785949707e-01
-8.111554145812988281e+00,4.441263198852539062e+00,-1.614210158586502075e-01
-8.121704101562500000e+00,4.446820259094238281e+00,1.616230010986328125e-01
-8.131649971008300781e+00,4.452266216278076172e+00,4.858575761318206787e-01
-8.142656326293945312e+00,4.458292484283447266e+00,8.121802210807800293e-01
-8.151993751525878906e+00,4.463404655456542969e+00,1.141148328781127930e+00
-3.543953895568847656e+00,1.874976277351379395e+00,-1.074308991432189941e+00
-4.230396747589111328e+00,2.238147974014282227e+00,-1.104927897453308105e+00
-5.197256565093994141e+00,2.749678134918212891e+00,-1.142918229103088379e+00
-6.731055259704589844e+00,3.561154842376708984e+00,-1.206103086471557617e+00
-7.994127273559570312e+00,4.229400157928466797e+00,-1.110461592674255371e+00
-8.003694534301757812e+00,4.234461784362792969e+00,-7.921931147575378418e-01
-8.013805389404296875e+00,4.239810943603515625e+00,-4.751418530941009521e-01
-8.023780822753906250e+00,4.245088577270507812e+00,-1.584489047527313232e-01
-8.033638000488281250e+00,4.250303745269775391e+00,1.586435735225677490e-01
-8.044129371643066406e+00,4.255854129791259766e+00,4.769397675991058350e-01
-8.053462982177734375e+00,4.260792732238769531e+00,7.971190810203552246e-01
-8.063795089721679688e+00,4.266258239746093750e+00,1.120139122009277344e+00
-3.580793619155883789e+00,1.829360008239746094e+00,-1.077428698539733887e+00
-4.239705085754394531e+00,2.165985584259033203e+00,-1.099148988723754883e+00
-5.237195014953613281e+00,2.675584077835083008e+00,-1.143162131309509277e+00
-6.765284538269042969e+00,3.456256389617919922e+00,-1.203248739242553711e+00
-7.911938667297363281e+00,4.042060375213623047e+00,-1.090896368026733398e+00
-7.921762466430664062e+00,4.047079086303710938e+00,-7.782702445983886719e-01
-7.931937694549560547e+00,4.052277565002441406e+00,-4.668011069297790527e-01
-7.941803455352783203e+00,4.057317733764648438e+00,-1.556673198938369751e-01
-7.951380252838134766e+00,4.062210083007812500e+00,1.558550298213958740e-01
-7.961396694183349609e+00,4.067327499389648438e+00,4.685347676277160645e-01
-7.971484661102294922e+00,4.072481155395507812e+00,7.831551432609558105e-01
-7.981380462646484375e+00,4.077536582946777344e+00,1.100471019744873047e+00
-3.596690893173217773e+00,1.773035287857055664e+00,-1.074465870857238770e+00
-4.278918743133544922e+00,2.109348058700561523e+00,-1.101374983787536621e+00
-5.277098655700683594e+00,2.601413726806640625e+00,-1.143627405166625977e+00
-6.799618244171142578e+00,3.351959705352783203e+00,-1.200698971748352051e+00
-7.835969924926757812e+00,3.862842559814453125e+00,-1.072688460350036621e+00
-7.845665931701660156e+00,3.867622375488281250e+00,-7.652770280838012695e-01
-7.855342864990234375e+00,3.872392654418945312e+00,-4.589844942092895508e-01
-7.865108966827392578e+00,3.877207040786743164e+00,-1.530605703592300415e-01
-7.874998569488525391e+00,3.882082223892211914e+00,1.532530188560485840e-01
-7.884941577911376953e+00,3.886983633041381836e+00,4.607139229774475098e-01
-7.894773483276367188e+00,3.891830444335937500e+00,7.700670361518859863e-01
-7.904237747192382812e+00,3.896496057510375977e+00,1.082033872604370117e+00
-3.633383989334106445e+00,1.726931929588317871e+00,-1.077932715415954590e+00
-4.318065166473388672e+00,2.052358150482177734e+00,-1.103776693344116211e+00
-5.316923141479492188e+00,2.527111053466796875e+00,-1.144301891326904297e+00
-6.833994865417480469e+00,3.248168945312500000e+00,-1.198436737060546875e+00
-7.763843059539794922e+00,3.690121650695800781e+00,-1.055476188659667969e+00
-7.773800849914550781e+00,3.694854736328125000e+00,-7.530314922332763672e-01
-7.783560752868652344e+00,3.699493408203125000e+00,-4.516499936580657959e-01
-7.793232440948486328e+00,3.704090356826782227e+00,-1.506145894527435303e-01
-7.802847862243652344e+00,3.708660602569580078e+00,1.508004218339920044e-01
-7.812337875366210938e+00,3.713171005249023438e+00,4.533198475837707520e-01
-7.822868347167968750e+00,3.718176126480102539e+00,7.577845454216003418e-01
-7.831904411315917969e+00,3.722470998764038086e+00,1.064728975296020508e+00
-3.651927947998046875e+00,1.672098636627197266e+00,-1.076223611831665039e+00
-4.330701351165771484e+00,1.982886910438537598e+00,-1.099639177322387695e+00
-5.360823154449462891e+00,2.454545974731445312e+00,-1.146071195602416992e+00
-6.873793601989746094e+00,3.147285699844360352e+00,-1.197393417358398438e+00
-7.687366008758544922e+00,3.519793987274169922e+00,-1.038123965263366699e+00
-7.697238922119140625e+00,3.524314641952514648e+00,-7.406527400016784668e-01
-7.706538200378417969e+00,3.528572320938110352e+00,-4.442045390605926514e-01
-7.716108798980712891e+00,3.532954454421997070e+00,-1.481315940618515015e-01
-7.725997447967529297e+00,3.537482261657714844e+00,1.483214348554611206e-01
-7.735372543334960938e+00,3.541774749755859375e+00,4.458665251731872559e-01
-7.745573997497558594e+00,3.546445608139038086e+00,7.453036904335021973e-01
-7.754115581512451172e+00,3.550356626510620117e+00,1.047137975692749023e+00
-3.667704820632934570e+00,1.616232514381408691e+00,-1.073945403099060059e+00
-4.369699954986572266e+00,1.925577998161315918e+00,-1.102430343627929688e+00
-5.355062484741210938e+00,2.359793424606323242e+00,-1.137502074241638184e+00
-6.908153057098388672e+00,3.044187784194946289e+00,-1.195666074752807617e+00
-7.625027179718017578e+00,3.360089778900146484e+00,-1.023105859756469727e+00
-7.634268283843994141e+00,3.364161968231201172e+00,-7.298852801322937012e-01
-7.643667697906494141e+00,3.368303775787353516e+00,-4.377568662166595459e-01
-7.653157234191894531e+00,3.372485637664794922e+00,-1.459814012050628662e-01
-7.662775516510009766e+00,3.376724243164062500e+00,1.461648643016815186e-01
-7.672634601593017578e+00,3.381068706512451172e+00,4.394158124923706055e-01
-7.682567119598388672e+00,3.385445594787597656e+00,7.345030307769775391e-01
-7.692319869995117188e+00,3.389743328094482422e+00,1.032135009765625000e+00
-7.701548099517822266e+00,3.393809795379638672e+00,1.332987189292907715e+00
-3.689128637313842773e+00,1.563010454177856445e+00,-1.073557853698730469e+00
-4.385847091674804688e+00,1.858196139335632324e+00,-1.099681138992309570e+00
-5.403118133544921875e+00,2.289193868637084961e+00,-1.140633106231689453e+00
-7.029563426971435547e+00,2.978286266326904297e+00,-1.209177613258361816e+00
-7.548186302185058594e+00,3.198016405105590820e+00,-1.006550550460815430e+00
-7.557747364044189453e+00,3.202067375183105469e+00,-7.181139588356018066e-01
-7.567255496978759766e+00,3.206095695495605469e+00,-4.307084381580352783e-01
-7.576644420623779297e+00,3.210073709487915039e+00,-1.436308026313781738e-01
-7.585953712463378906e+00,3.214017868041992188e+00,1.438072770833969116e-01
-7.595287799835205078e+00,3.217972517013549805e+00,4.323039650917053223e-01
-7.604490756988525391e+00,3.221871614456176758e+00,7.225553393363952637e-01
-7.614905357360839844e+00,3.226284265518188477e+00,1.015447497367858887e+00
-7.625291824340820312e+00,3.230684518814086914e+00,1.311650633811950684e+00
-3.728156566619873047e+00,1.516983509063720703e+00,-1.078485965728759766e+00
-4.427918910980224609e+00,1.801716089248657227e+00,-1.103650808334350586e+00
-5.446813106536865234e+00,2.216303348541259766e+00,-1.143043279647827148e+00
-7.068999290466308594e+00,2.876369476318359375e+00,-1.208755254745483398e+00
-7.485504150390625000e+00,3.045845031738281250e+00,-9.922766685485839844e-01
-7.495019435882568359e+00,3.049716711044311523e+00,-7.079335451126098633e-01
-7.504285812377929688e+00,3.053487062454223633e+00,-4.245932400226593018e-01
-7.513605594635009766e+00,3.057279348373413086e+00,-1.415917128324508667e-01
-7.522990703582763672e+00,3.061098098754882812e+00,1.417685747146606445e-01
-7.532205581665039062e+00,3.064847707748413086e+00,4.261729419231414795e-01
-7.541096687316894531e+00,3.068465471267700195e+00,7.122856974601745605e-01
-7.550984382629394531e+00,3.072488784790039062e+00,1.000956654548645020e+00
-7.560647487640380859e+00,3.076420545578002930e+00,1.292824149131774902e+00
-3.749484062194824219e+00,1.463470101356506348e+00,-1.078485488891601562e+00
-4.444125652313232422e+00,1.734597444534301758e+00,-1.101389169692993164e+00
-5.450140953063964844e+00,2.127257585525512695e+00,-1.137235403060913086e+00
-7.038861274719238281e+00,2.747354745864868164e+00,-1.196755051612854004e+00
-7.418980121612548828e+00,2.895720005035400391e+00,-9.778637886047363281e-01
-7.427970886230468750e+00,2.899229288101196289e+00,-6.976094841957092285e-01
-7.437356948852539062e+00,2.902892827987670898e+00,-4.184126257896423340e-01
-7.446589469909667969e+00,2.906496286392211914e+00,-1.395305395126342773e-01
-7.455677986145019531e+00,2.910043716430664062e+00,1.397008299827575684e-01
-7.465255260467529297e+00,2.913781881332397461e+00,4.199821352958679199e-01
-7.474985122680664062e+00,2.917579412460327148e+00,7.020248770713806152e-01
-7.484617233276367188e+00,2.921339035034179688e+00,9.865151047706604004e-01
-7.493814468383789062e+00,2.924928903579711914e+00,1.274106740951538086e+00
-3.770780324935913086e+00,1.409932494163513184e+00,-1.078695774078369141e+00
-4.460449695587158203e+00,1.667806744575500488e+00,-1.099405884742736816e+00
-5.497970104217529297e+00,2.055746078491210938e+00,-1.140958786010742188e+00
-7.084246635437011719e+00,2.648870944976806641e+00,-1.197902679443359375e+00
-7.356755256652832031e+00,2.750764369964599609e+00,-9.643737673759460449e-01
-7.365747451782226562e+00,2.754126787185668945e+00,-6.879928708076477051e-01
-7.374757766723632812e+00,2.757495880126953125e+00,-4.126281738281250000e-01
-7.383908748626708984e+00,2.760917425155639648e+00,-1.376014947891235352e-01
-7.393221855163574219e+00,2.764399766921997070e+00,1.377750486135482788e-01
-7.402631759643554688e+00,2.767918109893798828e+00,4.141877293586730957e-01
-7.411980628967285156e+00,2.771413803100585938e+00,6.923112869262695312e-01
-7.421025753021240234e+00,2.774795770645141602e+00,9.727988243103027344e-01
-7.431265830993652344e+00,2.778624773025512695e+00,1.256581425666809082e+00
-3.771897315979003906e+00,1.349140763282775879e+00,-1.073381185531616211e+00
-4.505567550659179688e+00,1.611561655998229980e+00,-1.104727864265441895e+00
-5.545634746551513672e+00,1.983575224876403809e+00,-1.144841074943542480e+00
-7.129477024078369141e+00,2.550087451934814453e+00,-1.199255943298339844e+00
-7.297613143920898438e+00,2.610226631164550781e+00,-9.516260027885437012e-01
-7.306941986083984375e+00,2.613563537597656250e+00,-6.789364814758300781e-01
-7.316084861755371094e+00,2.616833686828613281e+00,-4.072078764438629150e-01
-7.325159549713134766e+00,2.620079517364501953e+00,-1.357938945293426514e-01
-7.334186077117919922e+00,2.623308181762695312e+00,1.359612345695495605e-01
-7.343100547790527344e+00,2.626496791839599609e+00,4.087115526199340820e-01
-7.352903366088867188e+00,2.630003213882446289e+00,6.832070350646972656e-01
-7.361375808715820312e+00,2.633033514022827148e+00,9.599407911300659180e-01
-7.370810031890869141e+00,2.636407852172851562e+00,1.239850759506225586e+00
-3.796142101287841797e+00,1.296837449073791504e+00,-1.074888229370117188e+00
-4.525349617004394531e+00,1.545949101448059082e+00,-1.104039549827575684e+00
-5.553656578063964844e+00,1.897239089012145996e+00,-1.140774130821228027e+00
-7.180442333221435547e+00,2.452981233596801758e+00,-1.201799750328063965e+00
-7.236464500427246094e+00,2.472119569778442383e+00,-9.389416575431823730e-01
-7.245826244354248047e+00,2.475317955017089844e+00,-6.698971390724182129e-01
-7.254630565643310547e+00,2.478325605392456055e+00,-4.017718136310577393e-01
-7.263624668121337891e+00,2.481398105621337891e+00,-1.339810192584991455e-01
-7.272842407226562500e+00,2.484547138214111328e+00,1.341510415077209473e-01
-7.281559467315673828e+00,2.487524986267089844e+00,4.032631814479827881e-01
-7.290925979614257812e+00,2.490724802017211914e+00,6.740666627883911133e-01
-7.300210952758789062e+00,2.493896722793579102e+00,9.472128748893737793e-01
-7.309086322784423828e+00,2.496928691864013672e+00,1.223331093788146973e+00
-3.820286035537719727e+00,1.244319438934326172e+00,-1.076571226119995117e+00
-4.545146942138671875e+00,1.480416536331176758e+00,-1.103586792945861816e+00
-5.605458259582519531e+00,1.825774550437927246e+00,-1.145929336547851562e+00
-7.170130252838134766e+00,2.335409641265869141e+00,-1.194356679916381836e+00
-7.179245948791503906e+00,2.338378667831420898e+00,-9.270796775817871094e-01
-7.188180923461914062e+00,2.341289043426513672e+00,-6.614016294479370117e-01
-7.197134494781494141e+00,2.344205141067504883e+00,-3.966886997222900391e-01
-7.206054210662841797e+00,2.347110509872436523e+00,-1.322858780622482300e-01
-7.214970588684082031e+00,2.350014686584472656e+00,1.324495524168014526e-01
-7.223974227905273438e+00,2.352947473526000977e+00,3.981680572032928467e-01
-7.232914447784423828e+00,2.355859279632568359e+00,6.655176877975463867e-01
-7.241554737091064453e+00,2.358673572540283203e+00,9.351258277893066406e-01
-7.251287937164306641e+00,2.361843824386596680e+00,1.207875370979309082e+00
-3.827739953994750977e+00,1.186427950859069824e+00,-1.073776245117187500e+00
-4.568621158599853516e+00,1.416067838668823242e+00,-1.104251861572265625e+00
-5.618224620819091797e+00,1.741397976875305176e+00,-1.143326520919799805e+00
-7.110540866851806641e+00,2.203949213027954102e+00,-1.179055094718933105e+00
-7.119963169097900391e+00,2.206869602203369141e+00,-9.152514934539794922e-01
-7.128977775573730469e+00,2.209663629531860352e+00,-6.529771685600280762e-01
-7.137777805328369141e+00,2.212391376495361328e+00,-3.916316032409667969e-01
-7.146629810333251953e+00,2.215135097503662109e+00,-1.305995583534240723e-01
-7.155545711517333984e+00,2.217898607254028320e+00,1.307624876499176025e-01
-7.164312362670898438e+00,2.220615863800048828e+00,3.930874764919281006e-01
-7.172784328460693359e+00,2.223241806030273438e+00,6.569895744323730469e-01
-7.182110309600830078e+00,2.226132392883300781e+00,9.232403039932250977e-01
-7.191190719604492188e+00,2.228946924209594727e+00,1.192428231239318848e+00
-3.851656198501586914e+00,1.133680701255798340e+00,-1.075823068618774414e+00
-4.588291645050048828e+00,1.350499033927917480e+00,-1.104221105575561523e+00
-5.626619338989257812e+00,1.656116127967834473e+00,-1.140094161033630371e+00
-7.061166763305664062e+00,2.078354835510253906e+00,-1.165815711021423340e+00
-7.069822788238525391e+00,2.080902576446533203e+00,-9.048846364021301270e-01
-7.078451156616210938e+00,2.083442449569702148e+00,-6.455515623092651367e-01
-7.087402343750000000e+00,2.086076974868774414e+00,-3.871896862983703613e-01
-7.096189022064208984e+00,2.088663339614868164e+00,-1.291182339191436768e-01
-7.104820728302001953e+00,2.091203927993774414e+00,1.292752921581268311e-01
-7.113851070404052734e+00,2.093861818313598633e+00,3.886345922946929932e-01
-7.122973442077636719e+00,2.096546888351440430e+00,6.496120095252990723e-01
-7.131950855255126953e+00,2.099189281463623047e+00,9.128365516662597656e-01
-7.140466213226318359e+00,2.101695537567138672e+00,1.178908228874206543e+00
-3.862291097640991211e+00,1.076990842819213867e+00,-1.074377775192260742e+00
-4.615344047546386719e+00,1.286977887153625488e+00,-1.106184959411621094e+00
-5.644515514373779297e+00,1.573959946632385254e+00,-1.139038681983947754e+00
-7.003608703613281250e+00,1.952939987182617188e+00,-1.151579618453979492e+00
-7.012629032135009766e+00,1.955455303192138672e+00,-8.938902616500854492e-01
-7.021379470825195312e+00,1.957895398139953613e+00,-6.377255320549011230e-01
-7.030058383941650391e+00,1.960315346717834473e+00,-3.824848830699920654e-01
-7.038770198822021484e+00,1.962744712829589844e+00,-1.275492310523986816e-01
-7.047535896301269531e+00,1.965188980102539062e+00,1.277080774307250977e-01
-7.056292057037353516e+00,1.967630624771118164e+00,3.839121758937835693e-01
-7.064893722534179688e+00,1.970029115676879883e+00,6.416777968406677246e-01
-7.074435710906982422e+00,1.972689867019653320e+00,9.017686843872070312e-01
-7.082241535186767578e+00,1.974866628646850586e+00,1.164508938789367676e+00
-3.892140388488769531e+00,1.025511264801025391e+00,-1.078487396240234375e+00
-4.614821910858154297e+00,1.215925097465515137e+00,-1.101775527000427246e+00
-5.662542819976806641e+00,1.491981387138366699e+00,-1.138250589370727539e+00
-6.950818061828613281e+00,1.831419467926025391e+00,-1.138472557067871094e+00
-6.959202766418457031e+00,1.833628654479980469e+00,-8.836440443992614746e-01
-6.968080520629882812e+00,1.835967779159545898e+00,-6.304332017898559570e-01
-6.976501941680908203e+00,1.838186740875244141e+00,-3.781008124351501465e-01
-6.985144138336181641e+00,1.840463757514953613e+00,-1.260871887207031250e-01
-6.994036197662353516e+00,1.842806696891784668e+00,1.262477040290832520e-01
-7.002524375915527344e+00,1.845043182373046875e+00,3.795111477375030518e-01
