-3.986286640167236328e+00,-5.744753479957580566e-01,-1.079155325889587402e+00
-4.748679161071777344e+00,-6.843459606170654297e-01,-1.107643246650695801e+00
-5.829565525054931641e+00,-8.401156067848205566e-01,-1.144857525825500488e+00
-7.540865898132324219e+00,-1.086736083030700684e+00,-1.206692814826965332e+00
-1.066292095184326172e+01,-1.536664485931396484e+00,-1.322765707969665527e+00
-1.224961090087890625e+01,-1.765326976776123047e+00,-1.082772135734558105e+00
-1.227077388763427734e+01,-1.768376827239990234e+00,-6.497266888618469238e-01
-1.229205226898193359e+01,-1.771443367004394531e+00,-2.167748361825942993e-01
-1.231386852264404297e+01,-1.774587392807006836e+00,2.171595692634582520e-01
-1.233482837677001953e+01,-1.777607917785644531e+00,6.531183123588562012e-01
-1.235679531097412109e+01,-1.780773639678955078e+00,1.092246413230895996e+00
-3.979091644287109375e+00,-6.316960453987121582e-01,-1.079544663429260254e+00
-4.731107234954833984e+00,-7.510814070701599121e-01,-1.105938792228698730e+00
-5.829303741455078125e+00,-9.254243373870849609e-01,-1.147289991378784180e+00
-7.520130157470703125e+00,-1.193849444389343262e+00,-1.205985546112060547e+00
-1.058057498931884766e+01,-1.679706811904907227e+00,-1.315398335456848145e+00
-1.151595783233642578e+01,-1.828202486038208008e+00,-1.020131349563598633e+00
-1.153555488586425781e+01,-1.831313490867614746e+00,-6.121227145195007324e-01
-1.155531787872314453e+01,-1.834450960159301758e+00,-2.042243927717208862e-01
-1.157528018951416016e+01,-1.837620019912719727e+00,2.045771926641464233e-01
-1.159533882141113281e+01,-1.840804457664489746e+00,6.152950525283813477e-01
-1.161518001556396484e+01,-1.843954324722290039e+00,1.028920888900756836e+00
-3.957308292388916016e+00,-6.864404082298278809e-01,-1.076190114021301270e+00
-4.717107772827148438e+00,-8.182363510131835938e-01,-1.105290889739990234e+00
-5.795105457305908203e+00,-1.005227327346801758e+00,-1.143273949623107910e+00
-7.505426406860351562e+00,-1.301902174949645996e+00,-1.206492304801940918e+00
-1.063694286346435547e+01,-1.845099568367004395e+00,-1.325553536415100098e+00
-1.086888027191162109e+01,-1.885331869125366211e+00,-9.651021957397460938e-01
-1.088716983795166016e+01,-1.888504266738891602e+00,-5.790918469429016113e-01
-1.090561962127685547e+01,-1.891704678535461426e+00,-1.932006329298019409e-01
-1.092395210266113281e+01,-1.894884705543518066e+00,1.935254037380218506e-01
-1.094201087951660156e+01,-1.898017048835754395e+00,5.820088386535644531e-01
-1.096111679077148438e+01,-1.901331305503845215e+00,9.732923507690429688e-01
-3.956273555755615234e+00,-7.447379827499389648e-01,-1.078697204589843750e+00
-4.706801414489746094e+00,-8.860191106796264648e-01,-1.105734229087829590e+00
-5.804616928100585938e+00,-1.092674374580383301e+00,-1.148118257522583008e+00
-7.496977329254150391e+00,-1.411248207092285156e+00,-1.208257555961608887e+00
-1.027847766876220703e+01,-1.934844136238098145e+00,-1.284202098846435547e+00
-1.029553604125976562e+01,-1.938055396080017090e+00,-9.165614247322082520e-01
-1.031267070770263672e+01,-1.941280722618103027e+00,-5.499557256698608398e-01
-1.032969284057617188e+01,-1.944485068321228027e+00,-1.834719628095626831e-01
-1.034692001342773438e+01,-1.947727918624877930e+00,1.837779432535171509e-01
-1.036429309844970703e+01,-1.950998187065124512e+00,5.527086257934570312e-01
-1.038158321380615234e+01,-1.954252958297729492e+00,9.242217540740966797e-01
-3.937234163284301758e+00,-7.996640205383300781e-01,-1.076516509056091309e+00
-4.696535587310791016e+00,-9.538803696632385254e-01,-1.106416702270507812e+00
-5.774628162384033203e+00,-1.172844290733337402e+00,-1.145389795303344727e+00
-7.488886833190917969e+00,-1.521015286445617676e+00,-1.210338354110717773e+00
-9.745529174804687500e+00,-1.979346156120300293e+00,-1.221029758453369141e+00
-9.761134147644042969e+00,-1.982515454292297363e+00,-8.714231252670288086e-01
-9.777273178100585938e+00,-1.985793352127075195e+00,-5.228661894798278809e-01
-9.793272972106933594e+00,-1.989042997360229492e+00,-1.744320839643478394e-01
-9.809158325195312500e+00,-1.992269396781921387e+00,1.747150272130966187e-01
-9.825901031494140625e+00,-1.995669960975646973e+00,5.254666805267333984e-01
-9.841513633728027344e+00,-1.998840808868408203e+00,8.785989880561828613e-01
-9.858243942260742188e+00,-2.002238750457763672e+00,1.235151767730712891e+00
-3.939629554748535156e+00,-8.590375781059265137e-01,-1.080422759056091309e+00
-4.690179347991943359e+00,-1.022695183753967285e+00,-1.108254313468933105e+00
-5.749066829681396484e+00,-1.253585934638977051e+00,-1.143761515617370605e+00
-7.487461566925048828e+00,-1.632643580436706543e+00,-1.213760495185852051e+00
-9.269655227661132812e+00,-2.021251678466796875e+00,-1.164912343025207520e+00
-9.285238265991210938e+00,-2.024649381637573242e+00,-8.314396142959594727e-01
-9.300108909606933594e+00,-2.027891874313354492e+00,-4.988496601581573486e-01
-9.315208435058593750e+00,-2.031184434890747070e+00,-1.664178669452667236e-01
-9.330564498901367188e+00,-2.034532785415649414e+00,1.666922122240066528e-01
-9.345004081726074219e+00,-2.037681341171264648e+00,5.012578368186950684e-01
-9.360095024108886719e+00,-2.040971994400024414e+00,8.381426930427551270e-01
-9.376627922058105469e+00,-2.044576883316040039e+00,1.178355455398559570e+00
-3.926753997802734375e+00,-9.152921438217163086e-01,-1.080373883247375488e+00
-4.660838603973388672e+00,-1.086400866508483887e+00,-1.104882478713989258e+00
-5.728003501892089844e+00,-1.335147738456726074e+00,-1.143255949020385742e+00
-7.422818660736083984e+00,-1.730194330215454102e+00,-1.207172393798828125e+00
-8.844894409179687500e+00,-2.061667919158935547e+00,-1.115127086639404297e+00
-8.859369277954101562e+00,-2.065041780471801758e+00,-7.958707213401794434e-01
-8.873549461364746094e+00,-2.068347215652465820e+00,-4.775084853172302246e-01
-8.887855529785156250e+00,-2.071681737899780273e+00,-1.592965573072433472e-01
-8.902083396911621094e+00,-2.074998140335083008e+00,1.595515608787536621e-01
-8.916057586669921875e+00,-2.078255414962768555e+00,4.797959327697753906e-01
-8.930991172790527344e+00,-2.081736326217651367e+00,8.023048043251037598e-01
-8.945938110351562500e+00,-2.085220336914062500e+00,1.127866268157958984e+00
-3.913833618164062500e+00,-9.715424776077270508e-01,-1.080534458160400391e+00
-4.658370494842529297e+00,-1.156361103057861328e+00,-1.108107686042785645e+00
-5.706851005554199219e+00,-1.416628479957580566e+00,-1.142964124679565430e+00
-7.427790164947509766e+00,-1.843822240829467773e+00,-1.212148904800415039e+00
-8.444199562072753906e+00,-2.096128702163696289e+00,-1.068282365798950195e+00
-8.457650184631347656e+00,-2.099467277526855469e+00,-7.624042630195617676e-01
-8.471127510070800781e+00,-2.102813005447387695e+00,-4.574259519577026367e-01
-8.484486579895019531e+00,-2.106128931045532227e+00,-1.525916755199432373e-01
-8.497941970825195312e+00,-2.109469175338745117e+00,1.528336703777313232e-01
-8.511477470397949219e+00,-2.112829208374023438e+00,4.596047699451446533e-01
-8.524943351745605469e+00,-2.116171598434448242e+00,7.684702873229980469e-01
-8.539711952209472656e+00,-2.119837760925292969e+00,1.080365657806396484e+00
-3.904042959213256836e+00,-1.028647303581237793e+00,-1.081785440444946289e+00
-4.632419109344482422e+00,-1.220561742782592773e+00,-1.105976939201354980e+00
-5.690348148345947266e+00,-1.499307513236999512e+00,-1.143839836120605469e+00
-7.368271827697753906e+00,-1.941411256790161133e+00,-1.206847190856933594e+00
-8.084529876708984375e+00,-2.130132675170898438e+00,-1.026532411575317383e+00
-8.097501754760742188e+00,-2.133550643920898438e+00,-7.326169610023498535e-01
-8.110043525695800781e+00,-2.136855125427246094e+00,-4.395346045494079590e-01
-8.122758865356445312e+00,-2.140205383300781250e+00,-1.466220170259475708e-01
-8.135846138000488281e+00,-2.143653631210327148e+00,1.468582302331924438e-01
-8.148363113403320312e+00,-2.146951675415039062e+00,4.416113793849945068e-01
-8.161703109741210938e+00,-2.150466442108154297e+00,7.384254932403564453e-01
-8.174988746643066406e+00,-2.153967142105102539e+00,1.038018345832824707e+00
-3.874883651733398438e+00,-1.080502271652221680e+00,-1.077880620956420898e+00
-4.634149551391601562e+00,-1.292221784591674805e+00,-1.110692143440246582e+00
-5.673922538757324219e+00,-1.582159996032714844e+00,-1.144972920417785645e+00
-7.380131721496582031e+00,-2.057932376861572266e+00,-1.213490009307861328e+00
-7.743352890014648438e+00,-2.159215927124023438e+00,-9.870346188545227051e-01
-7.755491733551025391e+00,-2.162600755691528320e+00,-7.044022083282470703e-01
-7.767559528350830078e+00,-2.165965795516967773e+00,-4.226101636886596680e-01
-7.779670715332031250e+00,-2.169342994689941406e+00,-1.409750580787658691e-01
-7.791822433471679688e+00,-2.172731637954711914e+00,1.411952525377273560e-01
-7.803965568542480469e+00,-2.176117658615112305e+00,4.245908856391906738e-01
-7.815946578979492188e+00,-2.179458379745483398e+00,7.098930478096008301e-01
-7.829060077667236328e+00,-2.183115243911743164e+00,9.979596138000488281e-01
-7.840176105499267578e+00,-2.186214923858642578e+00,1.289133548736572266e+00
-3.865036249160766602e+00,-1.137618899345397949e+00,-1.079560279846191406e+00
-4.608078479766845703e+00,-1.356322884559631348e+00,-1.108982920646667480e+00
-5.657668590545654297e+00,-1.665254950523376465e+00,-1.146385431289672852e+00
-7.319990634918212891e+00,-2.154536008834838867e+00,-1.208548188209533691e+00
-7.419464111328125000e+00,-2.183814764022827148e+00,-9.496361017227172852e-01
-7.430828094482421875e+00,-2.187159538269042969e+00,-6.776881814002990723e-01
-7.442458629608154297e+00,-2.190582752227783203e+00,-4.065866470336914062e-01
-7.453999996185302734e+00,-2.193979740142822266e+00,-1.356287598609924316e-01
-7.465278625488281250e+00,-2.197299480438232422e+00,1.358339786529541016e-01
-7.477061748504638672e+00,-2.200767755508422852e+00,4.084770381450653076e-01
-7.488950252532958984e+00,-2.204267024993896484e+00,6.829889416694641113e-01
-7.500693798065185547e+00,-2.207723379135131836e+00,9.600328803062438965e-01
-7.511957168579101562e+00,-2.211038827896118164e+00,1.240242362022399902e+00
-3.841716527938842773e+00,-1.190760016441345215e+00,-1.077697038650512695e+00
-4.589341163635253906e+00,-1.422490239143371582e+00,-1.109260082244873047e+00
-5.650876998901367188e+00,-1.751518726348876953e+00,-1.149971485137939453e+00
-7.131831169128417969e+00,-2.210548162460327148e+00,-1.182585358619689941e+00
-7.143361091613769531e+00,-2.214122056961059570e+00,-9.182592630386352539e-01
-7.154499530792236328e+00,-2.217574357986450195e+00,-6.553148031234741211e-01
-7.165430068969726562e+00,-2.220962285995483398e+00,-3.931488096714019775e-01
-7.176486492156982422e+00,-2.224389314651489258e+00,-1.311451643705368042e-01
-7.187518119812011719e+00,-2.227808475494384766e+00,1.313467621803283691e-01
-7.198406696319580078e+00,-2.231183528900146484e+00,3.949581682682037354e-01
-7.209006786346435547e+00,-2.234468936920166016e+00,6.603073477745056152e-01
-7.220545291900634766e+00,-2.238045454025268555e+00,9.281810522079467773e-01
-7.231843471527099609e+00,-2.241547346115112305e+00,1.199169158935546875e+00
-3.835066556930541992e+00,-1.249133706092834473e+00,-1.080736517906188965e+00
-4.566848278045654297e+00,-1.487485051155090332e+00,-1.108855962753295898e+00
-5.639805793762207031e+00,-1.836961984634399414e+00,-1.152951002120971680e+00
-6.853422164916992188e+00,-2.232253551483154297e+00,-1.141601324081420898e+00
-6.864082813262939453e+00,-2.235725641250610352e+00,-8.863815665245056152e-01
-6.874585151672363281e+00,-2.239146471023559570e+00,-6.325469017028808594e-01
-6.885114192962646484e+00,-2.242576122283935547e+00,-3.794909119606018066e-01
-6.895534992218017578e+00,-2.245970249176025391e+00,-1.265854835510253906e-01
-6.906014919281005859e+00,-2.249383687973022461e+00,1.267778724431991577e-01
-6.916584491729736328e+00,-2.252826213836669922e+00,3.812254667282104492e-01
-6.927100181579589844e+00,-2.256251335144042969e+00,6.373789310455322266e-01
-6.937334060668945312e+00,-2.259584665298461914e+00,8.958407640457153320e-01
-6.948691844940185547e+00,-2.263283967971801758e+00,1.157470703125000000e+00
-3.811539649963378906e+00,-1.302097558975219727e+00,-1.079248070716857910e+00
-4.548022747039794922e+00,-1.553694725036621094e+00,-1.109571099281311035e+00
-5.589088916778564453e+00,-1.909343481063842773e+00,-1.148052334785461426e+00
-6.601908683776855469e+00,-2.255342960357666016e+00,-1.104969859123229980e+00
-6.611817836761474609e+00,-2.258728027343750000e+00,-8.578928112983703613e-01
-6.622147560119628906e+00,-2.262256860733032227e+00,-6.122362613677978516e-01
-6.632045745849609375e+00,-2.265638351440429688e+00,-3.672921955585479736e-01
-6.642037868499755859e+00,-2.269051790237426758e+00,-1.225155517458915710e-01
-6.652298927307128906e+00,-2.272557258605957031e+00,1.227048262953758240e-01
-6.662043571472167969e+00,-2.275886058807373047e+00,3.689534962177276611e-01
-6.672453403472900391e+00,-2.279442310333251953e+00,6.168872117996215820e-01
-6.682794094085693359e+00,-2.282974958419799805e+00,8.671020865440368652e-01
-6.692765235900878906e+00,-2.286381244659423828e+00,1.120176672935485840e+00
-6.703934192657470703e+00,-2.290196895599365234e+00,1.377052187919616699e+00
-3.787918806076049805e+00,-1.354871392250061035e+00,-1.077940464019775391e+00
-4.529230117797851562e+00,-1.620025277137756348e+00,-1.110529661178588867e+00
-5.582790851593017578e+00,-1.996865272521972656e+00,-1.152511715888977051e+00
-6.360975742340087891e+00,-2.275208234786987305e+00,-1.069985628128051758e+00
-6.370180130004882812e+00,-2.278500556945800781e+00,-8.306865692138671875e-01
-6.379992961883544922e+00,-2.282010316848754883e+00,-5.928074717521667480e-01
-6.389657020568847656e+00,-2.285466909408569336e+00,-3.556436002254486084e-01
-6.399242401123046875e+00,-2.288895606994628906e+00,-1.186292394995689392e-01
-6.408792018890380859e+00,-2.292311191558837891e+00,1.188062652945518494e-01
-6.418248176574707031e+00,-2.295693397521972656e+00,3.572349548339843750e-01
-6.428549289703369141e+00,-2.299377918243408203e+00,5.973191857337951660e-01
-6.437629222869873047e+00,-2.302625656127929688e+00,8.394820690155029297e-01
-6.447618484497070312e+00,-2.306198835372924805e+00,1.084559917449951172e+00
-6.458974361419677734e+00,-2.310260534286499023e+00,1.333390951156616211e+00
-3.787618398666381836e+00,-1.416228532791137695e+00,-1.083512663841247559e+00
-4.484737873077392578e+00,-1.676888465881347656e+00,-1.105392456054687500e+00
-5.536184310913085938e+00,-2.070034742355346680e+00,-1.148889183998107910e+00
-6.142941951751708984e+00,-2.296907424926757812e+00,-1.038733720779418945e+00
-6.152177333831787109e+00,-2.300360918045043945e+00,-8.064695000648498535e-01
-6.161273956298828125e+00,-2.303762197494506836e+00,-5.754898190498352051e-01
-6.170394420623779297e+00,-2.307172298431396484e+00,-3.452423214912414551e-01
-6.179620265960693359e+00,-2.310621976852416992e+00,-1.151591911911964417e-01
-6.188986778259277344e+00,-2.314124345779418945e+00,1.153337433934211731e-01
-6.198439121246337891e+00,-2.317658662796020508e+00,3.468114733695983887e-01
-6.207845687866210938e+00,-2.321175575256347656e+00,5.798398256301879883e-01
-6.217003345489501953e+00,-2.324599742889404297e+00,8.149673342704772949e-01
-6.227224826812744141e+00,-2.328421831130981445e+00,1.052985548973083496e+00
-6.235253810882568359e+00,-2.331423997879028320e+00,1.293962597846984863e+00
-3.766950845718383789e+00,-1.470287680625915527e+00,-1.083509564399719238e+00
-4.469398498535156250e+00,-1.744461655616760254e+00,-1.107652544975280762e+00
-5.489413261413574219e+00,-2.142586231231689453e+00,-1.145430088043212891e+00
-5.933248519897460938e+00,-2.315820455551147461e+00,-1.008777618408203125e+00
-5.941902637481689453e+00,-2.319198369979858398e+00,-7.831765413284301758e-01
-5.950592041015625000e+00,-2.322589874267578125e+00,-5.588591098785400391e-01
-5.959547996520996094e+00,-2.326085567474365234e+00,-3.352736830711364746e-01
-5.968429565429687500e+00,-2.329552173614501953e+00,-1.118335053324699402e-01
-5.977145195007324219e+00,-2.332953929901123047e+00,1.119968146085739136e-01
-5.986312389373779297e+00,-2.336532115936279297e+00,3.367794156074523926e-01
-5.995606422424316406e+00,-2.340159654617309570e+00,5.630867481231689453e-01
-6.004827976226806641e+00,-2.343758821487426758e+00,7.914704680442810059e-01
-6.013704299926757812e+00,-2.347223520278930664e+00,1.022456765174865723e+00
-6.021902084350585938e+00,-2.350423097610473633e+00,1.256540060043334961e+00
-3.746258258819580078e+00,-1.524349093437194824e+00,-1.083722472190856934e+00
-4.454200267791748047e+00,-1.812410116195678711e+00,-1.110201478004455566e+00
-5.487869739532470703e+00,-2.233009099960327148e+00,-1.151659250259399414e+00
-5.730663299560546875e+00,-2.331801891326904297e+00,-9.799081683158874512e-01
-5.739641189575195312e+00,-2.335454940795898438e+00,-7.608454823493957520e-01
-5.748292446136474609e+00,-2.338974952697753906e+00,-5.429484248161315918e-01
-5.756752490997314453e+00,-2.342417240142822266e+00,-3.257176280021667480e-01
-5.765304565429687500e+00,-2.345897197723388672e+00,-1.086454838514328003e-01
-5.773859024047851562e+00,-2.349378108978271484e+00,1.088066920638084412e-01
-5.782287120819091797e+00,-2.352807283401489258e+00,3.271623849868774414e-01
-5.790472030639648438e+00,-2.356137752532958984e+00,5.469324588775634766e-01
-5.799477100372314453e+00,-2.359802007675170898e+00,7.687773108482360840e-01
-5.808315277099609375e+00,-2.363398313522338867e+00,9.931861162185668945e-01
-5.816655635833740234e+00,-2.366791963577270508e+00,1.220656752586364746e+00
-3.707620859146118164e+00,-1.570845246315002441e+00,-1.078939199447631836e+00
-4.412718772888183594e+00,-1.869581341743469238e+00,-1.106418848037719727e+00
-5.445213317871093750e+00,-2.307028532028198242e+00,-1.149519562721252441e+00
-5.547760963439941406e+00,-2.350476026535034180e+00,-9.542880058288574219e-01
-5.556260585784912109e+00,-2.354077100753784180e+00,-7.409272789955139160e-01
-5.564583301544189453e+00,-2.357603311538696289e+00,-5.287296175956726074e-01
-5.572862148284912109e+00,-2.361111164093017578e+00,-3.171927928924560547e-01
-5.581010818481445312e+00,-2.364563465118408203e+00,-1.057994887232780457e-01
-5.589152336120605469e+00,-2.368012905120849609e+00,1.059538275003433228e-01
-5.597316741943359375e+00,-2.371471881866455078e+00,3.185846507549285889e-01
-5.605387687683105469e+00,-2.374891519546508789e+00,5.326067805290222168e-01
-5.614407062530517578e+00,-2.378712654113769531e+00,7.486811280250549316e-01
-5.623408317565917969e+00,-2.382526397705078125e+00,9.673002958297729492e-01
-5.632063388824462891e+00,-2.386193513870239258e+00,1.188964843750000000e+00
-5.639982223510742188e+00,-2.389548540115356445e+00,1.414135575294494629e+00
-3.686840772628784180e+00,-1.624665141105651855e+00,-1.079548716545104980e+00
-4.397608280181884766e+00,-1.937876224517822266e+00,-1.109471321105957031e+00
-5.353354454040527344e+00,-2.359040975570678711e+00,-1.137139320373535156e+00
-5.361339569091796875e+00,-2.362559795379638672e+00,-9.279429316520690918e-01
-5.369087696075439453e+00,-2.365973949432373047e+00,-7.204099297523498535e-01
-5.376807689666748047e+00,-2.369375944137573242e+00,-5.140575170516967773e-01
-5.384634971618652344e+00,-2.372825145721435547e+00,-3.083808720111846924e-01
-5.392486095428466797e+00,-2.376285076141357422e+00,-1.028598621487617493e-01
-5.400478839874267578e+00,-2.379806995391845703e+00,1.030123233795166016e-01
-5.408643722534179688e+00,-2.383404970169067383e+00,3.097558915615081787e-01
-5.416866302490234375e+00,-2.387028455734252930e+00,5.178873538970947266e-01
-5.424964904785156250e+00,-2.390597343444824219e+00,7.279073596000671387e-01
-5.432697772979736328e+00,-2.394004821777343750e+00,9.402936100959777832e-01
-5.441443443298339844e+00,-2.397858858108520508e+00,1.155850887298583984e+00
-5.449621200561523438e+00,-2.401462554931640625e+00,1.374883294105529785e+00
-3.671677589416503906e+00,-1.681141376495361328e+00,-1.082043766975402832e+00
-4.359278678894042969e+00,-1.995971441268920898e+00,-1.106895446777343750e+00
-5.192923545837402344e+00,-2.377670288085937500e+00,-1.110176563262939453e+00
-5.201464176177978516e+00,-2.381580591201782227e+00,-9.060788750648498535e-01
-5.208840370178222656e+00,-2.384958028793334961e+00,-7.034167051315307617e-01
-5.216637611389160156e+00,-2.388528108596801758e+00,-5.019614100456237793e-01
-5.224088668823242188e+00,-2.391939878463745117e+00,-3.011162579059600830e-01
-5.231687545776367188e+00,-2.395419120788574219e+00,-1.004364043474197388e-01
-5.239549160003662109e+00,-2.399018764495849609e+00,1.005873307585716248e-01
-5.247023105621337891e+00,-2.402440786361694336e+00,3.024381697177886963e-01
-5.255105018615722656e+00,-2.406141042709350586e+00,5.056628584861755371e-01
-5.262020111083984375e+00,-2.409307479858398438e+00,7.105982899665832520e-01
-5.271042346954345703e+00,-2.413438320159912109e+00,9.181991815567016602e-01
-5.278359889984130859e+00,-2.416788816452026367e+00,1.128441810607910156e+00
-5.286661624908447266e+00,-2.420589685440063477e+00,1.342373728752136230e+00
-3.653776645660400391e+00,-1.736624598503112793e+00,-1.083982706069946289e+00
-4.347685337066650391e+00,-2.066436290740966797e+00,-1.111348152160644531e+00
-5.028787136077880859e+00,-2.390161037445068359e+00,-1.082289457321166992e+00
-5.036780834197998047e+00,-2.393960475921630859e+00,-8.832700252532958984e-01
-5.043761730194091797e+00,-2.397278547286987305e+00,-6.856875419616699219e-01
-5.051277637481689453e+00,-2.400850772857666016e+00,-4.893064796924591064e-01
-5.058666706085205078e+00,-2.404362678527832031e+00,-2.935349047183990479e-01
-5.066007137298583984e+00,-2.407851696014404297e+00,-9.790733456611633301e-02
-5.073314666748046875e+00,-2.411324977874755859e+00,9.804856777191162109e-02
-5.080544948577880859e+00,-2.414761543273925781e+00,2.948044240474700928e-01
-5.088495731353759766e+00,-2.418540477752685547e+00,4.929117262363433838e-01
-5.095435619354248047e+00,-2.421838998794555664e+00,6.927125453948974609e-01
-5.103185176849365234e+00,-2.425522327423095703e+00,8.949149847030639648e-01
-5.110544681549072266e+00,-2.429020166397094727e+00,1.099885344505310059e+00
-5.118995666503906250e+00,-2.433037042617797852e+00,1.308509230613708496e+00
-3.617446899414062500e+00,-1.783267140388488770e+00,-1.080666542053222656e+00
-4.309116840362548828e+00,-2.124234914779663086e+00,-1.109147906303405762e+00
-4.879537105560302734e+00,-2.405430793762207031e+00,-1.057469844818115234e+00
-4.887068271636962891e+00,-2.409143447875976562e+00,-8.629745841026306152e-01
-4.894270896911621094e+00,-2.412693977355957031e+00,-6.699908375740051270e-01
-4.901322364807128906e+00,-2.416170120239257812e+00,-4.780817329883575439e-01
-4.908363819122314453e+00,-2.419641256332397461e+00,-2.867936789989471436e-01
-4.915470600128173828e+00,-2.423144578933715820e+00,-9.565851837396621704e-02
-4.922658443450927734e+00,-2.426687955856323242e+00,9.579840302467346191e-02
-4.929883956909179688e+00,-2.430249929428100586e+00,2.880510985851287842e-01
-4.937041759490966797e+00,-2.433778524398803711e+00,4.815658628940582275e-01
-4.943972587585449219e+00,-2.437195062637329102e+00,6.767945885658264160e-01
-4.951808452606201172e+00,-2.441057920455932617e+00,8.744065761566162109e-01
-4.959376335144042969e+00,-2.444788694381713867e+00,1.074772119522094727e+00
-4.966330051422119141e+00,-2.448216438293457031e+00,1.278311610221862793e+00
-3.602184534072875977e+00,-1.840288162231445312e+00,-1.083865046501159668e+00
-4.270478248596191406e+00,-2.181706905364990234e+00,-1.107126951217651367e+00
-4.734891891479492188e+00,-2.418967008590698242e+00,-1.033520579338073730e+00
-4.741985797882080078e+00,-2.422591209411621094e+00,-8.433921933174133301e-01
-4.748866558074951172e+00,-2.426106214523315430e+00,-6.547726392745971680e-01
-4.755709171295166016e+00,-2.429602146148681641e+00,-4.672226309776306152e-01
-4.762726306915283203e+00,-2.433187246322631836e+00,-2.802903950214385986e-01
-4.769607543945312500e+00,-2.436702489852905273e+00,-9.348908811807632446e-02
-4.776280879974365234e+00,-2.440111875534057617e+00,9.361989051103591919e-02
-4.783258914947509766e+00,-2.443676948547363281e+00,2.814987599849700928e-01
-4.790282726287841797e+00,-2.447265148162841797e+00,4.706193506717681885e-01
-4.797194004058837891e+00,-2.450795888900756836e+00,6.614360213279724121e-01
-4.805100917816162109e+00,-2.454835414886474609e+00,8.546175956726074219e-01
-4.811311244964599609e+00,-2.458008050918579102e+00,1.050201177597045898e+00
-4.818355560302734375e+00,-2.461606979370117188e+00,1.249164819717407227e+00
-3.565703630447387695e+00,-1.886483192443847656e+00,-1.080902218818664551e+00
-4.262229919433593750e+00,-2.254989862442016602e+00,-1.113242268562316895e+00
-4.594706535339355469e+00,-2.430890798568725586e+00,-1.010412573814392090e+00
-4.601389408111572266e+00,-2.434426546096801758e+00,-8.244991898536682129e-01
-4.608496189117431641e+00,-2.438186645507812500e+00,-6.401647329330444336e-01
-4.614912509918212891e+00,-2.441581249237060547e+00,-4.567767679691314697e-01
-4.621608257293701172e+00,-2.445123672485351562e+00,-2.740170955657958984e-01
-4.628271579742431641e+00,-2.448649168014526367e+00,-9.139639139175415039e-02
-4.634835243225097656e+00,-2.452121734619140625e+00,9.152600914239883423e-02
-4.641803741455078125e+00,-2.455808162689208984e+00,2.752144634723663330e-01
-4.648071289062500000e+00,-2.459124326705932617e+00,4.600587785243988037e-01
-4.654953002929687500e+00,-2.462764978408813477e+00,6.466180086135864258e-01
-4.661620140075683594e+00,-2.466292619705200195e+00,8.352916240692138672e-01
-4.669316768646240234e+00,-2.470364570617675781e+00,1.026820063591003418e+00
-4.676638603210449219e+00,-2.474238395690917969e+00,1.221480846405029297e+00
-3.550441503524780273e+00,-1.943948745727539062e+00,-1.084599375724792480e+00
-4.223501205444335938e+00,-2.312464475631713867e+00,-1.111658096313476562e+00
-4.458841800689697266e+00,-2.441318750381469727e+00,-9.881180524826049805e-01
-4.465879440307617188e+00,-2.445172071456909180e+00,-8.064064979553222656e-01
-4.471946716308593750e+00,-2.448493957519531250e+00,-6.260008215904235840e-01
-4.478482723236083984e+00,-2.452072620391845703e+00,-4.467012882232666016e-01
-4.484868526458740234e+00,-2.455569028854370117e+00,-2.679662108421325684e-01
-4.491322517395019531e+00,-2.459102869033813477e+00,-8.937792479991912842e-02
-4.497777938842773438e+00,-2.462637186050415039e+00,8.950638025999069214e-02
-4.504123210906982422e+00,-2.466111421585083008e+00,2.691166400909423828e-01
-4.511094093322753906e+00,-2.469928264617919922e+00,4.499540925025939941e-01
-4.517107486724853516e+00,-2.473220586776733398e+00,6.323226094245910645e-01
-4.523840904235839844e+00,-2.476907253265380859e+00,8.168726563453674316e-01
-4.530204772949218750e+00,-2.480391740798950195e+00,1.003932714462280273e+00
-4.537570476531982422e+00,-2.484424591064453125e+00,1.194323539733886719e+00
-3.513922214508056641e+00,-1.989844202995300293e+00,-1.082033038139343262e+00
-4.184803009033203125e+00,-2.369746685028076172e+00,-1.110286474227905273e+00
-4.327166080474853516e+00,-2.450363397598266602e+00,-9.666110873222351074e-01
-4.333825588226318359e+00,-2.454134464263916016e+00,-7.888236045837402344e-01
-4.340140819549560547e+00,-2.457710742950439453e+00,-6.124117970466613770e-01
-4.345989704132080078e+00,-2.461022853851318359e+00,-4.369547367095947266e-01
-4.352299690246582031e+00,-2.464595794677734375e+00,-2.621262371540069580e-01
-4.358474731445312500e+00,-2.468092679977416992e+00,-8.742828667163848877e-02
-4.364602565765380859e+00,-2.471562623977661133e+00,8.755120635032653809e-02
-4.371309280395507812e+00,-2.475360631942749023e+00,2.632711529731750488e-01
-4.377539634704589844e+00,-2.478888511657714844e+00,4.401268064975738525e-01
-4.383522987365722656e+00,-2.482276678085327148e+00,6.185331940650939941e-01
-4.390305519104003906e+00,-2.486117601394653320e+00,7.991038560867309570e-01
-4.396822452545166016e+00,-2.489808082580566406e+00,9.821711182594299316e-01
-4.402769088745117188e+00,-2.493175506591796875e+00,1.168115973472595215e+00
-3.479841709136962891e+00,-2.036863327026367188e+00,-1.080405592918395996e+00
-4.149035930633544922e+00,-2.428564310073852539e+00,-1.109905958175659180e+00
-4.207023143768310547e+00,-2.462506055831909180e+00,-9.475498199462890625e-01
-4.213368892669677734e+00,-2.466220378875732422e+00,-7.732445597648620605e-01
-4.219459533691406250e+00,-2.469785451889038086e+00,-6.003098487854003906e-01
-4.225468635559082031e+00,-2.473302841186523438e+00,-4.283527731895446777e-01
-4.231511116027832031e+00,-2.476839780807495117e+00,-2.569603621959686279e-01
-4.237505435943603516e+00,-2.480348110198974609e+00,-8.570509403944015503e-02
-4.243535041809082031e+00,-2.483877420425415039e+00,8.582704514265060425e-02
-4.249635696411132812e+00,-2.487448453903198242e+00,2.580609917640686035e-01
-4.255719184875488281e+00,-2.491009235382080078e+00,4.314193725585937500e-01
-4.261645793914794922e+00,-2.494478464126586914e+00,6.063117980957031250e-01
-4.268438816070556641e+00,-2.498454570770263672e+00,7.833511233329772949e-01
-4.275054931640625000e+00,-2.502327203750610352e+00,9.628726243972778320e-01
-4.281194210052490234e+00,-2.505920886993408203e+00,1.145259618759155273e+00
-3.466971635818481445e+00,-2.096519231796264648e+00,-1.085615396499633789e+00
-4.084862709045410156e+00,-2.470165491104125977e+00,-1.102084398269653320e+00
-4.090180397033691406e+00,-2.473381280899047852e+00,-9.291118383407592773e-01
-4.096229553222656250e+00,-2.477039337158203125e+00,-7.581760883331298828e-01
-4.102605342864990234e+00,-2.480894804000854492e+00,-5.886766314506530762e-01
-4.108277797698974609e+00,-2.484324932098388672e+00,-4.200344383716583252e-01
-4.114063262939453125e+00,-2.487823247909545898e+00,-2.519648671150207520e-01
-4.119881629943847656e+00,-2.491341829299926758e+00,-8.403873443603515625e-02
-4.125813961029052734e+00,-2.494929075241088867e+00,8.415973931550979614e-02
-4.131896972656250000e+00,-2.498607635498046875e+00,2.530570924282073975e-01
-4.137264251708984375e+00,-2.501853227615356445e+00,4.229980111122131348e-01
-4.143125534057617188e+00,-2.505397558212280273e+00,5.944907665252685547e-01
-4.149915695190429688e+00,-2.509503602981567383e+00,7.681128978729248047e-01
-4.155228137969970703e+00,-2.512716293334960938e+00,9.438878893852233887e-01
-4.161346435546875000e+00,-2.516416072845458984e+00,1.122719407081604004e+00
-3.432755470275878906e+00,-2.143516302108764648e+00,-1.084397435188293457e+00
-3.971570253372192383e+00,-2.479968547821044922e+00,-1.080984592437744141e+00
-3.977435111999511719e+00,-2.483630657196044922e+00,-9.114829301834106445e-01
-3.983005762100219727e+00,-2.487109184265136719e+00,-7.437322735786437988e-01
-3.988489151000976562e+00,-2.490533113479614258e+00,-5.773581862449645996e-01
-3.994327783584594727e+00,-2.494179010391235352e+00,-4.119918942451477051e-01
-3.999866008758544922e+00,-2.497637271881103516e+00,-2.471350729465484619e-01
-4.005513668060302734e+00,-2.501163721084594727e+00,-8.242763578891754150e-02
-4.011349678039550781e+00,-2.504807949066162109e+00,8.254773914813995361e-02
-4.016852855682373047e+00,-2.508244514465332031e+00,2.481846213340759277e-01
-4.022841453552246094e+00,-2.511983871459960938e+00,4.149329364299774170e-01
-4.028833866119384766e+00,-2.515725612640380859e+00,5.831983685493469238e-01
-4.034646987915039062e+00,-2.519355535507202148e+00,7.533750534057617188e-01
-4.040052413940429688e+00,-2.522730827331542969e+00,9.258325099945068359e-01
-4.046322345733642578e+00,-2.526645898818969727e+00,1.101330637931823730e+00
-3.398539304733276367e+00,-2.190372467041015625e+00,-1.083381652832031250e+00
-3.861384153366088867e+00,-2.488677978515625000e+00,-1.060580968856811523e+00
-3.866912603378295898e+00,-2.492240905761718750e+00,-8.942384123802185059e-01
-3.872226238250732422e+00,-2.495665788650512695e+00,-7.296422719955444336e-01
-3.878005743026733398e+00,-2.499390602111816406e+00,-5.664857029914855957e-01
-3.883256912231445312e+00,-2.502774953842163086e+00,-4.041891396045684814e-01
-3.888832330703735352e+00,-2.506368398666381836e+00,-2.424664795398712158e-01
-3.894314289093017578e+00,-2.509901523590087891e+00,-8.087032288312911987e-02
-3.899714946746826172e+00,-2.513382434844970703e+00,8.098248392343521118e-02
-3.905540466308593750e+00,-2.517137050628662109e+00,2.435082346200942993e-01
-3.910828590393066406e+00,-2.520545244216918945e+00,4.070589542388916016e-01
-3.916737079620361328e+00,-2.524353265762329102e+00,5.721434354782104492e-01
-3.922544956207275391e+00,-2.528096437454223633e+00,7.391237616539001465e-01
-3.928026914596557617e+00,-2.531629323959350586e+00,9.083713889122009277e-01
-3.934428453445434570e+00,-2.535755157470703125e+00,1.080643534660339355e+00
-3.366464138031005859e+00,-2.238536357879638672e+00,-1.083259820938110352e+00
-3.760493040084838867e+00,-2.500546693801879883e+00,-1.042593717575073242e+00
-3.765748739242553711e+00,-2.504041433334350586e+00,-8.790423274040222168e-01
-3.771517276763916016e+00,-2.507877349853515625e+00,-7.173561453819274902e-01
-3.776486396789550781e+00,-2.511181592941284180e+00,-5.568495988845825195e-01
-3.781931638717651367e+00,-2.514802455902099609e+00,-3.973485827445983887e-01
-3.787292480468750000e+00,-2.518367052078247070e+00,-2.383586019277572632e-01
-3.792624235153198242e+00,-2.521912336349487305e+00,-7.950006425380706787e-02
-3.797938108444213867e+00,-2.525445938110351562e+00,7.961145788431167603e-02
-3.803200960159301758e+00,-2.528945446014404297e+00,2.393598258495330811e-01
-3.809063196182250977e+00,-2.532843589782714844e+00,4.001991748809814453e-01
-3.814138174057006836e+00,-2.536218166351318359e+00,5.624014139175415039e-01
-3.819908618927001953e+00,-2.540055036544799805e+00,7.265603542327880859e-01
-3.825423002243041992e+00,-2.543721914291381836e+00,8.929722309112548828e-01
-3.830420017242431641e+00,-2.547044754028320312e+00,1.061980843544006348e+00
-3.332230329513549805e+00,-2.285218477249145508e+00,-1.082658410072326660e+00
-3.655997514724731445e+00,-2.507255554199218750e+00,-1.023467302322387695e+00
-3.660959243774414062e+00,-2.510658264160156250e+00,-8.628814816474914551e-01
-3.666488170623779297e+00,-2.514450073242187500e+00,-7.041526436805725098e-01
-3.671760797500610352e+00,-2.518065929412841797e+00,-5.466660857200622559e-01
-3.676916599273681641e+00,-2.521601915359497070e+00,-3.900673389434814453e-01
-3.682054996490478516e+00,-2.525125741958618164e+00,-2.339860945940017700e-01
-3.687230587005615234e+00,-2.528675079345703125e+00,-7.804153114557266235e-02
-3.692456007003784180e+00,-2.532258510589599609e+00,7.815212756395339966e-02
-3.697695493698120117e+00,-2.535851716995239258e+00,2.349800020456314087e-01
-3.702873229980468750e+00,-2.539402723312377930e+00,3.928209543228149414e-01
-3.707870006561279297e+00,-2.542829275131225586e+00,5.520421862602233887e-01
-3.713613033294677734e+00,-2.546767950057983398e+00,7.132030129432678223e-01
-3.719173669815063477e+00,-2.550581216812133789e+00,8.766025304794311523e-01
-3.724291324615478516e+00,-2.554090976715087891e+00,1.042585611343383789e+00
-3.300034046173095703e+00,-2.333276987075805664e+00,-1.082937717437744141e+00
-3.560132026672363281e+00,-2.517178297042846680e+00,-1.006613612174987793e+00
-3.565671682357788086e+00,-2.521095037460327148e+00,-8.488407135009765625e-01
-3.570193290710449219e+00,-2.524291992187500000e+00,-6.925272345542907715e-01
-3.575339317321777344e+00,-2.527930498123168945e+00,-5.376425385475158691e-01
-3.580688238143920898e+00,-2.531712532043457031e+00,-3.836638629436492920e-01
-3.585628032684326172e+00,-2.535205125808715820e+00,-2.301407903432846069e-01
-3.590661287307739258e+00,-2.538763999938964844e+00,-7.675886154174804688e-02
-3.595800638198852539e+00,-2.542397737503051758e+00,7.686872780323028564e-02
-3.600502014160156250e+00,-2.545721769332885742e+00,2.310954630374908447e-01
-3.605518579483032227e+00,-2.549268722534179688e+00,3.863244056701660156e-01
-3.611301183700561523e+00,-2.553357362747192383e+00,5.430502891540527344e-01
-3.616102457046508789e+00,-2.556751966476440430e+00,7.014324069023132324e-01
-3.621668338775634766e+00,-2.560687303543090820e+00,8.621712327003479004e-01
-3.626858711242675781e+00,-2.564357280731201172e+00,1.025480270385742188e+00
-3.267764329910278320e+00,-2.381333589553833008e+00,-1.083422422409057617e+00
-3.466566085815429688e+00,-2.526207447052001953e+00,-9.902805089950561523e-01
-3.471865177154541016e+00,-2.530069112777709961e+00,-8.350448012351989746e-01
-3.476846933364868164e+00,-2.533699512481689453e+00,-6.813852787017822266e-01
-3.481691837310791016e+00,-2.537230014801025391e+00,-5.289672017097473145e-01
-3.486535072326660156e+00,-2.540759563446044922e+00,-3.774335384368896484e-01
-3.491538524627685547e+00,-2.544405698776245117e+00,-2.264160811901092529e-01
-3.496433734893798828e+00,-2.547972917556762695e+00,-7.551642507314682007e-02
-3.501175642013549805e+00,-2.551428556442260742e+00,7.561884820461273193e-02
-3.506163835525512695e+00,-2.555063724517822266e+00,2.273644953966140747e-01
-3.511204719543457031e+00,-2.558737039566040039e+00,3.801041245460510254e-01
-3.516181468963623047e+00,-2.562363862991333008e+00,5.342071652412414551e-01
-3.520936965942382812e+00,-2.565829277038574219e+00,6.900259256362915039e-01
-3.526497125625610352e+00,-2.569881200790405273e+00,8.481847047805786133e-01
-3.531743764877319336e+00,-2.573704481124877930e+00,1.008899569511413574e+00
-3.235430955886840820e+00,-2.429421901702880859e+00,-1.084120392799377441e+00
-3.376203060150146484e+00,-2.535125017166137695e+00,-9.747327566146850586e-01
-3.380321025848388672e+00,-2.538217067718505859e+00,-8.216807842254638672e-01
-3.385139703750610352e+00,-2.541835546493530273e+00,-6.704741716384887695e-01
-3.390307903289794922e+00,-2.545716047286987305e+00,-5.205660462379455566e-01
-3.394915103912353516e+00,-2.549175500869750977e+00,-3.714271485805511475e-01
-3.399730682373046875e+00,-2.552791595458984375e+00,-2.228092551231384277e-01
-3.404490947723388672e+00,-2.556365728378295898e+00,-7.431330531835556030e-02
-3.409152507781982422e+00,-2.559866189956665039e+00,7.441505789756774902e-02
-3.414107799530029297e+00,-2.563586950302124023e+00,2.237514853477478027e-01
-3.418495416641235352e+00,-2.566881656646728516e+00,3.740070164203643799e-01
-3.423359870910644531e+00,-2.570533990859985352e+00,5.256410241127014160e-01
-3.429087638854980469e+00,-2.574835062026977539e+00,6.791786551475524902e-01
-3.433602571487426758e+00,-2.578225135803222656e+00,8.346323966979980469e-01
-3.438890933990478516e+00,-2.582196235656738281e+00,9.928312301635742188e-01
-3.203045368194580078e+00,-2.477579116821289062e+00,-1.085040330886840820e+00
-3.287052869796752930e+00,-2.542559623718261719e+00,-9.594031572341918945e-01
-3.291752099990844727e+00,-2.546194553375244141e+00,-8.089277148246765137e-01
-3.296247005462646484e+00,-2.549671411514282227e+00,-6.600283980369567871e-01
-3.300709724426269531e+00,-2.553123474121093750e+00,-5.123673677444458008e-01
-3.305513858795166016e+00,-2.556839466094970703e+00,-3.656125664710998535e-01
-3.310149669647216797e+00,-2.560425043106079102e+00,-2.193177342414855957e-01
-3.314778804779052734e+00,-2.564005851745605469e+00,-7.314866036176681519e-02
-3.319360017776489258e+00,-2.567549467086791992e+00,7.324975728988647461e-02
-3.323800802230834961e+00,-2.570984363555908203e+00,2.202222049236297607e-01
-3.328687191009521484e+00,-2.574764013290405273e+00,3.681756854057312012e-01
-3.333612442016601562e+00,-2.578573703765869141e+00,5.174748301506042480e-01
-3.338423967361450195e+00,-2.582295417785644531e+00,6.684737205505371094e-01
-3.342931985855102539e+00,-2.585782527923583984e+00,8.215048909187316895e-01
-3.348245620727539062e+00,-2.589892864227294922e+00,9.772636890411376953e-01
-3.170616388320922852e+00,-2.525842666625976562e+00,-1.086190700531005859e+00
-3.200040817260742188e+00,-2.549283266067504883e+00,-9.445600509643554688e-01
-3.204550504684448242e+00,-2.552875995635986328e+00,-7.963964939117431641e-01
-3.209495306015014648e+00,-2.556815385818481445e+00,-6.499190330505371094e-01
-3.213695764541625977e+00,-2.560161352157592773e+00,-5.044968724250793457e-01
-3.218278169631958008e+00,-2.563812017440795898e+00,-3.599857687950134277e-01
-3.222740173339843750e+00,-2.567366600036621094e+00,-2.159389853477478027e-01
-3.227241754531860352e+00,-2.570952653884887695e+00,-7.202162593603134155e-02
-3.231742620468139648e+00,-2.574538230895996094e+00,7.212207466363906860e-02
-3.236150503158569336e+00,-2.578049898147583008e+00,2.168375402688980103e-01
-3.241043567657470703e+00,-2.581947803497314453e+00,3.625322282314300537e-01
-3.245202302932739258e+00,-2.585260868072509766e+00,5.094428658485412598e-01
-3.249941110610961914e+00,-2.589035987854003906e+00,6.581092476844787598e-01
-3.254430055618286133e+00,-2.592612028121948242e+00,8.087926506996154785e-01
-3.259754657745361328e+00,-2.596853971481323242e+00,9.621859192848205566e-01
-3.110472440719604492e+00,-2.551545858383178711e+00,-1.077987790107727051e+00
-3.115114212036132812e+00,-2.555353403091430664e+00,-9.301930665969848633e-01
-3.120188713073730469e+00,-2.559515953063964844e+00,-7.844552397727966309e-01
-3.124253749847412109e+00,-2.562850475311279297e+00,-6.400204300880432129e-01
-3.128782510757446289e+00,-2.566565513610839844e+00,-4.968830347061157227e-01
-3.133152961730957031e+00,-2.570150613784790039e+00,-3.545425832271575928e-01
-3.137448310852050781e+00,-2.573674201965332031e+00,-2.126705646514892578e-01
-3.141824960708618164e+00,-2.577264547348022461e+00,-7.093139737844467163e-02
-3.146245479583740234e+00,-2.580890417098999023e+00,7.103119045495986938e-02
-3.150618553161621094e+00,-2.584477901458740234e+00,2.135632932186126709e-01
-3.154879570007324219e+00,-2.587973117828369141e+00,3.570011258125305176e-01
-3.159724235534667969e+00,-2.591947317123413086e+00,5.017969012260437012e-01
-3.163584947586059570e+00,-2.595114231109619141e+00,6.480776667594909668e-01
-3.168044567108154297e+00,-2.598772525787353516e+00,7.964867353439331055e-01
-3.173365592956542969e+00,-2.603137254714965820e+00,9.475872516632080078e-01
-3.033238410949707031e+00,-2.561684131622314453e+00,-1.063819408416748047e+00
-3.037546634674072266e+00,-2.565322399139404297e+00,-9.179012775421142578e-01
-3.041588306427001953e+00,-2.568735599517822266e+00,-7.738586068153381348e-01
-3.046126127243041992e+00,-2.572568178176879883e+00,-6.314941644668579102e-01
-3.050428628921508789e+00,-2.576201677322387695e+00,-4.902454614639282227e-01
-3.054380178451538086e+00,-2.579539060592651367e+00,-3.497710227966308594e-01
-3.058695077896118164e+00,-2.583183050155639648e+00,-2.098170965909957886e-01
-3.062911748886108398e+00,-2.586744070053100586e+00,-6.997854262590408325e-02
-3.067084550857543945e+00,-2.590268135070800781e+00,7.007388025522232056e-02
-3.071695804595947266e+00,-2.594162702560424805e+00,2.107089161872863770e-01
-3.075955152511596680e+00,-2.597759962081909180e+00,3.522416651248931885e-01
-3.080041408538818359e+00,-2.601210832595825195e+00,4.950046241283416748e-01
-3.084761857986450195e+00,-2.605197429656982422e+00,6.395037174224853516e-01
-3.089322090148925781e+00,-2.609048843383789062e+00,7.860033512115478516e-01
-3.093506097793579102e+00,-2.612582206726074219e+00,9.348113536834716797e-01
-2.952302455902099609e+00,-2.566614151000976562e+00,-1.048210620880126953e+00
-2.956415653228759766e+00,-2.570189952850341797e+00,-9.044089913368225098e-01
-2.961020708084106445e+00,-2.574193239212036133e+00,-7.626564502716064453e-01
-2.964730978012084961e+00,-2.577419042587280273e+00,-6.222044229507446289e-01
-2.968960762023925781e+00,-2.581096172332763672e+00,-4.830404222011566162e-01
-2.973114728927612305e+00,-2.584707498550415039e+00,-3.446662127971649170e-01
-2.977272272109985352e+00,-2.588321685791015625e+00,-2.067519277334213257e-01
-2.981371641159057617e+00,-2.591885566711425781e+00,-6.895612925291061401e-02
-2.985466718673706055e+00,-2.595445632934570312e+00,6.905084103345870972e-02
-2.989592075347900391e+00,-2.599032163619995117e+00,2.076074630022048950e-01
-2.993685245513916016e+00,-2.602590560913085938e+00,3.470509052276611328e-01
-2.998412847518920898e+00,-2.606700420379638672e+00,4.878321886062622070e-01
-3.002272605895996094e+00,-2.610056161880493164e+00,6.300832033157348633e-01
-3.006780385971069336e+00,-2.613975048065185547e+00,7.744426131248474121e-01
-3.010960578918457031e+00,-2.617609024047851562e+00,9.210949540138244629e-01
-2.877321481704711914e+00,-2.574650764465332031e+00,-1.034566998481750488e+00
-2.882130146026611328e+00,-2.578953742980957031e+00,-8.928849697113037109e-01
-2.885761499404907227e+00,-2.582202911376953125e+00,-7.527148723602294922e-01
-2.889939069747924805e+00,-2.585941314697265625e+00,-6.142130494117736816e-01
-2.893961906433105469e+00,-2.589540719985961914e+00,-4.768199324607849121e-01
-2.897942066192626953e+00,-2.593102455139160156e+00,-3.402195870876312256e-01
-2.901957988739013672e+00,-2.596695899963378906e+00,-2.040820121765136719e-01
-2.905950069427490234e+00,-2.600267887115478516e+00,-6.806556135416030884e-02
-2.909970045089721680e+00,-2.603864908218383789e+00,6.815972179174423218e-02
-2.914052009582519531e+00,-2.607517480850219727e+00,2.049325257539749146e-01
-2.918135166168212891e+00,-2.611171245574951172e+00,3.425902724266052246e-01
-2.922123432159423828e+00,-2.614740133285522461e+00,4.814599454402923584e-01
-2.926790714263916016e+00,-2.618916273117065430e+00,6.220452785491943359e-01
-2.930318832397460938e+00,-2.622073411941528320e+00,7.643371224403381348e-01
-2.934463977813720703e+00,-2.625782251358032227e+00,9.090979695320129395e-01
-2.800957441329956055e+00,-2.579448223114013672e+00,-1.020280361175537109e+00
-2.804611921310424805e+00,-2.582813739776611328e+00,-8.802326321601867676e-01
-2.808803796768188477e+00,-2.586673974990844727e+00,-7.422227263450622559e-01
-2.812733173370361328e+00,-2.590292453765869141e+00,-6.056219935417175293e-01
-2.816542863845825195e+00,-2.593801021575927734e+00,-4.701330065727233887e-01
-2.820343971252441406e+00,-2.597301483154296875e+00,-3.354397118091583252e-01
-2.824214458465576172e+00,-2.600865840911865234e+00,-2.012120634317398071e-01
-2.828095436096191406e+00,-2.604439973831176758e+00,-6.710828840732574463e-02
-2.832037448883056641e+00,-2.608070135116577148e+00,6.720182299613952637e-02
-2.836074829101562500e+00,-2.611788272857666016e+00,2.020570635795593262e-01
-2.840146303176879883e+00,-2.615537643432617188e+00,3.377948999404907227e-01
-2.844157934188842773e+00,-2.619232177734375000e+00,4.747424423694610596e-01
-2.847982168197631836e+00,-2.622754096984863281e+00,6.132116317749023438e-01
-2.852492332458496094e+00,-2.626907587051391602e+00,7.537674307823181152e-01
-2.856753110885620117e+00,-2.630831241607666016e+00,8.965972661972045898e-01
-2.729104280471801758e+00,-2.586433410644531250e+00,-1.007489085197448730e+00
-2.732636928558349609e+00,-2.589781284332275391e+00,-8.691881895065307617e-01
-2.736723899841308594e+00,-2.593654632568359375e+00,-7.329106926918029785e-01
-2.740585803985595703e+00,-2.597314596176147461e+00,-5.980309844017028809e-01
-2.744361877441406250e+00,-2.600893259048461914e+00,-4.642510712146759033e-01
-2.748371124267578125e+00,-2.604692935943603516e+00,-3.312798142433166504e-01
-2.752110481262207031e+00,-2.608236789703369141e+00,-1.987144351005554199e-01
-2.755888938903808594e+00,-2.611817836761474609e+00,-6.627519428730010986e-02
-2.759755373001098633e+00,-2.615482091903686523e+00,6.636817008256912231e-02
-2.763334274291992188e+00,-2.618873834609985352e+00,1.995248496532440186e-01
-2.767230033874511719e+00,-2.622565984725952148e+00,3.335529863834381104e-01
-2.771097421646118164e+00,-2.626231193542480469e+00,4.687738120555877686e-01
-2.774813175201416016e+00,-2.629752635955810547e+00,6.054998636245727539e-01
-2.779228210449218750e+00,-2.633936882019042969e+00,7.442935705184936523e-01
-2.783431053161621094e+00,-2.637920141220092773e+00,8.853446245193481445e-01
-2.658684968948364258e+00,-2.592923879623413086e+00,-9.950919151306152344e-01
-2.662897586822509766e+00,-2.597032070159912109e+00,-8.587414622306823730e-01
