2.966587829589843750e+01,2.122998237609863281e-01,5.178323388099670410e-01
3.996710300445556641e+00,8.581745624542236328e-02,-1.071160435676574707e+00
4.728447437286376953e+00,1.015293374657630920e-01,-1.091898083686828613e+00
5.843558788299560547e+00,1.254730373620986938e-01,-1.136132836341857910e+00
7.538732051849365234e+00,1.618718355894088745e-01,-1.194291234016418457e+00
1.060791587829589844e+01,2.277734130620956421e-01,-1.302786588668823242e+00
1.730298614501953125e+01,3.715301454067230225e-01,-1.514161944389343262e+00
3.615348815917968750e+01,7.762885689735412598e-01,-1.895157933235168457e+00
3.622336578369140625e+01,7.777889966964721680e-01,-6.324260234832763672e-01
3.996409893035888672e+00,1.430574357509613037e-01,-1.071519017219543457e+00
4.728025436401367188e+00,1.692466884851455688e-01,-1.092248082160949707e+00
5.842953205108642578e+00,2.091571986675262451e-01,-1.136480808258056641e+00
7.537719726562500000e+00,2.698238790035247803e-01,-1.194620370864868164e+00
1.060583019256591797e+01,3.796514570713043213e-01,-1.303064346313476562e+00
1.729741096496582031e+01,6.191865205764770508e-01,-1.514294385910034180e+00
5.096047210693359375e+01,1.824205756187438965e+00,-2.672431707382202148e+00
6.405979919433593750e+01,2.293115854263305664e+00,-1.118882536888122559e+00
3.995867252349853516e+00,2.003353387117385864e-01,-1.072032570838928223e+00
4.727365970611572266e+00,2.370094954967498779e-01,-1.092767596244812012e+00
5.842054367065429688e+00,2.928950786590576172e-01,-1.137004852294921875e+00
7.536366462707519531e+00,3.778405189514160156e-01,-1.195140600204467773e+00
1.060337924957275391e+01,5.316071510314941406e-01,-1.303564548492431641e+00
1.729139328002929688e+01,8.669149279594421387e-01,-1.514698624610900879e+00
5.090765762329101562e+01,2.552287817001342773e+00,-2.671304464340209961e+00
3.995569229125976562e+00,2.576957345008850098e-01,-1.072832226753234863e+00
4.726998329162597656e+00,3.048695325851440430e-01,-1.093579292297363281e+00
5.841526031494140625e+00,3.767514228820800781e-01,-1.137835025787353516e+00
7.535486698150634766e+00,4.860040545463562012e-01,-1.195981740951538086e+00
1.060154247283935547e+01,6.837505102157592773e-01,-1.304408311843872070e+00
1.728606796264648438e+01,1.114871382713317871e+00,-1.515474796295166016e+00
5.085549926757812500e+01,3.279944658279418945e+00,-2.670757293701171875e+00
3.994846820831298828e+00,3.151201307773590088e-01,-1.073739409446716309e+00
4.726145744323730469e+00,3.728061914443969727e-01,-1.094504356384277344e+00
5.840422630310058594e+00,4.607022106647491455e-01,-1.138787865638732910e+00
7.533895969390869141e+00,5.942862033843994141e-01,-1.196956753730773926e+00
1.059878730773925781e+01,8.360499143600463867e-01,-1.305408000946044922e+00
1.727951812744140625e+01,1.363037109375000000e+00,-1.516455769538879395e+00
5.080659866333007812e+01,4.007708549499511719e+00,-2.670928239822387695e+00
3.967026233673095703e+00,3.701253533363342285e-01,-1.067576289176940918e+00
4.725793838500976562e+00,4.409187138080596924e-01,-1.095772147178649902e+00
5.779881954193115234e+00,5.392656326293945312e-01,-1.128373026847839355e+00
7.533115863800048828e+00,7.028431892395019531e-01,-1.198308348655700684e+00
1.059712028503417969e+01,9.887161850929260254e-01,-1.306811809539794922e+00
1.727450942993164062e+01,1.611719727516174316e+00,-1.517885208129882812e+00
5.075786972045898438e+01,4.735732555389404297e+00,-2.671656370162963867e+00
6.127932739257812500e+01,5.717389583587646484e+00,-1.074278593063354492e+00
3.966107130050659180e+00,4.273790717124938965e-01,-1.068865776062011719e+00
4.724722385406494141e+00,5.091258287429809570e-01,-1.097101211547851562e+00
5.778553485870361328e+00,6.226843595504760742e-01,-1.129737854003906250e+00
7.430802822113037109e+00,8.007271289825439453e-01,-1.183735132217407227e+00
1.039512348175048828e+01,1.120155930519104004e+00,-1.283747792243957520e+00
1.726739120483398438e+01,1.860696554183959961e+00,-1.519444346427917480e+00
3.591939926147460938e+01,3.870596170425415039e+00,-1.893350839614868164e+00
3.590762710571289062e+01,3.869327783584594727e+00,-6.303974986076354980e-01
3.965761184692382812e+00,4.848534166812896729e-01,-1.070533156394958496e+00
4.724351406097412109e+00,5.775985121726989746e-01,-1.098822116851806641e+00
5.778086185455322266e+00,7.064279913902282715e-01,-1.131507396697998047e+00
7.430098056793212891e+00,9.084027409553527832e-01,-1.185572743415832520e+00
1.039360427856445312e+01,1.270720601081848145e+00,-1.285674571990966797e+00
1.726255607604980469e+01,2.110517501831054688e+00,-1.521521210670471191e+00
2.449502563476562500e+01,2.994758367538452148e+00,-1.293286681175231934e+00
2.450123786926269531e+01,2.995517969131469727e+00,-4.308544993400573730e-01
2.450800895690917969e+01,2.996345758438110352e+00,4.309735894203186035e-01
3.964596509933471680e+00,5.424072742462158203e-01,-1.072204709053039551e+00
4.684085369110107422e+00,6.408425569534301758e-01,-1.091478466987609863e+00
5.776467323303222656e+00,7.902942895889282227e-01,-1.133289456367492676e+00
7.427933692932128906e+00,1.016235947608947754e+00,-1.187426686286926270e+00
1.039010906219482422e+01,1.421499252319335938e+00,-1.287627220153808594e+00
1.725471687316894531e+01,2.360665082931518555e+00,-1.523652434349060059e+00
2.382557106018066406e+01,3.259641408920288086e+00,-1.260275125503540039e+00
2.385416603088378906e+01,3.263553619384765625e+00,-4.202541112899780273e-01
2.388321495056152344e+01,3.267528057098388672e+00,4.207659363746643066e-01
3.937072277069091797e+00,5.961621999740600586e-01,-1.066959381103515625e+00
4.683644771575927734e+00,7.092102766036987305e-01,-1.093629240989685059e+00
5.775946617126464844e+00,8.746095895767211914e-01,-1.135527133941650391e+00
7.427183151245117188e+00,1.124644279479980469e+00,-1.189758181571960449e+00
1.038855457305908203e+01,1.573063254356384277e+00,-1.290092825889587402e+00
1.724985504150390625e+01,2.612020015716552734e+00,-1.526368141174316406e+00
2.380511665344238281e+01,3.604635715484619141e+00,-1.261793136596679688e+00
2.383368873596191406e+01,3.608961820602416992e+00,-4.207603335380554199e-01
2.386258888244628906e+01,3.613337993621826172e+00,4.212705194950103760e-01
3.936622858047485352e+00,6.538580060005187988e-01,-1.069264411926269531e+00
4.683201313018798828e+00,7.778617739677429199e-01,-1.096013069152832031e+00
5.775435447692871094e+00,9.592776894569396973e-01,-1.138009309768676758e+00
7.426460742950439453e+00,1.233506798744201660e+00,-1.192348599433898926e+00
1.038705635070800781e+01,1.725250363349914551e+00,-1.292840957641601562e+00
1.724509429931640625e+01,2.864344120025634766e+00,-1.529417991638183594e+00
2.378486251831054688e+01,3.950574636459350586e+00,-1.263587355613708496e+00
2.381341171264648438e+01,3.955316543579101562e+00,-4.213586747646331787e-01
2.384214782714843750e+01,3.960089683532714844e+00,4.218671619892120361e-01
3.935077905654907227e+00,7.116177678108215332e-01,-1.071501612663269043e+00
4.681448459625244141e+00,8.465911149978637695e-01,-1.098326325416564941e+00
5.714597225189208984e+00,1.033425211906433105e+00,-1.128820657730102539e+00
7.423695087432861328e+00,1.342497825622558594e+00,-1.194867372512817383e+00
1.038276195526123047e+01,1.877614259719848633e+00,-1.295518875122070312e+00
1.723596763610839844e+01,3.116944789886474609e+00,-1.532408356666564941e+00
1.878455162048339844e+01,3.396990060806274414e+00,-1.000422954559326172e+00
1.880178451538085938e+01,3.400106668472290039e+00,-3.335090577602386475e-01
1.881905364990234375e+01,3.403229475021362305e+00,3.338153660297393799e-01
3.907772302627563477e+00,7.645927071571350098e-01,-1.066937088966369629e+00
4.642589569091796875e+00,9.083666801452636719e-01,-1.092148065567016602e+00
5.713929176330566406e+00,1.117984414100646973e+00,-1.131733775138854980e+00
7.325171470642089844e+00,1.433239221572875977e+00,-1.182190418243408203e+00
1.038100624084472656e+01,2.031142234802246094e+00,-1.298794269561767578e+00
1.695964813232421875e+01,3.318315982818603516e+00,-1.511909365653991699e+00
1.697578620910644531e+01,3.321473360061645508e+00,-9.065312743186950684e-01
1.699181175231933594e+01,3.324609279632568359e+00,-3.022166192531585693e-01
1.700780105590820312e+01,3.327737569808959961e+00,3.025009930133819580e-01
1.702355957031250000e+01,3.330820798873901367e+00,9.090824723243713379e-01
3.907104730606079102e+00,8.226902484893798828e-01,-1.069860339164733887e+00
4.641921520233154297e+00,9.774152636528015137e-01,-1.095169901847839355e+00
5.713196277618408203e+00,1.202985644340515137e+00,-1.134882688522338867e+00
7.324202060699462891e+00,1.542203187942504883e+00,-1.185475111007690430e+00
1.037917613983154297e+01,2.185466527938842773e+00,-1.302345633506774902e+00
1.546964454650878906e+01,3.257328987121582031e+00,-1.383094072341918945e+00
1.548484992980957031e+01,3.260530948638916016e+00,-8.293204307556152344e-01
1.549982929229736328e+01,3.263684988021850586e+00,-2.764827311038970947e-01
1.551464843750000000e+01,3.266805171966552734e+00,2.767470777034759521e-01
1.552917289733886719e+01,3.269863605499267578e+00,8.316942453384399414e-01
3.906358957290649414e+00,8.811023235321044922e-01,-1.072999596595764160e+00
4.641169548034667969e+00,1.046843051910400391e+00,-1.098415017127990723e+00
5.654898643493652344e+00,1.275495767593383789e+00,-1.126813530921936035e+00
7.323132038116455078e+00,1.651775598526000977e+00,-1.189006805419921875e+00
1.018637180328369141e+01,2.297596216201782227e+00,-1.282148241996765137e+00
1.422026538848876953e+01,3.207464694976806641e+00,-1.275364875793457031e+00
1.423464298248291016e+01,3.210707426071166992e+00,-7.647461891174316406e-01
1.424870014190673828e+01,3.213878393173217773e+00,-2.549597918987274170e-01
1.426248359680175781e+01,3.216987133026123047e+00,2.552064359188079834e-01
1.427778339385986328e+01,3.220438003540039062e+00,7.670638561248779297e-01
3.879199743270874023e+00,9.335149526596069336e-01,-1.069100260734558105e+00
4.602723121643066406e+00,1.107628226280212402e+00,-1.092956304550170898e+00
5.653970241546630859e+00,1.360606789588928223e+00,-1.130393385887145996e+00
7.321923732757568359e+00,1.761993646621704102e+00,-1.192783236503601074e+00
1.018430328369140625e+01,2.450814485549926758e+00,-1.286171555519104004e+00
1.315747642517089844e+01,3.166297674179077148e+00,-1.183990478515625000e+00
1.317111110687255859e+01,3.169578790664672852e+00,-7.099733352661132812e-01
1.318434715270996094e+01,3.172764062881469727e+00,-2.367030978202819824e-01
1.319722366333007812e+01,3.175862550735473633e+00,2.369342744350433350e-01
1.321136856079101562e+01,3.179266691207885742e+00,7.121433615684509277e-01
3.878238201141357422e+00,9.922122359275817871e-01,-1.072639346122741699e+00
4.601745128631591797e+00,1.177314996719360352e+00,-1.096613287925720215e+00
5.652893543243408203e+00,1.446241736412048340e+00,-1.134200572967529297e+00
7.320537567138671875e+00,1.872893452644348145e+00,-1.196802020072937012e+00
1.018200016021728516e+01,2.604972839355468750e+00,-1.290457487106323242e+00
1.224226951599121094e+01,3.132074117660522461e+00,-1.105555415153503418e+00
1.225524139404296875e+01,3.135392904281616211e+00,-6.629556417465209961e-01
1.226774024963378906e+01,3.138590574264526367e+00,-2.210308313369750977e-01
1.227980041503906250e+01,3.141675949096679688e+00,2.212481200695037842e-01
1.229293441772460938e+01,3.145036458969116211e+00,6.649946570396423340e-01
1.230434131622314453e+01,3.147954463958740234e+00,1.111160993576049805e+00
3.851198673248291016e+00,1.044242382049560547e+00,-1.069185256958007812e+00
4.563663959503173828e+00,1.237425446510314941e+00,-1.091647267341613770e+00
5.595369338989257812e+00,1.517169713973999023e+00,-1.126900672912597656e+00
7.224029541015625000e+00,1.958776593208312988e+00,-1.185486555099487305e+00
1.017940425872802734e+01,2.760118722915649414e+00,-1.295002818107604980e+00
1.178948307037353516e+01,3.196687221527099609e+00,-1.068688511848449707e+00
1.180316829681396484e+01,3.200397968292236328e+00,-6.409128308296203613e-01
1.181731319427490234e+01,3.204233407974243164e+00,-2.137198299169540405e-01
1.183192729949951172e+01,3.208195924758911133e+00,2.139841318130493164e-01
1.184557914733886719e+01,3.211897611618041992e+00,6.432157158851623535e-01
1.186069202423095703e+01,3.215995550155639648e+00,1.075143456459045410e+00
3.824377298355102539e+00,1.095963358879089355e+00,-1.065984845161437988e+00
4.562356472015380859e+00,1.307448387145996094e+00,-1.095698833465576172e+00
5.593906879425048828e+00,1.603062868118286133e+00,-1.131111383438110352e+00
7.222186565399169922e+00,2.069684028625488281e+00,-1.189923644065856934e+00
1.017645454406738281e+01,2.916297435760498047e+00,-1.299804806709289551e+00
1.176980400085449219e+01,3.372908592224121094e+00,-1.071171283721923828e+00
1.178358459472656250e+01,3.376857757568359375e+00,-6.424081921577453613e-01
1.179770565032958984e+01,3.380904436111450195e+00,-2.142184823751449585e-01
1.181218051910400391e+01,3.385052442550659180e+00,2.144813090562820435e-01
1.182558917999267578e+01,3.388894796371459961e+00,6.446981430053710938e-01
1.184033203125000000e+01,3.393119812011718750e+00,1.077589988708496094e+00
3.822927713394165039e+00,1.155004978179931641e+00,-1.070079207420349121e+00
4.524521350860595703e+00,1.366974592208862305e+00,-1.091199517250061035e+00
5.592206954956054688e+00,1.689549803733825684e+00,-1.135541319847106934e+00
7.220041751861572266e+00,2.181360721588134766e+00,-1.194592237472534180e+00
9.989589691162109375e+00,3.018112421035766602e+00,-1.281323671340942383e+00
1.174971485137939453e+01,3.549891710281372070e+00,-1.073857307434082031e+00
1.176359176635742188e+01,3.554084300994873047e+00,-6.440256237983703613e-01
1.177769088745117188e+01,3.558343887329101562e+00,-2.147578597068786621e-01
1.179201984405517578e+01,3.562672853469848633e+00,2.150191366672515869e-01
1.180682373046875000e+01,3.567145586013793945e+00,6.463924646377563477e-01
1.181953811645507812e+01,3.570986986160278320e+00,1.080238699913024902e+00
3.796083927154541016e+00,1.206447124481201172e+00,-1.067289710044860840e+00
4.522779464721679688e+00,1.437400817871093750e+00,-1.095629215240478516e+00
5.535147666931152344e+00,1.759145259857177734e+00,-1.128952264785766602e+00
7.125217914581298828e+00,2.264491081237792969e+00,-1.184144616127014160e+00
9.985833168029785156e+00,3.173633575439453125e+00,-1.286536693572998047e+00
1.172913742065429688e+01,3.727679491043090820e+00,-1.076742768287658691e+00
1.174311542510986328e+01,3.732121944427490234e+00,-6.457630395889282227e-01
7.419080734252929688e+00,2.357884645462036133e+00,-1.358831673860549927e-01
7.426763534545898438e+00,2.360326528549194336e+00,1.360238790512084961e-01
7.434657096862792969e+00,2.362835168838500977e+00,4.088375568389892578e-01
7.442607879638671875e+00,2.365362167358398438e+00,6.832364201545715332e-01
7.450372695922851562e+00,2.367829799652099609e+00,9.598776102066040039e-01
7.457615852355957031e+00,2.370131731033325195e+00,1.239386081695556641e+00
3.796000242233276367e+00,1.266515851020812988e+00,-1.072253227233886719e+00
4.487219333648681641e+00,1.497137546539306641e+00,-1.092094182968139648e+00
5.535539150238037109e+00,1.846904039382934570e+00,-1.134307742118835449e+00
6.899365901947021484e+00,2.301937580108642578e+00,-1.151967883110046387e+00
6.906604766845703125e+00,2.304352998733520508e+00,-8.939784765243530273e-01
6.913778781890869141e+00,2.306746482849121094e+00,-6.376552581787109375e-01
6.921007633209228516e+00,2.309158325195312500e+00,-3.823699951171875000e-01
6.928256511688232422e+00,2.311576843261718750e+00,-1.274864822626113892e-01
6.935434341430664062e+00,2.313971757888793945e+00,1.276185661554336548e-01
6.942727088928222656e+00,2.316405057907104492e+00,3.835699260234832764e-01
6.949990272521972656e+00,2.318828344345092773e+00,6.409950256347656250e-01
6.956996917724609375e+00,2.321166038513183594e+00,9.005011320114135742e-01
6.965474605560302734e+00,2.323994398117065430e+00,1.163005828857421875e+00
3.769098043441772461e+00,1.317782163619995117e+00,-1.069872498512268066e+00
4.485007762908935547e+00,1.568084120750427246e+00,-1.096906065940856934e+00
5.479050636291503906e+00,1.915629386901855469e+00,-1.128235459327697754e+00
6.507703781127929688e+00,2.275275230407714844e+00,-1.091898918151855469e+00
6.514912128448486328e+00,2.277795314788818359e+00,-8.474117517471313477e-01
6.521895408630371094e+00,2.280236959457397461e+00,-6.044602990150451660e-01
6.528853893280029297e+00,2.282669782638549805e+00,-3.624723255634307861e-01
6.535756111145019531e+00,2.285083055496215820e+00,-1.208535730838775635e-01
6.542518138885498047e+00,2.287447214126586914e+00,1.209786087274551392e-01
6.549315452575683594e+00,2.289823770523071289e+00,3.636083602905273438e-01
6.556012630462646484e+00,2.292165517807006836e+00,6.076223254203796387e-01
6.563967227935791016e+00,2.294946432113647461e+00,8.537924885749816895e-01
6.570096492767333984e+00,2.297089576721191406e+00,1.102367520332336426e+00
6.577511787414550781e+00,2.299682140350341797e+00,1.354428410530090332e+00
3.744176864624023438e+00,1.369514584541320801e+00,-1.068253397941589355e+00
4.449655055999755859e+00,1.627558708190917969e+00,-1.093845248222351074e+00
5.478992938995361328e+00,2.004061698913574219e+00,-1.134014248847961426e+00
6.125720500946044922e+00,2.240616321563720703e+00,-1.033082842826843262e+00
6.132456302642822266e+00,2.243080139160156250e+00,-8.017587661743164062e-01
6.138933181762695312e+00,2.245449304580688477e+00,-5.718869566917419434e-01
6.145072937011718750e+00,2.247694969177246094e+00,-3.429164290428161621e-01
6.151628494262695312e+00,2.250092744827270508e+00,-1.143344342708587646e-01
6.158441066741943359e+00,2.252584457397460938e+00,1.144610494375228882e-01
6.165079116821289062e+00,2.255012750625610352e+00,3.440328538417816162e-01
6.171539306640625000e+00,2.257375717163085938e+00,5.749244689941406250e-01
6.177626609802246094e+00,2.259602069854736328e+00,8.076642751693725586e-01
6.184864997863769531e+00,2.262249708175659180e+00,1.043057441711425781e+00
6.191748142242431641e+00,2.264767408370971680e+00,1.281536579132080078e+00
3.717448711395263672e+00,1.420384168624877930e+00,-1.066318869590759277e+00
4.412312507629394531e+00,1.685881733894348145e+00,-1.090485811233520508e+00
5.422892570495605469e+00,2.072009801864624023e+00,-1.128425598144531250e+00
5.814127445220947266e+00,2.221495389938354492e+00,-9.857953190803527832e-01
5.820771217346191406e+00,2.224033832550048828e+00,-7.650925517082214355e-01
5.827113628387451172e+00,2.226457118988037109e+00,-5.457515120506286621e-01
5.833262443542480469e+00,2.228806495666503906e+00,-3.272630274295806885e-01
5.839445114135742188e+00,2.231168746948242188e+00,-1.091145724058151245e-01
5.845769405364990234e+00,2.233585119247436523e+00,1.092327386140823364e-01
5.851975917816162109e+00,2.235956668853759766e+00,3.283129036426544189e-01
5.857949256896972656e+00,2.238238811492919922e+00,5.486394762992858887e-01
5.864889144897460938e+00,2.240890502929687500e+00,7.708914875984191895e-01
5.871760845184326172e+00,2.243516206741333008e+00,9.955671429634094238e-01
5.878230571746826172e+00,2.245988130569458008e+00,1.223174810409545898e+00
3.692746162414550781e+00,1.471851110458374023e+00,-1.065166950225830078e+00
4.411556720733642578e+00,1.758354067802429199e+00,-1.096406936645507812e+00
5.422214031219482422e+00,2.161180734634399414e+00,-1.134605050086975098e+00
5.506854534149169922e+00,2.194916725158691406e+00,-9.389272332191467285e-01
5.512336730957031250e+00,2.197101831436157227e+00,-7.286102771759033203e-01
5.518521785736083984e+00,2.199567079544067383e+00,-5.197450518608093262e-01
5.524487495422363281e+00,2.201944828033447266e+00,-3.116761445999145508e-01
5.530391216278076172e+00,2.204297780990600586e+00,-1.039185672998428345e-01
5.536344528198242188e+00,2.206670999526977539e+00,1.040304377675056458e-01
5.542115211486816406e+00,2.208970785140991211e+00,3.126706480979919434e-01
5.548607826232910156e+00,2.211558580398559570e+00,5.225785970687866211e-01
5.553899765014648438e+00,2.213668107986450195e+00,7.341040372848510742e-01
5.560071468353271484e+00,2.216127872467041016e+00,9.480007886886596680e-01
5.567675590515136719e+00,2.219158649444580078e+00,1.165043115615844727e+00
5.572834968566894531e+00,2.221215248107910156e+00,1.385020136833190918e+00
3.691624879837036133e+00,1.532989978790283203e+00,-1.071063160896301270e+00
4.376546382904052734e+00,1.817411422729492188e+00,-1.094058871269226074e+00
5.223726272583007812e+00,2.169212818145751953e+00,-1.099455714225769043e+00
5.229207038879394531e+00,2.171488761901855469e+00,-8.967955112457275391e-01
5.235422611236572266e+00,2.174069881439208984e+00,-6.960502266883850098e-01
5.240742206573486328e+00,2.176278829574584961e+00,-4.964661598205566406e-01
5.246517658233642578e+00,2.178677082061767578e+00,-2.977226972579956055e-01
5.252168178558349609e+00,2.181023597717285156e+00,-9.926706552505493164e-02
5.257786750793457031e+00,2.183356761932373047e+00,9.937325119972229004e-02
5.263838291168212891e+00,2.185869693756103516e+00,2.987056076526641846e-01
5.269133090972900391e+00,2.188068389892578125e+00,4.991556704044342041e-01
5.275141239166259766e+00,2.190563440322875977e+00,7.013307809829711914e-01
5.280943393707275391e+00,2.192972898483276367e+00,9.056681394577026367e-01
5.286241054534912109e+00,2.195172786712646484e+00,1.112613439559936523e+00
5.292708396911621094e+00,2.197858333587646484e+00,1.323083043098449707e+00
3.666728496551513672e+00,1.584553241729736328e+00,-1.070310592651367188e+00
4.341762542724609375e+00,1.876264929771423340e+00,-1.091965079307556152e+00
4.973544597625732422e+00,2.149285554885864258e+00,-1.053166151046752930e+00
4.978830814361572266e+00,2.151569843292236328e+00,-8.590500950813293457e-01
4.984030246734619141e+00,2.153816938400268555e+00,-6.666579246520996094e-01
4.989277362823486328e+00,2.156084299087524414e+00,-4.755191802978515625e-01
4.994871616363525391e+00,2.158501863479614258e+00,-2.851666510105133057e-01
5.000296592712402344e+00,2.160846233367919922e+00,-9.508147090673446655e-02
5.005604743957519531e+00,2.163140296936035156e+00,9.518240392208099365e-02
5.011253356933593750e+00,2.165581226348876953e+00,2.861019074916839600e-01
5.017021179199218750e+00,2.168073654174804688e+00,4.781634211540222168e-01
5.022742748260498047e+00,2.170546054840087891e+00,6.718360781669616699e-01
5.028194904327392578e+00,2.172902345657348633e+00,8.675674200057983398e-01
5.033094406127929688e+00,2.175019502639770508e+00,1.065776109695434570e+00
5.039027690887451172e+00,2.177583694458007812e+00,1.267329216003417969e+00
3.641846418380737305e+00,1.636047840118408203e+00,-1.069773435592651367e+00
4.307167530059814453e+00,1.934933900833129883e+00,-1.090118288993835449e+00
4.744715213775634766e+00,2.131496191024780273e+00,-1.011067628860473633e+00
4.750078678131103516e+00,2.133905410766601562e+00,-8.247666358947753906e-01
4.755284786224365234e+00,2.136244297027587891e+00,-6.400855779647827148e-01
4.760468006134033203e+00,2.138572692871093750e+00,-4.565824270248413086e-01
4.765901088714599609e+00,2.141013383865356445e+00,-2.738158106803894043e-01
4.771109104156494141e+00,2.143352985382080078e+00,-9.129744023084640503e-02
4.776133060455322266e+00,2.145610094070434570e+00,9.139357507228851318e-02
4.781404972076416016e+00,2.147978544235229492e+00,2.747066020965576172e-01
4.786719799041748047e+00,2.150366067886352539e+00,4.591003060340881348e-01
4.791924476623535156e+00,2.152704000473022461e+00,6.450175046920776367e-01
4.798161983489990234e+00,2.155506134033203125e+00,8.331154584884643555e-01
4.802679538726806641e+00,2.157535791397094727e+00,1.023419380187988281e+00
4.808111667633056641e+00,2.159976005554199219e+00,1.216904282569885254e+00
3.616940498352050781e+00,1.687480807304382324e+00,-1.069442987442016602e+00
4.305080890655517578e+00,2.008532047271728516e+00,-1.096753954887390137e+00
4.536621093750000000e+00,2.116557121276855469e+00,-9.730800986289978027e-01
4.541816711425781250e+00,2.118981122970581055e+00,-7.937905788421630859e-01
4.546791076660156250e+00,2.121301889419555664e+00,-6.160452365875244141e-01
4.551673412322998047e+00,2.123579978942871094e+00,-4.394269883632659912e-01
4.556575775146484375e+00,2.125867128372192383e+00,-2.635106742382049561e-01
4.561575412750244141e+00,2.128199577331542969e+00,-8.786181360483169556e-02
4.566683292388916016e+00,2.130582571029663086e+00,8.796019852161407471e-02
4.571848392486572266e+00,2.132992506027221680e+00,2.643938958644866943e-01
4.576985836029052734e+00,2.135389089584350586e+00,4.418706595897674561e-01
4.581940650939941406e+00,2.137701034545898438e+00,6.208076477050781250e-01
4.586513996124267578e+00,2.139834642410278320e+00,8.016025424003601074e-01
4.591969490051269531e+00,2.142379999160766602e+00,9.849520921707153320e-01
4.596926689147949219e+00,2.144692659378051758e+00,1.171104073524475098e+00
3.594210147857666016e+00,1.739940762519836426e+00,-1.069976210594177246e+00
4.272883415222167969e+00,2.068483591079711914e+00,-1.095981836318969727e+00
4.330174446105957031e+00,2.096217870712280273e+00,-9.351384043693542480e-01
4.334416389465332031e+00,2.098271369934082031e+00,-7.627134323120117188e-01
4.339418888092041016e+00,2.100692987442016602e+00,-5.919616222381591797e-01
4.344252109527587891e+00,2.103032588958740234e+00,-4.222649335861206055e-01
4.349033355712890625e+00,2.105347156524658203e+00,-2.532250881195068359e-01
4.353828907012939453e+00,2.107668876647949219e+00,-8.443277329206466675e-02
4.358654975891113281e+00,2.110004901885986328e+00,8.452636003494262695e-02
4.363457202911376953e+00,2.112329959869384766e+00,2.540649473667144775e-01
4.368156909942626953e+00,2.114604949951171875e+00,4.245885014533996582e-01
4.373616218566894531e+00,2.117247819900512695e+00,5.966266393661499023e-01
4.377852439880371094e+00,2.119298696517944336e+00,7.703567147254943848e-01
4.382850170135498047e+00,2.121717929840087891e+00,9.465141296386718750e-01
4.388947010040283203e+00,2.124669313430786133e+00,1.125751852989196777e+00
3.569190263748168945e+00,1.791328549385070801e+00,-1.070051193237304688e+00
4.149797439575195312e+00,2.082727670669555664e+00,-1.071947336196899414e+00
4.154386520385742188e+00,2.085030555725097656e+00,-9.035279750823974609e-01
4.159530639648437500e+00,2.087612390518188477e+00,-7.371218204498291016e-01
4.163767337799072266e+00,2.089738845825195312e+00,-5.720219016075134277e-01
4.168558597564697266e+00,2.092143535614013672e+00,-4.080563783645629883e-01
4.173233985900878906e+00,2.094490051269531250e+00,-2.447095662355422974e-01
4.177852630615234375e+00,2.096807956695556641e+00,-8.159377425909042358e-02
4.182440280914306641e+00,2.099110603332519531e+00,8.168338239192962646e-02
4.186933040618896484e+00,2.101365327835083008e+00,2.455128431320190430e-01
4.192004203796386719e+00,2.103910446166992188e+00,4.103514254093170166e-01
4.196244239807128906e+00,2.106038570404052734e+00,5.764836072921752930e-01
4.201168060302734375e+00,2.108509778976440430e+00,7.445005774497985840e-01
4.205788612365722656e+00,2.110828638076782227e+00,9.147073626518249512e-01
4.211388111114501953e+00,2.113638877868652344e+00,1.087857007980346680e+00
3.546340465545654297e+00,1.843866705894470215e+00,-1.071003556251525879e+00
3.975382089614868164e+00,2.066940546035766602e+00,-1.034429788589477539e+00
3.979961156845092773e+00,2.069321393966674805e+00,-8.719450831413269043e-01
3.984250783920288086e+00,2.071551561355590820e+00,-7.112417221069335938e-01
3.989089012145996094e+00,2.074067354202270508e+00,-5.520463585853576660e-01
3.993305206298828125e+00,2.076259374618530273e+00,-3.937697410583496094e-01
3.997875928878784180e+00,2.078635931015014648e+00,-2.361473739147186279e-01
4.002323627471923828e+00,2.080948352813720703e+00,-7.873933762311935425e-02
4.006650924682617188e+00,2.083198308944702148e+00,7.882446795701980591e-02
4.011342525482177734e+00,2.085637569427490234e+00,2.369428128004074097e-01
4.015496253967285156e+00,2.087797403335571289e+00,3.959579467773437500e-01
4.020201206207275391e+00,2.090243577957153320e+00,5.563519001007080078e-01
4.024772644042968750e+00,2.092620372772216797e+00,7.184754014015197754e-01
4.028984546661376953e+00,2.094810485839843750e+00,8.826853632926940918e-01
4.034055233001708984e+00,2.097446918487548828e+00,1.049697041511535645e+00
3.501971721649169922e+00,1.884951233863830566e+00,-1.065642952919006348e+00
3.814684629440307617e+00,2.053270339965820312e+00,-1.000159859657287598e+00
3.819257736206054688e+00,2.055731773376464844e+00,-8.430976867675781250e-01
3.823484420776367188e+00,2.058006763458251953e+00,-6.877308487892150879e-01
3.827646732330322266e+00,2.060247182846069336e+00,-5.337308049201965332e-01
3.832167625427246094e+00,2.062680482864379883e+00,-3.807526528835296631e-01
3.836328744888305664e+00,2.064920186996459961e+00,-2.283275127410888672e-01
3.840612411499023438e+00,2.067225933074951172e+00,-7.613224536180496216e-02
3.844993591308593750e+00,2.069584131240844727e+00,7.621908932924270630e-02
3.849086046218872070e+00,2.071786880493164062e+00,2.290867865085601807e-01
3.853555440902709961e+00,2.074192523956298828e+00,3.828777074813842773e-01
3.857994318008422852e+00,2.076581954956054688e+00,5.379624962806701660e-01
3.862237930297851562e+00,2.078866004943847656e+00,6.947014331817626953e-01
3.867309331893920898e+00,2.081595659255981445e+00,8.537050485610961914e-01
3.872059106826782227e+00,2.084152221679687500e+00,1.015202641487121582e+00
3.479152679443359375e+00,1.937393665313720703e+00,-1.067028284072875977e+00
3.666049718856811523e+00,2.041468858718872070e+00,-9.687516689300537109e-01
3.670626878738403320e+00,2.044017553329467773e+00,-8.166623711585998535e-01
3.674801111221313477e+00,2.046342134475708008e+00,-6.661873459815979004e-01
3.678843259811401367e+00,2.048592805862426758e+00,-5.170173048973083496e-01
3.682850837707519531e+00,2.050824642181396484e+00,-3.687957823276519775e-01
3.686934709548950195e+00,2.053098678588867188e+00,-2.211623787879943848e-01
3.691066026687622070e+00,2.055399417877197266e+00,-7.374343276023864746e-02
3.695220947265625000e+00,2.057713031768798828e+00,7.382643967866897583e-02
3.699483871459960938e+00,2.060086965560913086e+00,2.219151407480239868e-01
3.703776359558105469e+00,2.062477111816406250e+00,3.708912432193756104e-01
3.707963466644287109e+00,2.064808845520019531e+00,5.211098194122314453e-01
3.711888790130615234e+00,2.066994667053222656e+00,6.729108095169067383e-01
3.716539144515991211e+00,2.069584131240844727e+00,8.268771767616271973e-01
3.720814466476440430e+00,2.071964979171752930e+00,9.832231998443603516e-01
3.456148386001586914e+00,1.989913702011108398e+00,-1.068598985671997070e+00
3.528087854385375977e+00,2.031333684921264648e+00,-9.398822188377380371e-01
3.532626867294311523e+00,2.033946990966796875e+00,-7.923553586006164551e-01
3.536150693893432617e+00,2.035975933074951172e+00,-6.462688446044921875e-01
3.540255069732666016e+00,2.038339138031005859e+00,-5.015892982482910156e-01
3.544269561767578125e+00,2.040650367736816406e+00,-3.578067123889923096e-01
3.548282623291015625e+00,2.042960882186889648e+00,-2.145773768424987793e-01
3.552269935607910156e+00,2.045256853103637695e+00,-7.154798507690429688e-02
3.556214570999145508e+00,2.047527790069580078e+00,7.162743061780929565e-02
3.560191869735717773e+00,2.049817800521850586e+00,2.152975648641586304e-01
3.564132213592529297e+00,2.052086591720581055e+00,3.598119318485260010e-01
3.568699836730957031e+00,2.054716348648071289e+00,5.056194067001342773e-01
3.572325229644775391e+00,2.056803703308105469e+00,6.528801321983337402e-01
3.576574802398681641e+00,2.059250593185424805e+00,8.022127151489257812e-01
3.580400466918945312e+00,2.061453104019165039e+00,9.538182616233825684e-01
3.395430088043212891e+00,2.020203590393066406e+00,-1.058657765388488770e+00
3.399586439132690430e+00,2.022676706314086914e+00,-9.132686257362365723e-01
3.404135465621948242e+00,2.025383234024047852e+00,-7.699587345123291016e-01
3.407646894454956055e+00,2.027472496032714844e+00,-6.280228495597839355e-01
3.411649227142333984e+00,2.029853582382202148e+00,-4.874347150325775146e-01
3.415487289428710938e+00,2.032137155532836914e+00,-3.477064967155456543e-01
3.419261932373046875e+00,2.034383058547973633e+00,-2.085146009922027588e-01
3.423088312149047852e+00,2.036659717559814453e+00,-6.952611356973648071e-02
3.427009582519531250e+00,2.038992643356323242e+00,6.960575282573699951e-02
3.430889129638671875e+00,2.041300773620605469e+00,2.092236578464508057e-01
3.434665203094482422e+00,2.043547630310058594e+00,3.496588468551635742e-01
3.438981533050537109e+00,2.046115636825561523e+00,4.913398027420043945e-01
3.442327022552490234e+00,2.048106193542480469e+00,6.344143748283386230e-01
3.446196794509887695e+00,2.050408601760864258e+00,7.794722914695739746e-01
3.450838327407836914e+00,2.053170204162597656e+00,9.270369410514831543e-01
3.268298625946044922e+00,2.008448123931884766e+00,-1.027877449989318848e+00
3.271530628204345703e+00,2.010434389114379883e+00,-8.865072131156921387e-01
3.275367736816406250e+00,2.012792348861694336e+00,-7.472734451293945312e-01
3.279629468917846680e+00,2.015411376953125000e+00,-6.096835732460021973e-01
3.283118486404418945e+00,2.017555475234985352e+00,-4.731485545635223389e-01
3.286971569061279297e+00,2.019923210144042969e+00,-3.375319838523864746e-01
3.290684700012207031e+00,2.022205114364624023e+00,-2.024180442094802856e-01
3.294381141662597656e+00,2.024476528167724609e+00,-6.749358773231506348e-02
3.298091411590576172e+00,2.026756763458251953e+00,6.756960600614547729e-02
3.301698684692382812e+00,2.028973340988159180e+00,2.030955404043197632e-01
3.305690288543701172e+00,2.031426191329956055e+00,3.394541442394256592e-01
3.309008598327636719e+00,2.033465385437011719e+00,4.768797159194946289e-01
3.312770366668701172e+00,2.035777330398559570e+00,6.158444881439208984e-01
3.317275524139404297e+00,2.038545846939086914e+00,7.568346261978149414e-01
3.321558475494384766e+00,2.041177749633789062e+00,9.000635743141174316e-01
3.148958206176757812e+00,1.997755408287048340e+00,-9.992356896400451660e-01
3.153203964233398438e+00,2.000448942184448242e+00,-8.621141910552978516e-01
3.156253337860107422e+00,2.002383708953857422e+00,-7.265621423721313477e-01
3.160490512847900391e+00,2.005071640014648438e+00,-5.928101539611816406e-01
3.163920879364013672e+00,2.007247924804687500e+00,-4.600637257099151611e-01
3.167374610900878906e+00,2.009439229965209961e+00,-3.281707465648651123e-01
3.171036243438720703e+00,2.011762142181396484e+00,-1.968092918395996094e-01
3.174610614776611328e+00,2.014029741287231445e+00,-6.562367826700210571e-02
3.178127765655517578e+00,2.016261100769042969e+00,6.569638103246688843e-02
3.181855916976928711e+00,2.018626213073730469e+00,1.974807977676391602e-01
3.185657501220703125e+00,2.021038055419921875e+00,3.300650119781494141e-01
3.188743591308593750e+00,2.022995948791503906e+00,4.636731743812561035e-01
3.193028688430786133e+00,2.025714397430419922e+00,5.989133119583129883e-01
3.196266651153564453e+00,2.027768611907958984e+00,7.357730269432067871e-01
3.200065851211547852e+00,2.030179023742675781e+00,8.749265670776367188e-01
3.038466691970825195e+00,1.989212036132812500e+00,-9.731096029281616211e-01
3.041875600814819336e+00,1.991443872451782227e+00,-8.393834233283996582e-01
3.045027732849121094e+00,1.993507385253906250e+00,-7.074542045593261719e-01
3.048712253570556641e+00,1.995919585227966309e+00,-5.771434903144836426e-01
3.052236080169677734e+00,1.998226523399353027e+00,-4.479367434978485107e-01
3.055954456329345703e+00,2.000660896301269531e+00,-3.195607960224151611e-01
3.059325456619262695e+00,2.002867698669433594e+00,-1.916356235742568970e-01
3.062785625457763672e+00,2.005133152008056641e+00,-6.389883160591125488e-02
3.066336870193481445e+00,2.007457971572875977e+00,6.397292017936706543e-02
3.069588661193847656e+00,2.009586811065673828e+00,1.922785192728042603e-01
3.073059797286987305e+00,2.011859416961669922e+00,3.213495016098022461e-01
3.076433420181274414e+00,2.014067888259887695e+00,4.514878690242767334e-01
3.080384254455566406e+00,2.016654491424560547e+00,5.831391811370849609e-01
3.084205389022827148e+00,2.019155979156494141e+00,7.165563702583312988e-01
3.087684154510498047e+00,2.021433591842651367e+00,8.520238995552062988e-01
2.934029340744018555e+00,1.981402635574340820e+00,-9.486478567123413086e-01
2.937590360641479492e+00,1.983807444572448730e+00,-8.183582425117492676e-01
2.941486120223999023e+00,1.986438393592834473e+00,-6.899334788322448730e-01
2.944530963897705078e+00,1.988494515419006348e+00,-5.627516508102416992e-01
2.948001384735107422e+00,1.990838170051574707e+00,-4.367768168449401855e-01
2.951365709304809570e+00,1.993110060691833496e+00,-3.115752339363098145e-01
2.954699039459228516e+00,1.995361208915710449e+00,-1.868517398834228516e-01
2.958045482635498047e+00,1.997621178627014160e+00,-6.230379268527030945e-02
2.961415052413940430e+00,1.999896645545959473e+00,6.237475946545600891e-02
2.964786291122436523e+00,2.002173185348510742e+00,1.874896436929702759e-01
2.968088150024414062e+00,2.004403114318847656e+00,3.133406341075897217e-01
2.971866846084594727e+00,2.006954908370971680e+00,4.403127133846282959e-01
2.974861145019531250e+00,2.008976936340332031e+00,5.685482621192932129e-01
2.978297948837280273e+00,2.011297941207885742e+00,6.985677480697631836e-01
2.982376813888549805e+00,2.014052391052246094e+00,8.308348655700683594e-01
2.836780786514282227e+00,1.975427746772766113e+00,-9.262520670890808105e-01
2.840360403060913086e+00,1.977920532226562500e+00,-7.990767955780029297e-01
2.843574285507202148e+00,1.980158567428588867e+00,-6.735469102859497070e-01
2.846654415130615234e+00,1.982303500175476074e+00,-5.494121313095092773e-01
2.850077152252197266e+00,1.984686851501464844e+00,-4.264335632324218750e-01
2.853114128112792969e+00,1.986801743507385254e+00,-3.041738867759704590e-01
2.856408834457397461e+00,1.989096045494079590e+00,-1.824177652597427368e-01
2.859653711318969727e+00,1.991355657577514648e+00,-6.082553043961524963e-02
2.862856626510620117e+00,1.993586063385009766e+00,6.089365854859352112e-02
2.866325855255126953e+00,1.996001839637756348e+00,1.830510795116424561e-01
2.869467973709106445e+00,1.998189926147460938e+00,3.059173822402954102e-01
2.872995853424072266e+00,2.000646591186523438e+00,4.298627078533172607e-01
2.876445293426513672e+00,2.003048658370971680e+00,5.551618337631225586e-01
2.879651546478271484e+00,2.005281448364257812e+00,6.820923686027526855e-01
2.883404016494750977e+00,2.007894515991210938e+00,8.111862540245056152e-01
2.739938735961914062e+00,1.966812610626220703e+00,-9.037311673164367676e-01
2.742848634719848633e+00,1.968901276588439941e+00,-7.794923782348632812e-01
2.746174573898315430e+00,1.971288800239562988e+00,-6.570922732353210449e-01
2.749304771423339844e+00,1.973535895347595215e+00,-5.360204577445983887e-01
2.752357721328735352e+00,1.975727319717407227e+00,-4.160012006759643555e-01
2.755645513534545898e+00,1.978087306022644043e+00,-2.967707514762878418e-01
2.758697748184204102e+00,1.980278372764587402e+00,-1.779696047306060791e-01
2.761842250823974609e+00,1.982535600662231445e+00,-5.934256315231323242e-02
2.765061140060424805e+00,1.984846234321594238e+00,5.941172689199447632e-02
2.768087863922119141e+00,1.987018823623657227e+00,1.785753816366195679e-01
2.771378278732299805e+00,1.989380717277526855e+00,2.984650731086730957e-01
2.774645566940307617e+00,1.991726160049438477e+00,4.193698763847351074e-01
2.777765274047851562e+00,1.993965625762939453e+00,5.415692925453186035e-01
2.781415700912475586e+00,1.996586084365844727e+00,6.655246615409851074e-01
2.784808635711669922e+00,1.999021649360656738e+00,7.914170622825622559e-01
2.648165225982666016e+00,1.958966732025146484e+00,-8.826189637184143066e-01
2.651948690414428711e+00,1.961765646934509277e+00,-7.615614533424377441e-01
2.654696941375732422e+00,1.963798522949218750e+00,-6.418638825416564941e-01
2.657878637313842773e+00,1.966152191162109375e+00,-5.236286520957946777e-01
2.660915613174438477e+00,1.968398809432983398e+00,-4.063971042633056641e-01
2.663910865783691406e+00,1.970614552497863770e+00,-2.898993194103240967e-01
2.666939496994018555e+00,1.972854852676391602e+00,-1.738539934158325195e-01
2.669983625411987305e+00,1.975106835365295410e+00,-5.797033384442329407e-02
2.673036575317382812e+00,1.977365136146545410e+00,5.803661793470382690e-02
2.676143169403076172e+00,1.979663252830505371e+00,1.744539588689804077e-01
2.679249525070190430e+00,1.981961369514465332e+00,2.915685772895812988e-01
2.682270050048828125e+00,1.984195590019226074e+00,4.096585214138031006e-01
2.685756921768188477e+00,1.986775040626525879e+00,5.291209816932678223e-01
2.688332080841064453e+00,1.988680124282836914e+00,6.499963998794555664e-01
2.692182302474975586e+00,1.991528272628784180e+00,7.731153964996337891e-01
2.562477111816406250e+00,1.952935695648193359e+00,-8.632878065109252930e-01
2.565649509429931641e+00,1.955353379249572754e+00,-7.447398304939270020e-01
2.568528652191162109e+00,1.957547783851623535e+00,-6.277400851249694824e-01
2.571754693984985352e+00,1.960006356239318848e+00,-5.121359229087829590e-01
2.574779033660888672e+00,1.962311267852783203e+00,-3.974906504154205322e-01
2.577510356903076172e+00,1.964393019676208496e+00,-2.835276424884796143e-01
2.580509901046752930e+00,1.966678977012634277e+00,-1.700374186038970947e-01
2.583463191986083984e+00,1.968929767608642578e+00,-5.669789761304855347e-02
2.586356878280639648e+00,1.971135020256042480e+00,5.676140263676643372e-02
2.589532375335693359e+00,1.973555326461791992e+00,1.706319302320480347e-01
2.592465877532958984e+00,1.975790977478027344e+00,2.851727604866027832e-01
2.595249891281127930e+00,1.977912664413452148e+00,4.006509184837341309e-01
2.598418474197387695e+00,1.980327606201171875e+00,5.174456834793090820e-01
2.601402759552001953e+00,1.982602000236511230e+00,6.357744336128234863e-01
2.604899168014526367e+00,1.985266685485839844e+00,7.561330199241638184e-01
2.477496623992919922e+00,1.944846987724304199e+00,-8.439501523971557617e-01
2.480760097503662109e+00,1.947408676147460938e+00,-7.281152606010437012e-01
2.483676433563232422e+00,1.949698090553283691e+00,-6.137599945068359375e-01
2.486443519592285156e+00,1.951870203018188477e+00,-5.006594061851501465e-01
2.489169597625732422e+00,1.954010128974914551e+00,-3.885523378849029541e-01
2.492135286331176758e+00,1.956338286399841309e+00,-2.771881818771362305e-01
2.494998455047607422e+00,1.958585858345031738e+00,-1.662330329418182373e-01
2.497843980789184570e+00,1.960819721221923828e+00,-5.542913451790809631e-02
2.500696182250976562e+00,1.963058710098266602e+00,5.549242720007896423e-02
2.503466606140136719e+00,1.965233564376831055e+00,1.667972356081008911e-01
2.506498575210571289e+00,1.967613697052001953e+00,2.787857353687286377e-01
2.509544134140014648e+00,1.970004439353942871e+00,3.917327523231506348e-01
2.512487649917602539e+00,1.972315073013305664e+00,5.059036016464233398e-01
2.515188932418823242e+00,1.974435567855834961e+00,6.215472817420959473e-01
2.518310785293579102e+00,1.976886272430419922e+00,7.391365766525268555e-01
2.401096582412719727e+00,1.941050410270690918e+00,-8.273041844367980957e-01
2.403824090957641602e+00,1.943255305290222168e+00,-7.136248350143432617e-01
2.406860113143920898e+00,1.945709705352783203e+00,-6.015979051589965820e-01
2.409689426422119141e+00,1.947996854782104492e+00,-4.907686114311218262e-01
2.412416458129882812e+00,1.950201392173767090e+00,-3.808896839618682861e-01
2.415138244628906250e+00,1.952401638031005859e+00,-2.717045843601226807e-01
2.417981624603271484e+00,1.954700231552124023e+00,-1.629490852355957031e-01
2.420743942260742188e+00,1.956933498382568359e+00,-5.433423072099685669e-02
2.423450231552124023e+00,1.959121108055114746e+00,5.439497530460357666e-02
2.426285982131958008e+00,1.961413502693176270e+00,1.635087132453918457e-01
2.429150819778442383e+00,1.963729619979858398e+00,2.732810080051422119e-01
2.431965827941894531e+00,1.966005206108093262e+00,3.839762806892395020e-01
2.434618711471557617e+00,1.968149781227111816e+00,4.958458244800567627e-01
2.437674760818481445e+00,1.970620155334472656e+00,6.093000173568725586e-01
2.440474510192871094e+00,1.972883582115173340e+00,7.245052456855773926e-01
2.321713447570800781e+00,1.932469248771667480e+00,-8.094000816345214844e-01
2.324575424194335938e+00,1.934851527214050293e+00,-6.982483863830566406e-01
2.327182531356811523e+00,1.937021493911743164e+00,-5.885521173477172852e-01
2.330102443695068359e+00,1.939451932907104492e+00,-4.801641404628753662e-01
2.332853555679321289e+00,1.941741824150085449e+00,-3.726777434349060059e-01
2.335524559020996094e+00,1.943964958190917969e+00,-2.658510804176330566e-01
2.338185071945190430e+00,1.946179389953613281e+00,-1.594325006008148193e-01
2.340865135192871094e+00,1.948410272598266602e+00,-5.316184833645820618e-02
2.343569517135620117e+00,1.950661182403564453e+00,5.322326347231864929e-02
2.346279382705688477e+00,1.952916622161865234e+00,1.599844098091125488e-01
2.348951578140258789e+00,1.955140948295593262e+00,2.673794627189636230e-01
2.351499080657958984e+00,1.957261323928833008e+00,3.756563663482666016e-01
2.354395389556884766e+00,1.959672093391418457e+00,4.851701855659484863e-01
2.357137203216552734e+00,1.961954236030578613e+00,5.961277484893798828e-01
2.360321521759033203e+00,1.964604616165161133e+00,7.089856266975402832e-01
2.249965667724609375e+00,1.927924036979675293e+00,-7.939262390136718750e-01
2.252927780151367188e+00,1.930462121963500977e+00,-6.849567890167236328e-01
2.255588531494140625e+00,1.932741999626159668e+00,-5.773829221725463867e-01
2.258117198944091797e+00,1.934908866882324219e+00,-4.709890782833099365e-01
2.260880708694458008e+00,1.937276601791381836e+00,-3.655722439289093018e-01
2.263345956802368164e+00,1.939389109611511230e+00,-2.607681453227996826e-01
2.265990734100341797e+00,1.941655397415161133e+00,-1.563888341188430786e-01
2.268593072891235352e+00,1.943885087966918945e+00,-5.214706808328628540e-02
2.271156549453735352e+00,1.946081757545471191e+00,5.220599472522735596e-02
2.273907899856567383e+00,1.948439359664916992e+00,1.569352447986602783e-01
2.276410102844238281e+00,1.950583338737487793e+00,2.622733116149902344e-01
2.279176235198974609e+00,1.952953457832336426e+00,3.685305416584014893e-01
2.281862974166870117e+00,1.955255746841430664e+00,4.759418368339538574e-01
2.284336805343627930e+00,1.957375526428222656e+00,5.847419500350952148e-01
2.287170410156250000e+00,1.959803581237792969e+00,6.953676342964172363e-01
2.179520130157470703e+00,1.922334909439086914e+00,-7.786980271339416504e-01
2.181990623474121094e+00,1.924513697624206543e+00,-6.716958880424499512e-01
2.184279918670654297e+00,1.926532983779907227e+00,-5.661301612854003906e-01
2.186909675598144531e+00,1.928852438926696777e+00,-4.618480503559112549e-01
2.189692497253417969e+00,1.931306838989257812e+00,-3.584946095943450928e-01
2.192121267318725586e+00,1.933448910713195801e+00,-2.557243704795837402e-01
2.194604158401489258e+00,1.935638904571533203e+00,-1.533584594726562500e-01
2.197130203247070312e+00,1.937866806983947754e+00,-5.113673582673072815e-02
2.199690818786621094e+00,1.940125346183776855e+00,5.119633302092552185e-02
2.202322721481323242e+00,1.942446827888488770e+00,1.538978368043899536e-01
2.204646348953247070e+00,1.944496273994445801e+00,2.571855187416076660e-01
2.207160711288452148e+00,1.946713924407958984e+00,3.613545298576354980e-01
2.210049152374267578e+00,1.949261426925659180e+00,4.667348265647888184e-01
2.212849617004394531e+00,1.951731443405151367e+00,5.735349655151367188e-01
2.215405941009521484e+00,1.953986167907714844e+00,6.819823980331420898e-01
2.112104415893554688e+00,1.917310833930969238e+00,-7.643384337425231934e-01
2.114711761474609375e+00,1.919677615165710449e+00,-6.593760251998901367e-01
2.117082595825195312e+00,1.921829938888549805e+00,-5.557864308357238770e-01
2.119710683822631836e+00,1.924215674400329590e+00,-4.534265995025634766e-01
2.121949434280395508e+00,1.926247835159301758e+00,-3.518817126750946045e-01
2.124441385269165039e+00,1.928509950637817383e+00,-2.510235011577606201e-01
2.126916646957397461e+00,1.930757045745849609e+00,-1.505442410707473755e-01
2.129367828369140625e+00,1.932981967926025391e+00,-5.019841715693473816e-02
