9.902054071426391602e-01,-1.734136462211608887e+00,-1.046546027064323425e-01
9.914042949676513672e-01,-1.736236095428466797e+00,-3.489872440695762634e-02
9.926064610481262207e-01,-1.738341450691223145e+00,3.494103997945785522e-02
9.938030838966369629e-01,-1.740437030792236328e+00,1.050348356366157532e-01
9.950763583183288574e-01,-1.742666959762573242e+00,1.755680292844772339e-01
9.962173104286193848e-01,-1.744665145874023438e+00,2.466806769371032715e-01
9.975745081901550293e-01,-1.747041940689086914e+00,3.186362087726593018e-01
9.986981153488159180e-01,-1.749009728431701660e+00,3.914927840232849121e-01
1.000078201293945312e+00,-1.751426696777343750e+00,4.656239748001098633e-01
1.017503380775451660e+00,-1.724159598350524902e+00,-5.364358425140380859e-01
1.018871903419494629e+00,-1.726478695869445801e+00,-4.628211259841918945e-01
1.020120263099670410e+00,-1.728593826293945312e+00,-3.901513516902923584e-01
1.021313190460205078e+00,-1.730615258216857910e+00,-3.182738125324249268e-01
1.022580981254577637e+00,-1.732763648033142090e+00,-2.470420897006988525e-01
1.023826599121093750e+00,-1.734874248504638672e+00,-1.762412935495376587e-01
1.025093197822570801e+00,-1.737020611763000488e+00,-1.057033166289329529e-01
1.026333570480346680e+00,-1.739122390747070312e+00,-3.524840623140335083e-02
1.027553081512451172e+00,-1.741188883781433105e+00,3.529029339551925659e-02
1.028803110122680664e+00,-1.743306994438171387e+00,1.060858592391014099e-01
1.030043721199035645e+00,-1.745409369468688965e+00,1.773115247488021851e-01
1.031383752822875977e+00,-1.747679948806762695e+00,2.491687238216400146e-01
1.032694220542907715e+00,-1.749900460243225098e+00,3.218205273151397705e-01
1.033919334411621094e+00,-1.751976490020751953e+00,3.954288959503173828e-01
1.035209417343139648e+00,-1.754162549972534180e+00,4.702424108982086182e-01
1.052726268768310547e+00,-1.726892352104187012e+00,-5.419186949729919434e-01
1.053958773612976074e+00,-1.728914141654968262e+00,-4.674701988697052002e-01
1.055273294448852539e+00,-1.731070518493652344e+00,-3.940791487693786621e-01
1.056640386581420898e+00,-1.733313083648681641e+00,-3.215185105800628662e-01
1.057942628860473633e+00,-1.735449314117431641e+00,-2.495583593845367432e-01
1.059219956398010254e+00,-1.737544536590576172e+00,-1.780344992876052856e-01
1.060500025749206543e+00,-1.739644408226013184e+00,-1.067757606506347656e-01
1.061784148216247559e+00,-1.741750955581665039e+00,-3.560606390237808228e-02
1.063074946403503418e+00,-1.743868231773376465e+00,3.564934805035591125e-02
1.064378380775451660e+00,-1.746006488800048828e+00,1.071662530303001404e-01
1.065672993659973145e+00,-1.748130083084106445e+00,1.791191250085830688e-01
1.066922187805175781e+00,-1.750179290771484375e+00,2.516765296459197998e-01
1.068255662918090820e+00,-1.752366781234741211e+00,3.250528275966644287e-01
1.069708228111267090e+00,-1.754749536514282227e+00,3.994696736335754395e-01
1.071056962013244629e+00,-1.756961941719055176e+00,4.750538766384124756e-01
1.088385224342346191e+00,-1.729207396507263184e+00,-5.474778413772583008e-01
1.089673161506652832e+00,-1.731253504753112793e+00,-4.722715318202972412e-01
1.091043353080749512e+00,-1.733430504798889160e+00,-3.981307446956634521e-01
1.092468500137329102e+00,-1.735694646835327148e+00,-3.248275518417358398e-01
1.093819260597229004e+00,-1.737840890884399414e+00,-2.521278262138366699e-01
1.095137357711791992e+00,-1.739934921264648438e+00,-1.798671334981918335e-01
1.096451878547668457e+00,-1.742023468017578125e+00,-1.078739985823631287e-01
1.097778558731079102e+00,-1.744131207466125488e+00,-3.597225248813629150e-02
1.099122166633605957e+00,-1.746265888214111328e+00,3.601628169417381287e-02
1.100472092628479004e+00,-1.748410820960998535e+00,1.082695350050926208e-01
1.101806998252868652e+00,-1.750531554222106934e+00,1.809625625610351562e-01
1.103087544441223145e+00,-1.752566218376159668e+00,2.542642056941986084e-01
1.104454278945922852e+00,-1.754737496376037598e+00,3.283913433551788330e-01
1.105941176414489746e+00,-1.757099866867065430e+00,4.035670757293701172e-01
1.107316851615905762e+00,-1.759285569190979004e+00,4.799184501171112061e-01
1.124860167503356934e+00,-1.731677293777465820e+00,-5.533006787300109863e-01
1.126416921615600586e+00,-1.734073877334594727e+00,-4.773902297019958496e-01
1.127665400505065918e+00,-1.735995888710021973e+00,-4.023859202861785889e-01
1.129162430763244629e+00,-1.738300561904907227e+00,-3.283062875270843506e-01
1.130571246147155762e+00,-1.740469455718994141e+00,-2.548308372497558594e-01
1.131880044937133789e+00,-1.742484211921691895e+00,-1.817868500947952271e-01
1.133267521858215332e+00,-1.744620203971862793e+00,-1.090281084179878235e-01
1.134638786315917969e+00,-1.746731162071228027e+00,-3.635711222887039185e-02
1.135999560356140137e+00,-1.748826026916503906e+00,3.640071302652359009e-02
1.137446522712707520e+00,-1.751053571701049805e+00,1.094301566481590271e-01
1.138811707496643066e+00,-1.753155112266540527e+00,1.829001158475875854e-01
1.140113592147827148e+00,-1.755159378051757812e+00,2.569816708564758301e-01
1.141692876815795898e+00,-1.757590532302856445e+00,3.319495320320129395e-01
1.143002867698669434e+00,-1.759607434272766113e+00,4.078588187694549561e-01
1.144388675689697266e+00,-1.761740684509277344e+00,4.850068986415863037e-01
1.162419915199279785e+00,-1.734637975692749023e+00,-5.595055818557739258e-01
1.163841605186462402e+00,-1.736759543418884277e+00,-4.826662540435791016e-01
1.165342807769775391e+00,-1.738999843597412109e+00,-4.069068133831024170e-01
1.166754603385925293e+00,-1.741106629371643066e+00,-3.319563865661621094e-01
1.168134570121765137e+00,-1.743165850639343262e+00,-2.576473057270050049e-01
1.169592022895812988e+00,-1.745340824127197266e+00,-1.838125586509704590e-01
1.171020030975341797e+00,-1.747471690177917480e+00,-1.102425009012222290e-01
1.172437191009521484e+00,-1.749586582183837891e+00,-3.676207736134529114e-02
1.173847556114196777e+00,-1.751691222190856934e+00,3.680630028247833252e-02
1.175240397453308105e+00,-1.753769755363464355e+00,1.106398254632949829e-01
1.176724314689636230e+00,-1.755984067916870117e+00,1.849334686994552612e-01
1.178203940391540527e+00,-1.758192181587219238e+00,2.598682641983032227e-01
1.179625511169433594e+00,-1.760313391685485840e+00,3.356183171272277832e-01
1.181166291236877441e+00,-1.762612700462341309e+00,4.124319553375244141e-01
1.182572364807128906e+00,-1.764710903167724609e+00,4.904342591762542725e-01
1.200873494148254395e+00,-1.737715601921081543e+00,-5.659844875335693359e-01
1.202375531196594238e+00,-1.739889264106750488e+00,-4.882689118385314941e-01
1.203771114349365234e+00,-1.741908550262451172e+00,-4.115769267082214355e-01
1.205273509025573730e+00,-1.744082689285278320e+00,-3.357785642147064209e-01
1.206834077835083008e+00,-1.746340870857238770e+00,-2.606430649757385254e-01
1.208251357078552246e+00,-1.748391747474670410e+00,-1.859361827373504639e-01
1.209724545478820801e+00,-1.750523567199707031e+00,-1.115159839391708374e-01
1.211188793182373047e+00,-1.752642393112182617e+00,-3.718674555420875549e-02
1.212647438049316406e+00,-1.754753112792968750e+00,3.723153099417686462e-02
1.214171767234802246e+00,-1.756958842277526855e+00,1.119259372353553772e-01
1.215572357177734375e+00,-1.758985519409179688e+00,1.870628148317337036e-01
1.217055439949035645e+00,-1.761131763458251953e+00,2.628506124019622803e-01
1.218680858612060547e+00,-1.763483643531799316e+00,3.395137488842010498e-01
1.220238804817199707e+00,-1.765738010406494141e+00,4.172073304653167725e-01
1.221643328666687012e+00,-1.767770528793334961e+00,4.960933029651641846e-01
1.240240573883056641e+00,-1.740872025489807129e+00,-5.727358460426330566e-01
1.241847276687622070e+00,-1.743127346038818359e+00,-4.941152930259704590e-01
1.243322849273681641e+00,-1.745198488235473633e+00,-4.165164828300476074e-01
1.244897127151489258e+00,-1.747408270835876465e+00,-3.398145735263824463e-01
1.246401667594909668e+00,-1.749520063400268555e+00,-2.637532353401184082e-01
1.247888207435607910e+00,-1.751606702804565430e+00,-1.881583482027053833e-01
1.249387025833129883e+00,-1.753710627555847168e+00,-1.128466799855232239e-01
1.250900387763977051e+00,-1.755834937095642090e+00,-3.763052076101303101e-02
1.252427458763122559e+00,-1.757978320121765137e+00,3.767646104097366333e-02
1.253980040550231934e+00,-1.760157704353332520e+00,1.132615283131599426e-01
1.255532383918762207e+00,-1.762336492538452148e+00,1.893109381198883057e-01
1.257040500640869141e+00,-1.764453411102294922e+00,2.660045325756072998e-01
1.258684277534484863e+00,-1.766760826110839844e+00,3.435780107975006104e-01
1.260239005088806152e+00,-1.768943071365356445e+00,4.221834540367126465e-01
1.261928319931030273e+00,-1.771314263343811035e+00,5.021052956581115723e-01
1.279830098152160645e+00,-1.743102550506591797e+00,-5.794370770454406738e-01
1.281578540802001953e+00,-1.745483756065368652e+00,-4.999318718910217285e-01
1.283169150352478027e+00,-1.747650146484375000e+00,-4.214418828487396240e-01
1.284681677818298340e+00,-1.749710083007812500e+00,-3.438028991222381592e-01
1.286298632621765137e+00,-1.751912474632263184e+00,-2.668622136116027832e-01
1.287864446640014648e+00,-1.754045128822326660e+00,-1.903809458017349243e-01
1.289419412612915039e+00,-1.756162762641906738e+00,-1.141803786158561707e-01
1.290980458259582520e+00,-1.758289098739624023e+00,-3.807524219155311584e-02
1.292549014091491699e+00,-1.760425448417663574e+00,3.812150284647941589e-02
1.294117331504821777e+00,-1.762561321258544922e+00,1.145963892340660095e-01
1.295658230781555176e+00,-1.764660000801086426e+00,1.915330588817596436e-01
1.297325491905212402e+00,-1.766930699348449707e+00,2.691498994827270508e-01
1.298953175544738770e+00,-1.769147634506225586e+00,3.476222157478332520e-01
1.300465226173400879e+00,-1.771206974983215332e+00,4.271225631237030029e-01
1.302098035812377930e+00,-1.773430943489074707e+00,5.079363584518432617e-01
1.321270704269409180e+00,-1.746582746505737305e+00,-5.868205428123474121e-01
1.322881460189819336e+00,-1.748712062835693359e+00,-5.062279105186462402e-01
1.324598073959350586e+00,-1.750981211662292480e+00,-4.267734885215759277e-01
1.326208233833312988e+00,-1.753109693527221680e+00,-3.481651544570922852e-01
1.327780604362487793e+00,-1.755188107490539551e+00,-2.702284753322601318e-01
1.329435110092163086e+00,-1.757375240325927734e+00,-1.927880048751831055e-01
1.331047058105468750e+00,-1.759506106376647949e+00,-1.156245991587638855e-01
1.332657694816589355e+00,-1.761635065078735352e+00,-3.855681419372558594e-02
1.334270954132080078e+00,-1.763767719268798828e+00,3.860349208116531372e-02
1.335850238800048828e+00,-1.765855312347412109e+00,1.160418316721916199e-01
1.337535858154296875e+00,-1.768083572387695312e+00,1.939627230167388916e-01
1.339210391044616699e+00,-1.770297050476074219e+00,2.725546658039093018e-01
1.340815186500549316e+00,-1.772418498992919922e+00,3.519998490810394287e-01
1.342570424079895020e+00,-1.774738788604736328e+00,4.325640201568603516e-01
1.344176769256591797e+00,-1.776862144470214844e+00,5.143769979476928711e-01
1.363648653030395508e+00,-1.749972343444824219e+00,-5.944563746452331543e-01
1.365389943122863770e+00,-1.752207040786743164e+00,-5.128446817398071289e-01
1.366992592811584473e+00,-1.754263758659362793e+00,-4.322982728481292725e-01
1.368719339370727539e+00,-1.756479620933532715e+00,-3.526890575885772705e-01
1.370371699333190918e+00,-1.758600115776062012e+00,-2.737456262111663818e-01
1.372002840042114258e+00,-1.760693430900573730e+00,-1.952863484621047974e-01
1.373652935028076172e+00,-1.762810826301574707e+00,-1.171218305826187134e-01
1.375314950942993164e+00,-1.764943718910217285e+00,-3.905608505010604858e-02
1.376993536949157715e+00,-1.767097830772399902e+00,3.910375013947486877e-02
1.378700494766235352e+00,-1.769288420677185059e+00,1.175521984696388245e-01
1.380407094955444336e+00,-1.771478533744812012e+00,1.964825838804244995e-01
1.382070541381835938e+00,-1.773613214492797852e+00,2.760826051235198975e-01
1.383895397186279297e+00,-1.775955080986022949e+00,3.565995991230010986e-01
1.385631561279296875e+00,-1.778183102607727051e+00,4.381926655769348145e-01
1.387178301811218262e+00,-1.780168056488037109e+00,5.210284590721130371e-01
1.406942725181579590e+00,-1.753190040588378906e+00,-6.023285388946533203e-01
1.408561229705810547e+00,-1.755206942558288574e+00,-5.195704102516174316e-01
1.410333752632141113e+00,-1.757415652275085449e+00,-4.380047023296356201e-01
1.412199378013610840e+00,-1.759740352630615234e+00,-3.573659062385559082e-01
1.413817524909973145e+00,-1.761756658554077148e+00,-2.773586511611938477e-01
1.415557146072387695e+00,-1.763924479484558105e+00,-1.978717446327209473e-01
1.417272686958312988e+00,-1.766062259674072266e+00,-1.186735108494758606e-01
1.418987631797790527e+00,-1.768199324607849121e+00,-3.957352042198181152e-02
1.420703768730163574e+00,-1.770337700843811035e+00,3.962137922644615173e-02
1.422410607337951660e+00,-1.772464513778686523e+00,1.191037222743034363e-01
1.424259305000305176e+00,-1.774768233299255371e+00,1.990881711244583130e-01
1.425887703895568848e+00,-1.776797413825988770e+00,2.797265648841857910e-01
1.427652597427368164e+00,-1.778996586799621582e+00,3.612764477729797363e-01
1.429620146751403809e+00,-1.781448483467102051e+00,4.439944326877593994e-01
1.431455016136169434e+00,-1.783734798431396484e+00,5.280151367187500000e-01
1.451112985610961914e+00,-1.756137728691101074e+00,-6.104146242141723633e-01
1.452909111976623535e+00,-1.758311271667480469e+00,-5.265914201736450195e-01
1.454827547073364258e+00,-1.760632991790771484e+00,-4.439509809017181396e-01
1.456615567207336426e+00,-1.762796998023986816e+00,-3.621835708618164062e-01
1.458339333534240723e+00,-1.764883041381835938e+00,-2.811082899570465088e-01
1.460063338279724121e+00,-1.766969442367553711e+00,-2.005371153354644775e-01
1.461855769157409668e+00,-1.769138574600219727e+00,-1.202739402651786804e-01
1.463621139526367188e+00,-1.771275043487548828e+00,-4.010711610317230225e-02
1.465372443199157715e+00,-1.773394465446472168e+00,4.015510529279708862e-02
1.467200636863708496e+00,-1.775606989860534668e+00,1.207137033343315125e-01
1.469049811363220215e+00,-1.777844786643981934e+00,2.017713785171508789e-01
1.470872044563293457e+00,-1.780050158500671387e+00,2.835240662097930908e-01
1.472599983215332031e+00,-1.782141208648681641e+00,3.661580383777618408e-01
1.474498629570007324e+00,-1.784439086914062500e+00,4.499537944793701172e-01
1.476221203804016113e+00,-1.786523699760437012e+00,5.350406765937805176e-01
1.497213125228881836e+00,-1.760010600090026855e+00,-6.191463470458984375e-01
1.499208211898803711e+00,-1.762355923652648926e+00,-5.341746807098388672e-01
1.501036882400512695e+00,-1.764505624771118164e+00,-4.502989053726196289e-01
1.502986192703247070e+00,-1.766796946525573730e+00,-3.673878312110900879e-01
1.504686951637268066e+00,-1.768796324729919434e+00,-2.851327955722808838e-01
1.506536483764648438e+00,-1.770970463752746582e+00,-2.034176737070083618e-01
1.508377790451049805e+00,-1.773134946823120117e+00,-1.220009252429008484e-01
1.510200142860412598e+00,-1.775277137756347656e+00,-4.068302363157272339e-02
1.512014031410217285e+00,-1.777409434318542480e+00,4.073188826441764832e-02
1.513830661773681641e+00,-1.779544949531555176e+00,1.224419698119163513e-01
1.515820264816284180e+00,-1.781883716583251953e+00,2.046712040901184082e-01
1.517587304115295410e+00,-1.783960938453674316e+00,2.875773608684539795e-01
1.519523978233337402e+00,-1.786237597465515137e+00,3.714303076267242432e-01
1.521339058876037598e+00,-1.788371205329895020e+00,4.563893675804138184e-01
1.523348689079284668e+00,-1.790733575820922852e+00,5.427760481834411621e-01
1.543420791625976562e+00,-1.762580394744873047e+00,-6.277575492858886719e-01
1.545293569564819336e+00,-1.764719009399414062e+00,-5.415396690368652344e-01
1.547316431999206543e+00,-1.767029166221618652e+00,-4.565481543540954590e-01
1.549205541610717773e+00,-1.769186496734619141e+00,-3.724575042724609375e-01
1.551041960716247559e+00,-1.771283626556396484e+00,-2.890829443931579590e-01
1.552979111671447754e+00,-1.773495912551879883e+00,-2.062398493289947510e-01
1.554813623428344727e+00,-1.775590777397155762e+00,-1.236884817481040955e-01
1.556694030761718750e+00,-1.777738213539123535e+00,-4.124581441283226013e-02
1.558623552322387695e+00,-1.779941797256469727e+00,4.129694029688835144e-02
1.560466289520263672e+00,-1.782046198844909668e+00,1.241381689906120300e-01
1.562429428100585938e+00,-1.784288048744201660e+00,2.074948698282241821e-01
1.564376354217529297e+00,-1.786511540412902832e+00,2.915682196617126465e-01
1.566228747367858887e+00,-1.788626909255981445e+00,3.765501976013183594e-01
1.568289041519165039e+00,-1.790979862213134766e+00,4.627362787723541260e-01
1.570173144340515137e+00,-1.793131470680236816e+00,5.502585768699645996e-01
1.592574119567871094e+00,-1.767034173011779785e+00,-6.373972892761230469e-01
1.594687581062316895e+00,-1.769379138946533203e+00,-5.499178171157836914e-01
1.596629381179809570e+00,-1.771533727645874023e+00,-4.635691046714782715e-01
1.598721146583557129e+00,-1.773854613304138184e+00,-3.782190084457397461e-01
1.600698590278625488e+00,-1.776048660278320312e+00,-2.935698330402374268e-01
1.602629899978637695e+00,-1.778191447257995605e+00,-2.094320356845855713e-01
1.604549884796142578e+00,-1.780321836471557617e+00,-1.256050467491149902e-01
1.606489777565002441e+00,-1.782474279403686523e+00,-4.188490658998489380e-02
1.608451843261718750e+00,-1.784651279449462891e+00,4.193606227636337280e-02
1.610422730445861816e+00,-1.786837935447692871e+00,1.260647773742675781e-01
1.612367033958435059e+00,-1.788995265960693359e+00,2.107044905424118042e-01
1.614230155944824219e+00,-1.791062474250793457e+00,2.960515320301055908e-01
1.616288900375366211e+00,-1.793346762657165527e+00,3.823750913143157959e-01
1.618228793144226074e+00,-1.795499205589294434e+00,4.698403179645538330e-01
1.620392799377441406e+00,-1.797900199890136719e+00,5.587821006774902344e-01
1.641686201095581055e+00,-1.769919157028198242e+00,-6.468478441238403320e-01
1.644046306610107422e+00,-1.772463679313659668e+00,-5.581330060958862305e-01
1.645868539810180664e+00,-1.774428248405456543e+00,-4.704429507255554199e-01
1.647909760475158691e+00,-1.776628851890563965e+00,-3.838004767894744873e-01
1.650060415267944336e+00,-1.778947591781616211e+00,-2.979224026203155518e-01
1.651992321014404297e+00,-1.781030416488647461e+00,-2.125295847654342651e-01
1.654011607170104980e+00,-1.783207416534423828e+00,-1.274658590555191040e-01
1.656011223793029785e+00,-1.785363197326660156e+00,-4.250542074441909790e-02
1.657995700836181641e+00,-1.787502527236938477e+00,4.255635663866996765e-02
1.660081148147583008e+00,-1.789750933647155762e+00,1.279336065053939819e-01
1.661973714828491211e+00,-1.791791439056396484e+00,2.138136923313140869e-01
1.664008975028991699e+00,-1.793985605239868164e+00,3.004408776760101318e-01
1.666312575340270996e+00,-1.796469211578369141e+00,3.880865275859832764e-01
1.668126583099365234e+00,-1.798424839973449707e+00,4.768050312995910645e-01
1.670600771903991699e+00,-1.801092267036437988e+00,5.671479105949401855e-01
1.693044066429138184e+00,-1.773684740066528320e+00,-6.570132374763488770e-01
1.695305466651916504e+00,-1.776053786277770996e+00,-5.668464899063110352e-01
1.697374582290649414e+00,-1.778221607208251953e+00,-4.778409600257873535e-01
1.699601888656616211e+00,-1.780554890632629395e+00,-3.898639976978302002e-01
1.701528787612915039e+00,-1.782573580741882324e+00,-3.025774061679840088e-01
1.703633785247802734e+00,-1.784778833389282227e+00,-2.158646136522293091e-01
1.705718874931335449e+00,-1.786963224411010742e+00,-1.294662803411483765e-01
1.707781910896301270e+00,-1.789124608039855957e+00,-4.317251220345497131e-02
1.709823489189147949e+00,-1.791263341903686523e+00,4.322412237524986267e-02
1.711862683296203613e+00,-1.793399691581726074e+00,1.299325972795486450e-01
1.714103698730468750e+00,-1.795747399330139160e+00,2.171912342309951782e-01
1.716079354286193848e+00,-1.797817230224609375e+00,3.051648736000061035e-01
1.718262553215026855e+00,-1.800104379653930664e+00,3.941444754600524902e-01
1.720312356948852539e+00,-1.802251815795898438e+00,4.842983484268188477e-01
1.722613215446472168e+00,-1.804662346839904785e+00,5.759772062301635742e-01
1.746916770935058594e+00,-1.778450727462768555e+00,-6.679724454879760742e-01
1.749455809593200684e+00,-1.781035542488098145e+00,-5.763694643974304199e-01
1.751404285430908203e+00,-1.783019304275512695e+00,-4.858168661594390869e-01
1.753586053848266602e+00,-1.785240411758422852e+00,-3.963451087474822998e-01
1.755697727203369141e+00,-1.787390232086181641e+00,-3.076291084289550781e-01
1.757921457290649414e+00,-1.789654016494750977e+00,-2.194750458002090454e-01
1.760008573532104492e+00,-1.791778802871704102e+00,-1.316268295049667358e-01
1.762137770652770996e+00,-1.793946504592895508e+00,-4.389299824833869934e-02
1.764306306838989258e+00,-1.796154260635375977e+00,4.394701495766639709e-02
1.766358256340026855e+00,-1.798243165016174316e+00,1.321017146110534668e-01
1.768544912338256836e+00,-1.800469398498535156e+00,2.208013832569122314e-01
1.770702838897705078e+00,-1.802666187286376953e+00,3.102582693099975586e-01
1.773142695426940918e+00,-1.805150151252746582e+00,4.007652997970581055e-01
1.775047183036804199e+00,-1.807088971138000488e+00,4.923751056194305420e-01
1.777672171592712402e+00,-1.809761285781860352e+00,5.856655240058898926e-01
1.802181243896484375e+00,-1.782936692237854004e+00,-6.792763471603393555e-01
1.804163694381713867e+00,-1.784898042678833008e+00,-5.859163403511047363e-01
1.806406378746032715e+00,-1.787116646766662598e+00,-4.939275979995727539e-01
1.808813452720642090e+00,-1.789498090744018555e+00,-4.029970765113830566e-01
1.810874819755554199e+00,-1.791537523269653320e+00,-3.127719461917877197e-01
1.813118100166320801e+00,-1.793756723403930664e+00,-2.231379598379135132e-01
1.815318703651428223e+00,-1.795933961868286133e+00,-1.338271498680114746e-01
1.817514538764953613e+00,-1.798106193542480469e+00,-4.462671652436256409e-02
1.819700717926025391e+00,-1.800269126892089844e+00,4.468039795756340027e-02
1.821870088577270508e+00,-1.802415251731872559e+00,1.343101263046264648e-01
1.824242711067199707e+00,-1.804762601852416992e+00,2.245070636272430420e-01
1.826306819915771484e+00,-1.806804656982421875e+00,3.154373168945312500e-01
1.828587651252746582e+00,-1.809061169624328613e+00,4.074026942253112793e-01
1.831192255020141602e+00,-1.811637878417968750e+00,5.007048249244689941e-01
1.833105921745300293e+00,-1.813531160354614258e+00,5.953155755996704102e-01
1.857726573944091797e+00,-1.786007523536682129e+00,-6.905061602592468262e-01
1.860044836997985840e+00,-1.788236141204833984e+00,-5.956907272338867188e-01
1.862204074859619141e+00,-1.790312170982360840e+00,-5.021262168884277344e-01
1.864595651626586914e+00,-1.792611360549926758e+00,-4.096665680408477783e-01
1.866886973381042480e+00,-1.794814229011535645e+00,-3.179765641689300537e-01
1.869273185729980469e+00,-1.797108292579650879e+00,-2.268599867820739746e-01
1.871481060981750488e+00,-1.799230933189392090e+00,-1.360550075769424438e-01
1.873742461204528809e+00,-1.801405072212219238e+00,-4.536957666277885437e-02
1.876059889793395996e+00,-1.803632974624633789e+00,4.542568698525428772e-02
1.878220796585083008e+00,-1.805710434913635254e+00,1.365449726581573486e-01
1.880498528480529785e+00,-1.807900190353393555e+00,2.282223105430603027e-01
1.882718563079833984e+00,-1.810034632682800293e+00,3.206730782985687256e-01
1.885219931602478027e+00,-1.812439322471618652e+00,4.141978621482849121e-01
1.887626767158508301e+00,-1.814753293991088867e+00,5.089811682701110840e-01
1.889801025390625000e+00,-1.816843628883361816e+00,6.052203178405761719e-01
1.916010022163391113e+00,-1.789984345436096191e+00,-7.025746703147888184e-01
1.918704628944396973e+00,-1.792501688003540039e+00,-6.061980128288269043e-01
1.921138882637023926e+00,-1.794775843620300293e+00,-5.110381245613098145e-01
1.923433780670166016e+00,-1.796919822692871094e+00,-4.169001281261444092e-01
1.925691604614257812e+00,-1.799029111862182617e+00,-3.235733807086944580e-01
1.928105235099792480e+00,-1.801283955574035645e+00,-2.308473140001296997e-01
1.930443882942199707e+00,-1.803468704223632812e+00,-1.384507268667221069e-01
1.932777523994445801e+00,-1.805648922920227051e+00,-4.616848751902580261e-02
1.935106515884399414e+00,-1.807824730873107910e+00,4.622411727905273438e-02
1.937376618385314941e+00,-1.809945464134216309e+00,1.389479339122772217e-01
1.939836502075195312e+00,-1.812243580818176270e+00,2.322518527507781982e-01
1.942297220230102539e+00,-1.814542412757873535e+00,3.263636231422424316e-01
1.944671273231506348e+00,-1.816760301589965820e+00,4.215033054351806641e-01
1.946846127510070801e+00,-1.818792104721069336e+00,5.178764462471008301e-01
1.949296116828918457e+00,-1.821080923080444336e+00,6.158630847930908203e-01
1.977891445159912109e+00,-1.795475959777832031e+00,-7.157688140869140625e-01
1.980451822280883789e+00,-1.797800183296203613e+00,-6.175132393836975098e-01
1.982805728912353516e+00,-1.799937009811401367e+00,-5.205354690551757812e-01
1.985381960868835449e+00,-1.802275657653808594e+00,-4.246923923492431641e-01
1.987598538398742676e+00,-1.804287791252136230e+00,-3.296023607254028320e-01
1.990046381950378418e+00,-1.806509852409362793e+00,-2.351434379816055298e-01
1.992480516433715820e+00,-1.808719396591186523e+00,-1.410287618637084961e-01
1.994885206222534180e+00,-1.810902357101440430e+00,-4.702807962894439697e-02
1.997267842292785645e+00,-1.813065290451049805e+00,4.708424955606460571e-02
1.999656677246093750e+00,-1.815233826637268066e+00,1.415366977453231812e-01
2.002308607101440430e+00,-1.817641019821166992e+00,2.365923225879669189e-01
2.004637956619262695e+00,-1.819755792617797852e+00,3.324280083179473877e-01
2.007249355316162109e+00,-1.822126269340515137e+00,4.293700456619262695e-01
2.009717702865600586e+00,-1.824366927146911621e+00,5.276004672050476074e-01
2.012534141540527344e+00,-1.826923727989196777e+00,6.275166273117065430e-01
2.040570259094238281e+00,-1.799781084060668945e+00,-7.290540337562561035e-01
2.043009042739868164e+00,-1.801932215690612793e+00,-6.289123296737670898e-01
2.045297384262084961e+00,-1.803950428962707520e+00,-5.301081538200378418e-01
2.047879457473754883e+00,-1.806227922439575195e+00,-4.324865937232971191e-01
2.050603866577148438e+00,-1.808630824089050293e+00,-3.357231616973876953e-01
2.053004503250122070e+00,-1.810748219490051270e+00,-2.394955605268478394e-01
2.055447816848754883e+00,-1.812903285026550293e+00,-1.436342447996139526e-01
2.057933092117309570e+00,-1.815095067024230957e+00,-4.789701849222183228e-02
2.060450077056884766e+00,-1.817315101623535156e+00,4.795559868216514587e-02
2.063041448593139648e+00,-1.819600701332092285e+00,1.441648751497268677e-01
2.065337181091308594e+00,-1.821625590324401855e+00,2.409342229366302490e-01
2.067813396453857422e+00,-1.823809504508972168e+00,3.385406732559204102e-01
2.070650815963745117e+00,-1.826312184333801270e+00,4.372956156730651855e-01
2.073400497436523438e+00,-1.828737497329711914e+00,5.373920202255249023e-01
2.075921535491943359e+00,-1.830960988998413086e+00,6.390439867973327637e-01
2.106032848358154297e+00,-1.804592609405517578e+00,-7.431378960609436035e-01
2.108936309814453125e+00,-1.807080388069152832e+00,-6.411790847778320312e-01
2.111572504043579102e+00,-1.809339284896850586e+00,-5.405179262161254883e-01
2.114072084426879883e+00,-1.811480998992919922e+00,-4.409447014331817627e-01
2.116784572601318359e+00,-1.813805341720581055e+00,-3.422726988792419434e-01
2.119222402572631836e+00,-1.815894126892089844e+00,-2.441631555557250977e-01
2.121826410293579102e+00,-1.818125486373901367e+00,-1.464392244815826416e-01
2.124386548995971680e+00,-1.820319175720214844e+00,-4.883226007223129272e-02
2.126913785934448242e+00,-1.822484612464904785e+00,4.889035224914550781e-02
2.129621505737304688e+00,-1.824804782867431641e+00,1.469772011041641235e-01
2.132088184356689453e+00,-1.826918482780456543e+00,2.456454783678054810e-01
2.134811639785766602e+00,-1.829252123832702637e+00,3.451875746250152588e-01
2.137461423873901367e+00,-1.831522703170776367e+00,4.458231627941131592e-01
2.139907836914062500e+00,-1.833618998527526855e+00,5.477711558341979980e-01
2.142700195312500000e+00,-1.836011648178100586e+00,6.514443755149841309e-01
2.172683715820312500e+00,-1.808425068855285645e+00,-7.574450969696044922e-01
2.175497770309448242e+00,-1.810767412185668945e+00,-6.534689068794250488e-01
2.178096771240234375e+00,-1.812930583953857422e+00,-5.508478283882141113e-01
2.180962085723876953e+00,-1.815315604209899902e+00,-4.494307935237884521e-01
2.183671474456787109e+00,-1.817570567131042480e+00,-3.488456010818481445e-01
2.186307668685913086e+00,-1.819764852523803711e+00,-2.488658279180526733e-01
2.188930034637451172e+00,-1.821947574615478516e+00,-1.492553204298019409e-01
2.191570997238159180e+00,-1.824145793914794922e+00,-4.977132752537727356e-02
2.194239139556884766e+00,-1.826366543769836426e+00,4.983191937208175659e-02
2.196912765502929688e+00,-1.828591942787170410e+00,1.497996300458908081e-01
2.199545383453369141e+00,-1.830783128738403320e+00,2.503726482391357422e-01
2.202068805694580078e+00,-1.832883596420288086e+00,3.517846167087554932e-01
2.204917192459106445e+00,-1.835254430770874023e+00,4.543672204017639160e-01
2.207625865936279297e+00,-1.837509036064147949e+00,5.583158135414123535e-01
2.210752964019775391e+00,-1.840111851692199707e+00,6.640587449073791504e-01
2.246369838714599609e+00,-1.815969109535217285e+00,-7.739927172660827637e-01
2.249071359634399414e+00,-1.818153023719787598e+00,-6.676833033561706543e-01
2.252069711685180664e+00,-1.820576906204223633e+00,-5.629078149795532227e-01
2.254860877990722656e+00,-1.822833180427551270e+00,-4.592354595661163330e-01
2.257555484771728516e+00,-1.825011610984802246e+00,-3.564391434192657471e-01
2.260246515274047852e+00,-1.827186942100524902e+00,-2.542791664600372314e-01
2.263043403625488281e+00,-1.829448103904724121e+00,-1.525077223777770996e-01
2.265774726867675781e+00,-1.831655979156494141e+00,-5.085590481758117676e-02
2.268445253372192383e+00,-1.833814740180969238e+00,5.091584473848342896e-02
2.271241664886474609e+00,-1.836075544357299805e+00,1.530602127313613892e-01
2.274068593978881836e+00,-1.838360786437988281e+00,2.558341622352600098e-01
2.276845932006835938e+00,-1.840605974197387695e+00,3.594848513603210449e-01
2.279477357864379883e+00,-1.842733144760131836e+00,4.642489850521087646e-01
2.282485246658325195e+00,-1.845164895057678223e+00,5.705102682113647461e-01
2.285256624221801758e+00,-1.847405076026916504e+00,6.784256100654602051e-01
3.138541460037231445e+00,-2.463770389556884766e+00,-1.069132685661315918e+00
3.719088077545166016e+00,-2.919502258300781250e+00,-1.091570615768432617e+00
4.559668540954589844e+00,-3.579361915588378906e+00,-1.126773953437805176e+00
5.886449337005615234e+00,-4.620891571044921875e+00,-1.185269832611083984e+00
8.294008255004882812e+00,-6.510836601257324219e+00,-1.294671177864074707e+00
1.240789127349853516e+01,-9.740254402160644531e+00,-1.380069732666015625e+00
1.242296791076660156e+01,-9.752089500427246094e+00,-8.276989459991455078e-01
1.243799495697021484e+01,-9.763886451721191406e+00,-2.760089337825775146e-01
1.245301818847656250e+01,-9.775679588317871094e+00,2.763423025608062744e-01
1.246761703491210938e+01,-9.787139892578125000e+00,8.306737542152404785e-01
3.173793077468872070e+00,-2.418836593627929688e+00,-1.069237589836120605e+00
3.768608093261718750e+00,-2.872161865234375000e+00,-1.093926787376403809e+00
4.634505271911621094e+00,-3.532086372375488281e+00,-1.132658123970031738e+00
5.948234558105468750e+00,-4.533316135406494141e+00,-1.184523820877075195e+00
8.292018890380859375e+00,-6.319580078125000000e+00,-1.280109882354736328e+00
1.287765026092529297e+01,-9.814418792724609375e+00,-1.416549086570739746e+00
1.289353370666503906e+01,-9.826523780822753906e+00,-8.495929837226867676e-01
1.290913581848144531e+01,-9.838414192199707031e+00,-2.833099365234375000e-01
1.292448043823242188e+01,-9.850109100341796875e+00,2.836467325687408447e-01
1.294126892089843750e+01,-9.862903594970703125e+00,8.527383804321289062e-01
3.211560249328613281e+00,-2.375735521316528320e+00,-1.070395469665527344e+00
3.796048164367675781e+00,-2.808107376098632812e+00,-1.090113043785095215e+00
4.675286769866943359e+00,-3.458519458770751953e+00,-1.130410671234130859e+00
6.014749526977539062e+00,-4.449380397796630859e+00,-1.184965729713439941e+00
8.420819282531738281e+00,-6.229258060455322266e+00,-1.286097288131713867e+00
1.401265239715576172e+01,-1.036578845977783203e+01,-1.524922847747802734e+00
1.564048290252685547e+01,-1.156996822357177734e+01,-1.019580841064453125e+00
1.565885639190673828e+01,-1.158355998992919922e+01,-3.399830460548400879e-01
1.567729949951171875e+01,-1.159720230102539062e+01,3.403834700584411621e-01
3.231231451034545898e+00,-2.319477558135986328e+00,-1.065777301788330078e+00
3.848870277404785156e+00,-2.762837886810302734e+00,-1.093813657760620117e+00
4.715692043304443359e+00,-3.385069131851196289e+00,-1.128349542617797852e+00
6.081353664398193359e+00,-4.365383148193359375e+00,-1.185656070709228516e+00
8.551693916320800781e+00,-6.138669490814208984e+00,-1.292533636093139648e+00
1.401394557952880859e+01,-1.005964183807373047e+01,-1.509239435195922852e+00
1.566002082824707031e+01,-1.124124622344970703e+01,-1.010262131690979004e+00
1.567841720581054688e+01,-1.125445175170898438e+01,-3.368756771087646484e-01
1.569728660583496094e+01,-1.126799678802490234e+01,3.372811079025268555e-01
3.268878936767578125e+00,-2.276324748992919922e+00,-1.067338705062866211e+00
3.875734329223632812e+00,-2.698915958404541016e+00,-1.090357899665832520e+00
4.755789279937744141e+00,-3.311753273010253906e+00,-1.126486182212829590e+00
6.148153781890869141e+00,-4.281343936920166016e+00,-1.186610579490661621e+00
8.550783157348632812e+00,-5.954444885253906250e+00,-1.279383182525634766e+00
1.437744617462158203e+01,-1.001191520690917969e+01,-1.532796621322631836e+00
1.567634391784667969e+01,-1.091641807556152344e+01,-1.001132369041442871e+00
1.569475746154785156e+01,-1.092924022674560547e+01,-3.338313102722167969e-01
1.571293640136718750e+01,-1.094189929962158203e+01,3.342179656028747559e-01
3.309221506118774414e+00,-2.234776496887207031e+00,-1.069957256317138672e+00
3.932163000106811523e+00,-2.655460119247436523e+00,-1.095427751541137695e+00
4.799311161041259766e+00,-3.241060733795166016e+00,-1.125691294670104980e+00
6.220046520233154297e+00,-4.200508594512939453e+00,-1.188760280609130859e+00
8.689019203186035156e+00,-5.867850303649902344e+00,-1.287367820739746094e+00
1.438392257690429688e+01,-9.713721275329589844e+00,-1.518508672714233398e+00
1.570046329498291016e+01,-1.060280418395996094e+01,-9.928790926933288574e-01
1.571890544891357422e+01,-1.061525821685791016e+01,-3.310792148113250732e-01
1.573747158050537109e+01,-1.062779712677001953e+01,3.314702808856964111e-01
1.575602436065673828e+01,-1.064032554626464844e+01,9.963927268981933594e-01
3.330509901046752930e+00,-2.180405855178833008e+00,-1.066640377044677734e+00
3.961623907089233398e+00,-2.593581199645996094e+00,-1.093181133270263672e+00
4.884717464447021484e+00,-3.197908639907836914e+00,-1.134871125221252441e+00
6.292358875274658203e+00,-4.119457721710205078e+00,-1.191189408302307129e+00
8.829993247985839844e+00,-5.780786991119384766e+00,-1.295862674713134766e+00
1.438803195953369141e+01,-9.419503211975097656e+00,-1.504554748535156250e+00
1.572161293029785156e+01,-1.029256725311279297e+01,-9.847992062568664551e-01
1.574007892608642578e+01,-1.030465602874755859e+01,-3.283849358558654785e-01
1.575903415679931641e+01,-1.031706523895263672e+01,3.287803828716278076e-01
1.577641963958740234e+01,-1.032844734191894531e+01,9.882323145866394043e-01
3.371038913726806641e+00,-2.138647317886352539e+00,-1.069706916809082031e+00
3.990784406661987305e+00,-2.531825065612792969e+00,-1.091116070747375488e+00
4.928697109222412109e+00,-3.126853466033935547e+00,-1.134574532508850098e+00
6.293340682983398438e+00,-3.992607831954956055e+00,-1.180435776710510254e+00
8.830917358398437500e+00,-5.602491855621337891e+00,-1.284098148345947266e+00
1.477456760406494141e+01,-9.373250007629394531e+00,-1.530788540840148926e+00
1.574761009216308594e+01,-9.990565299987792969e+00,-9.773700833320617676e-01
1.576657009124755859e+01,-1.000259399414062500e+01,-3.259172439575195312e-01
1.578521251678466797e+01,-1.001442146301269531e+01,3.263026177883148193e-01
1.580494689941406250e+01,-1.002694129943847656e+01,9.809286594390869141e-01
3.391891717910766602e+00,-2.084399223327636719e+00,-1.066747426986694336e+00
4.048323154449462891e+00,-2.487792253494262695e+00,-1.096999645233154297e+00
4.972643375396728516e+00,-3.055809259414672852e+00,-1.134505987167358398e+00
6.365147113800048828e+00,-3.911536216735839844e+00,-1.183281660079956055e+00
8.973443984985351562e+00,-5.514397621154785156e+00,-1.293213248252868652e+00
1.477346134185791016e+01,-9.078647613525390625e+00,-1.517054677009582520e+00
1.633736610412597656e+01,-1.003970623016357422e+01,-1.004951357841491699e+00
1.635702705383300781e+01,-1.005178737640380859e+01,-3.351143896579742432e-01
1.637671852111816406e+01,-1.006388854980468750e+01,3.355177938938140869e-01
3.432808876037597656e+00,-2.042443037033081055e+00,-1.070312023162841797e+00
4.077457904815673828e+00,-2.425994634628295898e+00,-1.095372676849365234e+00
4.972248077392578125e+00,-2.958374500274658203e+00,-1.124639630317687988e+00
6.437672615051269531e+00,-3.830268621444702148e+00,-1.186450839042663574e+00
8.971595764160156250e+00,-5.337895393371582031e+00,-1.281804561614990234e+00
1.477013301849365234e+01,-8.787893295288085938e+00,-1.503642320632934570e+00
1.697075462341308594e+01,-1.009721279144287109e+01,-1.034916400909423828e+00
1.699116897583007812e+01,-1.010935878753662109e+01,-3.451064527034759521e-01
1.701198768615722656e+01,-1.012174510955810547e+01,3.455292880535125732e-01
3.455806255340576172e+00,-1.989716768264770508e+00,-1.068493247032165527e+00
4.109344482421875000e+00,-2.365998268127441406e+00,-1.094728946685791016e+00
5.019117832183837891e+00,-2.889809608459472656e+00,-1.125769853591918945e+00
6.515707492828369141e+00,-3.751487016677856445e+00,-1.190814375877380371e+00
9.122836112976074219e+00,-5.252568244934082031e+00,-1.292538762092590332e+00
1.518216896057128906e+01,-8.741292953491210938e+00,-1.532694339752197266e+00
1.760609817504882812e+01,-1.013689613342285156e+01,-1.064703941345214844e+00
1.762728691101074219e+01,-1.014909553527832031e+01,-3.550396859645843506e-01
1.764832687377929688e+01,-1.016120910644531250e+01,3.554634749889373779e-01
3.478574514389038086e+00,-1.937071681022644043e+00,-1.066851019859313965e+00
4.141097545623779297e+00,-2.306002855300903320e+00,-1.094282746315002441e+00
5.066111087799072266e+00,-2.821104049682617188e+00,-1.127137780189514160e+00
6.517545700073242188e+00,-3.629346847534179688e+00,-1.181535124778747559e+00
9.125019073486328125e+00,-5.081338882446289062e+00,-1.282411932945251465e+00
1.518556404113769531e+01,-8.456201553344726562e+00,-1.520662188529968262e+00
1.828839111328125000e+01,-1.018403530120849609e+01,-1.097037076950073242e+00
1.831038856506347656e+01,-1.019628524780273438e+01,-3.658213913440704346e-01
1.833259010314941406e+01,-1.020864677429199219e+01,3.662649095058441162e-01
3.501148462295532227e+00,-1.884508013725280762e+00,-1.065392494201660156e+00
4.172767162322998047e+00,-2.246009588241577148e+00,-1.094044208526611328e+00
5.113293170928955078e+00,-2.752251863479614258e+00,-1.128754854202270508e+00
6.595652103424072266e+00,-3.550137758255004883e+00,-1.186361193656921387e+00
9.278866767883300781e+00,-4.994389533996582031e+00,-1.293854355812072754e+00
1.518699073791503906e+01,-8.174462318420410156e+00,-1.508933782577514648e+00
1.902303886413574219e+01,-1.023923110961914062e+01,-1.132197856903076172e+00
1.904590797424316406e+01,-1.025154113769531250e+01,-3.775459825992584229e-01
1.906935691833496094e+01,-1.026416206359863281e+01,3.780107796192169189e-01
3.545265197753906250e+00,-1.843307733535766602e+00,-1.070678830146789551e+00
4.204400539398193359e+00,-2.186015129089355469e+00,-1.094022393226623535e+00
5.160736083984375000e+00,-2.683247566223144531e+00,-1.130633711814880371e+00
6.674861431121826172e+00,-3.470494747161865234e+00,-1.191551566123962402e+00
9.278789520263671875e+00,-4.824368000030517578e+00,-1.284083127975463867e+00
1.561658573150634766e+01,-8.119610786437988281e+00,-1.539911985397338867e+00
1.981687164306640625e+01,-1.030348587036132812e+01,-1.170547127723693848e+00
1.984068298339843750e+01,-1.031586647033691406e+01,-3.903337717056274414e-01
1.986393547058105469e+01,-1.032795715332031250e+01,3.907912373542785645e-01
3.567862987518310547e+00,-1.790662407875061035e+00,-1.069653391838073730e+00
4.236054420471191406e+00,-2.126018762588500977e+00,-1.094228625297546387e+00
5.208512306213378906e+00,-2.614082098007202148e+00,-1.132787346839904785e+00
6.674371242523193359e+00,-3.349776983261108398e+00,-1.182783603668212891e+00
9.435828208923339844e+00,-4.735714912414550781e+00,-1.296302080154418945e+00
1.561479663848876953e+01,-7.836856365203857422e+00,-1.528518080711364746e+00
2.067791366577148438e+01,-1.037796688079833984e+01,-1.212508916854858398e+00
2.070273971557617188e+01,-1.039042663574218750e+01,-4.043260812759399414e-01
2.072739410400390625e+01,-1.040279960632324219e+01,4.048075675964355469e-01
3.592643976211547852e+00,-1.739182591438293457e+00,-1.069509983062744141e+00
4.270497322082519531e+00,-2.067328453063964844e+00,-1.095369815826416016e+00
5.211322307586669922e+00,-2.522777557373046875e+00,-1.125429868698120117e+00
6.758558750152587891e+00,-3.271787405014038086e+00,-1.189281940460205078e+00
9.440056800842285156e+00,-4.569888591766357422e+00,-1.287764906883239746e+00
1.562174224853515625e+01,-7.562414646148681641e+00,-1.518446445465087891e+00
2.154053306579589844e+01,-1.042767429351806641e+01,-1.254210591316223145e+00
2.156638145446777344e+01,-1.044018650054931641e+01,-4.182317256927490234e-01
2.159242630004882812e+01,-1.045279598236083984e+01,4.187368452548980713e-01
3.615098476409912109e+00,-1.686621427536010742e+00,-1.068898320198059082e+00
4.302302837371826172e+00,-2.007236242294311523e+00,-1.096046328544616699e+00
5.259015083312988281e+00,-2.453589439392089844e+00,-1.128029584884643555e+00
6.756780147552490234e+00,-3.152370691299438477e+00,-1.180908203125000000e+00
9.437229156494140625e+00,-4.402932167053222656e+00,-1.278651237487792969e+00
1.561751174926757812e+01,-7.286338329315185547e+00,-1.507743477821350098e+00
2.255786895751953125e+01,-1.052435684204101562e+01,-1.304540872573852539e+00
2.258491516113281250e+01,-1.053697490692138672e+01,-4.350145161151885986e-01
2.261260986328125000e+01,-1.054989528656005859e+01,4.355479478836059570e-01
3.639741420745849609e+00,-1.635102152824401855e+00,-1.069155097007751465e+00
4.304070472717285156e+00,-1.933542728424072266e+00,-1.089334487915039062e+00
5.310502529144287109e+00,-2.385668039321899414e+00,-1.131633162498474121e+00
6.841686248779296875e+00,-3.073530435562133789e+00,-1.187937021255493164e+00
9.603297233581542969e+00,-4.314145088195800781e+00,-1.292652726173400879e+00
1.607665443420410156e+01,-7.222208499908447266e+00,-1.541931986808776855e+00
2.358311080932617188e+01,-1.059437847137451172e+01,-1.354923009872436523e+00
2.361136436462402344e+01,-1.060706996917724609e+01,-4.518146514892578125e-01
2.363882064819335938e+01,-1.061940479278564453e+01,4.523400366306304932e-01
3.664356946945190430e+00,-1.583528518676757812e+00,-1.069618344306945801e+00
4.338309764862060547e+00,-1.874773025512695312e+00,-1.091096758842468262e+00
5.311819076538085938e+00,-2.295468568801879883e+00,-1.124796986579895020e+00
6.843028068542480469e+00,-2.957170963287353516e+00,-1.180699706077575684e+00
9.604884147644042969e+00,-4.150689601898193359e+00,-1.284737825393676758e+00
1.607937049865722656e+01,-6.948597431182861328e+00,-1.532496452331542969e+00
1.717966270446777344e+01,-7.424081802368164062e+00,-9.808194041252136230e-01
1.719988632202148438e+01,-7.432820796966552734e+00,-3.270586729049682617e-01
1.721969032287597656e+01,-7.441379547119140625e+00,3.274352550506591797e-01
1.724072074890136719e+01,-7.450467586517333984e+00,9.843052625656127930e-01
3.688956499099731445e+00,-1.531881928443908691e+00,-1.070288896560668945e+00
4.372705936431884766e+00,-1.815816760063171387e+00,-1.093098759651184082e+00
5.363384246826171875e+00,-2.227207422256469727e+00,-1.128849983215332031e+00
6.928904533386230469e+00,-2.877307653427124023e+00,-1.188289165496826172e+00
9.605715751647949219e+00,-3.988884449005126953e+00,-1.277081251144409180e+00
1.608083152770996094e+01,-6.677751541137695312e+00,-1.523369908332824707e+00
1.718232727050781250e+01,-7.135159969329833984e+00,-9.750408530235290527e-01
1.720255279541015625e+01,-7.143558502197265625e+00,-3.251317739486694336e-01
1.722260856628417969e+01,-7.151887416839599609e+00,3.255108594894409180e-01
1.724416160583496094e+01,-7.160838127136230469e+00,9.785497784614562988e-01
3.689843177795410156e+00,-1.470694065093994141e+00,-1.064329624176025391e+00
4.407320022583007812e+00,-1.756665229797363281e+00,-1.095353960990905762e+00
5.415568351745605469e+00,-2.158532142639160156e+00,-1.133214592933654785e+00
6.929220199584960938e+00,-2.761841773986816406e+00,-1.181442737579345703e+00
9.775422096252441406e+00,-3.896278381347656250e+00,-1.292096972465515137e+00
1.608119773864746094e+01,-6.409628391265869141e+00,-1.514558315277099609e+00
1.718382263183593750e+01,-6.849111080169677734e+00,-9.694632291793823242e-01
1.720405006408691406e+01,-6.857173442840576172e+00,-3.232719302177429199e-01
1.722435569763183594e+01,-6.865266799926757812e+00,3.236534595489501953e-01
1.724408912658691406e+01,-6.873131752014160156e+00,9.728633165359497070e-01
3.714271306991577148e+00,-1.419170141220092773e+00,-1.065407395362854004e+00
4.407735824584960938e+00,-1.684133052825927734e+00,-1.089354753494262695e+00
5.415740489959716797e+00,-2.069277286529541016e+00,-1.126937270164489746e+00
7.016368865966796875e+00,-2.680854558944702148e+00,-1.189637422561645508e+00
9.775012969970703125e+00,-3.734893083572387695e+00,-1.284845113754272461e+00
1.608062553405761719e+01,-6.144177913665771484e+00,-1.506067395210266113e+00
1.718432044982910156e+01,-6.565883636474609375e+00,-9.640904664993286133e-01
1.720454788208007812e+01,-6.573612689971923828e+00,-3.214803338050842285e-01
1.722509574890136719e+01,-6.581463336944580078e+00,3.218642771244049072e-01
1.724530220031738281e+01,-6.589183807373046875e+00,9.675117135047912598e-01
3.740727901458740234e+00,-1.368253111839294434e+00,-1.067269325256347656e+00
4.444634437561035156e+00,-1.625722289085388184e+00,-1.092611074447631836e+00
5.471220493316650391e+00,-2.001218795776367188e+00,-1.132405519485473633e+00
7.019647121429443359e+00,-2.567589521408081055e+00,-1.183840751647949219e+00
9.779359817504882812e+00,-3.577015161514282227e+00,-1.278555750846862793e+00
1.608787345886230469e+01,-5.884491443634033203e+00,-1.498704075813293457e+00
1.719256019592285156e+01,-6.288555145263671875e+00,-9.594045877456665039e-01
1.721286201477050781e+01,-6.295980930328369141e+00,-3.199190199375152588e-01
1.723407745361328125e+01,-6.303740978240966797e+00,3.203133046627044678e-01
1.725471496582031250e+01,-6.311289787292480469e+00,9.628730416297912598e-01
3.765356063842773438e+00,-1.316473722457885742e+00,-1.068810343742370605e+00
4.479560375213623047e+00,-1.566179633140563965e+00,-1.095573782920837402e+00
5.470788478851318359e+00,-1.912740707397460938e+00,-1.126534223556518555e+00
7.108292102813720703e+00,-2.485257625579833984e+00,-1.192669034004211426e+00
9.953614234924316406e+00,-3.480062007904052734e+00,-1.294692873954772949e+00
1.656858062744140625e+01,-5.792839050292968750e+00,-1.535604000091552734e+00
1.719120979309082031e+01,-6.010527610778808594e+00,-9.544306397438049316e-01
1.721150970458984375e+01,-6.017625331878662109e+00,-3.182604014873504639e-01
1.723154640197753906e+01,-6.024630546569824219e+00,3.186309039592742920e-01
1.725168418884277344e+01,-6.031671047210693359e+00,9.577880501747131348e-01
