2.032582759857177734e+00,9.839641451835632324e-01,-1.183483600616455078e-01
2.035162448883056641e+00,9.852129220962524414e-01,-3.946742415428161621e-02
2.037753105163574219e+00,9.864670038223266602e-01,3.951766341924667358e-02
2.040337800979614258e+00,9.877182841300964355e-01,1.187998950481414795e-01
2.042877197265625000e+00,9.889475703239440918e-01,1.985693871974945068e-01
2.045788764953613281e+00,9.903571009635925293e-01,2.790761888027191162e-01
2.048112630844116211e+00,9.914820790290832520e-01,3.603998422622680664e-01
2.050806045532226562e+00,9.927859306335449219e-01,4.428892135620117188e-01
2.054033041000366211e+00,9.943480491638183594e-01,5.268533229827880859e-01
1.972216725349426270e+00,9.898290038108825684e-01,-5.912749767303466797e-01
1.974942445755004883e+00,9.911969900131225586e-01,-5.101536512374877930e-01
1.977458357810974121e+00,9.924597144126892090e-01,-4.300728738307952881e-01
1.980246663093566895e+00,9.938591718673706055e-01,-3.509249687194824219e-01
1.982596039772033691e+00,9.950382709503173828e-01,-2.723707258701324463e-01
1.985196471214294434e+00,9.963433742523193359e-01,-1.943290531635284424e-01
1.987741589546203613e+00,9.976207613945007324e-01,-1.165569424629211426e-01
1.990258336067199707e+00,9.988839030265808105e-01,-3.886989504098892212e-02
1.992760300636291504e+00,1.000139594078063965e+00,3.891875967383384705e-02
1.995221138000488281e+00,1.001374602317810059e+00,1.169955283403396606e-01
1.997974395751953125e+00,1.002756476402282715e+00,1.955798715353012085e-01
2.000319957733154297e+00,1.003933548927307129e+00,2.748056650161743164e-01
2.003004312515258789e+00,1.005280852317810059e+00,3.549579083919525146e-01
2.005542516708374023e+00,1.006554841995239258e+00,4.361808598041534424e-01
2.008567333221435547e+00,1.008072853088378906e+00,5.188393592834472656e-01
1.926540136337280273e+00,1.001675724983215332e+00,-5.818198323249816895e-01
1.929311990737915039e+00,1.003116965293884277e+00,-5.020241141319274902e-01
1.931847214698791504e+00,1.004435062408447266e+00,-4.232364594936370850e-01
1.934262752532958984e+00,1.005691051483154297e+00,-3.452916145324707031e-01
1.936913013458251953e+00,1.007068991661071777e+00,-2.680476009845733643e-01
1.939274907112121582e+00,1.008297085762023926e+00,-1.912270039319992065e-01
1.941789984703063965e+00,1.009604692459106445e+00,-1.146980524063110352e-01
1.944248914718627930e+00,1.010883212089538574e+00,-3.824999555945396423e-02
1.946654915809631348e+00,1.012134194374084473e+00,3.829732909798622131e-02
1.949244499206542969e+00,1.013480544090270996e+00,1.151383891701698303e-01
1.951565146446228027e+00,1.014687180519104004e+00,1.924389004707336426e-01
1.954169511795043945e+00,1.016041278839111328e+00,2.704357206821441650e-01
1.956708788871765137e+00,1.017361521720886230e+00,3.492985069751739502e-01
1.959075212478637695e+00,1.018591880798339844e+00,4.292016923427581787e-01
1.961869955062866211e+00,1.020045042037963867e+00,5.104960203170776367e-01
1.883343696594238281e+00,1.013717770576477051e+00,-5.730977058410644531e-01
1.885553598403930664e+00,1.014907240867614746e+00,-4.943671822547912598e-01
1.888107895851135254e+00,1.016282081604003906e+00,-4.167981147766113281e-01
1.890514492988586426e+00,1.017577409744262695e+00,-3.400471806526184082e-01
1.892866373062133789e+00,1.018843412399291992e+00,-2.639431357383728027e-01
1.895387053489685059e+00,1.020200133323669434e+00,-1.883199661970138550e-01
1.897738218307495117e+00,1.021465659141540527e+00,-1.129480525851249695e-01
1.900137901306152344e+00,1.022757291793823242e+00,-3.766632825136184692e-02
1.902603268623352051e+00,1.024084329605102539e+00,3.771519660949707031e-02
1.904909968376159668e+00,1.025325894355773926e+00,1.133748963475227356e-01
1.907418251037597656e+00,1.026675939559936523e+00,1.895153522491455078e-01
1.909913420677185059e+00,1.028019070625305176e+00,2.663201987743377686e-01
1.912313222885131836e+00,1.029310703277587891e+00,3.439681231975555420e-01
1.915138602256774902e+00,1.030831575393676758e+00,4.227651059627532959e-01
1.917801976203918457e+00,1.032265067100524902e+00,5.028222799301147461e-01
1.841239333152770996e+00,1.025308609008789062e+00,-5.646933913230895996e-01
1.843519449234008789e+00,1.026578307151794434e+00,-4.871490299701690674e-01
1.846095919609069824e+00,1.028013110160827637e+00,-4.107301235198974609e-01
1.848494648933410645e+00,1.029348850250244141e+00,-3.351048827171325684e-01
1.850804448127746582e+00,1.030635118484497070e+00,-2.601083815097808838e-01
1.853103518486022949e+00,1.031915307044982910e+00,-1.855673193931579590e-01
1.855436563491821289e+00,1.033214569091796875e+00,-1.112991645932197571e-01
1.857779026031494141e+00,1.034518957138061523e+00,-3.711637482047080994e-02
1.860150337219238281e+00,1.035839438438415527e+00,3.716375306248664856e-02
1.862575411796569824e+00,1.037189841270446777e+00,1.117273941636085510e-01
1.865014910697937012e+00,1.038548231124877930e+00,1.867601126432418823e-01
1.867408156394958496e+00,1.039880990982055664e+00,2.624418139457702637e-01
1.869668364524841309e+00,1.041139602661132812e+00,3.389433622360229492e-01
1.872303009033203125e+00,1.042606711387634277e+00,4.165608286857604980e-01
1.874750852584838867e+00,1.043969869613647461e+00,4.954019188880920410e-01
1.800720572471618652e+00,1.036783695220947266e+00,-5.567608475685119629e-01
1.803066968917846680e+00,1.038134694099426270e+00,-4.803368449211120605e-01
1.805671691894531250e+00,1.039634466171264648e+00,-4.050056040287017822e-01
1.807745575904846191e+00,1.040828466415405273e+00,-3.303845822811126709e-01
1.810108900070190430e+00,1.042189240455627441e+00,-2.564592659473419189e-01
1.812423706054687500e+00,1.043522000312805176e+00,-1.829706728458404541e-01
1.814742565155029297e+00,1.044857025146484375e+00,-1.097439900040626526e-01
1.817031383514404297e+00,1.046174883842468262e+00,-3.659770637750625610e-02
1.819314360618591309e+00,1.047489404678344727e+00,3.664369136095046997e-02
1.821614146232604980e+00,1.048813462257385254e+00,1.101595386862754822e-01
1.823891878128051758e+00,1.050124883651733398e+00,1.841284334659576416e-01
1.826505303382873535e+00,1.051629662513732910e+00,2.587823569774627686e-01
1.828631639480590820e+00,1.052853822708129883e+00,3.342017233371734619e-01
1.831082344055175781e+00,1.054264903068542480e+00,4.107050895690917969e-01
1.833323240280151367e+00,1.055555105209350586e+00,4.883970916271209717e-01
1.761667847633361816e+00,1.048152208328247070e+00,-5.492686033248901367e-01
1.764082312583923340e+00,1.049588799476623535e+00,-4.739049673080444336e-01
1.766710638999938965e+00,1.051152586936950684e+00,-3.996005058288574219e-01
1.768794536590576172e+00,1.052392482757568359e+00,-3.259854614734649658e-01
1.771120667457580566e+00,1.053776502609252930e+00,-2.530464529991149902e-01
1.773364782333374023e+00,1.055111765861511230e+00,-1.805336773395538330e-01
1.775574088096618652e+00,1.056426167488098145e+00,-1.082786694169044495e-01
1.777821660041809082e+00,1.057763457298278809e+00,-3.610921278595924377e-02
1.780107378959655762e+00,1.059123396873474121e+00,3.615563735365867615e-02
1.782373547554016113e+00,1.060471653938293457e+00,1.086933165788650513e-01
1.784586071968078613e+00,1.061788082122802734e+00,1.816760301589965820e-01
1.787090420722961426e+00,1.063278079032897949e+00,2.553281188011169434e-01
1.789078712463378906e+00,1.064461112022399902e+00,3.297238051891326904e-01
1.791355729103088379e+00,1.065815925598144531e+00,4.051748216152191162e-01
1.794040918350219727e+00,1.067413568496704102e+00,4.819531142711639404e-01
1.722471356391906738e+00,1.058500170707702637e+00,-5.417159795761108398e-01
1.724427700042724609e+00,1.059702396392822266e+00,-4.672790169715881348e-01
1.726714491844177246e+00,1.061107635498046875e+00,-3.939490020275115967e-01
1.729193806648254395e+00,1.062631249427795410e+00,-3.214573562145233154e-01
1.731283068656921387e+00,1.063915133476257324e+00,-2.495048791170120239e-01
1.733549356460571289e+00,1.065307855606079102e+00,-1.780144274234771729e-01
1.735744476318359375e+00,1.066656827926635742e+00,-1.067698821425437927e-01
1.737939596176147461e+00,1.068005800247192383e+00,-3.560601547360420227e-02
1.740136265754699707e+00,1.069355726242065430e+00,3.565102070569992065e-02
1.742275476455688477e+00,1.070670247077941895e+00,1.071716174483299255e-01
1.744629025459289551e+00,1.072116613388061523e+00,1.791521757841110229e-01
1.746613979339599609e+00,1.073336362838745117e+00,2.517143189907073975e-01
1.748849391937255859e+00,1.074710130691528320e+00,3.251113295555114746e-01
1.751486420631408691e+00,1.076330661773681641e+00,3.996006846427917480e-01
1.754007101058959961e+00,1.077879667282104492e+00,4.752943217754364014e-01
1.684218406677246094e+00,1.068498253822326660e+00,-5.344406366348266602e-01
1.686722874641418457e+00,1.070087194442749023e+00,-4.611651301383972168e-01
1.688611984252929688e+00,1.071285605430603027e+00,-3.887145221233367920e-01
1.691102981567382812e+00,1.072865962982177734e+00,-3.171985447406768799e-01
1.693172454833984375e+00,1.074178934097290039e+00,-2.462031394243240356e-01
1.695253372192382812e+00,1.075499057769775391e+00,-1.756446957588195801e-01
1.697437405586242676e+00,1.076884627342224121e+00,-1.053508743643760681e-01
1.699583649635314941e+00,1.078246235847473145e+00,-3.513279184699058533e-02
1.701692223548889160e+00,1.079584002494812012e+00,3.517637774348258972e-02
1.703920483589172363e+00,1.080997705459594727e+00,1.057532504200935364e-01
1.706190228462219238e+00,1.082437634468078613e+00,1.767778545618057251e-01
1.708063960075378418e+00,1.083626270294189453e+00,2.483685016632080078e-01
1.710605382919311523e+00,1.085238695144653320e+00,3.208566009998321533e-01
1.712576150894165039e+00,1.086488962173461914e+00,3.942309916019439697e-01
1.714859604835510254e+00,1.087937593460083008e+00,4.688579440116882324e-01
1.647861361503601074e+00,1.078815698623657227e+00,-5.277495980262756348e-01
1.649940967559814453e+00,1.080177187919616699e+00,-4.552891552448272705e-01
1.651895523071289062e+00,1.081456780433654785e+00,-3.837864696979522705e-01
1.654115080833435059e+00,1.082909822463989258e+00,-3.131360411643981934e-01
1.656248450279235840e+00,1.084306478500366211e+00,-2.430659234523773193e-01
1.658478140830993652e+00,1.085766315460205078e+00,-1.734268665313720703e-01
1.660528302192687988e+00,1.087108492851257324e+00,-1.040152162313461304e-01
1.662627935409545898e+00,1.088483095169067383e+00,-3.468737006187438965e-02
1.664776086807250977e+00,1.089889407157897949e+00,3.473218530416488647e-02
1.666752099990844727e+00,1.091183066368103027e+00,1.044050753116607666e-01
1.668859839439392090e+00,1.092562913894653320e+00,1.745124757289886475e-01
1.670917034149169922e+00,1.093909740447998047e+00,2.452186346054077148e-01
1.673288822174072266e+00,1.095462441444396973e+00,3.167657554149627686e-01
1.675597310066223145e+00,1.096973776817321777e+00,3.892931342124938965e-01
1.677721500396728516e+00,1.098364472389221191e+00,4.629549980163574219e-01
1.612253665924072266e+00,1.088783740997314453e+00,-5.212834477424621582e-01
1.614425778388977051e+00,1.090250611305236816e+00,-4.497490823268890381e-01
1.616793274879455566e+00,1.091849446296691895e+00,-3.792231976985931396e-01
1.618684411048889160e+00,1.093126535415649414e+00,-3.093590438365936279e-01
1.620802521705627441e+00,1.094556927680969238e+00,-2.401386052370071411e-01
1.622861027717590332e+00,1.095947146415710449e+00,-1.713252067565917969e-01
1.624902725219726562e+00,1.097325921058654785e+00,-1.027569621801376343e-01
1.626956224441528320e+00,1.098712682723999023e+00,-3.426774218678474426e-02
1.629019021987915039e+00,1.100105762481689453e+00,3.431118652224540710e-02
1.631084084510803223e+00,1.101500272750854492e+00,1.031478643417358398e-01
1.633110404014587402e+00,1.102868795394897461e+00,1.724072247743606567e-01
1.635408639907836914e+00,1.104420781135559082e+00,2.423026561737060547e-01
1.637263059616088867e+00,1.105673074722290039e+00,3.129097521305084229e-01
1.639375567436218262e+00,1.107099771499633789e+00,3.845199346542358398e-01
1.641850948333740234e+00,1.108771324157714844e+00,4.573892354965209961e-01
1.578291416168212891e+00,1.099063038825988770e+00,-5.153361558914184570e-01
1.580489397048950195e+00,1.100593566894531250e+00,-4.446380734443664551e-01
1.582499265670776367e+00,1.101993083953857422e+00,-3.748407065868377686e-01
1.584421515464782715e+00,1.103331804275512695e+00,-3.057977259159088135e-01
1.586525201797485352e+00,1.104796648025512695e+00,-2.373786866664886475e-01
1.588421821594238281e+00,1.106117367744445801e+00,-1.693435311317443848e-01
1.590457916259765625e+00,1.107535243034362793e+00,-1.015708148479461670e-01
1.592465043067932129e+00,1.108932971954345703e+00,-3.387212008237838745e-02
1.594447612762451172e+00,1.110313534736633301e+00,3.391429036855697632e-02
1.596587419509887695e+00,1.111803650856018066e+00,1.019622609019279480e-01
1.598538756370544434e+00,1.113162517547607422e+00,1.704221069812774658e-01
1.600710749626159668e+00,1.114674925804138184e+00,2.395011484622955322e-01
1.602841615676879883e+00,1.116158843040466309e+00,3.093528449535369873e-01
1.604835391044616699e+00,1.117547273635864258e+00,3.801313936710357666e-01
1.607144951820373535e+00,1.119155526161193848e+00,4.521370828151702881e-01
1.543926954269409180e+00,1.108278393745422363e+00,-5.092430710792541504e-01
1.545768380165100098e+00,1.109600186347961426e+00,-4.392931759357452393e-01
1.547853469848632812e+00,1.111096978187561035e+00,-3.703634142875671387e-01
1.549815177917480469e+00,1.112505197525024414e+00,-3.021609783172607422e-01
1.551733374595642090e+00,1.113882064819335938e+00,-2.345345467329025269e-01
1.553777217864990234e+00,1.115349292755126953e+00,-1.673348844051361084e-01
1.555695891380310059e+00,1.116726517677307129e+00,-1.003613322973251343e-01
1.557654857635498047e+00,1.118132710456848145e+00,-3.346868604421615601e-02
1.559669494628906250e+00,1.119578838348388672e+00,3.351197391748428345e-02
1.561566710472106934e+00,1.120940804481506348e+00,1.007400751113891602e-01
1.563619494438171387e+00,1.122414350509643555e+00,1.683948487043380737e-01
1.565659880638122559e+00,1.123878955841064453e+00,2.366394549608230591e-01
1.567619919776916504e+00,1.125285863876342773e+00,3.056322932243347168e-01
1.569883346557617188e+00,1.126910686492919922e+00,3.756346106529235840e-01
1.572006821632385254e+00,1.128435015678405762e+00,4.467498958110809326e-01
1.510266423225402832e+00,1.117211937904357910e+00,-5.033634901046752930e-01
1.512610793113708496e+00,1.118946194648742676e+00,-4.343771934509277344e-01
1.514387845993041992e+00,1.120260715484619141e+00,-3.661551177501678467e-01
1.516387701034545898e+00,1.121740102767944336e+00,-2.987435162067413330e-01
1.518307209014892578e+00,1.123160004615783691e+00,-2.318884730339050293e-01
1.520203590393066406e+00,1.124562978744506836e+00,-1.654357314109802246e-01
1.522117495536804199e+00,1.125978708267211914e+00,-9.922467917203903198e-02
1.524034857749938965e+00,1.127397060394287109e+00,-3.308964520692825317e-02
1.525964379310607910e+00,1.128824472427368164e+00,3.313153982162475586e-02
1.527925848960876465e+00,1.130275368690490723e+00,9.960331022739410400e-02
1.529889464378356934e+00,1.131727933883666992e+00,1.664897799491882324e-01
1.531799674034118652e+00,1.133141040802001953e+00,2.339491546154022217e-01
1.533987283706665039e+00,1.134759306907653809e+00,3.022108376026153564e-01
1.535644054412841797e+00,1.135984897613525391e+00,3.712945282459259033e-01
1.538044333457946777e+00,1.137760519981384277e+00,4.416809678077697754e-01
1.478120923042297363e+00,1.126517415046691895e+00,-4.979727566242218018e-01
1.480135679244995117e+00,1.128052949905395508e+00,-4.296440482139587402e-01
1.481992840766906738e+00,1.129468321800231934e+00,-3.621942400932312012e-01
1.484032034873962402e+00,1.131022453308105469e+00,-2.955282330513000488e-01
1.485954284667968750e+00,1.132487416267395020e+00,-2.293994575738906860e-01
1.487716436386108398e+00,1.133830428123474121e+00,-1.636496782302856445e-01
1.489626407623291016e+00,1.135286092758178711e+00,-9.815588593482971191e-02
1.491500020027160645e+00,1.136713981628417969e+00,-3.273316100239753723e-02
1.493348717689514160e+00,1.138122916221618652e+00,3.277373313903808594e-02
1.495367884635925293e+00,1.139661788940429688e+00,9.853420406579971313e-02
1.497241258621215820e+00,1.141089558601379395e+00,1.646974086761474609e-01
1.499028921127319336e+00,1.142452001571655273e+00,2.314179092645645142e-01
1.501042127609252930e+00,1.143986225128173828e+00,2.989155948162078857e-01
1.502952218055725098e+00,1.145442008972167969e+00,3.673166632652282715e-01
1.505162954330444336e+00,1.147126913070678711e+00,4.369088113307952881e-01
1.445766448974609375e+00,1.134933710098266602e+00,-4.924950301647186279e-01
1.447846055030822754e+00,1.136566162109375000e+00,-4.249499440193176270e-01
1.449734926223754883e+00,1.138049006462097168e+00,-3.582549095153808594e-01
1.451525568962097168e+00,1.139454603195190430e+00,-2.922728657722473145e-01
1.453292131423950195e+00,1.140841364860534668e+00,-2.268548011779785156e-01
1.455191850662231445e+00,1.142332673072814941e+00,-1.618539541959762573e-01
1.457032799720764160e+00,1.143777847290039062e+00,-9.707700461149215698e-02
1.458871126174926758e+00,1.145220875740051270e+00,-3.237350285053253174e-02
1.460704445838928223e+00,1.146660089492797852e+00,3.241418674588203430e-02
1.462492823600769043e+00,1.148064017295837402e+00,9.744078665971755981e-02
1.464439392089843750e+00,1.149592041969299316e+00,1.628825217485427856e-01
1.466395497322082520e+00,1.151127696037292480e+00,2.289002090692520142e-01
1.468291759490966797e+00,1.152616143226623535e+00,2.956488132476806641e-01
1.470045924186706543e+00,1.153993129730224609e+00,3.632740974426269531e-01
1.472049474716186523e+00,1.155565977096557617e+00,4.320537447929382324e-01
1.415549755096435547e+00,1.144332766532897949e+00,-4.877314567565917969e-01
1.417330026626586914e+00,1.145771861076354980e+00,-4.207636713981628418e-01
1.419297337532043457e+00,1.147362351417541504e+00,-3.547552525997161865e-01
1.421132564544677734e+00,1.148845791816711426e+00,-2.894344925880432129e-01
1.422909379005432129e+00,1.150282263755798340e+00,-2.246591895818710327e-01
1.424679517745971680e+00,1.151713252067565918e+00,-1.602773517370223999e-01
1.426518082618713379e+00,1.153199553489685059e+00,-9.613382816314697266e-02
1.428317308425903320e+00,1.154654145240783691e+00,-3.205895423889160156e-02
1.430074453353881836e+00,1.156074523925781250e+00,3.209839388728141785e-02
1.431913733482360840e+00,1.157561421394348145e+00,9.649743884801864624e-02
1.433773636817932129e+00,1.159065008163452148e+00,1.613004505634307861e-01
1.435601472854614258e+00,1.160542607307434082e+00,2.266631126403808594e-01
1.437337398529052734e+00,1.161945939064025879e+00,2.927348315715789795e-01
1.439313530921936035e+00,1.163543462753295898e+00,3.597583472728729248e-01
1.441140532493591309e+00,1.165020346641540527e+00,4.278323352336883545e-01
1.384094476699829102e+00,1.152045845985412598e+00,-4.825256168842315674e-01
1.385963320732116699e+00,1.153601288795471191e+00,-4.163111150264739990e-01
1.387696385383605957e+00,1.155043721199035645e+00,-3.509529531002044678e-01
1.389594435691833496e+00,1.156623601913452148e+00,-2.863536775112152100e-01
1.391392350196838379e+00,1.158120155334472656e+00,-2.222775369882583618e-01
1.393145442008972168e+00,1.159579277038574219e+00,-1.585807353258132935e-01
1.394888162612915039e+00,1.161029815673828125e+00,-9.511244297027587891e-02
1.396646380424499512e+00,1.162493348121643066e+00,-3.171831741929054260e-02
1.398417830467224121e+00,1.163967847824096680e+00,3.175854682922363281e-02
1.400197505950927734e+00,1.165449142456054688e+00,9.547447413206100464e-02
1.401949167251586914e+00,1.166907072067260742e+00,1.595828682184219360e-01
1.403630614280700684e+00,1.168306589126586914e+00,2.242326289415359497e-01
1.405521869659423828e+00,1.169880747795104980e+00,2.896358370780944824e-01
1.407323956489562988e+00,1.171380758285522461e+00,3.559168279170989990e-01
1.409396409988403320e+00,1.173105716705322266e+00,4.233498871326446533e-01
1.354600787162780762e+00,1.160714268684387207e+00,-4.779864251613616943e-01
1.356540322303771973e+00,1.162376284599304199e+00,-4.124284684658050537e-01
1.358307838439941406e+00,1.163890719413757324e+00,-3.476980626583099365e-01
1.359989404678344727e+00,1.165331602096557617e+00,-2.836611568927764893e-01
1.361802697181701660e+00,1.166885375976562500e+00,-2.201961874961853027e-01
1.363445758819580078e+00,1.168293356895446777e+00,-1.570874452590942383e-01
1.365188837051391602e+00,1.169786810874938965e+00,-9.421939402818679810e-02
1.366908192634582520e+00,1.171260118484497070e+00,-3.142046928405761719e-02
1.368602633476257324e+00,1.172711968421936035e+00,3.145941719412803650e-02
1.370418429374694824e+00,1.174267888069152832e+00,9.458031505346298218e-02
1.372076869010925293e+00,1.175689101219177246e+00,1.580818742513656616e-01
1.373903036117553711e+00,1.177253723144531250e+00,2.221527397632598877e-01
1.375679016113281250e+00,1.178775548934936523e+00,2.869336307048797607e-01
1.377327084541320801e+00,1.180187821388244629e+00,3.525665998458862305e-01
1.379198789596557617e+00,1.181791543960571289e+00,4.193173050880432129e-01
1.325384378433227539e+00,1.168987870216369629e+00,-4.735327661037445068e-01
1.327039837837219238e+00,1.170448064804077148e+00,-4.085110425949096680e-01
1.328597784042358398e+00,1.171822071075439453e+00,-3.443511426448822021e-01
1.330343961715698242e+00,1.173362135887145996e+00,-2.809520363807678223e-01
1.332178473472595215e+00,1.174980282783508301e+00,-2.181031405925750732e-01
1.333806514739990234e+00,1.176416158676147461e+00,-1.555966883897781372e-01
1.335466623306274414e+00,1.177880406379699707e+00,-9.332211315631866455e-02
1.337146520614624023e+00,1.179362058639526367e+00,-3.112119436264038086e-02
1.338854312896728516e+00,1.180868387222290039e+00,3.116094134747982025e-02
1.340605735778808594e+00,1.182413101196289062e+00,9.368123114109039307e-02
1.342162847518920898e+00,1.183786511421203613e+00,1.565715074539184570e-01
1.343843936920166016e+00,1.185269117355346680e+00,2.200130075216293335e-01
1.345756411552429199e+00,1.186956048011779785e+00,2.842069864273071289e-01
1.347616553306579590e+00,1.188596606254577637e+00,3.492805063724517822e-01
1.349328398704528809e+00,1.190106511116027832e+00,4.153722822666168213e-01
1.296631693840026855e+00,1.177046895027160645e+00,-4.692312777042388916e-01
1.298377394676208496e+00,1.178631663322448730e+00,-4.048395454883575439e-01
1.299990296363830566e+00,1.180095672607421875e+00,-3.412795364856719971e-01
1.301745653152465820e+00,1.181689262390136719e+00,-2.784559726715087891e-01
1.303265810012817383e+00,1.183069229125976562e+00,-2.161198556423187256e-01
1.304937481880187988e+00,1.184586644172668457e+00,-1.541911214590072632e-01
1.306599855422973633e+00,1.186095714569091797e+00,-9.248179197311401367e-02
1.308242440223693848e+00,1.187586784362792969e+00,-3.084093704819679260e-02
1.309871673583984375e+00,1.189065694808959961e+00,3.087934479117393494e-02
1.311504006385803223e+00,1.190547585487365723e+00,9.282891452312469482e-02
1.313311219215393066e+00,1.192188024520874023e+00,1.551805585622787476e-01
1.314905166625976562e+00,1.193634986877441406e+00,2.180499881505966187e-01
1.316686272621154785e+00,1.195251822471618652e+00,2.816519141197204590e-01
1.318374156951904297e+00,1.196784138679504395e+00,3.461057543754577637e-01
1.320294380187988281e+00,1.198527216911315918e+00,4.116733372211456299e-01
1.267889022827148438e+00,1.184493541717529297e+00,-4.649175703525543213e-01
1.269736051559448242e+00,1.186219096183776855e+00,-4.011620283126831055e-01
1.271413922309875488e+00,1.187786579132080078e+00,-3.382061719894409180e-01
1.272997379302978516e+00,1.189265966415405273e+00,-2.759194672107696533e-01
1.274556398391723633e+00,1.190722346305847168e+00,-2.141633331775665283e-01
1.276218056678771973e+00,1.192274689674377441e+00,-1.527984589338302612e-01
1.277829289436340332e+00,1.193779945373535156e+00,-9.164544939994812012e-02
1.279436349868774414e+00,1.195281267166137695e+00,-3.056204691529273987e-02
1.281042098999023438e+00,1.196781396865844727e+00,3.060040436685085297e-02
1.282608866691589355e+00,1.198245167732238770e+00,9.198823571205139160e-02
1.284303665161132812e+00,1.199828386306762695e+00,1.537665128707885742e-01
1.285999059677124023e+00,1.201412439346313477e+00,2.160860449075698853e-01
1.287635684013366699e+00,1.202941298484802246e+00,2.790922522544860840e-01
1.289142966270446777e+00,1.204349398612976074e+00,3.429222106933593750e-01
1.290831565856933594e+00,1.205927014350891113e+00,4.078269600868225098e-01
1.240278720855712891e+00,1.192396759986877441e+00,-4.610044062137603760e-01
1.241893291473388672e+00,1.193948864936828613e+00,-3.977239131927490234e-01
1.243398904800415039e+00,1.195396423339843750e+00,-3.352710604667663574e-01
1.245059132575988770e+00,1.196992516517639160e+00,-2.735494375228881836e-01
1.246650934219360352e+00,1.198522925376892090e+00,-2.123351842164993286e-01
1.248305082321166992e+00,1.200113177299499512e+00,-1.514976322650909424e-01
1.249842643737792969e+00,1.201591372489929199e+00,-9.086245298385620117e-02
1.251414656639099121e+00,1.203102707862854004e+00,-3.030093759298324585e-02
1.253024816513061523e+00,1.204650759696960449e+00,3.033992275595664978e-02
1.254527688026428223e+00,1.206095576286315918e+00,9.120304882526397705e-02
1.256113409996032715e+00,1.207620024681091309e+00,1.524452716112136841e-01
1.257658123970031738e+00,1.209105134010314941e+00,2.142099738121032715e-01
1.259395241737365723e+00,1.210775136947631836e+00,2.766991853713989258e-01
1.261066317558288574e+00,1.212381720542907715e+00,3.400349020957946777e-01
1.262582659721374512e+00,1.213839650154113770e+00,4.043498337268829346e-01
1.213375568389892578e+00,1.200418472290039062e+00,-4.573442637920379639e-01
1.214773535728454590e+00,1.201801657676696777e+00,-3.945072889328002930e-01
1.216347217559814453e+00,1.203358411788940430e+00,-3.325870931148529053e-01
1.218026757240295410e+00,1.205020070075988770e+00,-2.713719308376312256e-01
1.219475865364074707e+00,1.206453680992126465e+00,-2.106262892484664917e-01
1.221045136451721191e+00,1.208006143569946289e+00,-1.502723544836044312e-01
1.222587943077087402e+00,1.209532499313354492e+00,-9.013043344020843506e-02
1.224125027656555176e+00,1.211053252220153809e+00,-3.005680628120899200e-02
1.225658297538757324e+00,1.212570071220397949e+00,3.009445220232009888e-02
1.227178573608398438e+00,1.214074134826660156e+00,9.046885371208190918e-02
1.228840231895446777e+00,1.215718150138854980e+00,1.512316912412643433e-01
1.230290889739990234e+00,1.217153310775756836e+00,2.124942392110824585e-01
1.231887698173522949e+00,1.218733072280883789e+00,2.744601070880889893e-01
1.233707666397094727e+00,1.220533609390258789e+00,3.373340070247650146e-01
1.235058069229125977e+00,1.221869468688964844e+00,4.010948240756988525e-01
1.186199784278869629e+00,1.207612037658691406e+00,-4.535698294639587402e-01
1.187981843948364258e+00,1.209426403045654297e+00,-3.913882672786712646e-01
1.189368605613708496e+00,1.210838079452514648e+00,-3.299154341220855713e-01
1.190908074378967285e+00,1.212405443191528320e+00,-2.691687643527984619e-01
1.192400932312011719e+00,1.213925242424011230e+00,-2.089296132326126099e-01
1.193966388702392578e+00,1.215518951416015625e+00,-1.490657180547714233e-01
1.195445060729980469e+00,1.217024326324462891e+00,-8.940448611974716187e-02
1.196947097778320312e+00,1.218553423881530762e+00,-2.981469221413135529e-02
1.198479533195495605e+00,1.220113515853881836e+00,2.985286340117454529e-02
1.199928998947143555e+00,1.221589207649230957e+00,8.973982185125350952e-02
1.201475381851196289e+00,1.223163485527038574e+00,1.500032097101211548e-01
1.202998995780944824e+00,1.224714636802673340e+00,2.107865661382675171e-01
1.204718708992004395e+00,1.226465344429016113e+00,2.722902297973632812e-01
1.206070661544799805e+00,1.227841734886169434e+00,3.345483839511871338e-01
1.207918882369995117e+00,1.229723334312438965e+00,3.979566395282745361e-01
1.159454703330993652e+00,1.214680194854736328e+00,-4.499452114105224609e-01
1.161059379577636719e+00,1.216361284255981445e+00,-3.882146775722503662e-01
1.162534832954406738e+00,1.217907071113586426e+00,-3.272741138935089111e-01
1.164116978645324707e+00,1.219564557075500488e+00,-2.670315504074096680e-01
1.165493726730346680e+00,1.221006870269775391e+00,-2.072560042142868042e-01
1.166991353034973145e+00,1.222575783729553223e+00,-1.478675305843353271e-01
1.168477892875671387e+00,1.224133133888244629e+00,-8.868898451328277588e-02
1.169945001602172852e+00,1.225670099258422852e+00,-2.957606129348278046e-02
1.171398639678955078e+00,1.227192997932434082e+00,2.961280755698680878e-02
1.172851085662841797e+00,1.228714704513549805e+00,8.902092278003692627e-02
1.174446582794189453e+00,1.230386137962341309e+00,1.488121896982192993e-01
1.175856232643127441e+00,1.231863021850585938e+00,2.090987414121627808e-01
1.177410006523132324e+00,1.233490705490112305e+00,2.700807750225067139e-01
1.178872704505920410e+00,1.235023140907287598e+00,3.318735063076019287e-01
1.180508971214294434e+00,1.236737251281738281e+00,3.947178721427917480e-01
1.133388757705688477e+00,1.221918344497680664e+00,-4.465713798999786377e-01
1.135072588920593262e+00,1.223733782768249512e+00,-3.853428363800048828e-01
1.136389732360839844e+00,1.225153803825378418e+00,-3.248172998428344727e-01
1.137853980064392090e+00,1.226732373237609863e+00,-2.650077641010284424e-01
1.139393210411071777e+00,1.228391885757446289e+00,-2.057202160358428955e-01
1.140782237052917480e+00,1.229889392852783203e+00,-1.467621624469757080e-01
1.142230749130249023e+00,1.231451034545898438e+00,-8.802563697099685669e-02
1.143666148185729980e+00,1.232998490333557129e+00,-2.935487963259220123e-02
1.145090103149414062e+00,1.234533667564392090e+00,2.939142845571041107e-02
1.146587252616882324e+00,1.236147880554199219e+00,8.836137503385543823e-02
1.147946119308471680e+00,1.237612724304199219e+00,1.476837992668151855e-01
1.149408936500549316e+00,1.239189863204956055e+00,2.075285613536834717e-01
1.151054501533508301e+00,1.240964055061340332e+00,2.680822014808654785e-01
1.152366161346435547e+00,1.242377996444702148e+00,3.293838500976562500e-01
1.154133796691894531e+00,1.244283795356750488e+00,3.918138742446899414e-01
1.107929229736328125e+00,1.229298472404479980e+00,-4.434274435043334961e-01
1.109455347061157227e+00,1.230991721153259277e+00,-3.825885951519012451e-01
1.110862493515014648e+00,1.232553005218505859e+00,-3.225304186344146729e-01
1.112367868423461914e+00,1.234223246574401855e+00,-2.631595134735107422e-01
1.113798022270202637e+00,1.235810041427612305e+00,-2.042717486619949341e-01
1.115193963050842285e+00,1.237359046936035156e+00,-1.457338184118270874e-01
1.116583228111267090e+00,1.238900423049926758e+00,-8.740675449371337891e-02
1.117985367774963379e+00,1.240456104278564453e+00,-2.914846688508987427e-02
1.119404911994934082e+00,1.242031216621398926e+00,2.918547764420509338e-02
1.120828270912170410e+00,1.243610501289367676e+00,8.773905783891677856e-02
1.122234582901000977e+00,1.245170831680297852e+00,1.466538757085800171e-01
1.123585343360900879e+00,1.246669530868530273e+00,2.060667425394058228e-01
1.125072121620178223e+00,1.248319268226623535e+00,2.661650180816650391e-01
1.126476645469665527e+00,1.249877691268920898e+00,3.270638883113861084e-01
1.128040790557861328e+00,1.251613140106201172e+00,3.889976739883422852e-01
1.082419037818908691e+00,1.236118197441101074e+00,-4.402537345886230469e-01
1.083785414695739746e+00,1.237678527832031250e+00,-3.798066675662994385e-01
1.085254788398742676e+00,1.239356637001037598e+00,-3.202131390571594238e-01
1.086631894111633301e+00,1.240929245948791504e+00,-2.612462937831878662e-01
1.087972640991210938e+00,1.242460370063781738e+00,-2.027761787176132202e-01
1.089380860328674316e+00,1.244068503379821777e+00,-1.446727365255355835e-01
1.090721011161804199e+00,1.245599031448364258e+00,-8.676900714635848999e-02
1.092090606689453125e+00,1.247163057327270508e+00,-2.893578819930553436e-02
1.093496203422546387e+00,1.248768210411071777e+00,2.897302992641925812e-02
1.094837784767150879e+00,1.250300407409667969e+00,8.709650486707687378e-02
1.096268057823181152e+00,1.251933693885803223e+00,1.455873847007751465e-01
1.097684383392333984e+00,1.253551244735717773e+00,2.045862525701522827e-01
1.099037885665893555e+00,1.255096793174743652e+00,2.642289102077484131e-01
1.100537180900573730e+00,1.256808996200561523e+00,3.247223198413848877e-01
1.101913332939147949e+00,1.258380532264709473e+00,3.861594796180725098e-01
1.057652711868286133e+00,1.243296623229980469e+00,-4.373738169670104980e-01
1.059113860130310059e+00,1.245014309883117676e+00,-3.773670792579650879e-01
1.060455560684204102e+00,1.246591448783874512e+00,-3.181280791759490967e-01
1.061883211135864258e+00,1.248269677162170410e+00,-2.595652341842651367e-01
1.063134431838989258e+00,1.249740481376647949e+00,-2.014601677656173706e-01
1.064491510391235352e+00,1.251335859298706055e+00,-1.437312662601470947e-01
1.065840601921081543e+00,1.252921700477600098e+00,-8.620754629373550415e-02
1.067177176475524902e+00,1.254492759704589844e+00,-2.874850295484066010e-02
1.068507552146911621e+00,1.256056785583496094e+00,2.878434397280216217e-02
1.069841265678405762e+00,1.257624506950378418e+00,8.653112500905990601e-02
1.071298718452453613e+00,1.259337782859802246e+00,1.446503847837448120e-01
1.072597265243530273e+00,1.260864257812500000e+00,2.032533437013626099e-01
1.074016332626342773e+00,1.262532472610473633e+00,2.625310420989990234e-01
1.075351834297180176e+00,1.264102339744567871e+00,3.225968182086944580e-01
1.076824307441711426e+00,1.265833377838134766e+00,3.836773931980133057e-01
1.032896518707275391e+00,1.250011801719665527e+00,-4.344907104969024658e-01
1.034226298332214355e+00,1.251621246337890625e+00,-3.748443424701690674e-01
1.035641312599182129e+00,1.253333687782287598e+00,-3.160333633422851562e-01
1.036959528923034668e+00,1.254928946495056152e+00,-2.578372061252593994e-01
1.038237214088439941e+00,1.256475329399108887e+00,-2.001297473907470703e-01
1.039512753486633301e+00,1.258018851280212402e+00,-1.427752375602722168e-01
1.040834903717041016e+00,1.259618997573852539e+00,-8.563452959060668945e-02
1.042141795158386230e+00,1.261200547218322754e+00,-2.855745889246463776e-02
1.043435454368591309e+00,1.262766122817993164e+00,2.859290875494480133e-02
1.044786095619201660e+00,1.264400601387023926e+00,8.595960587263107300e-02
1.046151995658874512e+00,1.266053676605224609e+00,1.436871290206909180e-01
1.047498345375061035e+00,1.267683029174804688e+00,2.019148916006088257e-01
1.048776626586914062e+00,1.269230008125305176e+00,2.607754766941070557e-01
1.050179004669189453e+00,1.270927071571350098e+00,3.204696178436279297e-01
1.051456093788146973e+00,1.272472620010375977e+00,3.810890614986419678e-01
1.008676648139953613e+00,1.256911039352416992e+00,-4.318262040615081787e-01
1.009886860847473145e+00,1.258419156074523926e+00,-3.725129961967468262e-01
1.011204004287719727e+00,1.260060310363769531e+00,-3.140476942062377930e-01
1.012587785720825195e+00,1.261784791946411133e+00,-2.562417089939117432e-01
1.013795971870422363e+00,1.263290166854858398e+00,-1.988835781812667847e-01
1.015088915824890137e+00,1.264901399612426758e+00,-1.418928354978561401e-01
1.016367077827453613e+00,1.266494035720825195e+00,-8.510418981313705444e-02
1.017641663551330566e+00,1.268082380294799805e+00,-2.838055975735187531e-02
1.018919706344604492e+00,1.269674897193908691e+00,2.841620147228240967e-02
1.020189404487609863e+00,1.271257162094116211e+00,8.542425185441970825e-02
1.021562218666076660e+00,1.272967815399169922e+00,1.427976936101913452e-01
1.022777557373046875e+00,1.274482131004333496e+00,2.006455510854721069e-01
1.024092197418212891e+00,1.276120305061340332e+00,2.591529488563537598e-01
1.025551199913024902e+00,1.277938485145568848e+00,3.185034990310668945e-01
1.026915907859802246e+00,1.279639005661010742e+00,3.787944316864013672e-01
9.846276640892028809e-01,1.263574123382568359e+00,-4.292294681072235107e-01
9.859300255775451660e-01,1.265245437622070312e+00,-3.703183531761169434e-01
9.871348142623901367e-01,1.266791582107543945e+00,-3.121719062328338623e-01
9.884266257286071777e-01,1.268449425697326660e+00,-2.546959221363067627e-01
9.896660447120666504e-01,1.270039916038513184e+00,-1.976958215236663818e-01
9.908894896507263184e-01,1.271610021591186523e+00,-1.410399228334426880e-01
9.921261668205261230e-01,1.273197054862976074e+00,-8.459169417619705200e-02
9.933702945709228516e-01,1.274793624877929688e+00,-2.820965088903903961e-02
9.946277737617492676e-01,1.276407361030578613e+00,2.824536152184009552e-02
9.959061145782470703e-01,1.278047800064086914e+00,8.491398394107818604e-02
9.971858859062194824e-01,1.279690146446228027e+00,1.419361382722854614e-01
9.984321594238281250e-01,1.281289577484130859e+00,1.994469463825225830e-01
9.997974038124084473e-01,1.283041596412658691e+00,2.576259374618530273e-01
1.001096844673156738e+00,1.284709095954895020e+00,3.165872395038604736e-01
1.002261877059936523e+00,1.286204099655151367e+00,3.764526546001434326e-01
9.607706665992736816e-01,1.270039081573486328e+00,-4.267103970050811768e-01
9.619873762130737305e-01,1.271647453308105469e+00,-3.681243360042572021e-01
9.632799029350280762e-01,1.273356080055236816e+00,-3.103600442409515381e-01
9.644951224327087402e-01,1.274962425231933594e+00,-2.532057762145996094e-01
9.656832814216613770e-01,1.276533007621765137e+00,-1.965348273515701294e-01
9.669302105903625488e-01,1.278181314468383789e+00,-1.402193605899810791e-01
9.681460261344909668e-01,1.279788494110107422e+00,-8.410032838582992554e-02
9.693610072135925293e-01,1.281394600868225098e+00,-2.804581448435783386e-02
9.705777764320373535e-01,1.283003091812133789e+00,2.808101847767829895e-02
9.717701077461242676e-01,1.284579277038574219e+00,8.441514521837234497e-02
9.730401039123535156e-01,1.286257982254028320e+00,1.411053836345672607e-01
9.743034243583679199e-01,1.287927985191345215e+00,1.982891857624053955e-01
9.755137562751770020e-01,1.289528012275695801e+00,2.560984790325164795e-01
9.768382310867309570e-01,1.291278719902038574e+00,3.147284388542175293e-01
9.780527353286743164e-01,1.292884230613708496e+00,3.742720484733581543e-01
9.371228218078613281e-01,1.276342153549194336e+00,-4.242779612541198730e-01
9.384465217590332031e-01,1.278144955635070801e+00,-3.660792708396911621e-01
9.396539926528930664e-01,1.279789566993713379e+00,-3.086183369159698486e-01
9.408057332038879395e-01,1.281358122825622559e+00,-2.517758011817932129e-01
9.420309662818908691e-01,1.283026933670043945e+00,-1.954386532306671143e-01
9.432208538055419922e-01,1.284647464752197266e+00,-1.394333541393280029e-01
9.444021582603454590e-01,1.286256432533264160e+00,-8.362849056720733643e-02
9.455862641334533691e-01,1.287869095802307129e+00,-2.788843400776386261e-02
9.467777013778686523e-01,1.289491891860961914e+00,2.792357467114925385e-02
9.479687809944152832e-01,1.291114091873168945e+00,8.394432067871093750e-02
9.491388201713562012e-01,1.292707681655883789e+00,1.403082013130187988e-01
9.504045844078063965e-01,1.294431567192077637e+00,1.971758902072906494e-01
9.516407847404479980e-01,1.296115279197692871e+00,2.546754479408264160e-01
9.527916312217712402e-01,1.297682762145996094e+00,3.129332661628723145e-01
9.540320038795471191e-01,1.299372076988220215e+00,3.721590042114257812e-01
9.141141176223754883e-01,1.283102512359619141e+00,-4.221325814723968506e-01
9.153407216072082520e-01,1.284824252128601074e+00,-3.642024993896484375e-01
9.164693951606750488e-01,1.286408424377441406e+00,-3.070197105407714844e-01
9.176710844039916992e-01,1.288095235824584961e+00,-2.504929900169372559e-01
9.188227653503417969e-01,1.289711833000183105e+00,-1.944336891174316406e-01
9.199588894844055176e-01,1.291306614875793457e+00,-1.387127041816711426e-01
9.211061596870422363e-01,1.292916893959045410e+00,-8.319581300020217896e-02
9.222618937492370605e-01,1.294539213180541992e+00,-2.774417214095592499e-02
9.234285950660705566e-01,1.296176791191101074e+00,2.777926996350288391e-02
9.246144294738769531e-01,1.297841310501098633e+00,8.351268619298934937e-02
9.258002638816833496e-01,1.299505829811096191e+00,1.395934820175170898e-01
9.269540905952453613e-01,1.301125407218933105e+00,1.961543858051300049e-01
9.282078742980957031e-01,1.302885293960571289e+00,2.533691823482513428e-01
9.293963909149169922e-01,1.304553508758544922e+00,3.113502860069274902e-01
9.306857585906982422e-01,1.306363463401794434e+00,3.703080713748931885e-01
8.910645246505737305e-01,1.289408802986145020e+00,-4.199682474136352539e-01
8.922211527824401855e-01,1.291082501411437988e+00,-3.623192906379699707e-01
8.932965397834777832e-01,1.292638540267944336e+00,-3.054237067699432373e-01
8.944524526596069336e-01,1.294311165809631348e+00,-2.491865605115890503e-01
8.956488966941833496e-01,1.296042442321777344e+00,-1.934355944395065308e-01
8.967414498329162598e-01,1.297623515129089355e+00,-1.379983425140380859e-01
8.978735804557800293e-01,1.299261808395385742e+00,-8.276864141225814819e-02
8.990001082420349121e-01,1.300891876220703125e+00,-2.760171517729759216e-02
9.001219868659973145e-01,1.302515268325805664e+00,2.763615921139717102e-02
9.012936949729919434e-01,1.304210782051086426e+00,8.308391273021697998e-02
9.023723602294921875e-01,1.305771708488464355e+00,1.388648897409439087e-01
9.035133123397827148e-01,1.307422637939453125e+00,1.951341032981872559e-01
9.047611951828002930e-01,1.309228420257568359e+00,2.520585060119628906e-01
9.059597849845886230e-01,1.310962796211242676e+00,3.097533583641052246e-01
9.070439934730529785e-01,1.312531709671020508e+00,3.683386445045471191e-01
8.682239055633544922e-01,1.295619845390319824e+00,-4.179007709026336670e-01
8.693264722824096680e-01,1.297265172004699707e+00,-3.605254888534545898e-01
8.704869747161865234e-01,1.298996925354003906e+00,-3.039509654045104980e-01
8.715801239013671875e-01,1.300628185272216797e+00,-2.479755133390426636e-01
8.726510405540466309e-01,1.302226305007934570e+00,-1.924745738506317139e-01
8.737770915031433105e-01,1.303906559944152832e+00,-1.373224109411239624e-01
8.748819828033447266e-01,1.305555462837219238e+00,-8.236338943243026733e-02
8.759782910346984863e-01,1.307191371917724609e+00,-2.746653184294700623e-02
8.770704865455627441e-01,1.308821201324462891e+00,2.750077657401561737e-02
8.781489729881286621e-01,1.310430645942687988e+00,8.267094939947128296e-02
8.792969584465026855e-01,1.312143683433532715e+00,1.381899118423461914e-01
8.804421424865722656e-01,1.313852667808532715e+00,1.941929906606674194e-01
8.815434575080871582e-01,1.315496087074279785e+00,2.508102357387542725e-01
8.827351331710815430e-01,1.317274332046508789e+00,3.082276880741119385e-01
8.838266730308532715e-01,1.318903207778930664e+00,3.665389716625213623e-01
8.455907106399536133e-01,1.301753163337707520e+00,-4.159325659275054932e-01
8.467997908592224121e-01,1.303614497184753418e+00,-3.588848412036895752e-01
8.477783203125000000e-01,1.305120944976806641e+00,-3.025135397911071777e-01
8.489395380020141602e-01,1.306908607482910156e+00,-2.468309104442596436e-01
8.500358462333679199e-01,1.308596253395080566e+00,-1.915981322526931763e-01
8.510587215423583984e-01,1.310170888900756836e+00,-1.366852223873138428e-01
8.521384000778198242e-01,1.311833024024963379e+00,-8.198155462741851807e-02
8.532058596611022949e-01,1.313476443290710449e+00,-2.733918651938438416e-02
8.542661070823669434e-01,1.315108537673950195e+00,2.737315930426120758e-02
8.553918600082397461e-01,1.316841602325439453e+00,8.229456096887588501e-02
8.564557433128356934e-01,1.318479418754577637e+00,1.375520229339599609e-01
8.574712872505187988e-01,1.320042848587036133e+00,1.932740807533264160e-01
8.586993217468261719e-01,1.321933388710021973e+00,2.496685832738876343e-01
8.597212433815002441e-01,1.323506593704223633e+00,3.067751526832580566e-01
8.608024120330810547e-01,1.325170993804931641e+00,3.648193180561065674e-01
8.233227133750915527e-01,1.308080673217773438e+00,-4.141464829444885254e-01
8.243355751037597656e-01,1.309689879417419434e+00,-3.572724759578704834e-01
8.254094719886779785e-01,1.311396002769470215e+00,-3.011987209320068359e-01
8.265237808227539062e-01,1.313166499137878418e+00,-2.457532733678817749e-01
8.275813460350036621e-01,1.314846634864807129e+00,-1.907593756914138794e-01
8.286148309707641602e-01,1.316488623619079590e+00,-1.360930353403091431e-01
8.296450376510620117e-01,1.318125367164611816e+00,-8.162430673837661743e-02
8.306851983070373535e-01,1.319777965545654297e+00,-2.722007967531681061e-02
8.317378759384155273e-01,1.321450471878051758e+00,2.725457400083541870e-02
8.327956199645996094e-01,1.323130965232849121e+00,8.193428069353103638e-02
8.338408470153808594e-01,1.324791669845581055e+00,1.369513720273971558e-01
8.348458409309387207e-01,1.326388359069824219e+00,1.924338638782501221e-01
8.359166979789733887e-01,1.328089714050292969e+00,2.485460937023162842e-01
8.370802402496337891e-01,1.329938292503356934e+00,3.054575026035308838e-01
8.381597995758056641e-01,1.331653594970703125e+00,3.632639944553375244e-01
8.012345433235168457e-01,1.314345359802246094e+00,-4.124566912651062012e-01
8.022097349166870117e-01,1.315945029258728027e+00,-3.558100759983062744e-01
8.032448887825012207e-01,1.317643046379089355e+00,-2.999621629714965820e-01
8.043208718299865723e-01,1.319408059120178223e+00,-2.447417676448822021e-01
8.053472638130187988e-01,1.321091771125793457e+00,-1.899735778570175171e-01
8.063541054725646973e-01,1.322743415832519531e+00,-1.355326175689697266e-01
8.073640465736389160e-01,1.324400067329406738e+00,-8.128892630338668823e-02
8.083758354187011719e-01,1.326059818267822266e+00,-2.710822224617004395e-02
8.093923926353454590e-01,1.327727437019348145e+00,2.714231237769126892e-02
8.104200363159179688e-01,1.329413175582885742e+00,8.159662038087844849e-02
8.114399909973144531e-01,1.331086277961730957e+00,1.363874524831771851e-01
8.124267458915710449e-01,1.332704901695251465e+00,1.916435509920120239e-01
8.134786486625671387e-01,1.334430456161499023e+00,2.475283294916152954e-01
8.146205544471740723e-01,1.336303710937500000e+00,3.042102456092834473e-01
8.156845569610595703e-01,1.338049054145812988e+00,3.617866635322570801e-01
7.791956663131713867e-01,1.320347189903259277e+00,-4.107981026172637939e-01
7.802786827087402344e-01,1.322182297706604004e+00,-3.544404804706573486e-01
7.812692523002624512e-01,1.323860883712768555e+00,-2.988013029098510742e-01
7.822179198265075684e-01,1.325468420982360840e+00,-2.437641024589538574e-01
7.832217812538146973e-01,1.327169418334960938e+00,-1.892160773277282715e-01
7.842097282409667969e-01,1.328843474388122559e+00,-1.349937021732330322e-01
7.852131128311157227e-01,1.330543756484985352e+00,-8.096788823604583740e-02
7.861977815628051758e-01,1.332212328910827637e+00,-2.700118161737918854e-02
7.871641516685485840e-01,1.333849787712097168e+00,2.703437022864818573e-02
7.881547808647155762e-01,1.335528373718261719e+00,8.127121627330780029e-02
7.891402840614318848e-01,1.337198376655578613e+00,1.358424425125122070e-01
7.901998758316040039e-01,1.338993787765502930e+00,1.909018754959106445e-01
7.912394404411315918e-01,1.340755343437194824e+00,2.465755045413970947e-01
7.922124862670898438e-01,1.342404127120971680e+00,3.029865920543670654e-01
7.932366728782653809e-01,1.344139695167541504e+00,3.603266179561614990e-01
7.572739124298095703e-01,1.326205968856811523e+00,-4.092066586017608643e-01
7.583711743354797363e-01,1.328127622604370117e+00,-3.530881702899932861e-01
7.592647671699523926e-01,1.329692482948303223e+00,-2.976341545581817627e-01
7.603023052215576172e-01,1.331509590148925781e+00,-2.428488582372665405e-01
7.612228989601135254e-01,1.333121895790100098e+00,-1.884919852018356323e-01
7.621901631355285645e-01,1.334815740585327148e+00,-1.344783604145050049e-01
7.631459832191467285e-01,1.336489677429199219e+00,-8.065673708915710449e-02
7.641025781631469727e-01,1.338164925575256348e+00,-2.689740620553493500e-02
7.650622129440307617e-01,1.339845538139343262e+00,2.693118713796138763e-02
7.660171389579772949e-01,1.341517925262451172e+00,8.096019178628921509e-02
7.670323848724365234e-01,1.343295812606811523e+00,1.353327035903930664e-01
