-3.050767660140991211e+00,-4.347761154174804688e+00,9.270944446325302124e-02
-3.054289340972900391e+00,-4.352779865264892578e+00,2.786758542060852051e-01
-3.058091878890991211e+00,-4.358199119567871094e+00,4.657959043979644775e-01
-3.062603235244750977e+00,-4.364628314971923828e+00,6.546782255172729492e-01
-3.066254615783691406e+00,-4.369832038879394531e+00,8.455009460449218750e-01
-3.070643901824951172e+00,-4.376087665557861328e+00,1.039142489433288574e+00
-3.074749708175659180e+00,-4.381938934326171875e+00,1.235854148864746094e+00
-2.266325950622558594e+00,-3.330194950103759766e+00,-1.079352498054504395e+00
-2.683648347854614258e+00,-3.943418502807617188e+00,-1.101230382919311523e+00
-3.011706829071044922e+00,-4.425475597381591797e+00,-1.040527105331420898e+00
-3.015695571899414062e+00,-4.431336879730224609e+00,-8.489624857902526855e-01
-3.019538640975952148e+00,-4.436984062194824219e+00,-6.589809060096740723e-01
-3.023614883422851562e+00,-4.442973613739013672e+00,-4.701828062534332275e-01
-3.027303218841552734e+00,-4.448393344879150391e+00,-2.819941937923431396e-01
-3.031090021133422852e+00,-4.453957557678222656e+00,-9.403917193412780762e-02
-3.034984111785888672e+00,-4.459680080413818359e+00,9.415999054908752441e-02
-3.038506746292114258e+00,-4.464856147766113281e+00,2.830378115177154541e-01
-3.042317867279052734e+00,-4.470456123352050781e+00,4.730911850929260254e-01
-3.046046257019042969e+00,-4.475934982299804688e+00,6.647658944129943848e-01
-3.050523757934570312e+00,-4.482513904571533203e+00,8.587670922279357910e-01
-3.053811311721801758e+00,-4.487345218658447266e+00,1.055074095726013184e+00
-3.057799100875854492e+00,-4.493204593658447266e+00,1.254762411117553711e+00
-2.216496706008911133e+00,-3.359356164932250977e+00,-1.078410863876342773e+00
-2.624601364135742188e+00,-3.977885723114013672e+00,-1.100252032279968262e+00
-2.990360975265502930e+00,-4.532236576080322266e+00,-1.055457115173339844e+00
-2.994297266006469727e+00,-4.538202285766601562e+00,-8.611367940902709961e-01
-2.998095035552978516e+00,-4.543958187103271484e+00,-6.684268116950988770e-01
-3.002130985260009766e+00,-4.550075054168701172e+00,-4.769206345081329346e-01
-3.005787849426269531e+00,-4.555617809295654297e+00,-2.860347628593444824e-01
-3.009548902511596680e+00,-4.561317920684814453e+00,-9.538664668798446655e-02
-3.013423681259155273e+00,-4.567190647125244141e+00,9.550945460796356201e-02
-3.016935110092163086e+00,-4.572512626647949219e+00,2.870955467224121094e-01
-3.020740509033203125e+00,-4.578280448913574219e+00,4.798769950866699219e-01
-3.024469852447509766e+00,-4.583932399749755859e+00,6.743071079254150391e-01
-3.028950691223144531e+00,-4.590723991394042969e+00,8.711028695106506348e-01
-3.032254457473754883e+00,-4.595730781555175781e+00,1.070243477821350098e+00
-3.036260128021240234e+00,-4.601801872253417969e+00,1.272822260856628418e+00
-2.166508913040161133e+00,-3.388104438781738281e+00,-1.077574372291564941e+00
-2.565370798110961914e+00,-4.011866569519042969e+00,-1.099381804466247559e+00
-2.973905086517333984e+00,-4.650754451751708984e+00,-1.073034524917602539e+00
-2.977798461914062500e+00,-4.656843185424804688e+00,-8.754718303680419922e-01
-2.981559753417968750e+00,-4.662725448608398438e+00,-6.795503497123718262e-01
-2.985563755035400391e+00,-4.668987274169921875e+00,-4.848556816577911377e-01
-2.989196300506591797e+00,-4.674667835235595703e+00,-2.907933890819549561e-01
-2.992938518524169922e+00,-4.680520057678222656e+00,-9.697362035512924194e-02
-2.996799468994140625e+00,-4.686557769775390625e+00,9.709871560335159302e-02
-3.000304222106933594e+00,-4.692039012908935547e+00,2.918739914894104004e-01
-3.004107713699340820e+00,-4.697987079620361328e+00,4.878672063350677490e-01
-3.007840871810913086e+00,-4.703825473785400391e+00,6.855402588844299316e-01
-3.012328386306762695e+00,-4.710843086242675781e+00,8.856235742568969727e-01
-3.015648603439331055e+00,-4.716035366058349609e+00,1.088096380233764648e+00
-3.019674777984619141e+00,-4.722332000732421875e+00,1.294072508811950684e+00
-2.116724014282226562e+00,-3.417033433914184570e+00,-1.077028751373291016e+00
-2.506393909454345703e+00,-4.046078681945800781e+00,-1.098813533782958984e+00
-2.951343059539794922e+00,-4.764361381530761719e+00,-1.089387893676757812e+00
-2.955193758010864258e+00,-4.770576953887939453e+00,-8.888102769851684570e-01
-2.958916902542114258e+00,-4.776587486267089844e+00,-6.899015307426452637e-01
-2.962884902954101562e+00,-4.782993316650390625e+00,-4.922403097152709961e-01
-2.966487646102905273e+00,-4.788808822631835938e+00,-2.952221035957336426e-01
-2.970202207565307617e+00,-4.794805526733398438e+00,-9.845054149627685547e-02
-2.974039316177368164e+00,-4.800999641418457031e+00,9.857772290706634521e-02
-2.977526187896728516e+00,-4.806628227233886719e+00,2.963206768035888672e-01
-2.981313467025756836e+00,-4.812742710113525391e+00,4.953019618988037109e-01
-2.985034704208374023e+00,-4.818749427795410156e+00,6.959911584854125977e-01
-2.989508390426635742e+00,-4.825971603393554688e+00,8.991308212280273438e-01
-2.992826461791992188e+00,-4.831327915191650391e+00,1.104700088500976562e+00
-2.996852636337280273e+00,-4.837827205657958984e+00,1.313832759857177734e+00
-2.066853761672973633e+00,-3.445729494094848633e+00,-1.076638579368591309e+00
-2.467975378036499023e+00,-4.114454269409179688e+00,-1.107675790786743164e+00
-2.933823108673095703e+00,-4.891086578369140625e+00,-1.108648657798767090e+00
-2.937642574310302734e+00,-4.897453784942626953e+00,-9.045221805572509766e-01
-2.941337108612060547e+00,-4.903613090515136719e+00,-7.020956873893737793e-01
-2.945278406143188477e+00,-4.910184383392333984e+00,-5.009402036666870117e-01
-2.948858499526977539e+00,-4.916152477264404297e+00,-3.004398047924041748e-01
-2.952553272247314453e+00,-4.922312259674072266e+00,-1.001906022429466248e-01
-2.956371784210205078e+00,-4.928678035736083984e+00,1.003201752901077271e-01
-2.959844589233398438e+00,-4.934467792510986328e+00,3.015590906143188477e-01
-2.963618993759155273e+00,-4.940760135650634766e+00,5.040596127510070801e-01
-2.967329978942871094e+00,-4.946947097778320312e+00,7.083001732826232910e-01
-2.970845937728881836e+00,-4.952808380126953125e+00,9.147457480430603027e-01
-2.975107192993164062e+00,-4.959912300109863281e+00,1.124249219894409180e+00
-2.979133367538452148e+00,-4.966625213623046875e+00,1.337093591690063477e+00
-2.017049551010131836e+00,-3.474479675292968750e+00,-1.076490640640258789e+00
-2.408491849899291992e+00,-4.148760795593261719e+00,-1.107517242431640625e+00
-2.909825086593627930e+00,-5.012335300445556641e+00,-1.126575708389282227e+00
-2.913611412048339844e+00,-5.018857002258300781e+00,-9.191479086875915527e-01
-2.917274951934814453e+00,-5.025167942047119141e+00,-7.134480476379394531e-01
-2.921183824539184570e+00,-5.031900882720947266e+00,-5.090399980545043945e-01
-2.924735307693481445e+00,-5.038018703460693359e+00,-3.052977323532104492e-01
-2.928400993347167969e+00,-5.044332981109619141e+00,-1.018106639385223389e-01
-2.932190895080566406e+00,-5.050861358642578125e+00,1.019424274563789368e-01
-2.935638666152954102e+00,-5.056800365447998047e+00,3.064358830451965332e-01
-2.939386129379272461e+00,-5.063255310058593750e+00,5.122119188308715820e-01
-2.943071842193603516e+00,-5.069604396820068359e+00,7.197569608688354492e-01
-2.946565151214599609e+00,-5.075622081756591797e+00,9.295436739921569824e-01
-2.950798511505126953e+00,-5.082913875579833984e+00,1.142439126968383789e+00
-2.954803705215454102e+00,-5.089813232421875000e+00,1.358732581138610840e+00
-1.967220544815063477e+00,-3.503177404403686523e+00,-1.076547622680664062e+00
-2.348984956741333008e+00,-4.183014392852783203e+00,-1.107572436332702637e+00
-2.882442712783813477e+00,-5.132982254028320312e+00,-1.144302248954772949e+00
-2.894767999649047852e+00,-5.154931068420410156e+00,-9.363841414451599121e-01
-2.898411512374877930e+00,-5.161419391632080078e+00,-7.268279194831848145e-01
-2.902297258377075195e+00,-5.168339252471923828e+00,-5.185868144035339355e-01
-2.905828237533569336e+00,-5.174626827239990234e+00,-3.110237121582031250e-01
-2.909472465515136719e+00,-5.181116580963134766e+00,-1.037202402949333191e-01
-2.913239002227783203e+00,-5.187823295593261719e+00,1.038545072078704834e-01
-2.916665077209472656e+00,-5.193924903869628906e+00,3.121836185455322266e-01
-2.920388698577880859e+00,-5.200555801391601562e+00,5.218194127082824707e-01
-2.924050092697143555e+00,-5.207076072692871094e+00,7.332572340965270996e-01
-2.927520513534545898e+00,-5.213255882263183594e+00,9.469787478446960449e-01
-2.931724786758422852e+00,-5.220742702484130859e+00,1.163866758346557617e+00
-2.935706853866577148e+00,-5.227833747863769531e+00,1.384218215942382812e+00
-1.917325854301452637e+00,-3.531791925430297852e+00,-1.076797246932983398e+00
-2.270248174667358398e+00,-4.181889057159423828e+00,-1.098557949066162109e+00
-2.809290885925292969e+00,-5.174827575683593750e+00,-1.144549369812011719e+00
-2.869051456451416016e+00,-5.284909248352050781e+00,-9.524373412132263184e-01
-2.872669219970703125e+00,-5.291573047637939453e+00,-7.392901778221130371e-01
-2.876526355743408203e+00,-5.298677921295166016e+00,-5.274796485900878906e-01
-2.880029439926147461e+00,-5.305130958557128906e+00,-3.163575828075408936e-01
-2.883642673492431641e+00,-5.311786651611328125e+00,-1.054990366101264954e-01
-2.887375831604003906e+00,-5.318663120269775391e+00,1.056356057524681091e-01
-2.890769481658935547e+00,-5.324914455413818359e+00,3.175373077392578125e-01
-2.894456148147583008e+00,-5.331705570220947266e+00,5.307675004005432129e-01
-2.898079395294189453e+00,-5.338379859924316406e+00,7.458295822143554688e-01
-2.902435541152954102e+00,-5.346403598785400391e+00,9.635197520256042480e-01
-2.905670166015625000e+00,-5.352362155914306641e+00,1.183815717697143555e+00
-2.909609317779541016e+00,-5.359618186950683594e+00,1.407940506935119629e+00
-1.867339015007019043e+00,-3.560313224792480469e+00,-1.077233552932739258e+00
-2.211066722869873047e+00,-4.215672969818115234e+00,-1.099006414413452148e+00
-2.736025571823120117e+00,-5.216572284698486328e+00,-1.145003199577331543e+00
-2.842325925827026367e+00,-5.419247150421142578e+00,-9.692162871360778809e-01
-2.845921277999877930e+00,-5.426101684570312500e+00,-7.523171305656433105e-01
-2.849749565124511719e+00,-5.433400630950927734e+00,-5.367755889892578125e-01
-2.853224992752075195e+00,-5.440026760101318359e+00,-3.219334185123443604e-01
-2.856806516647338867e+00,-5.446856021881103516e+00,-1.073585376143455505e-01
-2.860503196716308594e+00,-5.453903675079345703e+00,1.074974611401557922e-01
-2.863860845565795898e+00,-5.460305690765380859e+00,3.231334984302520752e-01
-2.867505550384521484e+00,-5.467254638671875000e+00,5.401200652122497559e-01
-2.871084928512573242e+00,-5.474079132080078125e+00,7.589690685272216797e-01
-2.875386238098144531e+00,-5.482280254364013672e+00,9.804896116256713867e-01
-2.878578662872314453e+00,-5.488367080688476562e+00,1.204660415649414062e+00
-1.817396283149719238e+00,-3.589051008224487305e+00,-1.077947497367858887e+00
-2.151944637298583984e+00,-4.249727725982666016e+00,-1.099741816520690918e+00
-2.662863492965698242e+00,-5.258706569671630859e+00,-1.145768165588378906e+00
-2.820924043655395508e+00,-5.570848941802978516e+00,-9.890072345733642578e-01
-2.824508905410766602e+00,-5.577929019927978516e+00,-7.676836252212524414e-01
-2.828320026397705078e+00,-5.585454940795898438e+00,-5.477418303489685059e-01
-2.831776142120361328e+00,-5.592280387878417969e+00,-3.285112679004669189e-01
-2.835332870483398438e+00,-5.599304199218750000e+00,-1.095521971583366394e-01
-2.838998317718505859e+00,-5.606543064117431641e+00,1.096938252449035645e-01
-2.842323303222656250e+00,-5.613109111785888672e+00,3.297348022460937500e-01
-2.845927715301513672e+00,-5.620227336883544922e+00,5.511517524719238281e-01
-2.849462270736694336e+00,-5.627207756042480469e+00,7.744657993316650391e-01
-2.853708028793334961e+00,-5.635591983795166016e+00,1.000501155853271484e+00
-2.856854438781738281e+00,-5.641805648803710938e+00,1.229237914085388184e+00
-1.767207860946655273e+00,-3.617486715316772461e+00,-1.078780293464660645e+00
-2.092534780502319336e+00,-4.283432960510253906e+00,-1.100600481033325195e+00
-2.589360713958740234e+00,-5.300438880920410156e+00,-1.146668195724487305e+00
-2.792036533355712891e+00,-5.715317726135253906e+00,-1.007457017898559570e+00
-2.795603513717651367e+00,-5.722620010375976562e+00,-7.820100188255310059e-01
-2.799388170242309570e+00,-5.730366706848144531e+00,-5.579661726951599121e-01
-2.802816867828369141e+00,-5.737385272979736328e+00,-3.346442878246307373e-01
-2.806339025497436523e+00,-5.744595050811767578e+00,-1.115975230932235718e-01
-2.809962987899780273e+00,-5.752013206481933594e+00,1.117416322231292725e-01
-2.813244819641113281e+00,-5.758731365203857422e+00,3.358893692493438721e-01
-2.816796541213989258e+00,-5.766002178192138672e+00,5.614359974861145020e-01
-2.820274829864501953e+00,-5.773121833801269531e+00,7.889112234115600586e-01
-2.824449777603149414e+00,-5.781668186187744141e+00,1.019152879714965820e+00
-2.827537536621093750e+00,-5.787988662719726562e+00,1.252141952514648438e+00
-1.705209374427795410e+00,-3.621079444885253906e+00,-1.072463274002075195e+00
-2.033222198486328125e+00,-4.317627429962158203e+00,-1.101796030998229980e+00
-2.489921331405639648e+00,-5.287446022033691406e+00,-1.136030912399291992e+00
-2.768533229827880859e+00,-5.879089832305908203e+00,-1.029235005378723145e+00
-2.772095441818237305e+00,-5.886654376983642578e+00,-7.989217042922973633e-01
-2.775865077972412109e+00,-5.894659042358398438e+00,-5.700361728668212891e-01
-2.779275178909301758e+00,-5.901900291442871094e+00,-3.418846428394317627e-01
-2.782769441604614258e+00,-5.909320831298828125e+00,-1.140121147036552429e-01
-2.786357402801513672e+00,-5.916940212249755859e+00,1.141591146588325500e-01
-2.789598464965820312e+00,-5.923822402954101562e+00,3.431545495986938477e-01
-2.793099403381347656e+00,-5.931256771087646484e+00,5.735753178596496582e-01
-2.797252893447875977e+00,-5.940077304840087891e+00,8.061721324920654297e-01
-2.800621747970581055e+00,-5.947231292724609375e+00,1.041164278984069824e+00
-2.804688215255737305e+00,-5.955866336822509766e+00,1.279643893241882324e+00
-1.655341267585754395e+00,-3.649813175201416016e+00,-1.073845982551574707e+00
-1.973793148994445801e+00,-4.351958274841308594e+00,-1.103234291076660156e+00
-2.417168855667114258e+00,-5.329544067382812500e+00,-1.137525796890258789e+00
-2.743891239166259766e+00,-6.049924850463867188e+00,-1.052159070968627930e+00
-2.747848033905029297e+00,-6.058649063110351562e+00,-8.168427944183349609e-01
-2.751207113265991211e+00,-6.066055297851562500e+00,-5.827430486679077148e-01
-2.754598379135131836e+00,-6.073532581329345703e+00,-3.495071530342102051e-01
-2.758064031600952148e+00,-6.081173896789550781e+00,-1.165541782975196838e-01
-2.761612415313720703e+00,-6.088997840881347656e+00,1.167041286826133728e-01
-2.765218496322631836e+00,-6.096948623657226562e+00,3.508546352386474609e-01
-2.768253564834594727e+00,-6.103640079498291016e+00,5.863536596298217773e-01
-2.772334337234497070e+00,-6.112637996673583984e+00,8.241217732429504395e-01
-2.775631666183471680e+00,-6.119907855987548828e+00,1.064330101013183594e+00
-2.779612302780151367e+00,-6.128684997558593750e+00,1.308092594146728516e+00
-1.605060815811157227e+00,-3.678000450134277344e+00,-1.075269699096679688e+00
-1.913872361183166504e+00,-4.385642528533935547e+00,-1.104715704917907715e+00
-2.343814373016357422e+00,-5.370855808258056641e+00,-1.139066219329833984e+00
-2.711605310440063477e+00,-6.213649749755859375e+00,-1.073773026466369629e+00
-2.714997291564941406e+00,-6.221422195434570312e+00,-8.334636092185974121e-01
-2.718337297439575195e+00,-6.229075908660888672e+00,-5.946050882339477539e-01
-2.721699476242065430e+00,-6.236780166625976562e+00,-3.566230535507202148e-01
-2.725125551223754883e+00,-6.244630813598632812e+00,-1.189272701740264893e-01
-2.728624343872070312e+00,-6.252648353576660156e+00,1.190799623727798462e-01
-2.732169866561889648e+00,-6.260773181915283203e+00,3.579949736595153809e-01
-2.735704898834228516e+00,-6.268874168395996094e+00,5.984040498733520508e-01
-2.739139080047607422e+00,-6.276743412017822266e+00,8.408747911453247070e-01
-2.742357730865478516e+00,-6.284119129180908203e+00,1.085950732231140137e+00
-2.746237039566040039e+00,-6.293007850646972656e+00,1.334638833999633789e+00
-1.554883360862731934e+00,-3.706856727600097656e+00,-1.077089071273803711e+00
-1.854081749916076660e+00,-4.420148372650146484e+00,-1.106609344482421875e+00
-2.270627260208129883e+00,-5.413197040557861328e+00,-1.141036272048950195e+00
-2.684176445007324219e+00,-6.399102210998535156e+00,-1.099068999290466309e+00
-2.687571525573730469e+00,-6.407196044921875000e+00,-8.531102538108825684e-01
-2.690903902053833008e+00,-6.415140151977539062e+00,-6.086271405220031738e-01
-2.694246292114257812e+00,-6.423109054565429688e+00,-3.650349378585815430e-01
-2.697640419006347656e+00,-6.431200981140136719e+00,-1.217326074838638306e-01
-2.701093912124633789e+00,-6.439433574676513672e+00,1.218884438276290894e-01
-2.704582214355468750e+00,-6.447749614715576172e+00,3.664352893829345703e-01
-2.708048105239868164e+00,-6.456012725830078125e+00,6.125048995018005371e-01
-2.711403131484985352e+00,-6.464011192321777344e+00,8.606750965118408203e-01
-2.714539289474487305e+00,-6.471487522125244141e+00,1.111501455307006836e+00
-2.718311786651611328e+00,-6.480481147766113281e+00,1.366006970405578613e+00
-1.504195094108581543e+00,-3.734996557235717773e+00,-1.078899025917053223e+00
-1.778800725936889648e+00,-4.416856765747070312e+00,-1.099298357963562012e+00
-2.196689605712890625e+00,-5.454497337341308594e+00,-1.142997264862060547e+00
-2.648064136505126953e+00,-6.575284481048583984e+00,-1.122703909873962402e+00
-2.651449918746948242e+00,-6.583691120147705078e+00,-8.714678883552551270e-01
-2.654763221740722656e+00,-6.591918468475341797e+00,-6.217299699783325195e-01
-2.658074617385864258e+00,-6.600141048431396484e+00,-3.728955090045928955e-01
-2.661425113677978516e+00,-6.608460426330566406e+00,-1.243540570139884949e-01
-2.664822340011596680e+00,-6.616895675659179688e+00,1.245127841830253601e-01
-2.668242454528808594e+00,-6.625388622283935547e+00,3.743219375610351562e-01
-2.671629428863525391e+00,-6.633798122406005859e+00,6.256799101829528809e-01
-2.674895763397216797e+00,-6.641909122467041016e+00,8.791740536689758301e-01
-2.678786516189575195e+00,-6.651569843292236328e+00,1.135729312896728516e+00
-2.681596040725708008e+00,-6.658545970916748047e+00,1.395307183265686035e+00
-1.443623661994934082e+00,-3.738114356994628906e+00,-1.073720812797546387e+00
-1.719030618667602539e+00,-4.451251983642578125e+00,-1.101622223854064941e+00
-2.122922897338867188e+00,-5.497089385986328125e+00,-1.145437598228454590e+00
-2.617298841476440430e+00,-6.777225017547607422e+00,-1.150670051574707031e+00
-2.620689630508422852e+00,-6.786005496978759766e+00,-8.931910395622253418e-01
-2.623995065689086914e+00,-6.794563770294189453e+00,-6.372352242469787598e-01
-2.627285003662109375e+00,-6.803082942962646484e+00,-3.821975588798522949e-01
-2.630599021911621094e+00,-6.811664581298828125e+00,-1.274562478065490723e-01
-2.633945226669311523e+00,-6.820329189300537109e+00,1.276183724403381348e-01
-2.637299299240112305e+00,-6.829014301300048828e+00,3.836543858051300049e-01
-2.640607118606567383e+00,-6.837579727172851562e+00,6.412694454193115234e-01
-2.643782615661621094e+00,-6.845802307128906250e+00,9.010615944862365723e-01
-2.647563934326171875e+00,-6.855593204498291016e+00,1.163975715637207031e+00
-1.393160700798034668e+00,-3.767003774642944336e+00,-1.076180934906005859e+00
-1.658992171287536621e+00,-4.485792636871337891e+00,-1.104180574417114258e+00
-2.027826786041259766e+00,-5.483094692230224609e+00,-1.136357069015502930e+00
-2.584685325622558594e+00,-6.988798618316650391e+00,-1.180189847946166992e+00
-2.588081836700439453e+00,-6.997982978820800781e+00,-9.161223173141479492e-01
-2.591379165649414062e+00,-7.006898403167724609e+00,-6.536036133766174316e-01
-2.594646215438842773e+00,-7.015732288360595703e+00,-3.920176327228546143e-01
-2.597921609878540039e+00,-7.024588584899902344e+00,-1.307311803102493286e-01
-2.601213216781616211e+00,-7.033489227294921875e+00,1.308968216180801392e-01
-2.604497432708740234e+00,-7.042369842529296875e+00,3.935060501098632812e-01
-2.607720613479614258e+00,-7.051084995269775391e+00,6.577252745628356934e-01
-2.611480236053466797e+00,-7.061250209808349609e+00,9.244047999382019043e-01
-2.614464044570922852e+00,-7.069318771362304688e+00,1.193787097930908203e+00
-1.342059254646301270e+00,-3.794911623001098633e+00,-1.078555464744567871e+00
-1.598188161849975586e+00,-4.519161701202392578e+00,-1.106650233268737793e+00
-1.953547835350036621e+00,-5.524004459381103516e+00,-1.138923883438110352e+00
-2.542564868927001953e+00,-7.189555168151855469e+00,-1.207821965217590332e+00
-2.545951128005981445e+00,-7.199130535125732422e+00,-9.375883340835571289e-01
-2.549225807189941406e+00,-7.208390712738037109e+00,-6.689266562461853027e-01
-2.552456617355346680e+00,-7.217525959014892578e+00,-4.012106955051422119e-01
-2.555680990219116211e+00,-7.226643562316894531e+00,-1.337970346212387085e-01
-2.558906555175781250e+00,-7.235764026641845703e+00,1.339658945798873901e-01
-2.562110424041748047e+00,-7.244823932647705078e+00,4.027281701564788818e-01
-2.565240859985351562e+00,-7.253675937652587891e+00,6.731290221214294434e-01
-2.568886518478393555e+00,-7.263984680175781250e+00,9.460346698760986328e-01
-2.571754455566406250e+00,-7.272094249725341797e+00,1.221688270568847656e+00
-1.282239675521850586e+00,-3.797827243804931641e+00,-1.074057936668395996e+00
-1.524853229522705078e+00,-4.516417026519775391e+00,-1.100520610809326172e+00
-1.879413962364196777e+00,-5.566579818725585938e+00,-1.142038464546203613e+00
-2.414542198181152344e+00,-7.151560306549072266e+00,-1.195510387420654297e+00
-2.508962869644165039e+00,-7.431221485137939453e+00,-9.630393385887145996e-01
-2.512226819992065430e+00,-7.440888881683349609e+00,-6.870948076248168945e-01
-2.515430688858032227e+00,-7.450378417968750000e+00,-4.121109545230865479e-01
-2.518610715866088867e+00,-7.459797859191894531e+00,-1.374322324991226196e-01
-2.521775007247924805e+00,-7.469170093536376953e+00,1.376048922538757324e-01
-2.524900913238525391e+00,-7.478428363800048828e+00,4.136624932289123535e-01
-2.528449535369873047e+00,-7.488938808441162109e+00,6.915317773818969727e-01
-2.531466960906982422e+00,-7.497876167297363281e+00,9.716773629188537598e-01
-2.535006284713745117e+00,-7.508358955383300781e+00,1.255155682563781738e+00
-1.231272578239440918e+00,-3.826725482940673828e+00,-1.077136039733886719e+00
-1.464300036430358887e+00,-4.550961494445800781e+00,-1.103717923164367676e+00
-1.804837346076965332e+00,-5.609332561492919922e+00,-1.145392417907714844e+00
-2.318767547607421875e+00,-7.206598758697509766e+00,-1.199040055274963379e+00
-2.469520092010498047e+00,-7.675128936767578125e+00,-9.899660348892211914e-01
-2.472771406173706055e+00,-7.685233592987060547e+00,-7.063170671463012695e-01
-2.475945949554443359e+00,-7.695100307464599609e+00,-4.236438274383544922e-01
-2.479079008102416992e+00,-7.704837322235107422e+00,-1.412784010171890259e-01
-2.482177972793579102e+00,-7.714468955993652344e+00,1.414550095796585083e-01
-2.485221385955810547e+00,-7.723927497863769531e+00,4.252308607101440430e-01
-2.488660812377929688e+00,-7.734616756439208984e+00,7.108556628227233887e-01
-2.491567611694335938e+00,-7.743650913238525391e+00,9.988042116165161133e-01
-2.494962930679321289e+00,-7.754203319549560547e+00,1.290151000022888184e+00
-1.171984195709228516e+00,-3.829597234725952148e+00,-1.073112607002258301e+00
-1.403355240821838379e+00,-4.585629463195800781e+00,-1.107140779495239258e+00
-1.712233901023864746e+00,-5.594926834106445312e+00,-1.137329936027526855e+00
-2.222381830215454102e+00,-7.261895179748535156e+00,-1.202824592590332031e+00
-2.427719116210937500e+00,-7.932859897613525391e+00,-1.018622636795043945e+00
-2.430613994598388672e+00,-7.942318916320800781e+00,-7.266727685928344727e-01
-2.433755397796630859e+00,-7.952583789825439453e+00,-4.358567893505096436e-01
-2.436838388442993164e+00,-7.962657928466796875e+00,-1.453514397144317627e-01
-2.439868450164794922e+00,-7.972558975219726562e+00,1.455321609973907471e-01
-2.443179607391357422e+00,-7.983378410339355469e+00,4.375445544719696045e-01
-2.446149587631225586e+00,-7.993083477020263672e+00,7.313174009323120117e-01
-2.449570894241333008e+00,-8.004262924194335938e+00,1.027791142463684082e+00
-2.452187061309814453e+00,-8.012810707092285156e+00,1.327202558517456055e+00
-1.120681405067443848e+00,-3.858464002609252930e+00,-1.076596379280090332e+00
-1.331042885780334473e+00,-4.582730293273925781e+00,-1.101728200912475586e+00
-1.637414216995239258e+00,-5.637555599212646484e+00,-1.141114234924316406e+00
-2.125322103500366211e+00,-7.317404270172119141e+00,-1.206856489181518555e+00
-2.382596492767333984e+00,-8.203189849853515625e+00,-1.048848032951354980e+00
-2.385481834411621094e+00,-8.213124275207519531e+00,-7.482491731643676758e-01
-2.388587713241577148e+00,-8.223817825317382812e+00,-4.488025009632110596e-01
-2.391616106033325195e+00,-8.234243392944335938e+00,-1.496687829494476318e-01
-2.394573450088500977e+00,-8.244425773620605469e+00,1.498538702726364136e-01
-2.397784948348999023e+00,-8.255483627319335938e+00,4.505306482315063477e-01
-2.400648832321166992e+00,-8.265342712402343750e+00,7.530065178871154785e-01
-2.403929710388183594e+00,-8.276638984680175781e+00,1.058239221572875977e+00
-1.061811089515686035e+00,-3.861259460449218750e+00,-1.073025941848754883e+00
-1.269721031188964844e+00,-4.617320537567138672e+00,-1.105561494827270508e+00
-1.562036991119384766e+00,-5.680322647094726562e+00,-1.145128130912780762e+00
-2.000976800918579102e+00,-7.276521205902099609e+00,-1.195267438888549805e+00
-2.334203243255615234e+00,-8.488293647766113281e+00,-1.080918431282043457e+00
-2.337269544601440430e+00,-8.499444007873535156e+00,-7.712072134017944336e-01
-2.340141534805297852e+00,-8.509887695312500000e+00,-4.625390172004699707e-01
-2.343111276626586914e+00,-8.520688056945800781e+00,-1.542499065399169922e-01
-2.346197605133056641e+00,-8.531910896301269531e+00,1.544530689716339111e-01
-2.349098682403564453e+00,-8.542460441589355469e+00,4.643094241619110107e-01
-2.352324247360229492e+00,-8.554189682006835938e+00,7.761746644973754883e-01
-2.354986906051635742e+00,-8.563873291015625000e+00,1.090542912483215332e+00
-1.010074377059936523e+00,-3.890057325363159180e+00,-1.076900601387023926e+00
-1.198149800300598145e+00,-4.614384651184082031e+00,-1.100639462471008301e+00
-1.471147537231445312e+00,-5.665769577026367188e+00,-1.137832522392272949e+00
-1.903705239295959473e+00,-7.331660747528076172e+00,-1.199725985527038574e+00
-2.282207250595092773e+00,-8.789369583129882812e+00,-1.114984154701232910e+00
-2.285249471664428711e+00,-8.801086425781250000e+00,-7.955276370048522949e-01
-2.288082599639892578e+00,-8.811997413635253906e+00,-4.771306514739990234e-01
-2.290989398956298828e+00,-8.823192596435546875e+00,-1.591162085533142090e-01
-2.293988704681396484e+00,-8.834742546081542969e+00,1.593245118856430054e-01
-2.296786069869995117e+00,-8.845517158508300781e+00,4.789455831050872803e-01
-2.299883842468261719e+00,-8.857446670532226562e+00,8.006219863891601562e-01
-2.302995443344116211e+00,-8.869430541992187500e+00,1.125140309333801270e+00
-9.515147209167480469e-01,-3.892735004425048828e+00,-1.073761582374572754e+00
-1.136333703994750977e+00,-4.648846626281738281e+00,-1.104866743087768555e+00
-1.395305752754211426e+00,-5.708325386047363281e+00,-1.142251014709472656e+00
-1.805618047714233398e+00,-7.386950492858886719e+00,-1.204420924186706543e+00
-2.226238489151000977e+00,-9.107748031616210938e+00,-1.151212215423583984e+00
-2.229251623153686523e+00,-9.120075225830078125e+00,-8.213926553726196289e-01
-2.232041120529174805e+00,-9.131486892700195312e+00,-4.926493167877197266e-01
-2.234879970550537109e+00,-9.143101692199707031e+00,-1.642916947603225708e-01
-2.237786531448364258e+00,-9.154992103576660156e+00,1.645053476095199585e-01
-2.240476369857788086e+00,-9.165996551513671875e+00,4.945110976696014404e-01
-2.243441104888916016e+00,-9.178125381469726562e+00,8.266208767890930176e-01
-2.246393442153930664e+00,-9.190203666687011719e+00,1.161634445190429688e+00
-8.992506861686706543e-01,-3.921418428421020508e+00,-1.078012704849243164e+00
-1.065368056297302246e+00,-4.645816802978515625e+00,-1.100409746170043945e+00
-1.305698871612548828e+00,-5.693841934204101562e+00,-1.135496854782104492e+00
-1.706665992736816406e+00,-7.442364692687988281e+00,-1.209349155426025391e+00
-2.166184902191162109e+00,-9.446217536926269531e+00,-1.189953446388244629e+00
-2.168864011764526367e+00,-9.457901000976562500e+00,-8.489357233047485352e-01
-2.171604156494140625e+00,-9.469848632812500000e+00,-5.091750025749206543e-01
-2.174369096755981445e+00,-9.481905937194824219e+00,-1.698030233383178711e-01
-2.177177906036376953e+00,-9.494154930114746094e+00,1.700223684310913086e-01
-2.180068969726562500e+00,-9.506762504577636719e+00,5.111597776412963867e-01
-2.182582616806030273e+00,-9.517724037170410156e+00,8.543053865432739258e-01
-2.185924291610717773e+00,-9.532296180725097656e+00,1.200796961784362793e+00
-8.412942290306091309e-01,-3.925762653350830078e+00,-1.075786471366882324e+00
-1.003423571586608887e+00,-4.682312965393066406e+00,-1.105539083480834961e+00
-1.229843616485595703e+00,-5.738865375518798828e+00,-1.140848278999328613e+00
-1.586796998977661133e+00,-7.404529571533203125e+00,-1.199387669563293457e+00
-2.109066009521484375e+00,-9.841613769531250000e+00,-1.235832571983337402e+00
-2.111729383468627930e+00,-9.854042053222656250e+00,-8.816897273063659668e-01
-2.114425897598266602e+00,-9.866623878479003906e+00,-5.288273692131042480e-01
-2.117122173309326172e+00,-9.879205703735351562e+00,-1.763571649789810181e-01
-2.119835615158081055e+00,-9.891868591308593750e+00,1.765832006931304932e-01
-2.122609615325927734e+00,-9.904812812805175781e+00,5.308741927146911621e-01
-2.125408887863159180e+00,-9.917875289916992188e+00,8.874011635780334473e-01
-2.128145456314086914e+00,-9.930644035339355469e+00,1.247012376785278320e+00
-7.832126021385192871e-01,-3.928323030471801758e+00,-1.073306083679199219e+00
-9.329205751419067383e-01,-4.679206371307373047e+00,-1.101539850234985352e+00
-1.152652502059936523e+00,-5.781305313110351562e+00,-1.145887851715087891e+00
-1.487253189086914062e+00,-7.459546089172363281e+00,-1.204727649688720703e+00
-2.038479089736938477e+00,-1.022430515289306641e+01,-1.280092954635620117e+00
-2.041102409362792969e+00,-1.023746204376220703e+01,-9.132886528968811035e-01
-2.043735265731811523e+00,-1.025066757202148438e+01,-5.477871894836425781e-01
-2.046344757080078125e+00,-1.026375579833984375e+01,-1.826803088188171387e-01
-2.048948526382446289e+00,-1.027681541442871094e+01,1.829127520322799683e-01
-2.051593542098999023e+00,-1.029008197784423828e+01,5.498934984207153320e-01
-2.054235696792602539e+00,-1.030333518981933594e+01,9.191651940345764160e-01
-7.301550507545471191e-01,-3.956713676452636719e+00,-1.078097105026245117e+00
-8.629189729690551758e-01,-4.676161766052246094e+00,-1.097803115844726562e+00
-1.064123630523681641e+00,-5.766490936279296875e+00,-1.139815926551818848e+00
-1.369020819664001465e+00,-7.418730258941650391e+00,-1.194848775863647461e+00
-1.951851844787597656e+00,-1.057709407806396484e+01,-1.320629358291625977e+00
-1.964497208595275879e+00,-1.064561939239501953e+01,-9.470949769020080566e-01
-1.967057228088378906e+00,-1.065949249267578125e+01,-5.680716633796691895e-01
-1.969572424888610840e+00,-1.067312240600585938e+01,-1.894452869892120361e-01
-1.972060203552246094e+00,-1.068660354614257812e+01,1.896845698356628418e-01
-1.974570274353027344e+00,-1.070020484924316406e+01,5.702413320541381836e-01
-1.977438449859619141e+00,-1.071574783325195312e+01,9.533340930938720703e-01
-6.724761128425598145e-01,-3.961011409759521484e+00,-1.076535224914550781e+00
-8.000542521476745605e-01,-4.712470531463623047e+00,-1.103525757789611816e+00
-9.866601824760437012e-01,-5.811614513397216797e+00,-1.145826339721679688e+00
-1.269416093826293945e+00,-7.477100849151611328e+00,-1.201200366020202637e+00
-1.777266621589660645e+00,-1.046843528747558594e+01,-1.303752779960632324e+00
-1.889410614967346191e+00,-1.112898540496826172e+01,-9.875908493995666504e-01
-1.891797423362731934e+00,-1.114304351806640625e+01,-5.923376083374023438e-01
-1.894231677055358887e+00,-1.115738201141357422e+01,-1.975392848253250122e-01
-1.896708607673645020e+00,-1.117197227478027344e+01,1.977975964546203613e-01
-1.899188756942749023e+00,-1.118657970428466797e+01,5.946519374847412109e-01
-1.901607871055603027e+00,-1.120082950592041016e+01,9.939663410186767578e-01
-6.149722933769226074e-01,-3.965426445007324219e+00,-1.075232625007629395e+00
-7.307223081588745117e-01,-4.711798667907714844e+00,-1.100806355476379395e+00
-8.994739055633544922e-01,-5.799932003021240234e+00,-1.140867710113525391e+00
-1.168672800064086914e+00,-7.535764217376708984e+00,-1.207813620567321777e+00
-1.636257767677307129e+00,-1.055081558227539062e+01,-1.310961484909057617e+00
-1.806585073471069336e+00,-1.164910984039306641e+01,-1.031346678733825684e+00
-1.808896899223327637e+00,-1.166401672363281250e+01,-6.185916066169738770e-01
-1.811228871345520020e+00,-1.167905426025390625e+01,-2.062952667474746704e-01
-1.813582301139831543e+00,-1.169422912597656250e+01,2.065633237361907959e-01
-1.815909862518310547e+00,-1.170923709869384766e+01,6.209898591041564941e-01
-1.818155288696289062e+00,-1.172371673583984375e+01,1.037951827049255371e+00
-5.572945475578308105e-01,-3.967687606811523438e+00,-1.073572874069213867e+00
-6.613643765449523926e-01,-4.708617687225341797e+00,-1.097739219665527344e+00
-8.126026988029479980e-01,-5.785367012023925781e+00,-1.135598540306091309e+00
-1.052694678306579590e+00,-7.494714260101318359e+00,-1.198696494102478027e+00
-1.492708325386047363e+00,-1.062741470336914062e+01,-1.317689299583435059e+00
-1.707340836524963379e+00,-1.215550136566162109e+01,-1.073906064033508301e+00
-1.709551215171813965e+00,-1.217123889923095703e+01,-6.441280245780944824e-01
-1.711759448051452637e+00,-1.218696022033691406e+01,-2.148119807243347168e-01
-1.713971138000488281e+00,-1.220270633697509766e+01,2.150895297527313232e-01
-1.716132998466491699e+00,-1.221809864044189453e+01,6.466079354286193848e-01
-1.718528151512145996e+00,-1.223515033721923828e+01,1.080942869186401367e+00
-5.000538229942321777e-01,-3.972094774246215820e+00,-1.072718858718872070e+00
-5.316300392150878906e-01,-4.222914695739746094e+00,-9.826306104660034180e-01
-5.323219895362854004e-01,-4.228411674499511719e+00,-8.284062743186950684e-01
-5.329768657684326172e-01,-4.233613491058349609e+00,-6.758301854133605957e-01
-5.336939096450805664e-01,-4.239309310913085938e+00,-5.246295332908630371e-01
-5.343211293220520020e-01,-4.244291305541992188e+00,-3.742577731609344482e-01
-5.349882841110229492e-01,-4.249590873718261719e+00,-2.244691848754882812e-01
-5.356454849243164062e-01,-4.254811286926269531e+00,-7.485411316156387329e-02
-5.362941026687622070e-01,-4.259963035583496094e+00,7.494474202394485474e-02
-5.369879007339477539e-01,-4.265474796295166016e+00,2.253081947565078735e-01
-5.375990271568298340e-01,-4.270328998565673828e+00,3.765537440776824951e-01
-5.382843017578125000e-01,-4.275772094726562500e+00,5.291419625282287598e-01
-5.389465689659118652e-01,-4.281032562255859375e+00,6.833999156951904297e-01
-5.397400259971618652e-01,-4.287335395812988281e+00,8.399503231048583984e-01
-5.402851104736328125e-01,-4.291665077209472656e+00,9.986280798912048340e-01
-4.428925514221191406e-01,-3.976496934890747070e+00,-1.072085857391357422e+00
-4.687085151672363281e-01,-4.208284854888916016e+00,-9.775651097297668457e-01
-4.693294167518615723e-01,-4.213859558105468750e+00,-8.241548538208007812e-01
-4.699102044105529785e-01,-4.219074249267578125e+00,-6.723666191101074219e-01
-4.704747796058654785e-01,-4.224143028259277344e+00,-5.218658447265625000e-01
-4.710419476032257080e-01,-4.229235649108886719e+00,-3.722975254058837891e-01
-4.716368615627288818e-01,-4.234577178955078125e+00,-2.232966870069503784e-01
-4.722163081169128418e-01,-4.239779472351074219e+00,-7.446312159299850464e-02
-4.727803170680999756e-01,-4.244843482971191406e+00,7.455205917358398438e-02
-4.733767211437225342e-01,-4.250198364257812500e+00,2.241204231977462769e-01
-4.739829003810882568e-01,-4.255640506744384766e+00,3.746219575405120850e-01
-4.745829105377197266e-01,-4.261028289794921875e+00,5.264227390289306641e-01
-4.751554727554321289e-01,-4.266168594360351562e+00,6.798717975616455078e-01
-4.758358597755432129e-01,-4.272277832031250000e+00,8.355803489685058594e-01
-4.764761626720428467e-01,-4.278026580810546875e+00,9.937657713890075684e-01
-3.857847452163696289e-01,-3.980871915817260742e+00,-1.071666836738586426e+00
-4.064407944679260254e-01,-4.194019317626953125e+00,-9.728003144264221191e-01
-4.068914651870727539e-01,-4.198669910430908203e+00,-8.199608922004699707e-01
-4.074187874794006348e-01,-4.204111576080322266e+00,-6.689842343330383301e-01
-4.079262614250183105e-01,-4.209347724914550781e+00,-5.192634463310241699e-01
-4.084624946117401123e-01,-4.214881420135498047e+00,-3.704813122749328613e-01
-4.089509546756744385e-01,-4.219921588897705078e+00,-2.221924513578414917e-01
-4.094525575637817383e-01,-4.225097656250000000e+00,-7.409474253654479980e-02
-4.099685251712799072e-01,-4.230422019958496094e+00,7.418811321258544922e-02
-4.104399681091308594e-01,-4.235286235809326172e+00,2.230014652013778687e-01
-4.109466671943664551e-01,-4.240515232086181641e+00,3.727344572544097900e-01
-4.114419817924499512e-01,-4.245626449584960938e+00,5.237387418746948242e-01
-4.120265841484069824e-01,-4.251658916473388672e+00,6.765502691268920898e-01
-4.125996530055999756e-01,-4.257572174072265625e+00,8.314639925956726074e-01
-4.131318330764770508e-01,-4.263063430786132812e+00,9.888150691986083984e-01
-3.289081454277038574e-01,-3.987648248672485352e+00,-1.072113871574401855e+00
-3.446123003959655762e-01,-4.178043365478515625e+00,-9.678514003753662109e-01
-3.450064659118652344e-01,-4.182822227478027344e+00,-8.158180713653564453e-01
-3.454593420028686523e-01,-4.188313007354736328e+00,-6.656153202056884766e-01
-3.458893001079559326e-01,-4.193525791168212891e+00,-5.166479945182800293e-01
-3.463097214698791504e-01,-4.198623180389404297e+00,-3.685787618160247803e-01
-3.467299044132232666e-01,-4.203717231750488281e+00,-2.210552990436553955e-01
-3.471551835536956787e-01,-4.208873271942138672e+00,-7.371552288532257080e-02
-3.475865125656127930e-01,-4.214102745056152344e+00,7.380712032318115234e-02
-3.480207920074462891e-01,-4.219367980957031250e+00,2.218782901763916016e-01
-3.484506905078887939e-01,-4.224579811096191406e+00,3.708574175834655762e-01
-3.488648831844329834e-01,-4.229601383209228516e+00,5.210925340652465820e-01
-3.493482172489166260e-01,-4.235461711883544922e+00,6.731082201004028320e-01
-3.498157262802124023e-01,-4.241129398345947266e+00,8.271902799606323242e-01
-3.502427339553833008e-01,-4.246306419372558594e+00,9.836646318435668945e-01
-2.718024253845214844e-01,-3.991934776306152344e+00,-1.072110533714294434e+00
-2.835492491722106934e-01,-4.164459228515625000e+00,-9.636657238006591797e-01
-2.838819622993469238e-01,-4.169345855712890625e+00,-8.123139142990112305e-01
-2.842058539390563965e-01,-4.174102783203125000e+00,-6.626425981521606445e-01
-2.845731377601623535e-01,-4.179496765136718750e+00,-5.143650770187377930e-01
-2.849281430244445801e-01,-4.184710979461669922e+00,-3.669618666172027588e-01
-2.852784991264343262e-01,-4.189856529235839844e+00,-2.200891375541687012e-01
-2.856283485889434814e-01,-4.194994926452636719e+00,-7.339333742856979370e-02
-2.859785854816436768e-01,-4.200138568878173828e+00,7.348332554101943970e-02
-2.863266468048095703e-01,-4.205250263214111328e+00,2.208977788686752319e-01
-2.866667211055755615e-01,-4.210245132446289062e+00,3.692010045051574707e-01
-2.870567739009857178e-01,-4.215973854064941406e+00,5.188542604446411133e-01
-2.874460220336914062e-01,-4.221690654754638672e+00,6.701972484588623047e-01
-2.878174483776092529e-01,-4.227145671844482422e+00,8.235750794410705566e-01
-2.881513237953186035e-01,-4.232049465179443359e+00,9.793062210083007812e-01
-2.148177623748779297e-01,-3.998686790466308594e+00,-1.072988271713256836e+00
-2.228494733572006226e-01,-4.148191928863525391e+00,-9.590650200843811035e-01
-2.231828570365905762e-01,-4.154397487640380859e+00,-8.086962699890136719e-01
-2.234421819448471069e-01,-4.159224510192871094e+00,-6.597054004669189453e-01
-2.237314134836196899e-01,-4.164608478546142578e+00,-5.120862126350402832e-01
-2.239892780780792236e-01,-4.169408321380615234e+00,-3.653014302253723145e-01
-2.242686897516250610e-01,-4.174609661102294922e+00,-2.190971672534942627e-01
-2.245436906814575195e-01,-4.179728507995605469e+00,-7.306253165006637573e-02
-2.248150110244750977e-01,-4.184778690338134766e+00,7.315080612897872925e-02
-2.251101136207580566e-01,-4.190271854400634766e+00,2.199191898107528687e-01
-2.253769040107727051e-01,-4.195238113403320312e+00,3.675644695758819580e-01
-2.256788164377212524e-01,-4.200858116149902344e+00,5.165435075759887695e-01
-2.259118556976318359e-01,-4.205195903778076172e+00,6.669970154762268066e-01
-2.262547910213470459e-01,-4.211579322814941406e+00,8.198273181915283203e-01
-2.265005260705947876e-01,-4.216153621673583984e+00,9.747778177261352539e-01
-1.576221883296966553e-01,-4.002764225006103516e+00,-1.073366999626159668e+00
-1.628361046314239502e-01,-4.135169506072998047e+00,-9.554175734519958496e-01
-1.630471497774124146e-01,-4.140529155731201172e+00,-8.054598569869995117e-01
-1.632770895957946777e-01,-4.146368503570556641e+00,-6.572282314300537109e-01
-1.634668856859207153e-01,-4.151187896728515625e+00,-5.100960731506347656e-01
-1.636736541986465454e-01,-4.156438827514648438e+00,-3.639225661754608154e-01
-1.638677120208740234e-01,-4.161367416381835938e+00,-2.182567119598388672e-01
-1.640686839818954468e-01,-4.166470527648925781e+00,-7.278227061033248901e-02
-1.642770916223526001e-01,-4.171763420104980469e+00,7.287472486495971680e-02
-1.644741594791412354e-01,-4.176767349243164062e+00,2.190644294023513794e-01
-1.646908819675445557e-01,-4.182271003723144531e+00,3.661843538284301758e-01
-1.648704558610916138e-01,-4.186831474304199219e+00,5.144758820533752441e-01
-1.650737673044204712e-01,-4.191994667053222656e+00,6.644603013992309570e-01
-1.653158664703369141e-01,-4.198142528533935547e+00,8.166674375534057617e-01
-1.655466705560684204e-01,-4.204003810882568359e+00,9.713214635848999023e-01
-1.004375368356704712e-01,-4.009361267089843750e+00,-1.074640512466430664e+00
-1.032285094261169434e-01,-4.120774269104003906e+00,-9.516527056694030762e-01
-1.033667474985122681e-01,-4.126292705535888672e+00,-8.023204207420349121e-01
-1.034963205456733704e-01,-4.131464958190917969e+00,-6.545640230178833008e-01
-1.036225035786628723e-01,-4.136501789093017578e+00,-5.080571770668029785e-01
-1.037573963403701782e-01,-4.141886711120605469e+00,-3.624812662601470947e-01
-1.038824394345283508e-01,-4.146878242492675781e+00,-2.173965424299240112e-01
-1.040098145604133606e-01,-4.151963233947753906e+00,-7.249541580677032471e-02
-1.041399091482162476e-01,-4.157155990600585938e+00,7.258608937263488770e-02
-1.042609736323356628e-01,-4.161989212036132812e+00,2.181887179613113403e-01
-1.043924093246459961e-01,-4.167235851287841797e+00,3.646997213363647461e-01
-1.045226678252220154e-01,-4.172435760498046875e+00,5.124706625938415527e-01
-1.046470552682876587e-01,-4.177401065826416016e+00,6.618419289588928223e-01
-1.047938466072082520e-01,-4.183260440826416016e+00,8.133973479270935059e-01
-1.049316003918647766e-01,-4.188759803771972656e+00,9.673532843589782715e-01
-4.310401901602745056e-02,-4.015859603881835938e+00,-1.076106667518615723e+00
-4.407912120223045349e-02,-4.106706619262695312e+00,-9.481611251831054688e-01
-4.414013400673866272e-02,-4.112390995025634766e+00,-7.994126677513122559e-01
-4.419660568237304688e-02,-4.117652416229248047e+00,-6.522086858749389648e-01
-4.425079002976417542e-02,-4.122700691223144531e+00,-5.062323808670043945e-01
-4.430439695715904236e-02,-4.127695083618164062e+00,-3.611467778682708740e-01
-4.435864463448524475e-02,-4.132749080657958984e+00,-2.166003584861755371e-01
-4.441303014755249023e-02,-4.137815952301025391e+00,-7.222989946603775024e-02
-4.446772113442420959e-02,-4.142911434173583984e+00,7.231884449720382690e-02
-4.452345520257949829e-02,-4.148103713989257812e+00,2.174050956964492798e-01
-4.457927122712135315e-02,-4.153304100036621094e+00,3.633874356746673584e-01
-4.463373124599456787e-02,-4.158378124237060547e+00,5.106132626533508301e-01
-4.468484595417976379e-02,-4.163139820098876953e+00,6.594135761260986328e-01
-4.474459215998649597e-02,-4.168706417083740234e+00,8.103599548339843750e-01
-4.479967802762985229e-02,-4.173838615417480469e+00,9.636605978012084961e-01
1.432098541408777237e-02,-4.000875473022460938e+00,-1.072036623954772949e+00
1.464973017573356628e-02,-4.092717647552490234e+00,-9.448828697204589844e-01
1.466680411249399185e-02,-4.097487449645996094e+00,-7.964747548103332520e-01
1.468607969582080841e-02,-4.102872371673583984e+00,-6.498343348503112793e-01
1.470241788774728775e-02,-4.107437133789062500e+00,-5.043323040008544922e-01
1.472085528075695038e-02,-4.112587928771972656e+00,-3.598065674304962158e-01
1.473919022828340530e-02,-4.117710113525390625e+00,-2.158011049032211304e-01
1.475726161152124405e-02,-4.122758865356445312e+00,-7.196337729692459106e-02
1.477511879056692123e-02,-4.127747535705566406e+00,7.205045223236083984e-02
1.479300297796726227e-02,-4.132743835449218750e+00,2.165890038013458252e-01
1.481323596090078354e-02,-4.138396739959716797e+00,3.620645701885223389e-01
1.483081467449665070e-02,-4.143307209014892578e+00,5.087366700172424316e-01
1.485104952007532120e-02,-4.148960590362548828e+00,6.571339964866638184e-01
1.487044431269168854e-02,-4.154378890991210938e+00,8.075333833694458008e-01
1.488796900957822800e-02,-4.159274578094482422e+00,9.602488875389099121e-01
7.170477509498596191e-02,-4.007232189178466797e+00,-1.073904871940612793e+00
7.299333810806274414e-02,-4.079244136810302734e+00,-9.419170022010803223e-01
7.308208942413330078e-02,-4.084204196929931641e+00,-7.940146923065185547e-01
7.316743582487106323e-02,-4.088973522186279297e+00,-6.477324366569519043e-01
7.326242327690124512e-02,-4.094282150268554688e+00,-5.027943253517150879e-01
7.335351407527923584e-02,-4.099372386932373047e+00,-3.587055206298828125e-01
7.344260811805725098e-02,-4.104351520538330078e+00,-2.151340544223785400e-01
7.353269308805465698e-02,-4.109385490417480469e+00,-7.174097001552581787e-02
7.362393289804458618e-02,-4.114484786987304688e+00,7.182998955249786377e-02
7.371383905410766602e-02,-4.119509220123291016e+00,2.159285694360733032e-01
7.380090653896331787e-02,-4.124375343322753906e+00,3.608933091163635254e-01
7.389932125806808472e-02,-4.129875183105468750e+00,5.071653127670288086e-01
7.399641722440719604e-02,-4.135301113128662109e+00,6.550711989402770996e-01
7.408790290355682373e-02,-4.140413761138916016e+00,8.049424886703491211e-01
7.416873425245285034e-02,-4.144931316375732422e+00,9.570844769477844238e-01
1.293861120939254761e-01,-4.016262531280517578e+00,-1.076710939407348633e+00
1.309505701065063477e-01,-4.064824581146240234e+00,-9.389241337776184082e-01
1.311177611351013184e-01,-4.070014476776123047e+00,-7.915399074554443359e-01
1.312760114669799805e-01,-4.074926853179931641e+00,-6.457388401031494141e-01
1.314321756362915039e-01,-4.079774379730224609e+00,-5.011924505233764648e-01
1.316012740135192871e-01,-4.085023403167724609e+00,-3.575780987739562988e-01
1.317640244960784912e-01,-4.090075016021728516e+00,-2.144626230001449585e-01
1.319256275892257690e-01,-4.095091342926025391e+00,-7.151705771684646606e-02
1.320863962173461914e-01,-4.100081920623779297e+00,7.160421460866928101e-02
1.322419494390487671e-01,-4.104910373687744141e+00,2.152405232191085815e-01
