-7.461266517639160156e+00,-1.515405535697937012e+00,-6.661030054092407227e-01
-7.470610618591308594e+00,-1.517303347587585449e+00,-3.995111584663391113e-01
-7.479838371276855469e+00,-1.519177436828613281e+00,-1.332265287637710571e-01
-7.488970756530761719e+00,-1.521032333374023438e+00,1.333891898393630981e-01
-7.498676776885986328e+00,-1.523003697395324707e+00,4.010120630264282227e-01
-7.507620811462402344e+00,-1.524820208549499512e+00,6.702412366867065430e-01
-7.517312049865722656e+00,-1.526788473129272461e+00,9.418535232543945312e-01
-7.526676654815673828e+00,-1.528690457344055176e+00,1.216445922851562500e+00
-3.928085803985595703e+00,-8.565204739570617676e-01,-1.077256917953491211e+00
-4.673190593719482422e+00,-1.018990755081176758e+00,-1.104239940643310547e+00
-5.722649574279785156e+00,-1.247825741767883301e+00,-1.138505935668945312e+00
-7.441046714782714844e+00,-1.622522830963134766e+00,-1.206236362457275391e+00
-7.473354816436767578e+00,-1.629567623138427734e+00,-9.391722679138183594e-01
-7.483112812042236328e+00,-1.631695270538330078e+00,-6.700696945190429688e-01
-7.492195129394531250e+00,-1.633675694465637207e+00,-4.018747508525848389e-01
-7.501451492309570312e+00,-1.635694146156311035e+00,-1.340147703886032104e-01
-7.510906219482421875e+00,-1.637755751609802246e+00,1.341836899518966675e-01
-7.519742965698242188e+00,-1.639682531356811523e+00,4.033524096012115479e-01
-7.529003143310546875e+00,-1.641701698303222656e+00,6.741788983345031738e-01
-7.539320945739746094e+00,-1.643951535224914551e+00,9.474621415138244629e-01
-7.547986507415771484e+00,-1.645841121673583984e+00,1.223572015762329102e+00
-3.914514303207397461e+00,-9.124392271041870117e-01,-1.077006340026855469e+00
-4.642989635467529297e+00,-1.082240462303161621e+00,-1.100651383399963379e+00
-5.700147151947021484e+00,-1.328654766082763672e+00,-1.137696146965026855e+00
-7.374467849731445312e+00,-1.718924164772033691e+00,-1.199309110641479492e+00
-7.494163036346435547e+00,-1.746824145317077637e+00,-9.448325634002685547e-01
-7.503699779510498047e+00,-1.749047040939331055e+00,-6.740857958793640137e-01
-7.512978553771972656e+00,-1.751209855079650879e+00,-4.042926728725433350e-01
-7.522263526916503906e+00,-1.753374218940734863e+00,-1.348211318254470825e-01
-7.531569004058837891e+00,-1.755543231964111328e+00,1.349879205226898193e-01
-7.540684700012207031e+00,-1.757668018341064453e+00,4.057836234569549561e-01
-7.550511837005615234e+00,-1.759958624839782715e+00,6.782911419868469238e-01
-7.560340404510498047e+00,-1.762249588966369629e+00,9.531759619712829590e-01
-7.569826126098632812e+00,-1.764460563659667969e+00,1.231080293655395508e+00
-3.900880336761474609e+00,-9.683269858360290527e-01,-1.076958298683166504e+00
-4.639405250549316406e+00,-1.151653289794921875e+00,-1.103596329689025879e+00
-5.677517890930175781e+00,-1.409346938133239746e+00,-1.137089252471923828e+00
-7.376500606536865234e+00,-1.831090450286865234e+00,-1.203778862953186035e+00
-7.516624927520751953e+00,-1.865873932838439941e+00,-9.509341716766357422e-01
-7.525941371917724609e+00,-1.868186593055725098e+00,-6.784165501594543457e-01
-7.535276412963867188e+00,-1.870503902435302734e+00,-4.068916440010070801e-01
-7.544583797454833984e+00,-1.872814178466796875e+00,-1.356877237558364868e-01
-7.553893089294433594e+00,-1.875125169754028320e+00,1.358551532030105591e-01
-7.563291072845458984e+00,-1.877458095550537109e+00,4.084043800830841064e-01
-7.572615623474121094e+00,-1.879772663116455078e+00,6.826239228248596191e-01
-7.583002090454101562e+00,-1.882350921630859375e+00,9.593315720558166504e-01
-7.591647624969482422e+00,-1.884497046470642090e+00,1.238888859748840332e+00
-3.890377283096313477e+00,-1.025046586990356445e+00,-1.077998757362365723e+00
-4.612584590911865234e+00,-1.215335726737976074e+00,-1.101241469383239746e+00
-5.659540176391601562e+00,-1.491190314292907715e+00,-1.137647032737731934e+00
-7.315117835998535156e+00,-1.927406072616577148e+00,-1.198141098022460938e+00
-7.537958145141601562e+00,-1.986120581626892090e+00,-9.571315050125122070e-01
-7.547549724578857422e+00,-1.988647818565368652e+00,-6.828603148460388184e-01
-7.556646347045898438e+00,-1.991044759750366211e+00,-4.095425307750701904e-01
-7.565982341766357422e+00,-1.993504524230957031e+00,-1.365717649459838867e-01
-7.575588226318359375e+00,-1.996035575866699219e+00,1.367451548576354980e-01
-7.584759235382080078e+00,-1.998451828956604004e+00,4.110661149024963379e-01
-7.594603061676025391e+00,-2.001045703887939453e+00,6.871174573898315430e-01
-7.604386329650878906e+00,-2.003623247146606445e+00,9.655662178993225098e-01
-7.613767147064208984e+00,-2.006094932556152344e+00,1.247056722640991211e+00
-3.860644817352294922e+00,-1.076531767845153809e+00,-1.073919773101806641e+00
-4.613156318664550781e+00,-1.286367893218994141e+00,-1.105660557746887207e+00
-5.641604900360107422e+00,-1.573148369789123535e+00,-1.138451457023620605e+00
-7.323923110961914062e+00,-2.042258977890014648e+00,-1.204247832298278809e+00
-7.561019420623779297e+00,-2.108372688293457031e+00,-9.637928605079650879e-01
-7.570428371429443359e+00,-2.110996246337890625e+00,-6.875935792922973633e-01
-7.579759120941162109e+00,-2.113598108291625977e+00,-4.123924672603607178e-01
-7.589125633239746094e+00,-2.116209983825683594e+00,-1.375221908092498779e-01
-7.598551750183105469e+00,-2.118838548660278320e+00,1.376930028200149536e-01
-7.607967853546142578e+00,-2.121464014053344727e+00,4.139272272586822510e-01
-7.617218494415283203e+00,-2.124043703079223633e+00,6.918433308601379395e-01
-7.627482414245605469e+00,-2.126905679702758789e+00,9.722647666931152344e-01
-7.635874271392822266e+00,-2.129245758056640625e+00,1.255540847778320312e+00
-3.850053071975708008e+00,-1.133208870887756348e+00,-1.075375318527221680e+00
-4.586175441741943359e+00,-1.349876046180725098e+00,-1.103711724281311035e+00
-5.623792648315429688e+00,-1.655284166336059570e+00,-1.139521360397338867e+00
-7.261816501617431641e+00,-2.137413263320922852e+00,-1.198943495750427246e+00
-7.586048126220703125e+00,-2.232846260070800781e+00,-9.709575772285461426e-01
-7.595278739929199219e+00,-2.235563278198242188e+00,-6.926860213279724121e-01
-7.604857444763183594e+00,-2.238382577896118164e+00,-4.154586195945739746e-01
-7.614257812500000000e+00,-2.241149425506591797e+00,-1.385447084903717041e-01
-7.623493671417236328e+00,-2.243867874145507812e+00,1.387127637863159180e-01
-7.633156299591064453e+00,-2.246711969375610352e+00,4.170045852661132812e-01
-7.642920494079589844e+00,-2.249585866928100586e+00,6.970309019088745117e-01
-7.652528285980224609e+00,-2.252413988113403320e+00,9.794666171073913574e-01
-7.661639690399169922e+00,-2.255095481872558594e+00,1.264955163002014160e+00
-3.826183080673217773e+00,-1.185945272445678711e+00,-1.073339462280273438e+00
-4.566563606262207031e+00,-1.415430068969726562e+00,-1.103754639625549316e+00
-5.615479469299316406e+00,-1.740547060966491699e+00,-1.142767906188964844e+00
-7.283913612365722656e+00,-2.257686853408813477e+00,-1.207803368568420410e+00
-7.605919837951660156e+00,-2.357494354248046875e+00,-9.777199029922485352e-01
-7.615518569946289062e+00,-2.360469579696655273e+00,-6.975417137145996094e-01
-7.624892234802246094e+00,-2.363374948501586914e+00,-4.183583259582519531e-01
-7.634319305419921875e+00,-2.366297006607055664e+00,-1.395117342472076416e-01
-7.643816471099853516e+00,-2.369240760803222656e+00,1.396852880716323853e-01
-7.653153896331787109e+00,-2.372134923934936523e+00,4.199089705944061279e-01
-7.662180423736572266e+00,-2.374932765960693359e+00,7.018157243728637695e-01
-7.672114849090576172e+00,-2.378011941909790039e+00,9.862290620803833008e-01
-7.681787490844726562e+00,-2.381010055541992188e+00,1.273777961730957031e+00
-3.818772077560424805e+00,-1.243826389312744141e+00,-1.076144576072692871e+00
-4.543154716491699219e+00,-1.479767799377441406e+00,-1.103103041648864746e+00
-5.602797508239746094e+00,-1.824907898902893066e+00,-1.145385503768920898e+00
-7.227456569671630859e+00,-2.354081630706787109e+00,-1.203905701637268066e+00
-7.631227970123291016e+00,-2.485595464706420898e+00,-9.854456186294555664e-01
-7.640692234039306641e+00,-2.488677978515625000e+00,-7.030382156372070312e-01
-7.650180339813232422e+00,-2.491768360137939453e+00,-4.216594994068145752e-01
-7.659632682800292969e+00,-2.494847297668457031e+00,-1.406124830245971680e-01
-7.669082641601562500e+00,-2.497925281524658203e+00,1.407859623432159424e-01
-7.678624153137207031e+00,-2.501033067703247070e+00,4.232272803783416748e-01
-7.688100814819335938e+00,-2.504119873046875000e+00,7.074004411697387695e-01
-7.697258472442626953e+00,-2.507102489471435547e+00,9.939723610877990723e-01
-7.707575321197509766e+00,-2.510462760925292969e+00,1.283880949020385742e+00
-3.794676780700683594e+00,-1.296336770057678223e+00,-1.074473261833190918e+00
-4.523420333862304688e+00,-1.545289993286132812e+00,-1.103568792343139648e+00
-5.551105499267578125e+00,-1.896367669105529785e+00,-1.140250205993652344e+00
-7.176802635192871094e+00,-2.451738119125366211e+00,-1.201190590858459473e+00
-7.654588222503662109e+00,-2.614959001541137695e+00,-9.931937456130981445e-01
-7.664454936981201172e+00,-2.618329763412475586e+00,-7.086005210876464844e-01
-7.673737525939941406e+00,-2.621500730514526367e+00,-4.249825477600097656e-01
-7.683221817016601562e+00,-2.624740839004516602e+00,-1.417206823825836182e-01
-7.692940711975097656e+00,-2.628061056137084961e+00,1.418999582529067993e-01
-7.702133178710937500e+00,-2.631201505661010742e+00,4.265551567077636719e-01
-7.712014675140380859e+00,-2.634577035903930664e+00,7.129975557327270508e-01
-7.721807003021240234e+00,-2.637922286987304688e+00,1.001915574073791504e+00
-7.731164455413818359e+00,-2.641119003295898438e+00,1.293974757194519043e+00
-3.770482778549194336e+00,-1.348634719848632812e+00,-1.072978615760803223e+00
-4.503700256347656250e+00,-1.610893607139587402e+00,-1.104269862174987793e+00
-5.543162345886230469e+00,-1.982690811157226562e+00,-1.144330739974975586e+00
-7.125976562500000000e+00,-2.548835277557373047e+00,-1.198667049407958984e+00
-7.679899215698242188e+00,-2.746963739395141602e+00,-1.001477003097534180e+00
-7.689676761627197266e+00,-2.750460863113403320e+00,-7.144988775253295898e-01
-7.699268341064453125e+00,-2.753891706466674805e+00,-4.285355806350708008e-01
-7.708785533905029297e+00,-2.757295846939086914e+00,-1.429055631160736084e-01
-7.718254089355468750e+00,-2.760682582855224609e+00,1.430810838937759399e-01
-7.727605819702148438e+00,-2.764027357101440430e+00,4.301128387451171875e-01
-7.737894535064697266e+00,-2.767707586288452148e+00,7.189791202545166016e-01
-7.746780395507812500e+00,-2.770885944366455078e+00,1.010198473930358887e+00
-7.756678581237792969e+00,-2.774426221847534180e+00,1.304758071899414062e+00
-3.769401550292968750e+00,-1.409416913986206055e+00,-1.078301429748535156e+00
-4.458655834197998047e+00,-1.667136073112487793e+00,-1.098963737487792969e+00
-5.495597362518310547e+00,-2.054858922958374023e+00,-1.140466332435607910e+00
-7.080868244171142578e+00,-2.647607564926147461e+00,-1.197331309318542480e+00
-7.703556537628173828e+00,-2.880436897277832031e+00,-1.009834885597229004e+00
-7.712929725646972656e+00,-2.883941650390625000e+00,-7.204211950302124023e-01
-7.722331523895263672e+00,-2.887457132339477539e+00,-4.320754110813140869e-01
-7.731882095336914062e+00,-2.891028165817260742e+00,-1.440860778093338013e-01
-7.741601943969726562e+00,-2.894662618637084961e+00,1.442672163248062134e-01
-7.751422405242919922e+00,-2.898334503173828125e+00,4.337030649185180664e-01
-7.761183261871337891e+00,-2.901984214782714844e+00,7.249283194541931152e-01
-7.770623683929443359e+00,-2.905514001846313477e+00,1.018626451492309570e+00
-7.781313896179199219e+00,-2.909511327743530273e+00,1.315772414207458496e+00
-3.748152494430541992e+00,-1.462950468063354492e+00,-1.078102588653564453e+00
-4.442387580871582031e+00,-1.733919024467468262e+00,-1.100958466529846191e+00
-5.447876453399658203e+00,-2.126373767852783203e+00,-1.136762857437133789e+00
-7.035628318786621094e+00,-2.746093034744262695e+00,-1.196205377578735352e+00
-7.728210449218750000e+00,-3.016416549682617188e+00,-1.018622040748596191e+00
-7.737528324127197266e+00,-3.020053148269653320e+00,-7.266820073127746582e-01
-7.747272491455078125e+00,-3.023856639862060547e+00,-4.358479082584381104e-01
-7.756855964660644531e+00,-3.027597188949584961e+00,-1.453441530466079712e-01
-7.766290187835693359e+00,-3.031279563903808594e+00,1.455209404230117798e-01
-7.776231765747070312e+00,-3.035159826278686523e+00,4.374771118164062500e-01
-7.786337852478027344e+00,-3.039104223251342773e+00,7.312660813331604004e-01
-7.796337604522705078e+00,-3.043007373809814453e+00,1.027601599693298340e+00
-7.805886268615722656e+00,-3.046734333038330078e+00,1.327165603637695312e+00
-3.726873159408569336e+00,-1.516461372375488281e+00,-1.078114748001098633e+00
-4.426241397857666016e+00,-1.801033616065979004e+00,-1.103232622146606445e+00
-5.444621086120605469e+00,-2.215411424636840820e+00,-1.142583370208740234e+00
-7.065873622894287109e+00,-2.875097513198852539e+00,-1.208220839500427246e+00
-7.754930973052978516e+00,-3.155474424362182617e+00,-1.027991771697998047e+00
-7.764738559722900391e+00,-3.159465312957763672e+00,-7.334095835685729980e-01
-7.774302482604980469e+00,-3.163356781005859375e+00,-4.398708045482635498e-01
-7.783921718597412109e+00,-3.167270898818969727e+00,-1.466857343912124634e-01
-7.793610095977783203e+00,-3.171212911605834961e+00,1.468683034181594849e-01
-7.803121089935302734e+00,-3.175082921981811523e+00,4.415013790130615234e-01
-7.812302112579345703e+00,-3.178818702697753906e+00,7.379021048545837402e-01
-7.822510719299316406e+00,-3.182972669601440430e+00,1.036950230598449707e+00
-7.832487106323242188e+00,-3.187031984329223633e+00,1.339307069778442383e+00
-3.687897920608520508e+00,-1.562489032745361328e+00,-1.073199629783630371e+00
-4.384228706359863281e+00,-1.857510566711425781e+00,-1.099275350570678711e+00
-5.401022911071777344e+00,-2.288305997848510742e+00,-1.140190720558166504e+00
-7.026584625244140625e+00,-2.977024316787719727e+00,-1.208665132522583008e+00
-7.778360843658447266e+00,-3.295536994934082031e+00,-1.037244319915771484e+00
-7.788162708282470703e+00,-3.299689769744873047e+00,-7.400073409080505371e-01
-7.797920227050781250e+00,-3.303823947906494141e+00,-4.438372850418090820e-01
-7.807560443878173828e+00,-3.307908296585083008e+00,-1.480083018541336060e-01
-7.817117691040039062e+00,-3.311957359313964844e+00,1.481894701719284058e-01
-7.826699733734130859e+00,-3.316017150878906250e+00,4.454753100872039795e-01
-7.836151123046875000e+00,-3.320021390914916992e+00,7.445670366287231445e-01
-7.846847057342529297e+00,-3.324553251266479492e+00,1.046376943588256836e+00
-3.666521787643432617e+00,-1.615711212158203125e+00,-1.073598980903625488e+00
-4.368142604827880859e+00,-1.924891710281372070e+00,-1.102037429809570312e+00
-5.353070259094238281e+00,-2.358915567398071289e+00,-1.137078881263732910e+00
-6.905369758605957031e+00,-3.042961359024047852e+00,-1.195184350013732910e+00
-7.810494422912597656e+00,-3.441818952560424805e+00,-1.047991394996643066e+00
-7.819905281066894531e+00,-3.445965766906738281e+00,-7.476333975791931152e-01
-7.829490184783935547e+00,-3.450189590454101562e+00,-4.483990371227264404e-01
-7.839172363281250000e+00,-3.454456329345703125e+00,-1.495295763015747070e-01
-7.848987102508544922e+00,-3.458781242370605469e+00,1.497167944908142090e-01
-7.859045982360839844e+00,-3.463213920593261719e+00,4.500917196273803711e-01
-7.869186878204345703e+00,-3.467682600021362305e+00,7.523450255393981934e-01
-7.879139423370361328e+00,-3.472068309783935547e+00,1.057201981544494629e+00
-3.650784730911254883e+00,-1.671575188636779785e+00,-1.075886607170104980e+00
-4.329301357269287109e+00,-1.982245922088623047e+00,-1.099283695220947266e+00
-4.932624816894531250e+00,-2.258487939834594727e+00,-1.054528236389160156e+00
-4.939567089080810547e+00,-2.261666536331176758e+00,-8.604572415351867676e-01
-4.945352554321289062e+00,-2.264315605163574219e+00,-6.678345799446105957e-01
-4.951586246490478516e+00,-2.267169952392578125e+00,-4.764573276042938232e-01
-4.957451820373535156e+00,-2.269855499267578125e+00,-2.857473194599151611e-01
-4.963500022888183594e+00,-2.272624731063842773e+00,-9.528781473636627197e-02
-4.969748020172119141e+00,-2.275485515594482422e+00,9.540776163339614868e-02
-4.975669860839843750e+00,-2.278197050094604492e+00,2.867974042892456055e-01
-4.982119083404541016e+00,-2.281149625778198242e+00,4.793952703475952148e-01
-4.987504959106445312e+00,-2.283615827560424805e+00,6.735269427299499512e-01
-4.994790077209472656e+00,-2.286951541900634766e+00,8.700768947601318359e-01
-5.000504016876220703e+00,-2.289567470550537109e+00,1.069039821624755859e+00
-5.007097721099853516e+00,-2.292586803436279297e+00,1.271387815475463867e+00
-3.632283687591552734e+00,-1.726408958435058594e+00,-1.077606320381164551e+00
-4.281581401824951172e+00,-2.035017490386962891e+00,-1.094450831413269043e+00
-4.286880970001220703e+00,-2.037536382675170898e+00,-9.226173758506774902e-01
-4.292699813842773438e+00,-2.040302038192749023e+00,-7.527850270271301270e-01
-4.297611236572265625e+00,-2.042636394500732422e+00,-5.842501521110534668e-01
-4.303022861480712891e+00,-2.045208692550659180e+00,-4.168246686458587646e-01
-4.308323860168457031e+00,-2.047728061676025391e+00,-2.499954104423522949e-01
-4.313580036163330078e+00,-2.050226211547851562e+00,-8.336567878723144531e-02
-4.318805217742919922e+00,-2.052709817886352539e+00,8.346666395664215088e-02
-4.323961257934570312e+00,-2.055160522460937500e+00,2.509028017520904541e-01
-4.329687595367431641e+00,-2.057882070541381836e+00,4.194076061248779297e-01
-4.334591865539550781e+00,-2.060213088989257812e+00,5.892775654792785645e-01
-4.340139865875244141e+00,-2.062849998474121094e+00,7.611042857170104980e-01
-4.345354557037353516e+00,-2.065328598022460938e+00,9.352020025253295898e-01
-4.351452827453613281e+00,-2.068227052688598633e+00,1.112311244010925293e+00
-3.595637559890747070e+00,-1.772515892982482910e+00,-1.074151158332824707e+00
-3.804890632629394531e+00,-1.875669956207275391e+00,-9.793622493743896484e-01
-3.809343338012695312e+00,-1.877864956855773926e+00,-8.255425691604614258e-01
-3.814348936080932617e+00,-1.880332589149475098e+00,-6.735503077507019043e-01
-3.819095849990844727e+00,-1.882672667503356934e+00,-5.228070020675659180e-01
-3.823731899261474609e+00,-1.884958028793334961e+00,-3.729720711708068848e-01
-3.828358411788940430e+00,-1.887238740921020508e+00,-2.236894220113754272e-01
-3.833034276962280273e+00,-1.889543771743774414e+00,-7.459355145692825317e-02
-3.837766885757446289e+00,-1.891876816749572754e+00,7.468564808368682861e-02
-3.842524290084838867e+00,-1.894222021102905273e+00,2.245171219110488892e-01
-3.847226858139038086e+00,-1.896540164947509766e+00,3.752637803554534912e-01
-3.851749658584594727e+00,-1.898769736289978027e+00,5.272771120071411133e-01
-3.856939792633056641e+00,-1.901328325271606445e+00,6.810711026191711426e-01
-3.861917495727539062e+00,-1.903782129287719727e+00,8.369361758232116699e-01
-3.866415977478027344e+00,-1.905999660491943359e+00,9.951986074447631836e-01
-3.407644987106323242e+00,-1.740901589393615723e+00,-1.025329828262329102e+00
-3.412704467773437500e+00,-1.743486404418945312e+00,-8.847479820251464844e-01
-3.416470527648925781e+00,-1.745410442352294922e+00,-7.457388043403625488e-01
-3.420815944671630859e+00,-1.747630357742309570e+00,-6.084137558937072754e-01
-3.425005912780761719e+00,-1.749770998954772949e+00,-4.722390472888946533e-01
-3.429175138473510742e+00,-1.751900911331176758e+00,-3.368978500366210938e-01
-3.433499336242675781e+00,-1.754110097885131836e+00,-2.020642757415771484e-01
-3.437692403793334961e+00,-1.756252288818359375e+00,-6.738221645355224609e-02
-3.441763639450073242e+00,-1.758332133293151855e+00,6.746201962232589722e-02
-3.446022033691406250e+00,-1.760507702827453613e+00,2.028012573719024658e-01
-3.450310468673706055e+00,-1.762698531150817871e+00,3.389742970466613770e-01
-3.454511642456054688e+00,-1.764844894409179688e+00,4.763073027133941650e-01
-3.459395885467529297e+00,-1.767340064048767090e+00,6.152754426002502441e-01
-3.463087081909179688e+00,-1.769225955009460449e+00,7.559142112731933594e-01
-3.467346191406250000e+00,-1.771401882171630859e+00,8.989139795303344727e-01
-3.080182552337646484e+00,-1.629611730575561523e+00,-9.337220788002014160e-01
-3.083669185638427734e+00,-1.631456375122070312e+00,-8.054166436195373535e-01
-3.087699651718139648e+00,-1.633588790893554688e+00,-6.790097951889038086e-01
-3.091500759124755859e+00,-1.635599851608276367e+00,-5.539500713348388672e-01
-3.095615386962890625e+00,-1.637776732444763184e+00,-4.300109446048736572e-01
-3.099242448806762695e+00,-1.639695644378662109e+00,-3.067581355571746826e-01
-3.103082418441772461e+00,-1.641727209091186523e+00,-1.839830428361892700e-01
-3.106871843338012695e+00,-1.643732070922851562e+00,-6.135268136858940125e-02
-3.110619068145751953e+00,-1.645714640617370605e+00,6.142668053507804871e-02
-3.114608526229858398e+00,-1.647825360298156738e+00,1.846664398908615112e-01
-3.118153333663940430e+00,-1.649700760841369629e+00,3.086299002170562744e-01
-3.122081041336059570e+00,-1.651778697967529297e+00,4.336872696876525879e-01
-3.125862360000610352e+00,-1.653779268264770508e+00,5.601071119308471680e-01
-3.130302190780639648e+00,-1.656128287315368652e+00,6.883784532546997070e-01
-3.134486913681030273e+00,-1.658342242240905762e+00,8.186896443367004395e-01
-2.801318883895874023e+00,-1.533786654472351074e+00,-8.557550907135009766e-01
-2.805139780044555664e+00,-1.535878777503967285e+00,-7.383344173431396484e-01
-2.808634519577026367e+00,-1.537792205810546875e+00,-6.224178075790405273e-01
-2.812473058700561523e+00,-1.539893865585327148e+00,-5.078499317169189453e-01
-2.815678119659423828e+00,-1.541648745536804199e+00,-3.941497802734375000e-01
-2.819204568862915039e+00,-1.543579578399658203e+00,-2.811984419822692871e-01
-2.822635173797607422e+00,-1.545457839965820312e+00,-1.686494946479797363e-01
-2.826081514358520508e+00,-1.547344923019409180e+00,-5.623940378427505493e-02
-2.829552650451660156e+00,-1.549245357513427734e+00,5.630847439169883728e-02
-2.832951784133911133e+00,-1.551106452941894531e+00,1.692658960819244385e-01
-2.836718559265136719e+00,-1.553168892860412598e+00,2.829453647136688232e-01
-2.839906215667724609e+00,-1.554914116859436035e+00,3.975413143634796143e-01
-2.843519210815429688e+00,-1.556892395019531250e+00,5.134559869766235352e-01
-2.846898794174194336e+00,-1.558742761611938477e+00,6.308975219726562500e-01
-2.850880861282348633e+00,-1.560923099517822266e+00,7.503738403320312500e-01
-2.562562465667724609e+00,-1.451113581657409668e+00,-7.890833616256713867e-01
-2.565851688385009766e+00,-1.452976107597351074e+00,-6.807562112808227539e-01
-2.568895101547241211e+00,-1.454699516296386719e+00,-5.738449692726135254e-01
-2.572311639785766602e+00,-1.456634283065795898e+00,-4.682006835937500000e-01
-2.575527906417846680e+00,-1.458455443382263184e+00,-3.634175956249237061e-01
-2.578444719314575195e+00,-1.460107207298278809e+00,-2.592421174049377441e-01
-2.581655979156494141e+00,-1.461925745010375977e+00,-1.554855704307556152e-01
-2.584808111190795898e+00,-1.463710665702819824e+00,-5.184964090585708618e-02
-2.587908029556274414e+00,-1.465466022491455078e+00,5.191182345151901245e-02
-2.591327428817749023e+00,-1.467402338981628418e+00,1.560680568218231201e-01
-2.594485044479370117e+00,-1.469190478324890137e+00,2.608548700809478760e-01
-2.597495079040527344e+00,-1.470895051956176758e+00,3.665172755718231201e-01
-2.600954532623291016e+00,-1.472854018211364746e+00,4.734141528606414795e-01
-2.604254722595214844e+00,-1.474722862243652344e+00,5.817437171936035156e-01
-2.607215642929077148e+00,-1.476399540901184082e+00,6.917306184768676758e-01
-2.369811296463012695e+00,-1.387126803398132324e+00,-7.357683181762695312e-01
-2.372691154479980469e+00,-1.388812541961669922e+00,-6.347171068191528320e-01
-2.375388860702514648e+00,-1.390391588211059570e+00,-5.350099802017211914e-01
-2.378481149673461914e+00,-1.392201542854309082e+00,-4.365028738975524902e-01
-2.381433963775634766e+00,-1.393929958343505859e+00,-3.388107717037200928e-01
-2.384340047836303711e+00,-1.395630955696105957e+00,-2.417101263999938965e-01
-2.387263059616088867e+00,-1.397341966629028320e+00,-1.449676007032394409e-01
-2.390177488327026367e+00,-1.399047732353210449e+00,-4.834221303462982178e-02
-2.393090486526489258e+00,-1.400752782821655273e+00,4.840112850069999695e-02
-2.396042108535766602e+00,-1.402480483055114746e+00,1.455007046461105347e-01
-2.398982286453247070e+00,-1.404201626777648926e+00,2.431944906711578369e-01
-2.401833057403564453e+00,-1.405870199203491211e+00,3.417129814624786377e-01
-2.405149936676025391e+00,-1.407811641693115234e+00,4.413971900939941406e-01
-2.408365488052368164e+00,-1.409693837165832520e+00,5.424373149871826172e-01
-2.411311149597167969e+00,-1.411418080329895020e+00,6.450483202934265137e-01
-2.198457956314086914e+00,-1.329433917999267578e+00,-6.884047985076904297e-01
-2.201698541641235352e+00,-1.331393599510192871e+00,-5.940120220184326172e-01
-2.204097270965576172e+00,-1.332844018936157227e+00,-5.006754398345947266e-01
-2.206907987594604492e+00,-1.334543704986572266e+00,-4.084792733192443848e-01
-2.209916114807128906e+00,-1.336362838745117188e+00,-3.170975148677825928e-01
-2.212526559829711914e+00,-1.337941408157348633e+00,-2.262109220027923584e-01
-2.215196132659912109e+00,-1.339555621147155762e+00,-1.356691867113113403e-01
-2.217900037765502930e+00,-1.341190814971923828e+00,-4.524147137999534607e-02
-2.220646142959594727e+00,-1.342851400375366211e+00,4.529748857021331787e-02
-2.223471641540527344e+00,-1.344560027122497559e+00,1.361760199069976807e-01
-2.225929498672485352e+00,-1.346046209335327148e+00,2.275812476873397827e-01
-2.228633403778076172e+00,-1.347681283950805664e+00,3.197832107543945312e-01
-2.231816291809082031e+00,-1.349606156349182129e+00,4.130896031856536865e-01
-2.234222412109375000e+00,-1.351061105728149414e+00,5.075185894966125488e-01
-2.237041950225830078e+00,-1.352766036987304688e+00,6.035475134849548340e-01
-2.057634353637695312e+00,-1.284849047660827637e+00,-6.500006318092346191e-01
-2.060560941696166992e+00,-1.286676645278930664e+00,-5.608448386192321777e-01
-2.063208341598510742e+00,-1.288329601287841797e+00,-4.728120267391204834e-01
-2.065705537796020508e+00,-1.289889097213745117e+00,-3.857217431068420410e-01
-2.068158864974975586e+00,-1.291420817375183105e+00,-2.993786334991455078e-01
-2.070811271667480469e+00,-1.293077111244201660e+00,-2.135922461748123169e-01
-2.073290586471557617e+00,-1.294625401496887207e+00,-1.280999928712844849e-01
-2.075841903686523438e+00,-1.296218514442443848e+00,-4.271780699491500854e-02
-2.078473329544067383e+00,-1.297861576080322266e+00,4.277195781469345093e-02
-2.080947637557983398e+00,-1.299406647682189941e+00,1.285730898380279541e-01
-2.083656311035156250e+00,-1.301097869873046875e+00,2.149171233177185059e-01
-2.086365222930908203e+00,-1.302789449691772461e+00,3.020141124725341797e-01
-2.088979482650756836e+00,-1.304421901702880859e+00,3.900675773620605469e-01
-2.091382265090942383e+00,-1.305922389030456543e+00,4.792684614658355713e-01
-2.094214916229248047e+00,-1.307691097259521484e+00,5.700048208236694336e-01
-1.996320843696594238e+00,-1.286636948585510254e+00,-6.363843679428100586e-01
-1.999040365219116211e+00,-1.288389801979064941e+00,-5.490632653236389160e-01
-2.001523733139038086e+00,-1.289990186691284180e+00,-4.628600776195526123e-01
-2.003898620605468750e+00,-1.291520833969116211e+00,-3.775939047336578369e-01
-2.006529808044433594e+00,-1.293216705322265625e+00,-2.931069433689117432e-01
-2.008872032165527344e+00,-1.294726252555847168e+00,-2.090936303138732910e-01
-2.011395931243896484e+00,-1.296352863311767578e+00,-1.254093945026397705e-01
-2.013870954513549805e+00,-1.297948122024536133e+00,-4.182055965065956116e-02
-2.016301870346069336e+00,-1.299514770507812500e+00,4.187104105949401855e-02
-2.018936634063720703e+00,-1.301213026046752930e+00,1.258795559406280518e-01
-2.021307706832885742e+00,-1.302741169929504395e+00,2.103880047798156738e-01
-2.023983240127563477e+00,-1.304465413093566895e+00,2.956564724445343018e-01
-2.026605606079101562e+00,-1.306155681610107422e+00,3.818725943565368652e-01
-2.029057264328002930e+00,-1.307735681533813477e+00,4.692273139953613281e-01
-2.031968116760253906e+00,-1.309611797332763672e+00,5.581073164939880371e-01
-1.940503358840942383e+00,-1.290341258049011230e+00,-6.244145631790161133e-01
-1.943051934242248535e+00,-1.292035818099975586e+00,-5.387095808982849121e-01
-1.945403933525085449e+00,-1.293599843978881836e+00,-4.541175365447998047e-01
-1.948037862777709961e+00,-1.295351266860961914e+00,-3.705238103866577148e-01
-1.950244545936584473e+00,-1.296818614006042480e+00,-2.875669896602630615e-01
-1.952710151672363281e+00,-1.298458099365234375e+00,-2.051614522933959961e-01
-1.955131411552429199e+00,-1.300068140029907227e+00,-1.230489537119865417e-01
-1.957536816596984863e+00,-1.301667571067810059e+00,-4.103340953588485718e-02
-1.959932327270507812e+00,-1.303260564804077148e+00,4.108362644910812378e-02
-1.962299704551696777e+00,-1.304834723472595215e+00,1.235001012682914734e-01
-1.964960694313049316e+00,-1.306604146957397461e+00,2.064485549926757812e-01
-1.967229485511779785e+00,-1.308112859725952148e+00,2.900714576244354248e-01
-1.969840645790100098e+00,-1.309849143028259277e+00,3.746707737445831299e-01
-1.972319245338439941e+00,-1.311497211456298828e+00,4.604004025459289551e-01
-1.974529623985290527e+00,-1.312967061996459961e+00,5.474367737770080566e-01
-1.882775783538818359e+00,-1.291193485260009766e+00,-6.117233037948608398e-01
-1.885144352912902832e+00,-1.292817831039428711e+00,-5.277311205863952637e-01
-1.887353420257568359e+00,-1.294332742691040039e+00,-4.448457956314086914e-01
-1.889873266220092773e+00,-1.296060800552368164e+00,-3.629519939422607422e-01
-1.892259120941162109e+00,-1.297697067260742188e+00,-2.817269265651702881e-01
-1.894584059715270996e+00,-1.299291491508483887e+00,-2.009877860546112061e-01
-1.896899461746215820e+00,-1.300879359245300293e+00,-1.205435767769813538e-01
-1.899232864379882812e+00,-1.302479624748229980e+00,-4.019792750477790833e-02
-1.901590108871459961e+00,-1.304096221923828125e+00,4.024782404303550720e-02
-1.903954863548278809e+00,-1.305717945098876953e+00,1.209919303655624390e-01
-1.906286597251892090e+00,-1.307317018508911133e+00,2.022292613983154297e-01
-1.908523797988891602e+00,-1.308851242065429688e+00,2.841484844684600830e-01
-1.911129713058471680e+00,-1.310638427734375000e+00,3.670343160629272461e-01
-1.913640499114990234e+00,-1.312360286712646484e+00,4.510416090488433838e-01
-1.915922403335571289e+00,-1.313925147056579590e+00,5.363471508026123047e-01
-1.830110430717468262e+00,-1.293972969055175781e+00,-6.005682349205017090e-01
-1.832332134246826172e+00,-1.295543789863586426e+00,-5.180848240852355957e-01
-1.834861516952514648e+00,-1.297332167625427246e+00,-4.368055462837219238e-01
-1.836856365203857422e+00,-1.298742532730102539e+00,-3.563036918640136719e-01
-1.839184641838073730e+00,-1.300388813018798828e+00,-2.765678465366363525e-01
-1.841630220413208008e+00,-1.302117943763732910e+00,-1.973271369934082031e-01
-1.843851447105407715e+00,-1.303688406944274902e+00,-1.183461919426918030e-01
-1.846119284629821777e+00,-1.305291891098022461e+00,-3.946515545248985291e-02
-1.848440527915954590e+00,-1.306933164596557617e+00,3.951478004455566406e-02
-1.850549697875976562e+00,-1.308424353599548340e+00,1.187761127948760986e-01
-1.852806329727172852e+00,-1.310019969940185547e+00,1.985246390104293823e-01
-1.855441451072692871e+00,-1.311883091926574707e+00,2.790124714374542236e-01
-1.857584714889526367e+00,-1.313398480415344238e+00,3.603244721889495850e-01
-1.860106348991394043e+00,-1.315181374549865723e+00,4.428153336048126221e-01
-1.862434625625610352e+00,-1.316827654838562012e+00,5.265961885452270508e-01
-1.778875112533569336e+00,-1.296328186988830566e+00,-5.897834300994873047e-01
-1.780959963798522949e+00,-1.297847509384155273e+00,-5.087599158287048340e-01
-1.783374309539794922e+00,-1.299606919288635254e+00,-4.289329648017883301e-01
-1.785626292228698730e+00,-1.301247954368591309e+00,-3.499433398246765137e-01
-1.787807464599609375e+00,-1.302837610244750977e+00,-2.716183960437774658e-01
-1.789987206459045410e+00,-1.304425954818725586e+00,-1.937743872404098511e-01
-1.792261242866516113e+00,-1.306083202362060547e+00,-1.162229105830192566e-01
-1.794465422630310059e+00,-1.307689428329467773e+00,-3.875709697604179382e-02
-1.796603679656982422e+00,-1.309247612953186035e+00,3.880327939987182617e-02
-1.798853993415832520e+00,-1.310887455940246582e+00,1.166504248976707458e-01
-1.801130652427673340e+00,-1.312546610832214355e+00,1.949807107448577881e-01
-1.803372502326965332e+00,-1.314180374145507812e+00,2.739831805229187012e-01
-1.805500626564025879e+00,-1.315731167793273926e+00,3.538382947444915771e-01
-1.808027267456054688e+00,-1.317572474479675293e+00,4.348624348640441895e-01
-1.810391783714294434e+00,-1.319295525550842285e+00,5.171676278114318848e-01
-1.729026913642883301e+00,-1.298292636871337891e+00,-5.793581604957580566e-01
-1.731489062309265137e+00,-1.300141334533691406e+00,-4.998926818370819092e-01
-1.733292460441589355e+00,-1.301495552062988281e+00,-4.213248193264007568e-01
-1.735467910766601562e+00,-1.303128957748413086e+00,-3.437336385250091553e-01
-1.737834930419921875e+00,-1.304906368255615234e+00,-2.668364942073822021e-01
-1.739900946617126465e+00,-1.306457638740539551e+00,-1.903571784496307373e-01
-1.742085456848144531e+00,-1.308097958564758301e+00,-1.141716167330741882e-01
-1.744227647781372070e+00,-1.309706449508666992e+00,-3.807304054498672485e-02
-1.746331572532653809e+00,-1.311286330223083496e+00,3.811896592378616333e-02
-1.748571753501892090e+00,-1.312968373298645020e+00,1.145967096090316772e-01
-1.750533699989318848e+00,-1.314441561698913574e+00,1.915204674005508423e-01
-1.752725839614868164e+00,-1.316087722778320312e+00,2.691229283809661865e-01
-1.755345940589904785e+00,-1.318055033683776855e+00,3.476707637310028076e-01
-1.757357716560363770e+00,-1.319565653800964355e+00,4.271745681762695312e-01
-1.759751200675964355e+00,-1.321362853050231934e+00,5.080521702766418457e-01
-1.680524349212646484e+00,-1.299897909164428711e+00,-5.692821741104125977e-01
-1.682857871055603027e+00,-1.301702976226806641e+00,-4.911813735961914062e-01
-1.684979677200317383e+00,-1.303344249725341797e+00,-4.140733480453491211e-01
-1.686996817588806152e+00,-1.304904460906982422e+00,-3.377980291843414307e-01
-1.688996434211730957e+00,-1.306451201438903809e+00,-2.621819674968719482e-01
-1.691182017326354980e+00,-1.308141708374023438e+00,-1.870563626289367676e-01
-1.693280220031738281e+00,-1.309764742851257324e+00,-1.121902093291282654e-01
-1.695362567901611328e+00,-1.311375379562377930e+00,-3.741230070590972900e-02
-1.697431921958923340e+00,-1.312976121902465820e+00,3.745796531438827515e-02
-1.699428796768188477e+00,-1.314520716667175293e+00,1.125975847244262695e-01
-1.701639652252197266e+00,-1.316230893135070801e+00,1.882130503654479980e-01
-1.703870415687561035e+00,-1.317956328392028809e+00,2.644908726215362549e-01
-1.706041812896728516e+00,-1.319635868072509766e+00,3.416115343570709229e-01
-1.708056926727294922e+00,-1.321194529533386230e+00,4.197444319725036621e-01
-1.710470199584960938e+00,-1.323061347007751465e+00,4.992406666278839111e-01
-1.633327126502990723e+00,-1.301175117492675781e+00,-5.595456957817077637e-01
-1.635541677474975586e+00,-1.302939414978027344e+00,-4.827648997306823730e-01
-1.637573838233947754e+00,-1.304558277130126953e+00,-4.069706797599792480e-01
-1.639838933944702148e+00,-1.306362748146057129e+00,-3.320654332637786865e-01
-1.641710996627807617e+00,-1.307854175567626953e+00,-2.577213644981384277e-01
-1.643789291381835938e+00,-1.309509754180908203e+00,-1.838687509298324585e-01
-1.645805954933166504e+00,-1.311116337776184082e+00,-1.102768555283546448e-01
-1.647829413414001465e+00,-1.312728285789489746e+00,-3.677424043416976929e-02
-1.649863958358764648e+00,-1.314349174499511719e+00,3.681964427232742310e-02
-1.651850581169128418e+00,-1.315931797027587891e+00,1.106818765401840210e-01
-1.654071688652038574e+00,-1.317701101303100586e+00,1.850188970565795898e-01
-1.655929923057556152e+00,-1.319181442260742188e+00,2.599534988403320312e-01
-1.658069968223571777e+00,-1.320886373519897461e+00,3.357571959495544434e-01
-1.660082578659057617e+00,-1.322489619255065918e+00,4.125645458698272705e-01
-1.662508726119995117e+00,-1.324422478675842285e+00,4.907248020172119141e-01
-1.587396144866943359e+00,-1.302153825759887695e+00,-5.501394271850585938e-01
-1.589500784873962402e+00,-1.303880333900451660e+00,-4.746351242065429688e-01
-1.591838240623474121e+00,-1.305797815322875977e+00,-4.002084136009216309e-01
-1.593648910522460938e+00,-1.307283043861389160e+00,-3.264676630496978760e-01
-1.595706582069396973e+00,-1.308971047401428223e+00,-2.534147202968597412e-01
-1.597683310508728027e+00,-1.310592532157897949e+00,-1.807913035154342651e-01
-1.599620103836059570e+00,-1.312181234359741211e+00,-1.084295511245727539e-01
-1.601587176322937012e+00,-1.313794970512390137e+00,-3.615822643041610718e-02
-1.603586792945861816e+00,-1.315435171127319336e+00,3.620336577296257019e-02
-1.605561852455139160e+00,-1.317055344581604004e+00,1.088323071599006653e-01
-1.607478141784667969e+00,-1.318627238273620605e+00,1.818996518850326538e-01
-1.609680175781250000e+00,-1.320433616638183594e+00,2.556338608264923096e-01
-1.611391782760620117e+00,-1.321837663650512695e+00,3.301024138927459717e-01
-1.613395929336547852e+00,-1.323481678962707520e+00,4.056282937526702881e-01
-1.615826249122619629e+00,-1.325475335121154785e+00,4.824960827827453613e-01
-1.545727252960205078e+00,-1.305424809455871582e+00,-5.421184897422790527e-01
-1.547667741775512695e+00,-1.307063698768615723e+00,-4.676820933818817139e-01
-1.549472808837890625e+00,-1.308588147163391113e+00,-3.942258954048156738e-01
-1.551541566848754883e+00,-1.310335278511047363e+00,-3.216509819030761719e-01
-1.553489446640014648e+00,-1.311980247497558594e+00,-2.496669143438339233e-01
-1.555247068405151367e+00,-1.313464641571044922e+00,-1.780984401702880859e-01
-1.557200431823730469e+00,-1.315114259719848633e+00,-1.068191677331924438e-01
-1.559112787246704102e+00,-1.316729426383972168e+00,-3.562115132808685303e-02
-1.560992479324340820e+00,-1.318316936492919922e+00,3.566409647464752197e-02
-1.563083052635192871e+00,-1.320082426071166992e+00,1.072227060794830322e-01
-1.565004467964172363e+00,-1.321705102920532227e+00,1.792158037424087524e-01
-1.566837668418884277e+00,-1.323253393173217773e+00,2.518121600151062012e-01
-1.568981170654296875e+00,-1.325063705444335938e+00,3.252663910388946533e-01
-1.571042656898498535e+00,-1.326804637908935547e+00,3.997138440608978271e-01
-1.572912096977233887e+00,-1.328383445739746094e+00,4.753105640411376953e-01
-1.502084493637084961e+00,-1.305852413177490234e+00,-5.333128571510314941e-01
-1.503932952880859375e+00,-1.307459354400634766e+00,-4.600741267204284668e-01
-1.506041526794433594e+00,-1.309292435646057129e+00,-3.879041969776153564e-01
-1.507683753967285156e+00,-1.310720086097717285e+00,-3.164156973361968994e-01
-1.509600400924682617e+00,-1.312386393547058105e+00,-2.456071674823760986e-01
-1.511478185653686523e+00,-1.314018845558166504e+00,-1.752221137285232544e-01
-1.513356566429138184e+00,-1.315651774406433105e+00,-1.050926372408866882e-01
-1.515215277671813965e+00,-1.317267775535583496e+00,-3.504540771245956421e-02
-1.517060756683349609e+00,-1.318872094154357910e+00,3.508808836340904236e-02
-1.518920779228210449e+00,-1.320489168167114258e+00,1.054790392518043518e-01
-1.520764350891113281e+00,-1.322091817855834961e+00,1.762986481189727783e-01
-1.522917985916137695e+00,-1.323964238166809082e+00,2.477739006280899048e-01
-1.524641036987304688e+00,-1.325462222099304199e+00,3.199745118618011475e-01
-1.526681900024414062e+00,-1.327236413955688477e+00,3.932204246520996094e-01
-1.528555512428283691e+00,-1.328865289688110352e+00,4.676065444946289062e-01
-1.461874723434448242e+00,-1.308097481727600098e+00,-5.256303548812866211e-01
-1.464092731475830078e+00,-1.310082197189331055e+00,-4.535764455795288086e-01
-1.465701341629028320e+00,-1.311521530151367188e+00,-3.823099136352539062e-01
-1.467597365379333496e+00,-1.313218116760253906e+00,-3.119157254695892334e-01
-1.469414114952087402e+00,-1.314843773841857910e+00,-2.421061247587203979e-01
-1.471208214759826660e+00,-1.316449165344238281e+00,-1.727204471826553345e-01
-1.473020195960998535e+00,-1.318070530891418457e+00,-1.035910621285438538e-01
-1.474829673767089844e+00,-1.319689631462097168e+00,-3.454468026757240295e-02
-1.476642131805419922e+00,-1.321311473846435547e+00,3.458713367581367493e-02
-1.478485345840454102e+00,-1.322960853576660156e+00,1.039754077792167664e-01
-1.480329036712646484e+00,-1.324610471725463867e+00,1.737912297248840332e-01
-1.482123255729675293e+00,-1.326215982437133789e+00,2.442001402378082275e-01
-1.484251141548156738e+00,-1.328120112419128418e+00,3.154552280902862549e-01
-1.485810875892639160e+00,-1.329515695571899414e+00,3.875552415847778320e-01
-1.487672448158264160e+00,-1.331181526184082031e+00,4.608814716339111328e-01
-1.420904874801635742e+00,-1.308534860610961914e+00,-5.175806283950805664e-01
-1.422531962394714355e+00,-1.310033202171325684e+00,-4.464642703533172607e-01
-1.424440503120422363e+00,-1.311790823936462402e+00,-3.764065206050872803e-01
-1.426215529441833496e+00,-1.313425540924072266e+00,-3.070847690105438232e-01
-1.427929759025573730e+00,-1.315004229545593262e+00,-2.383478432893753052e-01
-1.429638504981994629e+00,-1.316577792167663574e+00,-1.700351089239120483e-01
-1.431381821632385254e+00,-1.318183183670043945e+00,-1.019792556762695312e-01
-1.433140039443969727e+00,-1.319802403450012207e+00,-3.400718420743942261e-02
-1.434918403625488281e+00,-1.321440100669860840e+00,3.404938429594039917e-02
-1.436744689941406250e+00,-1.323121905326843262e+00,1.023613363504409790e-01
-1.438587427139282227e+00,-1.324818968772888184e+00,1.710994690656661987e-01
-1.440398812294006348e+00,-1.326487064361572266e+00,2.404291331768035889e-01
-1.442115545272827148e+00,-1.328068137168884277e+00,3.105082809925079346e-01
-1.444168210029602051e+00,-1.329958438873291016e+00,3.816195726394653320e-01
-1.446093797683715820e+00,-1.331731796264648438e+00,4.538592100143432617e-01
-1.382578134536743164e+00,-1.310300350189208984e+00,-5.103991031646728516e-01
-1.384148955345153809e+00,-1.311789035797119141e+00,-4.402655661106109619e-01
-1.386009335517883301e+00,-1.313552141189575195e+00,-3.711813986301422119e-01
-1.387755513191223145e+00,-1.315207004547119141e+00,-3.028260767459869385e-01
-1.389457225799560547e+00,-1.316819787025451660e+00,-2.350481003522872925e-01
-1.391286373138427734e+00,-1.318553328514099121e+00,-1.677011847496032715e-01
-1.392968058586120605e+00,-1.320147156715393066e+00,-1.005783975124359131e-01
-1.394679069519042969e+00,-1.321768641471862793e+00,-3.354004025459289551e-02
-1.396423935890197754e+00,-1.323422312736511230e+00,3.358200192451477051e-02
-1.398032784461975098e+00,-1.324946999549865723e+00,1.009440943598747253e-01
-1.399791240692138672e+00,-1.326613545417785645e+00,1.687263250350952148e-01
-1.401535391807556152e+00,-1.328266501426696777e+00,2.370913028717041016e-01
-1.403201937675476074e+00,-1.329845905303955078e+00,3.061966896057128906e-01
-1.405211567878723145e+00,-1.331750512123107910e+00,3.763238787651062012e-01
-1.407113432884216309e+00,-1.333552956581115723e+00,4.475700259208679199e-01
-1.345110416412353516e+00,-1.311839938163757324e+00,-5.034475922584533691e-01
-1.347039818763732910e+00,-1.313721537590026855e+00,-4.343985915184020996e-01
-1.348785281181335449e+00,-1.315423846244812012e+00,-3.662173748016357422e-01
-1.350431084632873535e+00,-1.317028999328613281e+00,-2.987644076347351074e-01
-1.352046847343444824e+00,-1.318604707717895508e+00,-2.318885922431945801e-01
-1.353800654411315918e+00,-1.320315122604370117e+00,-1.654437631368637085e-01
-1.355423331260681152e+00,-1.321897625923156738e+00,-9.922350943088531494e-02
-1.357088327407836914e+00,-1.323521494865417480e+00,-3.308822587132453918e-02
-1.358799695968627930e+00,-1.325190544128417969e+00,3.312995284795761108e-02
-1.360391139984130859e+00,-1.326742649078369141e+00,9.958718717098236084e-02
-1.362142682075500488e+00,-1.328450798988342285e+00,1.664632111787796021e-01
-1.363893032073974609e+00,-1.330157876014709473e+00,2.339203208684921265e-01
-1.365580677986145020e+00,-1.331803798675537109e+00,3.021160364151000977e-01
-1.367128014564514160e+00,-1.333312869071960449e+00,3.711977601051330566e-01
-1.369000792503356934e+00,-1.335139274597167969e+00,4.414806663990020752e-01
-1.308944821357727051e+00,-1.313642024993896484e+00,-4.968981146812438965e-01
-1.310350179672241211e+00,-1.315052390098571777e+00,-4.285929799079895020e-01
-1.312058091163635254e+00,-1.316766381263732910e+00,-3.613257408142089844e-01
-1.313940525054931641e+00,-1.318655610084533691e+00,-2.948368787765502930e-01
-1.315475225448608398e+00,-1.320195913314819336e+00,-2.288337200880050659e-01
-1.317156910896301270e+00,-1.321883559226989746e+00,-1.632611751556396484e-01
-1.318722963333129883e+00,-1.323455214500427246e+00,-9.791357815265655518e-02
-1.320342421531677246e+00,-1.325080513954162598e+00,-3.265138715505599976e-02
-1.322020649909973145e+00,-1.326764702796936035e+00,3.269288688898086548e-02
-1.323593258857727051e+00,-1.328343033790588379e+00,9.827519208192825317e-02
-1.325335264205932617e+00,-1.330091238021850586e+00,1.642748713493347168e-01
-1.326752543449401855e+00,-1.331513643264770508e+00,2.307954579591751099e-01
-1.328384160995483398e+00,-1.333151102066040039e+00,2.980779111385345459e-01
-1.330369353294372559e+00,-1.335143446922302246e+00,3.663684725761413574e-01
-1.332277655601501465e+00,-1.337058544158935547e+00,4.357650578022003174e-01
-1.273110628128051758e+00,-1.314788579940795898e+00,-4.903886914253234863e-01
-1.274866819381713867e+00,-1.316602230072021484e+00,-4.231075346469879150e-01
-1.276472091674804688e+00,-1.318259954452514648e+00,-3.566854894161224365e-01
-1.278006196022033691e+00,-1.319844365119934082e+00,-2.909828126430511475e-01
-1.279716968536376953e+00,-1.321611166000366211e+00,-2.258809357881546021e-01
-1.281220912933349609e+00,-1.323164343833923340e+00,-1.611378937959671021e-01
-1.282841801643371582e+00,-1.324838399887084961e+00,-9.664753079414367676e-02
-1.284417033195495605e+00,-1.326465010643005371e+00,-3.222918882966041565e-02
-1.285950422286987305e+00,-1.328048706054687500e+00,3.226766735315322876e-02
-1.287613868713378906e+00,-1.329766631126403809e+00,9.700704365968704224e-02
-1.289087176322937012e+00,-1.331288099288940430e+00,1.621272265911102295e-01
-1.290767192840576172e+00,-1.333023071289062500e+00,2.278313785791397095e-01
-1.292411327362060547e+00,-1.334721088409423828e+00,2.942626476287841797e-01
-1.293946146965026855e+00,-1.336306095123291016e+00,3.615682721138000488e-01
-1.295815229415893555e+00,-1.338236331939697266e+00,4.300599694252014160e-01
-1.238509774208068848e+00,-1.316238999366760254e+00,-4.842681288719177246e-01
-1.240157008171081543e+00,-1.317989587783813477e+00,-4.178061187267303467e-01
-1.241665840148925781e+00,-1.319593191146850586e+00,-3.522013425827026367e-01
-1.243115901947021484e+00,-1.321134209632873535e+00,-2.873149216175079346e-01
-1.244749069213867188e+00,-1.322869896888732910e+00,-2.230281084775924683e-01
-1.246189832687377930e+00,-1.324401140213012695e+00,-1.590999513864517212e-01
-1.247755885124206543e+00,-1.326065421104431152e+00,-9.542439877986907959e-02
-1.249287843704223633e+00,-1.327693581581115723e+00,-3.182130679488182068e-02
-1.250789880752563477e+00,-1.329289793968200684e+00,3.185956552624702454e-02
-1.252429246902465820e+00,-1.331032037734985352e+00,9.578179568052291870e-02
-1.253893494606018066e+00,-1.332588195800781250e+00,1.600834578275680542e-01
-1.255570054054260254e+00,-1.334369897842407227e+00,2.249669581651687622e-01
