8.519813418388366699e-01,1.492066144943237305e+00,-2.109653353691101074e-01
8.530809283256530762e-01,1.493991851806640625e+00,-1.505148261785507202e-01
8.541682362556457520e-01,1.495895981788635254e+00,-9.027685970067977905e-02
8.552557229995727539e-01,1.497800588607788086e+00,-3.010611608624458313e-02
8.563464879989624023e-01,1.499710679054260254e+00,3.014451079070568085e-02
8.574325442314147949e-01,1.501612782478332520e+00,9.062186628580093384e-02
8.585859537124633789e-01,1.503632664680480957e+00,1.514861136674880981e-01
8.596240878105163574e-01,1.505450844764709473e+00,2.128578126430511475e-01
8.608516454696655273e-01,1.507600545883178711e+00,2.749654054641723633e-01
8.618764281272888184e-01,1.509395360946655273e+00,3.378582596778869629e-01
8.631251454353332520e-01,1.511582136154174805e+00,4.018602967262268066e-01
8.205666542053222656e-01,1.486045718193054199e+00,-4.548553228378295898e-01
8.216325640678405762e-01,1.487976193428039551e+00,-3.924178183078765869e-01
8.227421045303344727e-01,1.489985466003417969e+00,-3.308437764644622803e-01
8.237906098365783691e-01,1.491884350776672363e+00,-2.699207961559295654e-01
8.248820304870605469e-01,1.493860960006713867e+00,-2.095282524824142456e-01
8.259374499320983887e-01,1.495772242546081543e+00,-1.494878530502319336e-01
8.269676566123962402e-01,1.497637987136840820e+00,-8.965845406055450439e-02
8.280191421508789062e-01,1.499542236328125000e+00,-2.989983744919300079e-02
8.290992379188537598e-01,1.501498341560363770e+00,2.993884123861789703e-02
8.301590085029602051e-01,1.503417611122131348e+00,9.000445902347564697e-02
8.311951160430908203e-01,1.505293965339660645e+00,1.504394561052322388e-01
8.322945237159729004e-01,1.507284998893737793e+00,2.114111036062240601e-01
8.333547711372375488e-01,1.509205102920532227e+00,2.730545401573181152e-01
8.344903588294982910e-01,1.511261582374572754e+00,3.355680108070373535e-01
8.355293273925781250e-01,1.513143181800842285e+00,3.990550041198730469e-01
7.938775420188903809e-01,1.487636923789978027e+00,-4.518179893493652344e-01
7.949100136756896973e-01,1.489571690559387207e+00,-3.897980153560638428e-01
7.959858775138854980e-01,1.491587758064270020e+00,-3.286360502243041992e-01
7.970001101493835449e-01,1.493488311767578125e+00,-2.681195437908172607e-01
7.979936003684997559e-01,1.495350003242492676e+00,-2.081137299537658691e-01
7.990337610244750977e-01,1.497299194335937500e+00,-1.484822332859039307e-01
8.000570535659790039e-01,1.499216675758361816e+00,-8.905827999114990234e-02
8.010751008987426758e-01,1.501124382019042969e+00,-2.969971671700477600e-02
8.020903468132019043e-01,1.503026843070983887e+00,2.973735705018043518e-02
8.030956983566284180e-01,1.504910826683044434e+00,8.939652889966964722e-02
8.041623830795288086e-01,1.506909608840942383e+00,1.494352817535400391e-01
8.052253127098083496e-01,1.508901357650756836e+00,2.099997401237487793e-01
8.062481284141540527e-01,1.510818123817443848e+00,2.712306976318359375e-01
8.073447346687316895e-01,1.512872934341430664e+00,3.333257436752319336e-01
8.083465695381164551e-01,1.514750361442565918e+00,3.963868916034698486e-01
7.674334049224853516e-01,1.489006161689758301e+00,-4.488516747951507568e-01
7.684437036514282227e-01,1.490966320037841797e+00,-3.872450292110443115e-01
7.694951891899108887e-01,1.493006467819213867e+00,-3.264884948730468750e-01
7.704826593399047852e-01,1.494922399520874023e+00,-2.663698494434356689e-01
7.714454531669616699e-01,1.496790528297424316e+00,-2.067562788724899292e-01
7.724500894546508789e-01,1.498739719390869141e+00,-1.475135535001754761e-01
7.734323143959045410e-01,1.500645518302917480e+00,-8.847647160291671753e-02
7.744172215461730957e-01,1.502556443214416504e+00,-2.950571663677692413e-02
7.754049301147460938e-01,1.504472732543945312e+00,2.954334951937198639e-02
7.763770818710327148e-01,1.506358981132507324e+00,8.881333470344543457e-02
7.774051427841186523e-01,1.508353710174560547e+00,1.484598070383071899e-01
7.784247398376464844e-01,1.510331988334655762e+00,2.086268067359924316e-01
7.794013023376464844e-01,1.512226700782775879e+00,2.694531977176666260e-01
7.804484963417053223e-01,1.514258503913879395e+00,3.311358392238616943e-01
7.815806865692138672e-01,1.516455292701721191e+00,3.938651978969573975e-01
7.415269613265991211e-01,1.490755796432495117e+00,-4.461339414119720459e-01
7.425121665000915527e-01,1.492736458778381348e+00,-3.849049806594848633e-01
7.434260249137878418e-01,1.494573593139648438e+00,-3.244709968566894531e-01
7.444000244140625000e-01,1.496531724929809570e+00,-2.647309601306915283e-01
7.453423142433166504e-01,1.498426198959350586e+00,-2.054875046014785767e-01
7.463182806968688965e-01,1.500388264656066895e+00,-1.466093808412551880e-01
7.472520470619201660e-01,1.502265453338623047e+00,-8.793236315250396729e-02
7.482020854949951172e-01,1.504175424575805664e+00,-2.932420559227466583e-02
7.491727471351623535e-01,1.506126761436462402e+00,2.936224825680255890e-02
7.501059770584106445e-01,1.508002996444702148e+00,8.826819807291030884e-02
7.510860562324523926e-01,1.509973287582397461e+00,1.475459784269332886e-01
7.520501613616943359e-01,1.511911511421203613e+00,2.073368281126022339e-01
7.530984878540039062e-01,1.514019012451171875e+00,2.678244113922119141e-01
7.541002631187438965e-01,1.516033053398132324e+00,3.291298151016235352e-01
7.550039291381835938e-01,1.517849683761596680e+00,3.913804888725280762e-01
7.157153487205505371e-01,1.492043256759643555e+00,-4.434079825878143311e-01
7.167070508003234863e-01,1.494110703468322754e+00,-3.825749456882476807e-01
7.176225781440734863e-01,1.496019244194030762e+00,-3.225218355655670166e-01
7.185896039009094238e-01,1.498035192489624023e+00,-2.631504833698272705e-01
7.195170521736145020e-01,1.499968647956848145e+00,-2.042657732963562012e-01
7.204325199127197266e-01,1.501877188682556152e+00,-1.457323133945465088e-01
7.213668227195739746e-01,1.503824830055236816e+00,-8.741031587123870850e-02
7.222844958305358887e-01,1.505737900733947754e+00,-2.915013395249843597e-02
7.231858968734741211e-01,1.507617115974426270e+00,2.918651327490806580e-02
7.241142392158508301e-01,1.509552359580993652e+00,8.774323016405105591e-02
7.250417470932006836e-01,1.511485934257507324e+00,1.466646939516067505e-01
7.259446382522583008e-01,1.513368248939514160e+00,2.060905247926712036e-01
7.269215583801269531e-01,1.515404701232910156e+00,2.662017047405242920e-01
7.278461456298828125e-01,1.517332196235656738e+00,3.271166384220123291e-01
7.288435101509094238e-01,1.519411444664001465e+00,3.890533447265625000e-01
6.903000473976135254e-01,1.493505835533142090e+00,-4.408611357212066650e-01
6.912862062454223633e-01,1.495639324188232422e+00,-3.803938329219818115e-01
6.921889781951904297e-01,1.497592568397521973e+00,-3.206922113895416260e-01
6.931329369544982910e-01,1.499634861946105957e+00,-2.616619169712066650e-01
6.939693093299865723e-01,1.501444458961486816e+00,-2.030932605266571045e-01
6.948636174201965332e-01,1.503379344940185547e+00,-1.448981463909149170e-01
6.957541108131408691e-01,1.505305886268615723e+00,-8.690865337848663330e-02
6.966379284858703613e-01,1.507218122482299805e+00,-2.898278087377548218e-02
6.975188851356506348e-01,1.509124159812927246e+00,2.901943214237689972e-02
6.984019875526428223e-01,1.511034846305847168e+00,8.723940700292587280e-02
6.993563175201416016e-01,1.513099551200866699e+00,1.458349972963333130e-01
7.002148628234863281e-01,1.514957070350646973e+00,2.049210518598556519e-01
7.011364102363586426e-01,1.516950845718383789e+00,2.646832764148712158e-01
7.019972801208496094e-01,1.518813490867614746e+00,3.252364397048950195e-01
7.030946016311645508e-01,1.521187543869018555e+00,3.868916332721710205e-01
6.652742028236389160e-01,1.495186090469360352e+00,-4.385013580322265625e-01
6.661195755004882812e-01,1.497086167335510254e+00,-3.782980740070343018e-01
6.670174598693847656e-01,1.499104142189025879e+00,-3.189387917518615723e-01
6.678652167320251465e-01,1.501009464263916016e+00,-2.602071464061737061e-01
6.687542200088500977e-01,1.503007411956787109e+00,-2.019892036914825439e-01
6.695739626884460449e-01,1.504849791526794434e+00,-1.441014111042022705e-01
6.704333424568176270e-01,1.506781220436096191e+00,-8.643093705177307129e-02
6.712853908538818359e-01,1.508696198463439941e+00,-2.882348932325839996e-02
6.721320152282714844e-01,1.510599017143249512e+00,2.885984070599079132e-02
6.730265021324157715e-01,1.512609243392944336e+00,8.676524460315704346e-02
6.738595366477966309e-01,1.514481544494628906e+00,1.450237184762954712e-01
6.747502088546752930e-01,1.516483187675476074e+00,2.038002163171768188e-01
6.756090521812438965e-01,1.518413543701171875e+00,2.632242143154144287e-01
6.765462160110473633e-01,1.520519733428955078e+00,3.234950006008148193e-01
6.774097084999084473e-01,1.522460341453552246e+00,3.847098946571350098e-01
6.403449773788452148e-01,1.496463894844055176e+00,-4.361433982849121094e-01
6.412045955657958984e-01,1.498472809791564941e+00,-3.762907683849334717e-01
6.421045660972595215e-01,1.500576019287109375e+00,-3.172640800476074219e-01
6.429433226585388184e-01,1.502536177635192871e+00,-2.588499486446380615e-01
6.437530517578125000e-01,1.504428386688232422e+00,-2.009212672710418701e-01
6.445590853691101074e-01,1.506312131881713867e+00,-1.433432996273040771e-01
6.453894376754760742e-01,1.508252620697021484e+00,-8.597664535045623779e-02
6.462100744247436523e-01,1.510170459747314453e+00,-2.867200598120689392e-02
6.470211744308471680e-01,1.512065887451171875e+00,2.870799228549003601e-02
6.478641033172607422e-01,1.514035820960998535e+00,8.630631119012832642e-02
6.487132906913757324e-01,1.516020417213439941e+00,1.442671567201614380e-01
6.495470404624938965e-01,1.517968773841857910e+00,2.027296423912048340e-01
6.503365039825439453e-01,1.519813776016235352e+00,2.618264555931091309e-01
6.511912345886230469e-01,1.521811246871948242e+00,3.217537999153137207e-01
6.521294116973876953e-01,1.524003624916076660e+00,3.827019929885864258e-01
6.157934665679931641e-01,1.498010516166687012e+00,-4.339808225631713867e-01
6.166546940803527832e-01,1.500105619430541992e+00,-3.744459748268127441e-01
6.174451112747192383e-01,1.502028346061706543e+00,-3.156702518463134766e-01
6.182037591934204102e-01,1.503873944282531738e+00,-2.575296461582183838e-01
6.190175414085388184e-01,1.505853652954101562e+00,-1.999078243970870972e-01
6.198126673698425293e-01,1.507787942886352539e+00,-1.426248848438262939e-01
6.206054687500000000e-01,1.509716391563415527e+00,-8.554495126008987427e-02
6.213931441307067871e-01,1.511632680892944336e+00,-2.852797880768775940e-02
6.221795678138732910e-01,1.513545751571655273e+00,2.856408245861530304e-02
6.229691505432128906e-01,1.515466451644897461e+00,8.587077260017395020e-02
6.237493753433227539e-01,1.517364382743835449e+00,1.435307413339614868e-01
6.246001720428466797e-01,1.519434213638305664e+00,2.017106860876083374e-01
6.254364252090454102e-01,1.521468400955200195e+00,2.605426013469696045e-01
6.262221932411193848e-01,1.523380041122436523e+00,3.201575875282287598e-01
6.270776987075805664e-01,1.525461077690124512e+00,3.807750344276428223e-01
5.913671255111694336e-01,1.499257922172546387e+00,-4.318457543849945068e-01
5.921145081520080566e-01,1.501152753829956055e+00,-3.725536763668060303e-01
5.929159522056579590e-01,1.503184556961059570e+00,-3.140974938869476318e-01
5.936728715896606445e-01,1.505103468894958496e+00,-2.562587857246398926e-01
5.944690704345703125e-01,1.507122159004211426e+00,-1.989262551069259644e-01
5.951996445655822754e-01,1.508974194526672363e+00,-1.419166922569274902e-01
5.959656238555908203e-01,1.510916113853454590e+00,-8.512086421251296997e-02
5.967225432395935059e-01,1.512835144996643066e+00,-2.838657423853874207e-02
5.974720120429992676e-01,1.514735341072082520e+00,2.842222712934017181e-02
5.982642173767089844e-01,1.516743779182434082e+00,8.544917404651641846e-02
5.989976525306701660e-01,1.518603086471557617e+00,1.428222805261611938e-01
5.997852087020874023e-01,1.520599842071533203e+00,2.007051855325698853e-01
6.005442142486572266e-01,1.522523999214172363e+00,2.592248022556304932e-01
6.013804674148559570e-01,1.524644255638122559e+00,3.185815811157226562e-01
6.021534204483032227e-01,1.526603817939758301e+00,3.788700997829437256e-01
5.672694444656372070e-01,1.500743150711059570e+00,-4.298907816410064697e-01
5.680356025695800781e-01,1.502770066261291504e+00,-3.708992302417755127e-01
5.687462687492370605e-01,1.504650235176086426e+00,-3.126706779003143311e-01
5.695106983184814453e-01,1.506672620773315430e+00,-2.551119029521942139e-01
5.702447295188903809e-01,1.508614420890808105e+00,-1.980256140232086182e-01
5.709702372550964355e-01,1.510533809661865234e+00,-1.412802785634994507e-01
5.717123746871948242e-01,1.512497186660766602e+00,-8.474023640155792236e-02
5.724387764930725098e-01,1.514418959617614746e+00,-2.825965359807014465e-02
5.731494426727294922e-01,1.516299009323120117e+00,2.829473651945590973e-02
5.738835930824279785e-01,1.518241286277770996e+00,8.506206423044204712e-02
5.746179819107055664e-01,1.520184159278869629e+00,1.421828866004943848e-01
5.753335356712341309e-01,1.522077202796936035e+00,1.997927725315093994e-01
5.761212706565856934e-01,1.524161100387573242e+00,2.580730915069580078e-01
5.768725872039794922e-01,1.526148915290832520e+00,3.171381652355194092e-01
5.777034163475036621e-01,1.528346776962280273e+00,3.772118389606475830e-01
5.432922840118408203e-01,1.501961469650268555e+00,-4.279683530330657959e-01
5.440764427185058594e-01,1.504129290580749512e+00,-3.692748248577117920e-01
5.447916388511657715e-01,1.506106495857238770e+00,-3.113209903240203857e-01
5.454723238945007324e-01,1.507988333702087402e+00,-2.539866864681243896e-01
5.461972951889038086e-01,1.509992599487304688e+00,-1.971600949764251709e-01
5.468965768814086914e-01,1.511925697326660156e+00,-1.406639069318771362e-01
5.475846529006958008e-01,1.513828039169311523e+00,-8.436702936887741089e-02
5.482807755470275879e-01,1.515752553939819336e+00,-2.813521400094032288e-02
5.489850640296936035e-01,1.517699480056762695e+00,2.817135304212570190e-02
5.496828556060791016e-01,1.519628524780273438e+00,8.469029515981674194e-02
5.503630042076110840e-01,1.521508932113647461e+00,1.415555030107498169e-01
5.511013269424438477e-01,1.523550033569335938e+00,1.989302933216094971e-01
5.518199801445007324e-01,1.525536775588989258e+00,2.569423317909240723e-01
5.524875521659851074e-01,1.527382373809814453e+00,3.157188296318054199e-01
5.533699989318847656e-01,1.529821872711181641e+00,3.755825459957122803e-01
5.196537375450134277e-01,1.503545284271240234e+00,-4.262565970420837402e-01
5.203356742858886719e-01,1.505518317222595215e+00,-3.677496910095214844e-01
5.209720730781555176e-01,1.507359743118286133e+00,-3.100068867206573486e-01
5.216655731201171875e-01,1.509366273880004883e+00,-2.529352307319641113e-01
5.223353505134582520e-01,1.511304259300231934e+00,-1.963350474834442139e-01
5.230311155319213867e-01,1.513317227363586426e+00,-1.400825232267379761e-01
5.236880183219909668e-01,1.515217900276184082e+00,-8.401813358068466187e-02
5.243524909019470215e-01,1.517140388488769531e+00,-2.801879309117794037e-02
5.250277519226074219e-01,1.519094347953796387e+00,2.805487811565399170e-02
5.256669521331787109e-01,1.520943641662597656e+00,8.433562517166137695e-02
5.263418555259704590e-01,1.522896409034729004e+00,1.409692317247390747e-01
5.270039439201354980e-01,1.524812102317810059e+00,1.980898678302764893e-01
5.277400612831115723e-01,1.526941895484924316e+00,2.558805048465728760e-01
5.284482240676879883e-01,1.528990983963012695e+00,3.144555985927581787e-01
5.290917158126831055e-01,1.530852675437927246e+00,3.739380538463592529e-01
4.962092638015747070e-01,1.505148768424987793e+00,-4.246541261672973633e-01
4.968006908893585205e-01,1.506942629814147949e+00,-3.663231134414672852e-01
4.974533915519714355e-01,1.508922457695007324e+00,-3.088322877883911133e-01
4.981439411640167236e-01,1.511017084121704102e+00,-2.519912123680114746e-01
4.987446963787078857e-01,1.512839436531066895e+00,-1.955870538949966431e-01
4.993903040885925293e-01,1.514797687530517578e+00,-1.395436078310012817e-01
5.000267624855041504e-01,1.516728281974792480e+00,-8.369644731283187866e-02
5.006614923477172852e-01,1.518653631210327148e+00,-2.791153453290462494e-02
5.012959837913513184e-01,1.520578265190124512e+00,2.794690616428852081e-02
5.019258260726928711e-01,1.522488594055175781e+00,8.401431888341903687e-02
5.026098489761352539e-01,1.524563550949096680e+00,1.404432356357574463e-01
5.032125115394592285e-01,1.526391625404357910e+00,1.973391324281692505e-01
5.038688182830810547e-01,1.528382301330566406e+00,2.548871934413909912e-01
5.046061873435974121e-01,1.530619144439697266e+00,3.132729530334472656e-01
5.053004622459411621e-01,1.532724857330322266e+00,3.725905120372772217e-01
4.727563560009002686e-01,1.506169080734252930e+00,-4.229895472526550293e-01
4.733805656433105469e-01,1.508157849311828613e+00,-3.649339973926544189e-01
4.740478992462158203e-01,1.510283946990966797e+00,-3.076906800270080566e-01
4.746697545051574707e-01,1.512265086174011230e+00,-2.510405778884887695e-01
4.752699732780456543e-01,1.514177322387695312e+00,-1.948605626821517944e-01
4.758671224117279053e-01,1.516079902648925781e+00,-1.390200108289718628e-01
4.764829277992248535e-01,1.518041729927062988e+00,-8.338404446840286255e-02
4.770880639553070068e-01,1.519969701766967773e+00,-2.780736610293388367e-02
4.776824116706848145e-01,1.521863222122192383e+00,2.784200944006443024e-02
4.783011972904205322e-01,1.523834705352783203e+00,8.370223641395568848e-02
4.789242446422576904e-01,1.525819540023803711e+00,1.399131119251251221e-01
4.795356094837188721e-01,1.527767419815063477e+00,1.966094821691513062e-01
4.801140725612640381e-01,1.529610276222229004e+00,2.539199292659759521e-01
4.807540774345397949e-01,1.531649351119995117e+00,3.120434582233428955e-01
4.814752936363220215e-01,1.533947110176086426e+00,3.711743354797363281e-01
4.496051073074340820e-01,1.507595181465148926e+00,-4.215395450592041016e-01
4.502484202384948730e-01,1.509752273559570312e+00,-3.637231588363647461e-01
4.508361220359802246e-01,1.511722922325134277e+00,-3.066377341747283936e-01
4.513966143131256104e-01,1.513602375984191895e+00,-2.501643598079681396e-01
4.519980251789093018e-01,1.515619039535522461e+00,-1.941936165094375610e-01
4.525773525238037109e-01,1.517561554908752441e+00,-1.385476887226104736e-01
4.531465768814086914e-01,1.519470334053039551e+00,-8.309772610664367676e-02
4.537223279476165771e-01,1.521400928497314453e+00,-2.771189995110034943e-02
4.543045461177825928e-01,1.523353099822998047e+00,2.774745970964431763e-02
4.548806846141815186e-01,1.525285005569458008e+00,8.341572433710098267e-02
4.554413557052612305e-01,1.527165055274963379e+00,1.394244432449340820e-01
4.560545384883880615e-01,1.529221057891845703e+00,1.959364265203475952e-01
4.566528201103210449e-01,1.531227231025695801e+00,2.530773580074310303e-01
4.572102725505828857e-01,1.533096432685852051e+00,3.109731376171112061e-01
4.578294456005096436e-01,1.535172581672668457e+00,3.698472976684570312e-01
4.265599250793457031e-01,1.508844017982482910e+00,-4.201385080814361572e-01
4.271264374256134033e-01,1.510847806930541992e+00,-3.624770641326904297e-01
4.277327954769134521e-01,1.512992739677429199e+00,-3.056221604347229004e-01
4.282955825328826904e-01,1.514983415603637695e+00,-2.493538707494735718e-01
4.288363456726074219e-01,1.516896247863769531e+00,-1.935509741306304932e-01
4.293718039989471436e-01,1.518790245056152344e+00,-1.380846202373504639e-01
4.299135804176330566e-01,1.520706653594970703e+00,-8.282032608985900879e-02
4.304587244987487793e-01,1.522634983062744141e+00,-2.761932276189327240e-02
4.310097396373748779e-01,1.524584054946899414e+00,2.765467576682567596e-02
4.315711557865142822e-01,1.526569962501525879e+00,8.313965052366256714e-02
4.321337342262268066e-01,1.528559923171997070e+00,1.389728486537933350e-01
4.326831698417663574e-01,1.530503392219543457e+00,1.952872127294540405e-01
4.332004785537719727e-01,1.532333135604858398e+00,2.522095143795013428e-01
4.337742626667022705e-01,1.534362792968750000e+00,3.099388778209686279e-01
4.344238638877868652e-01,1.536660671234130859e+00,3.686699867248535156e-01
4.037824869155883789e-01,1.510532736778259277e+00,-4.189565181732177734e-01
4.042665660381317139e-01,1.512343764305114746e+00,-3.614106774330139160e-01
4.048031270503997803e-01,1.514350891113281250e+00,-3.046948909759521484e-01
4.053121805191040039e-01,1.516255259513854980e+00,-2.485828697681427002e-01
4.058560132980346680e-01,1.518289685249328613e+00,-1.929677873849868774e-01
4.063510298728942871e-01,1.520141482353210449e+00,-1.376645714044570923e-01
4.068743884563446045e-01,1.522099375724792480e+00,-8.257054537534713745e-02
4.073904752731323242e-01,1.524030089378356934e+00,-2.753603458404541016e-02
4.079005122184753418e-01,1.525938153266906738e+00,2.757051028311252594e-02
4.084440469741821289e-01,1.527971506118774414e+00,8.288909494876861572e-02
4.089431762695312500e-01,1.529838681221008301e+00,1.385427415370941162e-01
4.094874858856201172e-01,1.531874895095825195e+00,1.946943998336791992e-01
4.100153148174285889e-01,1.533849477767944336e+00,2.514673769474029541e-01
4.106118381023406982e-01,1.536081075668334961e+00,3.090671002864837646e-01
4.111714363098144531e-01,1.538174510002136230e+00,3.675835430622100830e-01
3.809944987297058105e-01,1.511681795120239258e+00,-4.177199006080627441e-01
3.815028965473175049e-01,1.513698935508728027e+00,-3.603926897048950195e-01
3.819738328456878662e-01,1.515567541122436523e+00,-3.038084805011749268e-01
3.824876248836517334e-01,1.517606019973754883e+00,-2.478813976049423218e-01
3.829769790172576904e-01,1.519547700881958008e+00,-1.924112588167190552e-01
3.834567964076995850e-01,1.521451473236083984e+00,-1.372720897197723389e-01
3.839373588562011719e-01,1.523358345031738281e+00,-8.233229070901870728e-02
3.844245970249176025e-01,1.525291442871093750e+00,-2.745659463107585907e-02
3.849196135997772217e-01,1.527255535125732422e+00,2.749194949865341187e-02
3.854189217090606689e-01,1.529236674308776855e+00,8.264999091625213623e-02
3.859143853187561035e-01,1.531202554702758789e+00,1.381518691778182983e-01
3.863933980464935303e-01,1.533103108406066895e+00,1.941276937723159790e-01
3.869277238845825195e-01,1.535223126411437988e+00,2.507589161396026611e-01
3.874374330043792725e-01,1.537245631217956543e+00,3.081540465354919434e-01
3.878959119319915771e-01,1.539064645767211914e+00,3.664319217205047607e-01
3.583486676216125488e-01,1.512877702713012695e+00,-4.165903627872467041e-01
3.588821291923522949e-01,1.515129923820495605e+00,-3.594735264778137207e-01
3.592955470085144043e-01,1.516875267028808594e+00,-3.030086755752563477e-01
3.597618341445922852e-01,1.518843889236450195e+00,-2.472171634435653687e-01
3.602548539638519287e-01,1.520925283432006836e+00,-1.919130980968475342e-01
3.606977462768554688e-01,1.522795081138610840e+00,-1.369134783744812012e-01
3.611606061458587646e-01,1.524749279022216797e+00,-8.211965858936309814e-02
3.616191148757934570e-01,1.526684880256652832e+00,-2.738570049405097961e-02
3.620730936527252197e-01,1.528601527214050293e+00,2.742007933557033539e-02
3.625515997409820557e-01,1.530621647834777832e+00,8.243593573570251465e-02
3.629838526248931885e-01,1.532446622848510742e+00,1.377812474966049194e-01
3.634519875049591064e-01,1.534422874450683594e+00,1.936162561178207397e-01
3.639849424362182617e-01,1.536673069000244141e+00,2.501191496849060059e-01
3.644075393676757812e-01,1.538457036018371582e+00,3.073198497295379639e-01
3.648780286312103271e-01,1.540443420410156250e+00,3.654793202877044678e-01
3.358841538429260254e-01,1.514354944229125977e+00,-4.156307280063629150e-01
3.362689018249511719e-01,1.516089677810668945e+00,-3.585225641727447510e-01
3.367711305618286133e-01,1.518354058265686035e+00,-3.023102283477783203e-01
3.371783196926116943e-01,1.520189762115478516e+00,-2.466254234313964844e-01
3.376220762729644775e-01,1.522190570831298828e+00,-1.914433687925338745e-01
3.380508422851562500e-01,1.524123668670654297e+00,-1.365839093923568726e-01
3.384737074375152588e-01,1.526030182838439941e+00,-8.191933482885360718e-02
3.389036059379577637e-01,1.527968406677246094e+00,-2.731890976428985596e-02
3.393404185771942139e-01,1.529937863349914551e+00,2.735412307083606720e-02
3.397742807865142822e-01,1.531893968582153320e+00,8.223410695791244507e-02
3.401981890201568604e-01,1.533805131912231445e+00,1.374514997005462646e-01
3.406674861907958984e-01,1.535920977592468262e+00,1.931702196598052979e-01
3.410487174987792969e-01,1.537639737129211426e+00,2.494563907384872437e-01
3.415632545948028564e-01,1.539959669113159180e+00,3.066119849681854248e-01
3.420541882514953613e-01,1.542172908782958984e+00,3.646906912326812744e-01
3.134436607360839844e-01,1.515464782714843750e+00,-4.146614670753479004e-01
3.138571679592132568e-01,1.517464041709899902e+00,-3.577485680580139160e-01
3.143051564693450928e-01,1.519629955291748047e+00,-3.016376495361328125e-01
3.147207796573638916e-01,1.521639585494995117e+00,-2.461045980453491211e-01
3.151197731494903564e-01,1.523568630218505859e+00,-1.910298466682434082e-01
3.155144155025482178e-01,1.525476574897766113e+00,-1.362864822149276733e-01
3.159132897853851318e-01,1.527405142784118652e+00,-8.174203336238861084e-02
3.163135945796966553e-01,1.529340624809265137e+00,-2.725970372557640076e-02
3.167173564434051514e-01,1.531292676925659180e+00,2.729449793696403503e-02
3.171282708644866943e-01,1.533279538154602051e+00,8.205641061067581177e-02
3.175395727157592773e-01,1.535268068313598633e+00,1.371612399816513062e-01
3.179408311843872070e-01,1.537208080291748047e+00,1.927399933338165283e-01
3.183179795742034912e-01,1.539031624794006348e+00,2.489175200462341309e-01
3.187421560287475586e-01,1.541082382202148438e+00,3.058958053588867188e-01
3.192299306392669678e-01,1.543440818786621094e+00,3.638727068901062012e-01
2.911630272865295410e-01,1.516882300376892090e+00,-4.138666391372680664e-01
2.915880382061004639e-01,1.519096493721008301e+00,-3.571128845214843750e-01
2.919157147407531738e-01,1.520803570747375488e+00,-3.010104000568389893e-01
2.923362255096435547e-01,1.522994279861450195e+00,-2.456217855215072632e-01
2.926927804946899414e-01,1.524851799011230469e+00,-1.906459182500839233e-01
2.930543720722198486e-01,1.526735663414001465e+00,-1.360102742910385132e-01
2.934349477291107178e-01,1.528718352317810059e+00,-8.157918602228164673e-02
2.938069105148315430e-01,1.530656218528747559e+00,-2.720540761947631836e-02
2.941710948944091797e-01,1.532553553581237793e+00,2.723912894725799561e-02
2.945580184459686279e-01,1.534569263458251953e+00,8.189141005277633667e-02
2.949545681476593018e-01,1.536635160446166992e+00,1.368921846151351929e-01
2.952917218208312988e-01,1.538391590118408203e+00,1.923387348651885986e-01
2.957329750061035156e-01,1.540690541267395020e+00,2.484757602214813232e-01
2.960847616195678711e-01,1.542523264884948730e+00,3.053093254566192627e-01
2.964815497398376465e-01,1.544590473175048828e+00,3.631060719490051270e-01
2.689494788646697998e-01,1.518217563629150391e+00,-4.131383001804351807e-01
2.693166434764862061e-01,1.520290255546569824e+00,-3.564507961273193359e-01
2.696546614170074463e-01,1.522198438644409180e+00,-3.004917204380035400e-01
2.699808180332183838e-01,1.524039506912231445e+00,-2.451420128345489502e-01
2.703391611576080322e-01,1.526062369346618652e+00,-1.902939826250076294e-01
2.706864774227142334e-01,1.528023004531860352e+00,-1.357658952474594116e-01
2.710299789905548096e-01,1.529962062835693359e+00,-8.143018931150436401e-02
2.713736891746520996e-01,1.531902194023132324e+00,-2.715573273599147797e-02
2.717183828353881836e-01,1.533848166465759277e+00,2.719022706151008606e-02
2.720617055892944336e-01,1.535786151885986328e+00,8.174016326665878296e-02
2.723979949951171875e-01,1.537684559822082520e+00,1.366243362426757812e-01
2.727734744548797607e-01,1.539803981781005859e+00,1.920075118541717529e-01
2.731446623802185059e-01,1.541899323463439941e+00,2.480147629976272583e-01
2.734956741333007812e-01,1.543880820274353027e+00,3.047719895839691162e-01
2.738971114158630371e-01,1.546146869659423828e+00,3.625132143497467041e-01
2.468158602714538574e-01,1.519588112831115723e+00,-4.125076532363891602e-01
2.471325993537902832e-01,1.521538138389587402e+00,-3.558775782585144043e-01
2.474294602870941162e-01,1.523365855216979980e+00,-2.999923527240753174e-01
2.477613240480422974e-01,1.525409102439880371e+00,-2.447668164968490601e-01
2.480804622173309326e-01,1.527374029159545898e+00,-1.899952888488769531e-01
2.484130710363388062e-01,1.529421687126159668e+00,-1.355603635311126709e-01
2.487212866544723511e-01,1.531319379806518555e+00,-8.130461722612380981e-02
2.490368336439132690e-01,1.533262133598327637e+00,-2.711387351155281067e-02
2.493604719638824463e-01,1.535254597663879395e+00,2.714910916984081268e-02
2.496608942747116089e-01,1.537104249000549316e+00,8.161176741123199463e-02
2.499795109033584595e-01,1.539065957069396973e+00,1.364151835441589355e-01
2.502905428409576416e-01,1.540980935096740723e+00,1.916879117488861084e-01
2.506448328495025635e-01,1.543162226676940918e+00,2.476154714822769165e-01
2.509877085685729980e-01,1.545273184776306152e+00,3.043065071105957031e-01
2.513016462326049805e-01,1.547206163406372070e+00,3.618811368942260742e-01
2.247347235679626465e-01,1.520883798599243164e+00,-4.119439423084259033e-01
2.250049859285354614e-01,1.522712707519531250e+00,-3.553626239299774170e-01
2.253091037273406982e-01,1.524770855903625488e+00,-2.996032536029815674e-01
2.255963534116744995e-01,1.526714801788330078e+00,-2.444331496953964233e-01
2.259038388729095459e-01,1.528795599937438965e+00,-1.897504776716232300e-01
2.261788845062255859e-01,1.530656933784484863e+00,-1.353690475225448608e-01
2.264684736728668213e-01,1.532616734504699707e+00,-8.119308203458786011e-02
2.267558872699737549e-01,1.534561872482299805e+00,-2.707668952643871307e-02
2.270409464836120605e-01,1.536491036415100098e+00,2.711072750389575958e-02
2.273435443639755249e-01,1.538538813591003418e+00,8.150681108236312866e-02
2.276160418987274170e-01,1.540382981300354004e+00,1.362291872501373291e-01
2.279146015644073486e-01,1.542403340339660645e+00,1.914394348859786987e-01
2.282023429870605469e-01,1.544350743293762207e+00,2.472567260265350342e-01
2.285331934690475464e-01,1.546589732170104980e+00,3.038904666900634766e-01
2.288438528776168823e-01,1.548692107200622559e+00,3.614255487918853760e-01
2.027101963758468628e-01,1.522182583808898926e+00,-4.114677011966705322e-01
2.029908150434494019e-01,1.524289727210998535e+00,-3.550162017345428467e-01
2.032482773065567017e-01,1.526222944259643555e+00,-2.992863059043884277e-01
2.034955620765686035e-01,1.528079867362976074e+00,-2.441603690385818481e-01
2.037666141986846924e-01,1.530115246772766113e+00,-1.895328462123870850e-01
2.040274441242218018e-01,1.532073974609375000e+00,-1.352222263813018799e-01
2.042834609746932983e-01,1.533996343612670898e+00,-8.110295236110687256e-02
2.045428156852722168e-01,1.535943865776062012e+00,-2.704664506018161774e-02
2.048053890466690063e-01,1.537915587425231934e+00,2.708136662840843201e-02
2.050649672746658325e-01,1.539864778518676758e+00,8.141322433948516846e-02
2.053172886371612549e-01,1.541759490966796875e+00,1.360770910978317261e-01
2.055987417697906494e-01,1.543873071670532227e+00,1.912370026111602783e-01
2.058756500482559204e-01,1.545952439308166504e+00,2.470160722732543945e-01
2.061361372470855713e-01,1.547908425331115723e+00,3.035387098789215088e-01
2.064357697963714600e-01,1.550158500671386719e+00,3.610411882400512695e-01
1.807191073894500732e-01,1.523369550704956055e+00,-4.110472202301025391e-01
1.809556484222412109e-01,1.525363445281982422e+00,-3.546267151832580566e-01
1.811765134334564209e-01,1.527225136756896973e+00,-2.989436686038970947e-01
1.814227253198623657e-01,1.529300689697265625e+00,-2.439155131578445435e-01
1.816578507423400879e-01,1.531282663345336914e+00,-1.893359869718551636e-01
1.818888634443283081e-01,1.533229947090148926e+00,-1.350806355476379395e-01
1.821206659078598022e-01,1.535183906555175781e+00,-8.101961761713027954e-02
1.823513060808181763e-01,1.537128090858459473e+00,-2.701876871287822723e-02
1.825820058584213257e-01,1.539072751998901367e+00,2.705295197665691376e-02
1.828151047229766846e-01,1.541037678718566895e+00,8.132855594158172607e-02
1.830468326807022095e-01,1.542991042137145996e+00,1.359406113624572754e-01
1.832711845636367798e-01,1.544882178306579590e+00,1.910175085067749023e-01
1.835269927978515625e-01,1.547038555145263672e+00,2.467446029186248779e-01
1.837732642889022827e-01,1.549114465713500977e+00,3.032283484935760498e-01
1.839972138404846191e-01,1.551002264022827148e+00,3.605873882770538330e-01
1.587688922882080078e-01,1.524558782577514648e+00,-4.107128679752349854e-01
1.590073257684707642e-01,1.526848435401916504e+00,-3.544065058231353760e-01
1.591883748769760132e-01,1.528586745262145996e+00,-2.987335920333862305e-01
1.593960374593734741e-01,1.530580878257751465e+00,-2.437308579683303833e-01
1.595979779958724976e-01,1.532520055770874023e+00,-1.891871392726898193e-01
1.598114967346191406e-01,1.534570336341857910e+00,-1.349833756685256958e-01
1.600111126899719238e-01,1.536487102508544922e+00,-8.095923066139221191e-02
1.602138280868530273e-01,1.538433670997619629e+00,-2.699864469468593597e-02
1.604207307100296021e-01,1.540420293807983398e+00,2.703350968658924103e-02
1.606144756078720093e-01,1.542280793190002441e+00,8.126451075077056885e-02
1.608228832483291626e-01,1.544281959533691406e+00,1.358376294374465942e-01
1.610289067029953003e-01,1.546260356903076172e+00,1.908833682537078857e-01
1.612670272588729858e-01,1.548546910285949707e+00,2.465917617082595825e-01
1.614518612623214722e-01,1.550321698188781738e+00,3.029812872409820557e-01
1.616628170013427734e-01,1.552347302436828613e+00,3.603252470493316650e-01
1.368467807769775391e-01,1.525711894035339355e+00,-4.104537963867187500e-01
1.370442956686019897e-01,1.527914166450500488e+00,-3.541623055934906006e-01
1.372245997190475464e-01,1.529924273490905762e+00,-2.985805273056030273e-01
1.373962610960006714e-01,1.531838178634643555e+00,-2.435929477214813232e-01
1.375826895236968994e-01,1.533916711807250977e+00,-1.890970915555953979e-01
1.377502381801605225e-01,1.535784721374511719e+00,-1.349029392004013062e-01
1.379285156726837158e-01,1.537772297859191895e+00,-8.091463893651962280e-02
1.381033211946487427e-01,1.539721250534057617e+00,-2.698378637433052063e-02
1.382750272750854492e-01,1.541635632514953613e+00,2.701733633875846863e-02
1.384592950344085693e-01,1.543689966201782227e+00,8.122601360082626343e-02
1.386261135339736938e-01,1.545549869537353516e+00,1.357607096433639526e-01
1.388112604618072510e-01,1.547613978385925293e+00,1.907856613397598267e-01
1.389915645122528076e-01,1.549624323844909668e+00,2.464212924242019653e-01
1.391590982675552368e-01,1.551492214202880859e+00,3.027897477149963379e-01
1.393529176712036133e-01,1.553653001785278320e+00,3.601284325122833252e-01
1.149792373180389404e-01,1.527281284332275391e+00,-4.103911817073822021e-01
1.151349246501922607e-01,1.529349207878112793e+00,-3.540766835212707520e-01
1.152785867452621460e-01,1.531257510185241699e+00,-2.984881401062011719e-01
1.154176145792007446e-01,1.533104300498962402e+00,-2.435066252946853638e-01
1.155718415975570679e-01,1.535152792930603027e+00,-1.890261769294738770e-01
1.157210096716880798e-01,1.537134170532226562e+00,-1.348621696233749390e-01
1.158681809902191162e-01,1.539089202880859375e+00,-8.088837563991546631e-02
1.160150766372680664e-01,1.541040420532226562e+00,-2.697503939270973206e-02
1.161620318889617920e-01,1.542992353439331055e+00,2.700920775532722473e-02
1.163080260157585144e-01,1.544931650161743164e+00,8.119543641805648804e-02
1.164506524801254272e-01,1.546826124191284180e+00,1.357125043869018555e-01
1.166115254163742065e-01,1.548963069915771484e+00,1.907266527414321899e-01
1.167710050940513611e-01,1.551081418991088867e+00,2.463619858026504517e-01
1.169223040342330933e-01,1.553091168403625488e+00,3.027441799640655518e-01
1.170574352145195007e-01,1.554886102676391602e+00,3.599890172481536865e-01
9.308308362960815430e-02,1.528344392776489258e+00,-4.102768301963806152e-01
9.320506453514099121e-02,1.530347228050231934e+00,-3.539626300334930420e-01
9.333961457014083862e-02,1.532556533813476562e+00,-2.984503507614135742e-01
9.346385300159454346e-02,1.534596443176269531e+00,-2.435061931610107422e-01
9.358242899179458618e-02,1.536543369293212891e+00,-1.890131086111068726e-01
9.369895607233047485e-02,1.538456559181213379e+00,-1.348467171192169189e-01
9.381600469350814819e-02,1.540378451347351074e+00,-8.087728172540664673e-02
9.393498301506042480e-02,1.542331933975219727e+00,-2.697134763002395630e-02
9.405617415904998779e-02,1.544321775436401367e+00,2.700614742934703827e-02
9.417874366044998169e-02,1.546334266662597656e+00,8.118999004364013672e-02
9.430067986249923706e-02,1.548336386680603027e+00,1.357126832008361816e-01
9.441889822483062744e-02,1.550277352333068848e+00,1.907025575637817383e-01
9.452925622463226318e-02,1.552089333534240723e+00,2.462819367647171021e-01
9.465593844652175903e-02,1.554169416427612305e+00,3.026592731475830078e-01
9.480525553226470947e-02,1.556621074676513672e+00,3.600396513938903809e-01
7.121533900499343872e-02,1.529851913452148438e+00,-4.103658497333526611e-01
7.130246609449386597e-02,1.531723618507385254e+00,-3.540086448192596436e-01
7.140090316534042358e-02,1.533838272094726562e+00,-2.984703779220581055e-01
7.149298489093780518e-02,1.535816431045532227e+00,-2.435124665498733521e-01
7.158233225345611572e-02,1.537735819816589355e+00,-1.890143901109695435e-01
7.167177647352218628e-02,1.539657115936279297e+00,-1.348482072353363037e-01
7.176489382982254028e-02,1.541657567024230957e+00,-8.088222146034240723e-02
7.185593247413635254e-02,1.543613195419311523e+00,-2.697300724685192108e-02
7.194484025239944458e-02,1.545523166656494141e+00,2.700638025999069214e-02
7.203834503889083862e-02,1.547531843185424805e+00,8.119040727615356445e-02
7.213304191827774048e-02,1.549566030502319336e+00,1.357160657644271851e-01
7.222652435302734375e-02,1.551574349403381348e+00,1.907153874635696411e-01
7.231555879116058350e-02,1.553486943244934082e+00,2.463142424821853638e-01
7.241883873939514160e-02,1.555705666542053223e+00,3.027255535125732422e-01
7.251521944999694824e-02,1.557775974273681641e+00,3.600298166275024414e-01
4.931803792715072632e-02,1.530876755714416504e+00,-4.104093611240386963e-01
4.938960820436477661e-02,1.533098340034484863e+00,-3.541267216205596924e-01
4.945474863052368164e-02,1.535120368003845215e+00,-2.985515296459197998e-01
4.951654002070426941e-02,1.537038445472717285e+00,-2.435688972473144531e-01
4.957756027579307556e-02,1.538932561874389648e+00,-1.890548914670944214e-01
4.964337497949600220e-02,1.540975570678710938e+00,-1.348876357078552246e-01
4.970680549740791321e-02,1.542944431304931641e+00,-8.090411871671676636e-02
4.976988956332206726e-02,1.544902682304382324e+00,-2.698032557964324951e-02
4.983258247375488281e-02,1.546848654747009277e+00,2.701430954039096832e-02
4.989330843091011047e-02,1.548733711242675781e+00,8.120767772197723389e-02
4.995981231331825256e-02,1.550797939300537109e+00,1.357474178075790405e-01
5.002661049365997314e-02,1.552871465682983398e+00,1.907672733068466187e-01
5.009141191840171814e-02,1.554883003234863281e+00,2.463966608047485352e-01
5.015139654278755188e-02,1.556744933128356934e+00,3.027570843696594238e-01
5.022128671407699585e-02,1.558914303779602051e+00,3.600898981094360352e-01
2.742033824324607849e-02,1.532389760017395020e+00,-4.106676876544952393e-01
2.745790965855121613e-02,1.534489512443542480e+00,-3.543209731578826904e-01
2.749245986342430115e-02,1.536420345306396484e+00,-2.986972332000732422e-01
2.752574905753135681e-02,1.538280725479125977e+00,-2.436783611774444580e-01
2.756262570619583130e-02,1.540341496467590332e+00,-1.891601532697677612e-01
2.759803459048271179e-02,1.542320370674133301e+00,-1.349569559097290039e-01
2.763269841670989990e-02,1.544257640838623047e+00,-8.094394952058792114e-02
2.766777947545051575e-02,1.546218156814575195e+00,-2.699361741542816162e-02
2.770325541496276855e-02,1.548200607299804688e+00,2.702822908759117126e-02
2.773823030292987823e-02,1.550155282020568848e+00,8.125308156013488770e-02
2.777213789522647858e-02,1.552050113677978516e+00,1.358083337545394897e-01
2.781036868691444397e-02,1.554186701774597168e+00,1.908604055643081665e-01
2.784810587763786316e-02,1.556295633316040039e+00,2.465321123600006104e-01
2.788373269140720367e-02,1.558286666870117188e+00,3.029482662677764893e-01
2.791535295546054840e-02,1.560053825378417969e+00,3.602238893508911133e-01
5.490077659487724304e-03,1.533771395683288574e+00,-4.109748005867004395e-01
5.497220437973737717e-03,1.535766839981079102e+00,-3.545614480972290039e-01
5.503862630575895309e-03,1.537622570991516113e+00,-2.988850176334381104e-01
5.511325784027576447e-03,1.539707541465759277e+00,-2.438669204711914062e-01
5.517697427421808243e-03,1.541487574577331543e+00,-1.892718076705932617e-01
5.524846725165843964e-03,1.543484926223754883e+00,-1.350380927324295044e-01
5.531958770006895065e-03,1.545471787452697754e+00,-8.099514245986938477e-02
5.538962315768003464e-03,1.547428369522094727e+00,-2.701059728860855103e-02
5.545896012336015701e-03,1.549365401268005371e+00,2.704440616071224213e-02
5.552840419113636017e-03,1.551305532455444336e+00,8.130087703466415405e-02
5.560675635933876038e-03,1.553494572639465332e+00,1.359138339757919312e-01
5.567505955696105957e-03,1.555402636528015137e+00,1.909803748130798340e-01
5.575343500822782516e-03,1.557592272758483887e+00,2.466995865106582642e-01
5.582867190241813660e-03,1.559694051742553711e+00,3.031753003597259521e-01
5.589688196778297424e-03,1.561599731445312500e+00,3.605254590511322021e-01
-1.647413708269596100e-02,1.534841179847717285e+00,-4.112825095653533936e-01
-1.649507135152816772e-02,1.536791443824768066e+00,-3.548161685466766357e-01
-1.651858910918235779e-02,1.538982629776000977e+00,-2.991647124290466309e-01
-1.654041931033134460e-02,1.541016459465026855e+00,-2.440867274999618530e-01
-1.656139455735683441e-02,1.542970776557922363e+00,-1.894636154174804688e-01
-1.658215746283531189e-02,1.544905066490173340e+00,-1.351692676544189453e-01
-1.660315878689289093e-02,1.546861767768859863e+00,-8.107213675975799561e-02
-1.662418618798255920e-02,1.548820614814758301e+00,-2.703628316521644592e-02
-1.664535515010356903e-02,1.550793051719665527e+00,2.707071229815483093e-02
-1.666691713035106659e-02,1.552801847457885742e+00,8.138345927000045776e-02
-1.668851636350154877e-02,1.554814100265502930e+00,1.360362470149993896e-01
-1.670960150659084320e-02,1.556778669357299805e+00,1.911591142416000366e-01
-1.672944054007530212e-02,1.558626890182495117e+00,2.468760907649993896e-01
-1.675254292786121368e-02,1.560779213905334473e+00,3.034017682075500488e-01
-1.677389629185199738e-02,1.562768816947937012e+00,3.608138263225555420e-01
-3.848402947187423706e-02,1.536242127418518066e+00,-4.117633402347564697e-01
-3.853042051196098328e-02,1.538094162940979004e+00,-3.552078604698181152e-01
-3.858364373445510864e-02,1.540218710899353027e+00,-2.994816601276397705e-01
-3.863364830613136292e-02,1.542214751243591309e+00,-2.443390935659408569e-01
-3.868239745497703552e-02,1.544160962104797363e+00,-1.896583139896392822e-01
-3.873432800173759460e-02,1.546233892440795898e+00,-1.353201717138290405e-01
-3.878265246748924255e-02,1.548162937164306641e+00,-8.116111159324645996e-02
-3.883178532123565674e-02,1.550124168395996094e+00,-2.706596627831459045e-02
-3.888200595974922180e-02,1.552128911018371582e+00,2.710097096860408783e-02
-3.892878815531730652e-02,1.553996443748474121e+00,8.146693557500839233e-02
-3.897951543331146240e-02,1.556021451950073242e+00,1.361767351627349854e-01
-3.902980312705039978e-02,1.558028936386108398e+00,1.913616359233856201e-01
-3.907790780067443848e-02,1.559949278831481934e+00,2.471488267183303833e-01
-3.913445025682449341e-02,1.562206268310546875e+00,3.037569522857666016e-01
-3.918762132525444031e-02,1.564328789710998535e+00,3.612665235996246338e-01
-6.055061891674995422e-02,1.537663102149963379e+00,-4.123342931270599365e-01
-6.061978638172149658e-02,1.539419651031494141e+00,-3.556779325008392334e-01
-6.070093438029289246e-02,1.541480422019958496e+00,-2.998652160167694092e-01
-6.078904122114181519e-02,1.543717861175537109e+00,-2.446900159120559692e-01
-6.086231395602226257e-02,1.545578598976135254e+00,-1.899199783802032471e-01
-6.094180047512054443e-02,1.547597050666809082e+00,-1.355019360780715942e-01
-6.101667881011962891e-02,1.549498558044433594e+00,-8.126859366893768311e-02
-6.109400093555450439e-02,1.551462173461914062e+00,-2.710182219743728638e-02
-6.117422133684158325e-02,1.553499341011047363e+00,2.713740803301334381e-02
-6.125011295080184937e-02,1.555426716804504395e+00,8.157951384782791138e-02
-6.133344024419784546e-02,1.557542681694030762e+00,1.363727301359176636e-01
-6.140283867716789246e-02,1.559305071830749512e+00,1.916066855192184448e-01
-6.148118898272514343e-02,1.561294794082641602e+00,2.474760711193084717e-01
-6.157408654689788818e-02,1.563653826713562012e+00,3.041786253452301025e-01
-6.166279315948486328e-02,1.565906524658203125e+00,3.617976307868957520e-01
-8.266926556825637817e-02,1.538832306861877441e+00,-4.129228293895721436e-01
-8.275948464870452881e-02,1.540511608123779297e+00,-3.561674356460571289e-01
-8.288671076297760010e-02,1.542879819869995117e+00,-3.003374636173248291e-01
-8.298661559820175171e-02,1.544739484786987305e+00,-2.450151294469833374e-01
-8.309748023748397827e-02,1.546803236007690430e+00,-1.901971399784088135e-01
-8.319683372974395752e-02,1.548652648925781250e+00,-1.356847286224365234e-01
-8.330406993627548218e-02,1.550648689270019531e+00,-8.138311654329299927e-02
-8.340967446565628052e-02,1.552614450454711914e+00,-2.714002504944801331e-02
-8.351389318704605103e-02,1.554554462432861328e+00,2.717393822968006134e-02
-8.362712711095809937e-02,1.556662201881408691e+00,8.169873058795928955e-02
-8.372969925403594971e-02,1.558571577072143555e+00,1.365537643432617188e-01
-8.384545892477035522e-02,1.560726284980773926e+00,1.919091492891311646e-01
-8.393552154302597046e-02,1.562402725219726562e+00,2.478167414665222168e-01
-8.406671136617660522e-02,1.564844727516174316e+00,3.046131432056427002e-01
-8.416161686182022095e-02,1.566611409187316895e+00,3.622017204761505127e-01
-1.048760190606117249e-01,1.540303468704223633e+00,-4.136780202388763428e-01
-1.050139367580413818e-01,1.542329072952270508e+00,-3.568986058235168457e-01
-1.051417514681816101e-01,1.544206261634826660e+00,-3.008578121662139893e-01
-1.052662879228591919e-01,1.546035408973693848e+00,-2.454345226287841797e-01
-1.054067164659500122e-01,1.548097848892211914e+00,-1.905223280191421509e-01
-1.055426448583602905e-01,1.550094127655029297e+00,-1.359294503927230835e-01
-1.056768149137496948e-01,1.552064776420593262e+00,-8.152846992015838623e-02
-1.058108359575271606e-01,1.554033041000366211e+00,-2.718851156532764435e-02
-1.059449985623359680e-01,1.556003451347351074e+00,2.722298540174961090e-02
-1.060783639550209045e-01,1.557962179183959961e+00,8.183825761079788208e-02
-1.062087640166282654e-01,1.559877395629882812e+00,1.367873549461364746e-01
-1.063579171895980835e-01,1.562067985534667969e+00,1.922416090965270996e-01
-1.065067499876022339e-01,1.564253807067871094e+00,2.483267188072204590e-01
-1.066490262746810913e-01,1.566343545913696289e+00,3.051708042621612549e-01
-1.067773625254631042e-01,1.568228244781494141e+00,3.628917336463928223e-01
-1.271443367004394531e-01,1.541484713554382324e+00,-4.144415557384490967e-01
-1.273057758808135986e-01,1.543442010879516602e+00,-3.575411736965179443e-01
-1.274570226669311523e-01,1.545275688171386719e+00,-3.013907372951507568e-01
-1.276296675205230713e-01,1.547368764877319336e+00,-2.459110170602798462e-01
-1.277938932180404663e-01,1.549359917640686035e+00,-1.908832043409347534e-01
-1.279546469449996948e-01,1.551308751106262207e+00,-1.361826211214065552e-01
-1.281152814626693726e-01,1.553256273269653320e+00,-8.167902380228042603e-02
-1.282777935266494751e-01,1.555226683616638184e+00,-2.723872847855091095e-02
