-5.233131408691406250e+00,-1.378838896751403809e+00,1.051932811737060547e+00
-5.241711139678955078e+00,-1.381099581718444824e+00,1.251443624496459961e+00
-3.868643522262573242e+00,-1.078762292861938477e+00,-1.076144814491271973e+00
-4.624739646911621094e+00,-1.289597868919372559e+00,-1.108436822891235352e+00
-5.005956172943115234e+00,-1.395899176597595215e+00,-1.010180234909057617e+00
-5.012275695800781250e+00,-1.397661328315734863e+00,-8.241514563560485840e-01
-5.019134998321533203e+00,-1.399574160575866699e+00,-6.397823095321655273e-01
-5.025810718536376953e+00,-1.401435613632202148e+00,-4.564754962921142578e-01
-5.032435894012451172e+00,-1.403282999992370605e+00,-2.738001048564910889e-01
-5.039085865020751953e+00,-1.405137300491333008e+00,-9.131304174661636353e-02
-5.045775413513183594e+00,-1.407002806663513184e+00,9.143427014350891113e-02
-5.052460193634033203e+00,-1.408866763114929199e+00,2.748895585536956787e-01
-5.059036731719970703e+00,-1.410700559616088867e+00,4.594933092594146729e-01
-5.066302299499511719e+00,-1.412726640701293945e+00,6.457946896553039551e-01
-5.072313308715820312e+00,-1.414402723312377930e+00,8.340232372283935547e-01
-5.080270767211914062e+00,-1.416621565818786621e+00,1.025176644325256348e+00
-5.086332321166992188e+00,-1.418311834335327148e+00,1.219069242477416992e+00
-3.858304738998413086e+00,-1.135637640953063965e+00,-1.077680110931396484e+00
-4.598039627075195312e+00,-1.353368163108825684e+00,-1.106567025184631348e+00
-4.858381748199462891e+00,-1.429996132850646973e+00,-9.844298958778381348e-01
-4.864929199218750000e+00,-1.431923389434814453e+00,-8.032115697860717773e-01
-4.871275901794433594e+00,-1.433791399002075195e+00,-6.234869956970214844e-01
-4.877613544464111328e+00,-1.435656785964965820e+00,-4.448361396789550781e-01
-4.884161472320556641e+00,-1.437584042549133301e+00,-2.668251097202301025e-01
-4.890609264373779297e+00,-1.439481854438781738e+00,-8.898674696683883667e-02
-4.896938800811767578e+00,-1.441344857215881348e+00,8.910191804170608521e-02
-4.903556823730468750e+00,-1.443292856216430664e+00,2.678847014904022217e-01
-4.910242557525634766e+00,-1.445260643959045410e+00,4.478119015693664551e-01
-4.916828632354736328e+00,-1.447199225425720215e+00,6.293174028396606445e-01
-4.923098564147949219e+00,-1.449044585227966309e+00,8.128154277801513672e-01
-4.930117130279541016e+00,-1.451110482215881348e+00,9.989653825759887695e-01
-4.936589717864990234e+00,-1.453015685081481934e+00,1.188042640686035156e+00
-3.834599971771240234e+00,-1.188554167747497559e+00,-1.075700640678405762e+00
-4.578710556030273438e+00,-1.419195055961608887e+00,-1.106690526008605957e+00
-4.728806018829345703e+00,-1.465718030929565430e+00,-9.623271226882934570e-01
-4.734989166259765625e+00,-1.467634558677673340e+00,-7.851460576057434082e-01
-4.741617202758789062e+00,-1.469688892364501953e+00,-6.095217466354370117e-01
-4.747980594635009766e+00,-1.471661329269409180e+00,-4.348902404308319092e-01
-4.754204750061035156e+00,-1.473590493202209473e+00,-2.608510255813598633e-01
-4.760476112365722656e+00,-1.475534319877624512e+00,-8.699430525302886963e-02
-4.766778945922851562e+00,-1.477487921714782715e+00,8.710947632789611816e-02
-4.772982597351074219e+00,-1.479410767555236816e+00,2.618813216686248779e-01
-4.778993129730224609e+00,-1.481273651123046875e+00,4.377308189868927002e-01
-4.785587310791015625e+00,-1.483317613601684570e+00,6.151739358901977539e-01
-4.792018890380859375e+00,-1.485311150550842285e+00,7.946025729179382324e-01
-4.799336910247802734e+00,-1.487579345703125000e+00,9.766802787780761719e-01
-4.804757595062255859e+00,-1.489259600639343262e+00,1.161327004432678223e+00
-3.827451705932617188e+00,-1.246653437614440918e+00,-1.078590512275695801e+00
-4.555592536926269531e+00,-1.483818888664245605e+00,-1.106122970581054688e+00
-4.595412254333496094e+00,-1.496788620948791504e+00,-9.394446611404418945e-01
-4.601884365081787109e+00,-1.498896837234497070e+00,-7.665538787841796875e-01
-4.608071327209472656e+00,-1.500911951065063477e+00,-5.950554609298706055e-01
-4.614148139953613281e+00,-1.502891302108764648e+00,-4.245587587356567383e-01
-4.620240211486816406e+00,-1.504875540733337402e+00,-2.546565234661102295e-01
-4.626299858093261719e+00,-1.506849288940429688e+00,-8.492777496576309204e-02
-4.632369995117187500e+00,-1.508826375007629395e+00,8.503920584917068481e-02
-4.638497829437255859e+00,-1.510822296142578125e+00,2.556628286838531494e-01
-4.644588470458984375e+00,-1.512806057929992676e+00,4.273596107959747314e-01
-4.650485515594482422e+00,-1.514726877212524414e+00,6.005325317382812500e-01
-4.657099246978759766e+00,-1.516880989074707031e+00,7.757511734962463379e-01
-4.663438320159912109e+00,-1.518945693969726562e+00,9.533512592315673828e-01
-4.670665264129638672e+00,-1.521299600601196289e+00,1.134063243865966797e+00
-3.803526401519775391e+00,-1.299360036849975586e+00,-1.076979160308837891e+00
-4.466517925262451172e+00,-1.525851011276245117e+00,-1.089686512947082520e+00
-4.472836494445800781e+00,-1.528009653091430664e+00,-9.187634587287902832e-01
-4.478782176971435547e+00,-1.530040740966796875e+00,-7.496194839477539062e-01
-4.484582424163818359e+00,-1.532022237777709961e+00,-5.818809866905212402e-01
-4.490697383880615234e+00,-1.534111261367797852e+00,-4.151776731014251709e-01
-4.496483325958251953e+00,-1.536087751388549805e+00,-2.490216642618179321e-01
-4.502376556396484375e+00,-1.538100957870483398e+00,-8.304847776889801025e-02
-4.508419513702392578e+00,-1.540165543556213379e+00,8.315995335578918457e-02
-4.514142513275146484e+00,-1.542120575904846191e+00,2.499996870756149292e-01
-4.520284175872802734e+00,-1.544218659400939941e+00,4.179130494594573975e-01
-4.526374340057373047e+00,-1.546299219131469727e+00,5.873035788536071777e-01
-4.532211303710937500e+00,-1.548293232917785645e+00,7.585619688034057617e-01
-4.538823604583740234e+00,-1.550552129745483398e+00,9.323177933692932129e-01
-4.544984817504882812e+00,-1.552656769752502441e+00,1.108829855918884277e+00
-3.779503822326660156e+00,-1.351861476898193359e+00,-1.075545787811279297e+00
-4.346437931060791016e+00,-1.554643750190734863e+00,-1.065710544586181641e+00
-4.352299213409423828e+00,-1.556740283966064453e+00,-8.984888792037963867e-01
-4.358592510223388672e+00,-1.558991312980651855e+00,-7.331629395484924316e-01
-4.364024162292480469e+00,-1.560933947563171387e+00,-5.690790414810180664e-01
-4.369899272918701172e+00,-1.563035488128662109e+00,-4.060363471508026123e-01
-4.375670433044433594e+00,-1.565099596977233887e+00,-2.435465902090072632e-01
-4.381401062011718750e+00,-1.567149519920349121e+00,-8.122246712446212769e-02
-4.387103557586669922e+00,-1.569189190864562988e+00,8.132818341255187988e-02
-4.392740726470947266e+00,-1.571205496788024902e+00,2.444967329502105713e-01
-4.398923397064208984e+00,-1.573416829109191895e+00,4.087331593036651611e-01
-4.404299259185791016e+00,-1.575339674949645996e+00,5.743309855461120605e-01
-4.410264968872070312e+00,-1.577473521232604980e+00,7.418547272682189941e-01
-4.417128086090087891e+00,-1.579928398132324219e+00,9.118722081184387207e-01
-4.422238826751708984e+00,-1.581756472587585449e+00,1.084296345710754395e+00
-3.778702497482299805e+00,-1.412894725799560547e+00,-1.080962061882019043e+00
-4.236327171325683594e+00,-1.584005117416381836e+00,-1.044164419174194336e+00
-4.241621494293212891e+00,-1.585984826087951660e+00,-8.802368044853210449e-01
-4.247465133666992188e+00,-1.588169693946838379e+00,-7.182202339172363281e-01
-4.253045558929443359e+00,-1.590256214141845703e+00,-5.575183033943176270e-01
-4.258527278900146484e+00,-1.592306017875671387e+00,-3.977649807929992676e-01
-4.264026165008544922e+00,-1.594362139701843262e+00,-2.385783046483993530e-01
-4.269607067108154297e+00,-1.596448898315429688e+00,-7.956548780202865601e-02
-4.275283336639404297e+00,-1.598571300506591797e+00,7.967126369476318359e-02
-4.281015396118164062e+00,-1.600714445114135742e+00,2.395288646221160889e-01
-4.286715984344482422e+00,-1.602846145629882812e+00,4.003979563713073730e-01
-4.292240142822265625e+00,-1.604911684989929199e+00,5.626562237739562988e-01
-4.298468112945556641e+00,-1.607240200042724609e+00,7.268445491790771484e-01
-4.303209304809570312e+00,-1.609013080596923828e+00,8.930177092552185059e-01
-4.309902191162109375e+00,-1.611515641212463379e+00,1.062299251556396484e+00
-3.757632017135620117e+00,-1.466650366783142090e+00,-1.080829143524169922e+00
-4.127609729766845703e+00,-1.611057400703430176e+00,-1.022946953773498535e+00
-4.133374214172363281e+00,-1.613307237625122070e+00,-8.624767065048217773e-01
-4.138785839080810547e+00,-1.615419507026672363e+00,-7.036810517311096191e-01
-4.144054889678955078e+00,-1.617475986480712891e+00,-5.462099909782409668e-01
-4.149346351623535156e+00,-1.619541406631469727e+00,-3.896923363208770752e-01
-4.154855728149414062e+00,-1.621691703796386719e+00,-2.337448596954345703e-01
-4.160290718078613281e+00,-1.623813033103942871e+00,-7.795348763465881348e-02
-4.165636062622070312e+00,-1.625899314880371094e+00,7.805363833904266357e-02
-4.171263694763183594e+00,-1.628095984458923340e+00,2.346679568290710449e-01
-4.176981449127197266e+00,-1.630327582359313965e+00,3.922877013683319092e-01
-4.182644844055175781e+00,-1.632538199424743652e+00,5.512963533401489258e-01
-4.188065528869628906e+00,-1.634653925895690918e+00,7.120596170425415039e-01
-4.193010330200195312e+00,-1.636584043502807617e+00,8.749204874038696289e-01
-4.199999809265136719e+00,-1.639311909675598145e+00,1.040887355804443359e+00
-3.736533641815185547e+00,-1.520392179489135742e+00,-1.080909371376037598e+00
-4.021311283111572266e+00,-1.636267900466918945e+00,-1.002304553985595703e+00
-4.026720523834228516e+00,-1.638468980789184570e+00,-8.450291752815246582e-01
-4.031901359558105469e+00,-1.640577077865600586e+00,-6.894302964210510254e-01
-4.037512779235839844e+00,-1.642860293388366699e+00,-5.352117419242858887e-01
-4.042891502380371094e+00,-1.645048975944519043e+00,-3.818667232990264893e-01
-4.048143386840820312e+00,-1.647185921669006348e+00,-2.290443629026412964e-01
-4.053436279296875000e+00,-1.649339556694030762e+00,-7.638581842184066772e-02
-4.058753490447998047e+00,-1.651503086090087891e+00,7.648602873086929321e-02
-4.063982009887695312e+00,-1.653630733489990234e+00,2.299405187368392944e-01
-4.069036483764648438e+00,-1.655687212944030762e+00,3.843362033367156982e-01
-4.074639797210693359e+00,-1.657967329025268555e+00,5.401332974433898926e-01
-4.080122470855712891e+00,-1.660198211669921875e+00,6.976758241653442383e-01
-4.085252761840820312e+00,-1.662285685539245605e+00,8.573125004768371582e-01
-4.091131210327148438e+00,-1.664677619934082031e+00,1.019707083702087402e+00
-3.697625875473022461e+00,-1.566610574722290039e+00,-1.076030492782592773e+00
-3.923899173736572266e+00,-1.662478208541870117e+00,-9.838551282882690430e-01
-3.928848505020141602e+00,-1.664575099945068359e+00,-8.294051885604858398e-01
-3.933671236038208008e+00,-1.666618347167968750e+00,-6.766433119773864746e-01
-3.939023256301879883e+00,-1.668885827064514160e+00,-5.252686738967895508e-01
-3.944248199462890625e+00,-1.671099543571472168e+00,-3.747703731060028076e-01
-3.949452161788940430e+00,-1.673304438591003418e+00,-2.247925102710723877e-01
-3.954586744308471680e+00,-1.675479888916015625e+00,-7.496728748083114624e-02
-3.959690093994140625e+00,-1.677641987800598145e+00,7.506403326988220215e-02
-3.964808225631713867e+00,-1.679810404777526855e+00,2.256665378808975220e-01
-3.969857215881347656e+00,-1.681949615478515625e+00,3.772036433219909668e-01
-3.975551605224609375e+00,-1.684362173080444336e+00,5.301397442817687988e-01
-3.981230735778808594e+00,-1.686768293380737305e+00,6.848241686820983887e-01
-3.986661911010742188e+00,-1.689069390296936035e+00,8.416099548339843750e-01
-3.991569519042968750e+00,-1.691148757934570312e+00,1.000822424888610840e+00
-3.676432847976684570e+00,-1.620078682899475098e+00,-1.076501131057739258e+00
-3.822183609008789062e+00,-1.684306144714355469e+00,-9.642975330352783203e-01
-3.827615976333618164e+00,-1.686699867248535156e+00,-8.130477070808410645e-01
-3.832682847976684570e+00,-1.688932776451110840e+00,-6.633623838424682617e-01
-3.837578058242797852e+00,-1.691089987754821777e+00,-5.149160623550415039e-01
-3.842453718185424805e+00,-1.693238496780395508e+00,-3.673633635044097900e-01
-3.847413539886474609e+00,-1.695424079895019531e+00,-2.203434109687805176e-01
-3.852413654327392578e+00,-1.697627425193786621e+00,-7.348349690437316895e-02
-3.857488870620727539e+00,-1.699863910675048828e+00,7.358030229806900024e-02
-3.862684488296508789e+00,-1.702153444290161133e+00,2.212179750204086304e-01
-3.867920398712158203e+00,-1.704460740089416504e+00,3.697981536388397217e-01
-3.873065710067749023e+00,-1.706728100776672363e+00,5.196776390075683594e-01
-3.877948045730590820e+00,-1.708879590034484863e+00,6.711968779563903809e-01
-3.883527278900146484e+00,-1.711338162422180176e+00,8.249242305755615234e-01
-3.888698577880859375e+00,-1.713616967201232910e+00,9.810785651206970215e-01
-3.660881519317626953e+00,-1.676198124885559082e+00,-1.078862190246582031e+00
-3.734081983566284180e+00,-1.709714293479919434e+00,-9.481472969055175781e-01
-3.738341808319091797e+00,-1.711664795875549316e+00,-7.992067337036132812e-01
-3.743897676467895508e+00,-1.714208602905273438e+00,-6.521753072738647461e-01
-3.748589038848876953e+00,-1.716356635093688965e+00,-5.062202215194702148e-01
-3.753610134124755859e+00,-1.718655586242675781e+00,-3.611842691898345947e-01
-3.758362531661987305e+00,-1.720831632614135742e+00,-2.166318446397781372e-01
-3.763244867324829102e+00,-1.723067045211791992e+00,-7.224567234516143799e-02
-3.768289804458618164e+00,-1.725376963615417480e+00,7.234252244234085083e-02
-3.773077964782714844e+00,-1.727569222450256348e+00,2.174800485372543335e-01
-3.778279066085815430e+00,-1.729950666427612305e+00,3.635579943656921387e-01
-3.782663106918334961e+00,-1.731958031654357910e+00,5.108216404914855957e-01
-3.788512468338012695e+00,-1.734636306762695312e+00,6.599470973014831543e-01
-3.793157815933227539e+00,-1.736763238906860352e+00,8.109256625175476074e-01
-3.798485040664672852e+00,-1.739202380180358887e+00,9.645003676414489746e-01
-3.636484622955322266e+00,-1.728405714035034180e+00,-1.078852653503417969e+00
-3.641687393188476562e+00,-1.730878591537475586e+00,-9.308821558952331543e-01
-3.646484613418579102e+00,-1.733158707618713379e+00,-7.847920656204223633e-01
-3.651714086532592773e+00,-1.735644340515136719e+00,-6.403792500495910645e-01
-3.656183719635009766e+00,-1.737768530845642090e+00,-4.970495700836181641e-01
-3.661070346832275391e+00,-1.740091204643249512e+00,-3.546400666236877441e-01
-3.665866136550903320e+00,-1.742370605468750000e+00,-2.127160727977752686e-01
-3.670625209808349609e+00,-1.744632601737976074e+00,-7.093971967697143555e-02
-3.675358295440673828e+00,-1.746882200241088867e+00,7.103119045495986938e-02
-3.680035114288330078e+00,-1.749105095863342285e+00,2.135382443666458130e-01
-3.685209751129150391e+00,-1.751564502716064453e+00,3.569783866405487061e-01
-3.689673185348510742e+00,-1.753686070442199707e+00,5.016024112701416016e-01
-3.694698095321655273e+00,-1.756074428558349609e+00,6.479170918464660645e-01
-3.699440240859985352e+00,-1.758328199386596680e+00,7.961890697479248047e-01
-3.704946517944335938e+00,-1.760945439338684082e+00,9.470523595809936523e-01
-3.552258729934692383e+00,-1.751131772994995117e+00,-1.061192274093627930e+00
-3.557020902633666992e+00,-1.753479361534118652e+00,-9.155616164207458496e-01
-3.561465501785278320e+00,-1.755670309066772461e+00,-7.718236446380615234e-01
-3.566416978836059570e+00,-1.758111238479614258e+00,-6.297696232795715332e-01
-3.571127653121948242e+00,-1.760433435440063477e+00,-4.888619184494018555e-01
-3.575735092163085938e+00,-1.762704849243164062e+00,-3.487821221351623535e-01
-3.580334424972534180e+00,-1.764972090721130371e+00,-2.091974765062332153e-01
-3.584980249404907227e+00,-1.767262220382690430e+00,-6.976623833179473877e-02
-3.589684009552001953e+00,-1.769581079483032227e+00,6.985778361558914185e-02
-3.594414472579956055e+00,-1.771912932395935059e+00,2.100201696157455444e-01
-3.599093914031982422e+00,-1.774219751358032227e+00,3.510605692863464355e-01
-3.603605508804321289e+00,-1.776443958282470703e+00,4.933079481124877930e-01
-3.608754396438598633e+00,-1.778982043266296387e+00,6.372457146644592285e-01
-3.613705158233642578e+00,-1.781422615051269531e+00,7.831447720527648926e-01
-3.618207454681396484e+00,-1.783642053604125977e+00,9.313107728958129883e-01
-3.468564987182617188e+00,-1.772024393081665039e+00,-1.043660044670104980e+00
-3.473977565765380859e+00,-1.774789690971374512e+00,-9.006331562995910645e-01
-3.478085041046142578e+00,-1.776888132095336914e+00,-7.591879367828369141e-01
-3.482772350311279297e+00,-1.779282689094543457e+00,-6.194331049919128418e-01
-3.487303018569946289e+00,-1.781597495079040527e+00,-4.808285832405090332e-01
-3.491812705993652344e+00,-1.783901333808898926e+00,-3.430516719818115234e-01
-3.496469974517822266e+00,-1.786280632019042969e+00,-2.057701647281646729e-01
-3.501005649566650391e+00,-1.788597822189331055e+00,-6.862322241067886353e-02
-3.505407094955444336e+00,-1.790846467018127441e+00,6.870949268341064453e-02
-3.510011911392211914e+00,-1.793198943138122559e+00,2.065671086311340332e-01
-3.514648437500000000e+00,-1.795567631721496582e+00,3.452951610088348389e-01
-3.519200325012207031e+00,-1.797893166542053223e+00,4.852265715599060059e-01
-3.524460315704345703e+00,-1.800580263137817383e+00,6.268475651741027832e-01
-3.528494358062744141e+00,-1.802641272544860840e+00,7.701910734176635742e-01
-3.533118963241577148e+00,-1.805003881454467773e+00,9.159655570983886719e-01
-3.387550592422485352e+00,-1.792228937149047852e+00,-1.026897072792053223e+00
-3.391650676727294922e+00,-1.794398069381713867e+00,-8.858576416969299316e-01
-3.396339893341064453e+00,-1.796879053115844727e+00,-7.468822598457336426e-01
-3.400776863098144531e+00,-1.799226403236389160e+00,-6.093676090240478516e-01
-3.405550241470336914e+00,-1.801751971244812012e+00,-4.730638861656188965e-01
-3.409796953201293945e+00,-1.803998708724975586e+00,-3.374963104724884033e-01
-3.414268016815185547e+00,-1.806364178657531738e+00,-2.024333775043487549e-01
-3.418695449829101562e+00,-1.808706521987915039e+00,-6.751038879156112671e-02
-3.423066377639770508e+00,-1.811019062995910645e+00,6.759670376777648926e-02
-3.427716493606567383e+00,-1.813479185104370117e+00,2.032307237386703491e-01
-3.431868314743041992e+00,-1.815675854682922363e+00,3.396809101104736328e-01
-3.436450242996215820e+00,-1.818099975585937500e+00,4.773561954498291016e-01
-3.440873861312866211e+00,-1.820440292358398438e+00,6.165524125099182129e-01
-3.446034908294677734e+00,-1.823170900344848633e+00,7.578105926513671875e-01
-3.450917959213256836e+00,-1.825754284858703613e+00,9.013375639915466309e-01
-3.307088375091552734e+00,-1.810707211494445801e+00,-1.010259032249450684e+00
-3.311847209930419922e+00,-1.813312768936157227e+00,-8.717037439346313477e-01
-3.316221952438354492e+00,-1.815708041191101074e+00,-7.349035739898681641e-01
-3.320992469787597656e+00,-1.818320035934448242e+00,-5.996736288070678711e-01
-3.325026512145996094e+00,-1.820528745651245117e+00,-4.654503762722015381e-01
-3.329430341720581055e+00,-1.822939872741699219e+00,-3.320903480052947998e-01
-3.333721160888671875e+00,-1.825289249420166016e+00,-1.991863548755645752e-01
-3.338041782379150391e+00,-1.827654957771301270e+00,-6.642747670412063599e-02
-3.342381954193115234e+00,-1.830031275749206543e+00,6.651385128498077393e-02
-3.346638917922973633e+00,-1.832362055778503418e+00,1.999581605195999146e-01
-3.351341485977172852e+00,-1.834936738014221191e+00,3.342758417129516602e-01
-3.355349779129028320e+00,-1.837131381034851074e+00,4.696951508522033691e-01
-3.359871625900268555e+00,-1.839607238769531250e+00,6.066940426826477051e-01
-3.364118814468383789e+00,-1.841932654380798340e+00,7.455179691314697266e-01
-3.369087934494018555e+00,-1.844653367996215820e+00,8.867698907852172852e-01
-3.229261159896850586e+00,-1.828647971153259277e+00,-9.943781495094299316e-01
-3.233647108078002930e+00,-1.831131696701049805e+00,-8.579316139221191406e-01
-3.237723827362060547e+00,-1.833440065383911133e+00,-7.232492566108703613e-01
-3.242261886596679688e+00,-1.836009860038757324e+00,-5.901420712471008301e-01
-3.246546745300292969e+00,-1.838436365127563477e+00,-4.581011533737182617e-01
-3.250465869903564453e+00,-1.840655684471130371e+00,-3.268085122108459473e-01
-3.254747390747070312e+00,-1.843080163002014160e+00,-1.960238963365554810e-01
-3.258943796157836914e+00,-1.845456480979919434e+00,-6.537238508462905884e-02
-3.263086080551147461e+00,-1.847802162170410156e+00,6.545547395944595337e-02
-3.267642498016357422e+00,-1.850382208824157715e+00,1.968005150556564331e-01
-3.271859169006347656e+00,-1.852770090103149414e+00,3.289594352245330811e-01
-3.275890350341796875e+00,-1.855052828788757324e+00,4.622416496276855469e-01
-3.280498743057250977e+00,-1.857662558555603027e+00,5.971018075942993164e-01
-3.284907102584838867e+00,-1.860158801078796387e+00,7.337892055511474609e-01
-3.288888216018676758e+00,-1.862413167953491211e+00,8.725878000259399414e-01
-3.157017707824707031e+00,-1.847904086112976074e+00,-9.801766276359558105e-01
-3.161088466644287109e+00,-1.850286841392517090e+00,-8.456207513809204102e-01
-3.164916276931762695e+00,-1.852527260780334473e+00,-7.128356099128723145e-01
-3.169261693954467773e+00,-1.855070829391479492e+00,-5.816282629966735840e-01
-3.173421859741210938e+00,-1.857505917549133301e+00,-4.514882564544677734e-01
-3.177520751953125000e+00,-1.859905123710632324e+00,-3.221180438995361328e-01
-3.181642055511474609e+00,-1.862317442893981934e+00,-1.932066082954406738e-01
-3.185743093490600586e+00,-1.864717960357666016e+00,-6.443282216787338257e-02
-3.189851999282836914e+00,-1.867123007774353027e+00,6.451591849327087402e-02
-3.194015502929687500e+00,-1.869560122489929199e+00,1.939579993486404419e-01
-3.198163270950317383e+00,-1.871987938880920410e+00,3.242106735706329346e-01
-3.202193021774291992e+00,-1.874346613883972168e+00,4.555815756320953369e-01
-3.206853628158569336e+00,-1.877074599266052246e+00,5.885272026062011719e-01
-3.211380004882812500e+00,-1.879724025726318359e+00,7.233006358146667480e-01
-3.215547323226928711e+00,-1.882163405418395996e+00,8.601890206336975098e-01
-3.085059404373168945e+00,-1.865572452545166016e+00,-9.660269618034362793e-01
-3.089825153350830078e+00,-1.868454217910766602e+00,-8.336260318756103516e-01
-3.093419075012207031e+00,-1.870627522468566895e+00,-7.026908397674560547e-01
-3.097583055496215820e+00,-1.873145580291748047e+00,-5.733354091644287109e-01
-3.102015495300292969e+00,-1.875826001167297363e+00,-4.451034963130950928e-01
-3.105898380279541016e+00,-1.878173947334289551e+00,-3.175501227378845215e-01
-3.109865903854370117e+00,-1.880573153495788574e+00,-1.904630362987518311e-01
-3.113873243331909180e+00,-1.882996559143066406e+00,-6.351783871650695801e-02
-3.117949485778808594e+00,-1.885461449623107910e+00,6.360097974538803101e-02
-3.122138500213623047e+00,-1.887994527816772461e+00,1.912146657705307007e-01
-3.125802755355834961e+00,-1.890210390090942383e+00,3.195851743221282959e-01
-3.129821300506591797e+00,-1.892640590667724609e+00,4.490933120250701904e-01
-3.134523630142211914e+00,-1.895484089851379395e+00,5.801727771759033203e-01
-3.138126134872436523e+00,-1.897662520408630371e+00,7.128463387489318848e-01
-3.142318487167358398e+00,-1.900197744369506836e+00,8.477886319160461426e-01
-3.015382051467895508e+00,-1.882895708084106445e+00,-9.525503516197204590e-01
-3.019852161407470703e+00,-1.885686993598937988e+00,-8.219453692436218262e-01
-3.023913621902465820e+00,-1.888223052024841309e+00,-6.929706335067749023e-01
-3.027755260467529297e+00,-1.890622019767761230e+00,-5.653617978096008301e-01
-3.031532764434814453e+00,-1.892980813980102539e+00,-4.388329386711120605e-01
-3.035596370697021484e+00,-1.895518183708190918e+00,-3.131042718887329102e-01
-3.039412975311279297e+00,-1.897901415824890137e+00,-1.877926737070083618e-01
-3.043327808380126953e+00,-1.900345921516418457e+00,-6.262725591659545898e-02
-3.047369718551635742e+00,-1.902869820594787598e+00,6.271043419837951660e-02
-3.051173925399780273e+00,-1.905245304107666016e+00,1.885193437337875366e-01
-3.055328845977783203e+00,-1.907839775085449219e+00,3.151395618915557861e-01
-3.059485673904418945e+00,-1.910435438156127930e+00,4.428792893886566162e-01
-3.063505649566650391e+00,-1.912945508956909180e+00,5.720373392105102539e-01
-3.067214727401733398e+00,-1.915261626243591309e+00,7.028936147689819336e-01
-3.071561813354492188e+00,-1.917976140975952148e+00,8.360197544097900391e-01
-2.946972608566284180e+00,-1.899335980415344238e+00,-9.394318461418151855e-01
-2.951163530349731445e+00,-1.902037024497985840e+00,-8.105766773223876953e-01
-2.955006122589111328e+00,-1.904513597488403320e+00,-6.833565831184387207e-01
-2.958689689636230469e+00,-1.906887650489807129e+00,-5.575048327445983887e-01
-2.962744235992431641e+00,-1.909500956535339355e+00,-4.327874481678009033e-01
-2.966379404067993164e+00,-1.911843657493591309e+00,-3.087558448314666748e-01
-2.970276594161987305e+00,-1.914355516433715820e+00,-1.851950585842132568e-01
-2.974101543426513672e+00,-1.916820645332336426e+00,-6.176095455884933472e-02
-2.977863311767578125e+00,-1.919245123863220215e+00,6.183907389640808105e-02
-2.981933593750000000e+00,-1.921868443489074707e+00,1.859218627214431763e-01
-2.985607385635375977e+00,-1.924236178398132324e+00,3.107572197914123535e-01
-2.989738941192626953e+00,-1.926899075508117676e+00,4.367307424545288086e-01
-2.993792295455932617e+00,-1.929511427879333496e+00,5.641192197799682617e-01
-2.997594118118286133e+00,-1.931961774826049805e+00,6.932052373886108398e-01
-3.002080917358398438e+00,-1.934853553771972656e+00,8.245618343353271484e-01
-2.883298635482788086e+00,-1.917254567146301270e+00,-9.277869462966918945e-01
-2.887258052825927734e+00,-1.919887423515319824e+00,-8.004899621009826660e-01
-2.890923976898193359e+00,-1.922325134277343750e+00,-6.748312115669250488e-01
-2.895004034042358398e+00,-1.925038218498229980e+00,-5.506401658058166504e-01
-2.898454904556274414e+00,-1.927332758903503418e+00,-4.273822903633117676e-01
-2.902285099029541016e+00,-1.929879665374755859e+00,-3.049285411834716797e-01
-2.906049728393554688e+00,-1.932382941246032715e+00,-1.828963309526443481e-01
-2.909790754318237305e+00,-1.934870600700378418e+00,-6.099432334303855896e-02
-2.913517713546752930e+00,-1.937348842620849609e+00,6.107245013117790222e-02
-2.917204141616821289e+00,-1.939800262451171875e+00,1.835983693599700928e-01
-2.921334743499755859e+00,-1.942546844482421875e+00,3.069300055503845215e-01
-2.924875736236572266e+00,-1.944901466369628906e+00,4.312780797481536865e-01
-2.928932905197143555e+00,-1.947599291801452637e+00,5.570935606956481934e-01
-2.932793617248535156e+00,-1.950166463851928711e+00,6.846048235893249512e-01
-2.936255455017089844e+00,-1.952468395233154297e+00,8.140744566917419434e-01
-2.817271232604980469e+00,-1.932063341140747070e+00,-9.153455495834350586e-01
-2.820981502532958984e+00,-1.934607863426208496e+00,-7.897112369537353516e-01
-2.824454784393310547e+00,-1.936989784240722656e+00,-6.657189130783081055e-01
-2.828385829925537109e+00,-1.939685702323913574e+00,-5.431942343711853027e-01
-2.832117319107055664e+00,-1.942244768142700195e+00,-4.216566979885101318e-01
-2.835758447647094727e+00,-1.944741845130920410e+00,-3.008326888084411621e-01
-2.839384078979492188e+00,-1.947228312492370605e+00,-1.804362982511520386e-01
-2.843038320541381836e+00,-1.949734330177307129e+00,-6.017390638589859009e-02
-2.846729755401611328e+00,-1.952265739440917969e+00,6.025203317403793335e-02
-2.850432395935058594e+00,-1.954805135726928711e+00,1.811383962631225586e-01
-2.854085445404052734e+00,-1.957310318946838379e+00,3.027769029140472412e-01
-2.857598781585693359e+00,-1.959719777107238770e+00,4.254504740238189697e-01
-2.861670732498168945e+00,-1.962512135505676270e+00,5.495866537094116211e-01
-2.865600109100341797e+00,-1.965206980705261230e+00,6.754167675971984863e-01
-2.869188308715820312e+00,-1.967667698860168457e+00,8.032063245773315430e-01
-2.755710124969482422e+00,-1.948414921760559082e+00,-9.043126106262207031e-01
-2.759217977523803711e+00,-1.950894951820373535e+00,-7.801582217216491699e-01
-2.763183355331420898e+00,-1.953698754310607910e+00,-6.578010916709899902e-01
-2.766350507736206055e+00,-1.955937981605529785e+00,-5.366020202636718750e-01
-2.770013809204101562e+00,-1.958528161048889160e+00,-4.165415465831756592e-01
-2.773847103118896484e+00,-1.961238503456115723e+00,-2.972123920917510986e-01
-2.777348279953002930e+00,-1.963714003562927246e+00,-1.782619804143905640e-01
-2.780921936035156250e+00,-1.966240644454956055e+00,-5.944876745343208313e-02
-2.784576177597045898e+00,-1.968824386596679688e+00,5.952688679099082947e-02
-2.787905216217041016e+00,-1.971178174018859863e+00,1.789395660161972046e-01
-2.791463375091552734e+00,-1.973693966865539551e+00,2.990999519824981689e-01
-2.795599222183227539e+00,-1.976618170738220215e+00,4.203889369964599609e-01
-2.798987627029418945e+00,-1.979013919830322266e+00,5.429328083992004395e-01
-2.802953958511352539e+00,-1.981818318367004395e+00,6.672688126564025879e-01
-2.806627511978149414e+00,-1.984415769577026367e+00,7.935631275177001953e-01
-2.695137262344360352e+00,-1.964040398597717285e+00,-8.935687541961669922e-01
-2.698454141616821289e+00,-1.966457366943359375e+00,-7.708569169044494629e-01
-2.702264547348022461e+00,-1.969234228134155273e+00,-6.499422788619995117e-01
-2.705829381942749023e+00,-1.971832156181335449e+00,-5.302828550338745117e-01
-2.709286689758300781e+00,-1.974351525306701660e+00,-4.116171002388000488e-01
-2.712742328643798828e+00,-1.976869821548461914e+00,-2.936668992042541504e-01
-2.716334342956542969e+00,-1.979487299919128418e+00,-1.761463433504104614e-01
-2.719828128814697266e+00,-1.982033371925354004e+00,-5.874319747090339661e-02
-2.723216533660888672e+00,-1.984502792358398438e+00,5.881638452410697937e-02
-2.726781368255615234e+00,-1.987100601196289062e+00,1.768238097429275513e-01
-2.730386972427368164e+00,-1.989727973937988281e+00,2.955769896507263184e-01
-2.733940362930297852e+00,-1.992317557334899902e+00,4.153626859188079834e-01
-2.737321376800537109e+00,-1.994781374931335449e+00,5.364546179771423340e-01
-2.741312980651855469e+00,-1.997690200805664062e+00,6.593341231346130371e-01
-2.745060443878173828e+00,-2.000421047210693359e+00,7.841708064079284668e-01
-2.635545492172241211e+00,-1.978979825973510742e+00,-8.831122517585754395e-01
-2.639446496963500977e+00,-1.981908917427062988e+00,-7.620261907577514648e-01
-2.642349720001220703e+00,-1.984088897705078125e+00,-6.422964334487915039e-01
-2.645815610885620117e+00,-1.986691236495971680e+00,-5.240406990051269531e-01
-2.649565935134887695e+00,-1.989507436752319336e+00,-4.068285524845123291e-01
-2.652862787246704102e+00,-1.991982936859130859e+00,-2.902415096759796143e-01
-2.656336069107055664e+00,-1.994590997695922852e+00,-1.740891635417938232e-01
-2.659751176834106445e+00,-1.997155308723449707e+00,-5.805711075663566589e-02
-2.663103103637695312e+00,-1.999672174453735352e+00,5.813027918338775635e-02
-2.666670322418212891e+00,-2.002350568771362305e+00,1.747664362192153931e-01
-2.669805526733398438e+00,-2.004704713821411133e+00,2.920951545238494873e-01
-2.673299312591552734e+00,-2.007328271865844727e+00,4.104727208614349365e-01
-2.677453517913818359e+00,-2.010447502136230469e+00,5.303070545196533203e-01
-2.680672645568847656e+00,-2.012864828109741211e+00,6.516118645668029785e-01
-2.684480667114257812e+00,-2.015724182128906250e+00,7.750278711318969727e-01
-2.576928615570068359e+00,-1.993273258209228516e+00,-8.729415535926818848e-01
-2.580650568008422852e+00,-1.996152162551879883e+00,-7.532231211662292480e-01
-2.584048986434936523e+00,-1.998780965805053711e+00,-6.350141167640686035e-01
-2.587285995483398438e+00,-2.001284837722778320e+00,-5.180686712265014648e-01
-2.590496778488159180e+00,-2.003768444061279297e+00,-4.021213948726654053e-01
-2.593987703323364258e+00,-2.006468534469604492e+00,-2.869128882884979248e-01
-2.597344875335693359e+00,-2.009065389633178711e+00,-1.720900386571884155e-01
-2.600683689117431641e+00,-2.011647939682006836e+00,-5.739041417837142944e-02
-2.603997945785522461e+00,-2.014211654663085938e+00,5.746355280280113220e-02
-2.607200384140014648e+00,-2.016688585281372070e+00,1.727430224418640137e-01
-2.610739231109619141e+00,-2.019426107406616211e+00,2.887657284736633301e-01
-2.614307165145874023e+00,-2.022186040878295898e+00,4.058174788951873779e-01
-2.617785215377807617e+00,-2.024876117706298828e+00,5.241757035255432129e-01
-2.621024847030639648e+00,-2.027381896972656250e+00,6.441006660461425781e-01
-2.624881029129028320e+00,-2.030364751815795898e+00,7.661328315734863281e-01
-2.519278049468994141e+00,-2.006959915161132812e+00,-8.630550503730773926e-01
-2.522833347320556641e+00,-2.009792327880859375e+00,-7.446678876876831055e-01
-2.526108264923095703e+00,-2.012401103973388672e+00,-6.277896761894226074e-01
-2.529736995697021484e+00,-2.015291929244995117e+00,-5.122687220573425293e-01
-2.532765150070190430e+00,-2.017704486846923828e+00,-3.976021111011505127e-01
-2.536106586456298828e+00,-2.020366191864013672e+00,-2.836803495883941650e-01
-2.539351940155029297e+00,-2.022951602935791016e+00,-1.701487004756927490e-01
-2.542615413665771484e+00,-2.025551319122314453e+00,-5.674297735095024109e-02
-2.545890569686889648e+00,-2.028160572052001953e+00,5.681606754660606384e-02
-2.549092531204223633e+00,-2.030711174011230469e+00,1.708013564348220825e-01
-2.552662372589111328e+00,-2.033555269241333008e+00,2.855322360992431641e-01
-2.555665493011474609e+00,-2.035947799682617188e+00,4.011970758438110352e-01
-2.559112071990966797e+00,-2.038693428039550781e+00,5.182171463966369629e-01
-2.562361001968383789e+00,-2.041281700134277344e+00,6.367992758750915527e-01
-2.566254854202270508e+00,-2.044383525848388672e+00,7.574846148490905762e-01
-2.462584733963012695e+00,-2.020078182220458984e+00,-8.534511327743530273e-01
-2.465986013412475586e+00,-2.022868394851684570e+00,-7.363592386245727539e-01
-2.469743251800537109e+00,-2.025950431823730469e+00,-6.209249496459960938e-01
-2.472689151763916016e+00,-2.028367042541503906e+00,-5.065438747406005859e-01
-2.476012706756591797e+00,-2.031093120574951172e+00,-3.932164311408996582e-01
-2.479210138320922852e+00,-2.033715963363647461e+00,-2.805434465408325195e-01
-2.482347726821899414e+00,-2.036289930343627930e+00,-1.682648509740829468e-01
-2.485537052154541016e+00,-2.038906097412109375e+00,-5.611471459269523621e-02
-2.488772630691528320e+00,-2.041560173034667969e+00,5.618776008486747742e-02
-2.491969823837280273e+00,-2.044183015823364258e+00,1.689170747995376587e-01
-2.495077133178710938e+00,-2.046731948852539062e+00,2.823389470577239990e-01
-2.498633384704589844e+00,-2.049649000167846680e+00,3.968088328838348389e-01
-2.501423358917236328e+00,-2.051937818527221680e+00,5.124302506446838379e-01
-2.504673242568969727e+00,-2.054603815078735352e+00,6.297067999839782715e-01
-2.508591651916503906e+00,-2.057818174362182617e+00,7.490815520286560059e-01
-2.410211801528930664e+00,-2.035514593124389648e+00,-8.453111052513122559e-01
-2.413370370864868164e+00,-2.038182020187377930e+00,-7.292844653129577637e-01
-2.416318178176879883e+00,-2.040671586990356445e+00,-6.147737503051757812e-01
-2.419671535491943359e+00,-2.043503761291503906e+00,-5.016235113143920898e-01
-2.422836780548095703e+00,-2.046176910400390625e+00,-3.893828988075256348e-01
-2.425711631774902344e+00,-2.048604726791381836e+00,-2.777793109416961670e-01
-2.428884983062744141e+00,-2.051284790039062500e+00,-1.666140705347061157e-01
-2.431991577148437500e+00,-2.053908348083496094e+00,-5.556387081742286682e-02
-2.435051441192626953e+00,-2.056492567062377930e+00,5.563377961516380310e-02
-2.438447713851928711e+00,-2.059360742568969727e+00,1.672700345516204834e-01
-2.441574335098266602e+00,-2.062001228332519531e+00,2.795958220958709717e-01
-2.444563388824462891e+00,-2.064525604248046875e+00,3.928746283054351807e-01
-2.448042869567871094e+00,-2.067464351654052734e+00,5.075051784515380859e-01
-2.451395273208618164e+00,-2.070295572280883789e+00,6.236982941627502441e-01
-2.454447507858276367e+00,-2.072873115539550781e+00,7.416973710060119629e-01
-2.355278491973876953e+00,-2.047585248947143555e+00,-8.362380862236022949e-01
-2.358305692672729492e+00,-2.050217151641845703e+00,-7.214387655258178711e-01
-2.361736059188842773e+00,-2.053199291229248047e+00,-6.083015203475952148e-01
-2.364441394805908203e+00,-2.055551052093505859e+00,-4.962223768234252930e-01
-2.367570877075195312e+00,-2.058271884918212891e+00,-3.851962387561798096e-01
-2.370640039443969727e+00,-2.060939788818359375e+00,-2.748227417469024658e-01
-2.373710155487060547e+00,-2.063609123229980469e+00,-1.648385375738143921e-01
-2.376745462417602539e+00,-2.066247701644897461e+00,-5.497172847390174866e-02
-2.379765272140502930e+00,-2.068872928619384766e+00,5.504157766699790955e-02
-2.382808446884155273e+00,-2.071518659591674805e+00,1.654703319072723389e-01
-2.385825395584106445e+00,-2.074141502380371094e+00,2.765831649303436279e-01
-2.389336109161376953e+00,-2.077193498611450195e+00,3.887373507022857666e-01
-2.392165899276733398e+00,-2.079653739929199219e+00,5.020408630371093750e-01
-2.395498752593994141e+00,-2.082551240921020508e+00,6.169976592063903809e-01
-2.398571252822875977e+00,-2.085222244262695312e+00,7.337565422058105469e-01
-2.303602457046508789e+00,-2.061282396316528320e+00,-8.282811641693115234e-01
-2.307218074798583984e+00,-2.064517498016357422e+00,-7.147769927978515625e-01
-2.309879064559936523e+00,-2.066898822784423828e+00,-6.025031805038452148e-01
-2.312987565994262695e+00,-2.069680213928222656e+00,-4.915906786918640137e-01
-2.315972089767456055e+00,-2.072350740432739258e+00,-3.815881609916687012e-01
-2.318920850753784180e+00,-2.074989318847656250e+00,-2.722422480583190918e-01
-2.321897506713867188e+00,-2.077652931213378906e+00,-1.632888913154602051e-01
-2.324866056442260742e+00,-2.080309152603149414e+00,-5.445493385195732117e-02
-2.327845335006713867e+00,-2.082975149154663086e+00,5.452471598982810974e-02
-2.330873250961303711e+00,-2.085684537887573242e+00,1.639201194047927856e-01
-2.333901643753051758e+00,-2.088394403457641602e+00,2.740010023117065430e-01
-2.336853742599487305e+00,-2.091035842895507812e+00,3.850286900997161865e-01
-2.340336561203002930e+00,-2.094152450561523438e+00,4.974032938480377197e-01
-2.342919111251831055e+00,-2.096463203430175781e+00,6.111212372779846191e-01
-2.345983028411865234e+00,-2.099204778671264648e+00,7.267863154411315918e-01
-2.251194715499877930e+00,-2.073162555694580078e+00,-8.200231194496154785e-01
-2.253895282745361328e+00,-2.075649499893188477e+00,-7.073891758918762207e-01
-2.257036447525024414e+00,-2.078542232513427734e+00,-5.964189171791076660e-01
-2.259967088699340820e+00,-2.081241130828857422e+00,-4.866034984588623047e-01
-2.262800216674804688e+00,-2.083850383758544922e+00,-3.777031302452087402e-01
-2.265626192092895508e+00,-2.086452722549438477e+00,-2.694639265537261963e-01
-2.268506526947021484e+00,-2.089105129241943359e+00,-1.616204679012298584e-01
-2.271406173706054688e+00,-2.091775655746459961e+00,-5.389852449297904968e-02
-2.274343252182006836e+00,-2.094480514526367188e+00,5.396822094917297363e-02
-2.277356386184692383e+00,-2.097255229949951172e+00,1.622509956359863281e-01
-2.280396699905395508e+00,-2.100054979324340820e+00,2.712206542491912842e-01
-2.283387660980224609e+00,-2.102809429168701172e+00,3.811395466327667236e-01
-2.286227703094482422e+00,-2.105424880981445312e+00,4.922577738761901855e-01
-2.289606809616088867e+00,-2.108536958694458008e+00,6.050256490707397461e-01
-2.292785167694091797e+00,-2.111464023590087891e+00,7.195948958396911621e-01
-2.201012611389160156e+00,-2.085948944091796875e+00,-8.125362396240234375e-01
-2.203632354736328125e+00,-2.088431835174560547e+00,-7.009241580963134766e-01
-2.206708908081054688e+00,-2.091347455978393555e+00,-5.909695625305175781e-01
-2.209602355957031250e+00,-2.094089746475219727e+00,-4.821636080741882324e-01
-2.212426900863647461e+00,-2.096766471862792969e+00,-3.742660880088806152e-01
-2.215448379516601562e+00,-2.099630117416381836e+00,-2.670429944992065430e-01
-2.218241214752197266e+00,-2.102277040481567383e+00,-1.601667404174804688e-01
-2.221076250076293945e+00,-2.104963779449462891e+00,-5.341370776295661926e-02
-2.223970651626586914e+00,-2.107707023620605469e+00,5.348331853747367859e-02
-2.226643323898315430e+00,-2.110239982604980469e+00,1.607734113931655884e-01
-2.229559898376464844e+00,-2.113003969192504883e+00,2.687439620494842529e-01
-2.232453584671020508e+00,-2.115746259689331055e+00,3.776538968086242676e-01
-2.235224246978759766e+00,-2.118372201919555664e+00,4.877546429634094238e-01
-2.238547801971435547e+00,-2.121521949768066406e+00,5.994961857795715332e-01
-2.241698980331420898e+00,-2.124508380889892578e+00,7.130322456359863281e-01
-2.151521921157836914e+00,-2.098305225372314453e+00,-8.052710890769958496e-01
-2.154718875885009766e+00,-2.101423263549804688e+00,-6.948620676994323730e-01
-2.157622098922729492e+00,-2.104254722595214844e+00,-5.858299136161804199e-01
-2.160366773605346680e+00,-2.106931209564208984e+00,-4.779515564441680908e-01
-2.163062810897827148e+00,-2.109560728073120117e+00,-3.709853887557983398e-01
-2.165975093841552734e+00,-2.112401008605957031e+00,-2.646970748901367188e-01
-2.168682813644409180e+00,-2.115041732788085938e+00,-1.587580293416976929e-01
-2.171453714370727539e+00,-2.117743968963623047e+00,-5.294390022754669189e-02
-2.174304962158203125e+00,-2.120524644851684570e+00,5.301341786980628967e-02
-2.176959037780761719e+00,-2.123113155364990234e+00,1.593638956546783447e-01
-2.179875135421752930e+00,-2.125957012176513672e+00,2.663957476615905762e-01
-2.182789087295532227e+00,-2.128799200057983398e+00,3.743686079978942871e-01
-2.185602903366088867e+00,-2.131543159484863281e+00,4.835346937179565430e-01
-2.188192605972290039e+00,-2.134068965911865234e+00,5.941303372383117676e-01
-2.191309452056884766e+00,-2.137108564376831055e+00,7.066618800163269043e-01
-2.103460073471069336e+00,-2.111008405685424805e+00,-7.985098958015441895e-01
-2.105831384658813477e+00,-2.113388299942016602e+00,-6.887811422348022461e-01
-2.108683586120605469e+00,-2.116250753402709961e+00,-5.807073116302490234e-01
-2.111813306808471680e+00,-2.119391679763793945e+00,-4.738726019859313965e-01
-2.114387512207031250e+00,-2.121975183486938477e+00,-3.678086400032043457e-01
-2.117194652557373047e+00,-2.124792337417602539e+00,-2.624256014823913574e-01
-2.119820117950439453e+00,-2.127427339553833008e+00,-1.573940813541412354e-01
-2.122528314590454102e+00,-2.130145072937011719e+00,-5.248902738094329834e-02
-2.125335693359375000e+00,-2.132962465286254883e+00,5.255845189094543457e-02
-2.127968549728393555e+00,-2.135604858398437500e+00,1.579990833997726440e-01
-2.130879163742065430e+00,-2.138525962829589844e+00,2.641217708587646484e-01
-2.133263111114501953e+00,-2.140918254852294922e+00,3.710921406745910645e-01
-2.135996818542480469e+00,-2.143661975860595703e+00,4.792991876602172852e-01
-2.139304399490356445e+00,-2.146981477737426758e+00,5.891398787498474121e-01
-2.142488241195678711e+00,-2.150176763534545898e+00,7.007710337638854980e-01
-2.055306673049926758e+00,-2.122591495513916016e+00,-7.916823029518127441e-01
-2.058247327804565430e+00,-2.125628471374511719e+00,-6.830987930297851562e-01
-2.060943841934204102e+00,-2.128413200378417969e+00,-5.758910179138183594e-01
-2.063526391983032227e+00,-2.131080150604248047e+00,-4.698339700698852539e-01
-2.066390037536621094e+00,-2.134037494659423828e+00,-3.647353947162628174e-01
-2.068923711776733398e+00,-2.136654376983642578e+00,-2.602064907550811768e-01
-2.071641921997070312e+00,-2.139461517333984375e+00,-1.560746431350708008e-01
-2.074287891387939453e+00,-2.142194032669067383e+00,-5.204899981617927551e-02
-2.076866388320922852e+00,-2.144856929779052734e+00,5.211370065808296204e-02
-2.079659461975097656e+00,-2.147741556167602539e+00,1.566786766052246094e-01
-2.082141160964965820e+00,-2.150304317474365234e+00,2.618688344955444336e-01
-2.084961414337158203e+00,-2.153217077255249023e+00,3.680134415626525879e-01
-2.087724685668945312e+00,-2.156070709228515625e+00,4.753435552120208740e-01
-2.090311527252197266e+00,-2.158742189407348633e+00,5.840972065925598145e-01
-2.093443155288696289e+00,-2.161976337432861328e+00,6.947797536849975586e-01
-2.008531808853149414e+00,-2.134588003158569336e+00,-7.853534817695617676e-01
-2.011305809020996094e+00,-2.137535810470581055e+00,-6.776043772697448730e-01
-2.013855695724487305e+00,-2.140245914459228516e+00,-5.712348222732543945e-01
-2.016309738159179688e+00,-2.142853975296020508e+00,-4.660192131996154785e-01
-2.019057035446166992e+00,-2.145773649215698242e+00,-3.617648780345916748e-01
-2.021497011184692383e+00,-2.148366928100585938e+00,-2.580827176570892334e-01
-2.024135589599609375e+00,-2.151170969009399414e+00,-1.547994464635848999e-01
-2.026720046997070312e+00,-2.153917789459228516e+00,-5.162372067570686340e-02
-2.029255390167236328e+00,-2.156612157821655273e+00,5.168829858303070068e-02
-2.032019853591918945e+00,-2.159549951553344727e+00,1.554024070501327515e-01
-2.034494876861572266e+00,-2.162180423736572266e+00,2.597421407699584961e-01
-2.037319421768188477e+00,-2.165182352066040039e+00,3.650370240211486816e-01
-2.040104866027832031e+00,-2.168142318725585938e+00,4.715188145637512207e-01
-2.042732238769531250e+00,-2.170934677124023438e+00,5.794256925582885742e-01
-2.045063734054565430e+00,-2.173412561416625977e+00,6.889773607254028320e-01
-1.961670041084289551e+00,-2.145500183105468750e+00,-7.789580821990966797e-01
-1.964390277862548828e+00,-2.148475408554077148e+00,-6.720901727676391602e-01
-1.966909050941467285e+00,-2.151230096817016602e+00,-5.665943026542663574e-01
-1.969738960266113281e+00,-2.154325246810913086e+00,-4.623351097106933594e-01
-1.972098112106323242e+00,-2.156905412673950195e+00,-3.588458597660064697e-01
-1.974725842475891113e+00,-2.159779548645019531e+00,-2.560320198535919189e-01
-1.977288007736206055e+00,-2.162581682205200195e+00,-1.535682231187820435e-01
-1.979811906814575195e+00,-2.165342330932617188e+00,-5.121310427784919739e-02
-1.982303738594055176e+00,-2.168067455291748047e+00,5.127755925059318542e-02
-1.984746575355529785e+00,-2.170739173889160156e+00,1.541475057601928711e-01
-1.987500548362731934e+00,-2.173751354217529297e+00,2.576883137226104736e-01
-1.989810228347778320e+00,-2.176277399063110352e+00,3.620688021183013916e-01
-1.992500424385070801e+00,-2.179219722747802734e+00,4.676776528358459473e-01
-1.995055317878723145e+00,-2.182013988494873047e+00,5.747022032737731934e-01
-1.998167037963867188e+00,-2.185417413711547852e+00,6.836464405059814453e-01
-1.916133165359497070e+00,-2.156888246536254883e+00,-7.730558514595031738e-01
-1.918705105781555176e+00,-2.159783124923706055e+00,-6.669680476188659668e-01
-1.921093106269836426e+00,-2.162471294403076172e+00,-5.622550845146179199e-01
-1.923800945281982422e+00,-2.165519237518310547e+00,-4.587809443473815918e-01
-1.926059603691101074e+00,-2.168061733245849609e+00,-3.560788929462432861e-01
-1.928597331047058105e+00,-2.170918464660644531e+00,-2.540540099143981934e-01
-1.931084156036376953e+00,-2.173717737197875977e+00,-1.523806005716323853e-01
-1.933548688888549805e+00,-2.176491737365722656e+00,-5.081703141331672668e-02
-1.935996294021606445e+00,-2.179246902465820312e+00,5.088135972619056702e-02
-1.938410043716430664e+00,-2.181964159011840820e+00,1.529586911201477051e-01
-1.941144585609436035e+00,-2.185042142868041992e+00,2.557068765163421631e-01
-1.943456292152404785e+00,-2.187644243240356445e+00,3.592950701713562012e-01
-1.946156382560729980e+00,-2.190683603286743164e+00,4.641121923923492432e-01
-1.948736786842346191e+00,-2.193588256835937500e+00,5.703456997871398926e-01
-1.951063036918640137e+00,-2.196206808090209961e+00,6.782160997390747070e-01
-1.871189117431640625e+00,-2.168010950088500977e+00,-7.673643231391906738e-01
-1.873623251914978027e+00,-2.170831203460693359e+00,-6.620302796363830566e-01
