7.174812555313110352e-01,-1.612520217895507812e+00,4.074670672416687012e-01
7.331728339195251465e-01,-1.586263656616210938e+00,-4.682419300079345703e-01
7.341122031211853027e-01,-1.588296055793762207e+00,-4.039596617221832275e-01
7.349629998207092285e-01,-1.590136766433715820e+00,-3.405094742774963379e-01
7.358599305152893066e-01,-1.592077374458312988e+00,-2.777916193008422852e-01
7.366397380828857422e-01,-1.593764424324035645e+00,-2.155809551477432251e-01
7.374831438064575195e-01,-1.595589280128479004e+00,-1.537854969501495361e-01
7.383218407630920410e-01,-1.597403764724731445e+00,-9.222590923309326172e-02
7.391561269760131836e-01,-1.599208831787109375e+00,-3.075169958174228668e-02
7.399845123291015625e-01,-1.601001143455505371e+00,3.078616410493850708e-02
7.408149242401123047e-01,-1.602797746658325195e+00,9.253733605146408081e-02
7.417176961898803711e-01,-1.604750990867614746e+00,1.546685099601745605e-01
7.425214052200317383e-01,-1.606489777565002441e+00,2.173022478818893433e-01
7.433888912200927734e-01,-1.608366608619689941e+00,2.806338369846343994e-01
7.441917061805725098e-01,-1.610103607177734375e+00,3.447851836681365967e-01
7.452389001846313477e-01,-1.612369298934936523e+00,4.100823402404785156e-01
7.607489228248596191e-01,-1.585924267768859863e+00,-4.713077247142791748e-01
7.616895437240600586e-01,-1.587885141372680664e+00,-4.065864086151123047e-01
7.625491619110107422e-01,-1.589677095413208008e+00,-3.427132368087768555e-01
7.634661197662353516e-01,-1.591588735580444336e+00,-2.795844674110412598e-01
7.643405795097351074e-01,-1.593411684036254883e+00,-2.169908583164215088e-01
7.652018666267395020e-01,-1.595207214355468750e+00,-1.547884494066238403e-01
7.660854458808898926e-01,-1.597049236297607422e+00,-9.282901883125305176e-02
7.669482827186584473e-01,-1.598847985267639160e+00,-3.095268458127975464e-02
7.677963376045227051e-01,-1.600615978240966797e+00,3.098691068589687347e-02
7.686702013015747070e-01,-1.602437615394592285e+00,9.314221888780593872e-02
7.695428133010864258e-01,-1.604256749153137207e+00,1.556665599346160889e-01
7.703887820243835449e-01,-1.606020331382751465e+00,2.187079042196273804e-01
7.713102102279663086e-01,-1.607941269874572754e+00,2.824570238590240479e-01
7.721758484840393066e-01,-1.609745740890502930e+00,3.470397591590881348e-01
7.731153368949890137e-01,-1.611704349517822266e+00,4.126854240894317627e-01
7.887958884239196777e-01,-1.585784673690795898e+00,-4.745729267597198486e-01
7.897249460220336914e-01,-1.587652325630187988e+00,-4.093792140483856201e-01
7.905779480934143066e-01,-1.589367270469665527e+00,-3.450506329536437988e-01
7.914975881576538086e-01,-1.591216087341308594e+00,-2.814802825450897217e-01
7.923835515975952148e-01,-1.592997193336486816e+00,-2.184565514326095581e-01
7.933072447776794434e-01,-1.594854116439819336e+00,-1.558400392532348633e-01
7.941826581954956055e-01,-1.596614122390747070e+00,-9.345488995313644409e-02
7.950783371925354004e-01,-1.598414778709411621e+00,-3.116142190992832184e-02
7.959921360015869141e-01,-1.600251793861389160e+00,3.119723498821258545e-02
7.968694567680358887e-01,-1.602015614509582520e+00,9.377105534076690674e-02
7.977927923202514648e-01,-1.603871822357177734e+00,1.567212045192718506e-01
7.986994981765747070e-01,-1.605694651603698730e+00,2.201978266239166260e-01
7.996916174888610840e-01,-1.607689261436462402e+00,2.843943238258361816e-01
8.006342649459838867e-01,-1.609584331512451172e+00,3.494397401809692383e-01
8.014726042747497559e-01,-1.611269712448120117e+00,4.154689908027648926e-01
8.169873356819152832e-01,-1.585152745246887207e+00,-4.778344631195068359e-01
8.179384469985961914e-01,-1.586998105049133301e+00,-4.121870994567871094e-01
8.189361095428466797e-01,-1.588933825492858887e+00,-3.474657535552978516e-01
8.198655843734741211e-01,-1.590737223625183105e+00,-2.834424376487731934e-01
8.207684159278869629e-01,-1.592488884925842285e+00,-2.199753820896148682e-01
8.217180371284484863e-01,-1.594331383705139160e+00,-1.569221764802932739e-01
8.226435184478759766e-01,-1.596127033233642578e+00,-9.410595893859863281e-02
8.235681653022766113e-01,-1.597921133041381836e+00,-3.137839585542678833e-02
8.244986534118652344e-01,-1.599726438522338867e+00,3.141384571790695190e-02
8.254124522209167480e-01,-1.601499557495117188e+00,9.442272037267684937e-02
8.263823986053466797e-01,-1.603381395339965820e+00,1.578129082918167114e-01
8.273431062698364258e-01,-1.605245351791381836e+00,2.217374891042709351e-01
8.282573819160461426e-01,-1.607019424438476562e+00,2.863436341285705566e-01
8.292434811592102051e-01,-1.608932614326477051e+00,3.518390357494354248e-01
8.303164243698120117e-01,-1.611014366149902344e+00,4.184247851371765137e-01
8.458220362663269043e-01,-1.584975123405456543e+00,-4.813810586929321289e-01
8.467921018600463867e-01,-1.586792945861816406e+00,-4.152393341064453125e-01
8.478112816810607910e-01,-1.588702678680419922e+00,-3.500330448150634766e-01
8.487644195556640625e-01,-1.590488791465759277e+00,-2.855336368083953857e-01
8.496950864791870117e-01,-1.592232704162597656e+00,-2.215972840785980225e-01
8.506784439086914062e-01,-1.594075441360473633e+00,-1.580792218446731567e-01
8.516428470611572266e-01,-1.595882654190063477e+00,-9.480054676532745361e-02
8.526014089584350586e-01,-1.597678780555725098e+00,-3.161004185676574707e-02
8.535565733909606934e-01,-1.599468827247619629e+00,3.164545819163322449e-02
8.545010685920715332e-01,-1.601238608360290527e+00,9.511870890855789185e-02
8.555073738098144531e-01,-1.603124260902404785e+00,1.589765697717666626e-01
8.565093278884887695e-01,-1.605001807212829590e+00,2.233744114637374878e-01
8.574684262275695801e-01,-1.606799125671386719e+00,2.884617447853088379e-01
8.585022091865539551e-01,-1.608736395835876465e+00,3.544469773769378662e-01
8.594352006912231445e-01,-1.610484600067138672e+00,4.214390814304351807e-01
8.749638199806213379e-01,-1.584559082984924316e+00,-4.850086867809295654e-01
8.759649395942687988e-01,-1.586372017860412598e+00,-4.183673560619354248e-01
8.770155310630798340e-01,-1.588274598121643066e+00,-3.526683747768402100e-01
8.780007362365722656e-01,-1.590058922767639160e+00,-2.876831293106079102e-01
8.790344595909118652e-01,-1.591930866241455078e+00,-2.232834994792938232e-01
8.800292611122131348e-01,-1.593732595443725586e+00,-1.592780351638793945e-01
8.809930086135864258e-01,-1.595477938652038574e+00,-9.551580250263214111e-02
8.819860816001892090e-01,-1.597276329994201660e+00,-3.184858709573745728e-02
8.830023407936096191e-01,-1.599116802215576172e+00,3.188528493046760559e-02
8.840001225471496582e-01,-1.600923776626586914e+00,9.584182500839233398e-02
8.849723935127258301e-01,-1.602684497833251953e+00,1.601727008819580078e-01
8.860084414482116699e-01,-1.604560852050781250e+00,2.250549644231796265e-01
8.870027065277099609e-01,-1.606361508369445801e+00,2.906326651573181152e-01
8.880732059478759766e-01,-1.608300089836120605e+00,3.571149408817291260e-01
8.890408873558044434e-01,-1.610052585601806641e+00,4.246125221252441406e-01
9.044034481048583984e-01,-1.583872437477111816e+00,-4.887107610702514648e-01
9.055945873260498047e-01,-1.585958480834960938e+00,-4.216335713863372803e-01
9.065400958061218262e-01,-1.587614297866821289e+00,-3.553665578365325928e-01
9.076615571975708008e-01,-1.589578390121459961e+00,-2.899170219898223877e-01
9.086409807205200195e-01,-1.591293573379516602e+00,-2.249952405691146851e-01
9.096782803535461426e-01,-1.593110203742980957e+00,-1.605006754398345947e-01
9.107014536857604980e-01,-1.594902038574218750e+00,-9.625184535980224609e-02
9.117249250411987305e-01,-1.596694469451904297e+00,-3.209390491247177124e-02
9.127512574195861816e-01,-1.598491907119750977e+00,3.213003277778625488e-02
9.137724041938781738e-01,-1.600280165672302246e+00,9.657641500234603882e-02
9.148617386817932129e-01,-1.602187871932983398e+00,1.614152342081069946e-01
9.158312678337097168e-01,-1.603885769844055176e+00,2.267756760120391846e-01
9.169956445693969727e-01,-1.605924963951110840e+00,2.928984165191650391e-01
9.179468154907226562e-01,-1.607590794563293457e+00,3.598380088806152344e-01
9.191296100616455078e-01,-1.609662175178527832e+00,4.279353022575378418e-01
9.346596002578735352e-01,-1.583780884742736816e+00,-4.927599430084228516e-01
9.358330965042114258e-01,-1.585769295692443848e+00,-4.251008629798889160e-01
9.368957877159118652e-01,-1.587570071220397949e+00,-3.583216369152069092e-01
9.379077553749084473e-01,-1.589284896850585938e+00,-2.922820448875427246e-01
9.389895200729370117e-01,-1.591117858886718750e+00,-2.268474996089935303e-01
9.400508403778076172e-01,-1.592916369438171387e+00,-1.618201583623886108e-01
9.411325454711914062e-01,-1.594749212265014648e+00,-9.704563766717910767e-02
9.421886205673217773e-01,-1.596538782119750977e+00,-3.235853463411331177e-02
9.432258605957031250e-01,-1.598296403884887695e+00,3.239415585994720459e-02
9.442887902259826660e-01,-1.600097417831420898e+00,9.737110137939453125e-02
9.453450441360473633e-01,-1.601887345314025879e+00,1.627314984798431396e-01
9.464877247810363770e-01,-1.603823661804199219e+00,2.286589741706848145e-01
9.476051926612854004e-01,-1.605717182159423828e+00,2.953040599822998047e-01
9.486432671546936035e-01,-1.607476115226745605e+00,3.628145456314086914e-01
9.497393965721130371e-01,-1.609333515167236328e+00,4.314177632331848145e-01
9.653128981590270996e-01,-1.583499431610107422e+00,-4.969203174114227295e-01
9.663544893264770508e-01,-1.585208058357238770e+00,-4.286144077777862549e-01
9.674708247184753418e-01,-1.587039351463317871e+00,-3.612903654575347900e-01
9.686399102210998535e-01,-1.588957071304321289e+00,-2.947413623332977295e-01
9.697479605674743652e-01,-1.590774774551391602e+00,-2.287541031837463379e-01
9.708333015441894531e-01,-1.592555046081542969e+00,-1.631783992052078247e-01
9.719206094741821289e-01,-1.594338655471801758e+00,-9.785719960927963257e-02
9.730129241943359375e-01,-1.596130609512329102e+00,-3.262919187545776367e-02
9.741081595420837402e-01,-1.597927093505859375e+00,3.266591951251029968e-02
9.752150774002075195e-01,-1.599743008613586426e+00,9.818890690803527832e-02
9.763136506080627441e-01,-1.601545095443725586e+00,1.640995442867279053e-01
9.773717522621154785e-01,-1.603280782699584961e+00,2.305524647235870361e-01
9.785049557685852051e-01,-1.605139732360839844e+00,2.977431416511535645e-01
9.797430038452148438e-01,-1.607170581817626953e+00,3.658732473850250244e-01
9.808862805366516113e-01,-1.609045982360839844e+00,4.350598454475402832e-01
9.962525963783264160e-01,-1.582828640937805176e+00,-5.011333823204040527e-01
9.973394274711608887e-01,-1.584555268287658691e+00,-4.322534799575805664e-01
9.985030889511108398e-01,-1.586404085159301758e+00,-3.643620312213897705e-01
9.997194409370422363e-01,-1.588336706161499023e+00,-2.972501516342163086e-01
1.000866532325744629e+00,-1.590159177780151367e+00,-2.307020127773284912e-01
1.001983642578125000e+00,-1.591933846473693848e+00,-1.645674109458923340e-01
1.003096222877502441e+00,-1.593701601028442383e+00,-9.868923574686050415e-02
1.004220366477966309e+00,-1.595487594604492188e+00,-3.290651738643646240e-02
1.005359411239624023e+00,-1.597297310829162598e+00,3.294384106993675232e-02
1.006503701210021973e+00,-1.599115252494812012e+00,9.902447462081909180e-02
1.007633090019226074e+00,-1.600909709930419922e+00,1.654952913522720337e-01
1.008714079856872559e+00,-1.602627277374267578e+00,2.325108945369720459e-01
1.009870409965515137e+00,-1.604464292526245117e+00,3.002683818340301514e-01
1.011134982109069824e+00,-1.606473326683044434e+00,3.689714968204498291e-01
1.012298107147216797e+00,-1.608321547508239746e+00,4.387367069721221924e-01
1.027769923210144043e+00,-1.582210898399353027e+00,-5.055435895919799805e-01
1.029098749160766602e+00,-1.584256410598754883e+00,-4.361454844474792480e-01
1.030144095420837402e+00,-1.585865855216979980e+00,-3.675873279571533203e-01
1.031418681144714355e+00,-1.587828040122985840e+00,-2.998870909214019775e-01
1.032613515853881836e+00,-1.589667201042175293e+00,-2.327511459589004517e-01
1.033715248107910156e+00,-1.591363430023193359e+00,-1.660209745168685913e-01
1.034888863563537598e+00,-1.593170046806335449e+00,-9.956340491771697998e-02
1.036050558090209961e+00,-1.594958543777465820e+00,-3.319805860519409180e-02
1.037198781967163086e+00,-1.596726179122924805e+00,3.323485329747200012e-02
1.038424491882324219e+00,-1.598613023757934570e+00,9.990355372428894043e-02
1.039577364921569824e+00,-1.600387930870056152e+00,1.669624745845794678e-01
1.040671348571777344e+00,-1.602072000503540039e+00,2.345673739910125732e-01
1.042015194892883301e+00,-1.604140758514404297e+00,3.029680550098419189e-01
1.043113350868225098e+00,-1.605831265449523926e+00,3.722151219844818115e-01
1.044278740882873535e+00,-1.607625365257263184e+00,4.425789713859558105e-01
1.060104608535766602e+00,-1.581956624984741211e+00,-5.102583765983581543e-01
1.061302065849304199e+00,-1.583743453025817871e+00,-4.401412308216094971e-01
1.062573075294494629e+00,-1.585640192031860352e+00,-3.710223436355590820e-01
1.063762068748474121e+00,-1.587414383888244629e+00,-3.026537001132965088e-01
1.064924120903015137e+00,-1.589148521423339844e+00,-2.348828911781311035e-01
1.066156029701232910e+00,-1.590986847877502441e+00,-1.675565987825393677e-01
1.067361474037170410e+00,-1.592785835266113281e+00,-1.004838570952415466e-01
1.068556785583496094e+00,-1.594569444656372070e+00,-3.350488096475601196e-02
1.069745182991027832e+00,-1.596342921257019043e+00,3.354214131832122803e-02
1.070917487144470215e+00,-1.598092198371887207e+00,1.008186191320419312e-01
1.072170376777648926e+00,-1.599961996078491211e+00,1.685018092393875122e-01
1.073418617248535156e+00,-1.601824641227722168e+00,2.367564737796783447e-01
1.074614524841308594e+00,-1.603609204292297363e+00,3.057413697242736816e-01
1.075915336608886719e+00,-1.605550408363342285e+00,3.756811022758483887e-01
1.077093839645385742e+00,-1.607308983802795410e+00,4.466903805732727051e-01
1.093072056770324707e+00,-1.581722378730773926e+00,-5.151765346527099609e-01
1.094336509704589844e+00,-1.583552002906799316e+00,-4.443956613540649414e-01
1.095501780509948730e+00,-1.585238218307495117e+00,-3.745589554309844971e-01
1.096769332885742188e+00,-1.587072491645812988e+00,-3.055502474308013916e-01
1.098089337348937988e+00,-1.588982462882995605e+00,-2.371571660041809082e-01
1.099278569221496582e+00,-1.590703487396240234e+00,-1.691665202379226685e-01
1.100519537925720215e+00,-1.592499136924743652e+00,-1.014491319656372070e-01
1.101748466491699219e+00,-1.594277501106262207e+00,-3.382663428783416748e-02
1.102975010871887207e+00,-1.596052408218383789e+00,3.386429324746131897e-02
1.104258179664611816e+00,-1.597909212112426758e+00,1.017937809228897095e-01
1.105432748794555664e+00,-1.599608778953552246e+00,1.701135635375976562e-01
1.106676936149597168e+00,-1.601409316062927246e+00,2.390118837356567383e-01
1.108049511909484863e+00,-1.603395462036132812e+00,3.086928427219390869e-01
1.109359860420227051e+00,-1.605291485786437988e+00,3.792971074581146240e-01
1.110531330108642578e+00,-1.606986641883850098e+00,4.509721696376800537e-01
1.126682043075561523e+00,-1.581474900245666504e+00,-5.202952027320861816e-01
1.128033638000488281e+00,-1.583372116088867188e+00,-4.488303065299987793e-01
1.129267096519470215e+00,-1.585103392601013184e+00,-3.783074915409088135e-01
1.130592226982116699e+00,-1.586963534355163574e+00,-3.086132407188415527e-01
1.131855368614196777e+00,-1.588736534118652344e+00,-2.395139038562774658e-01
1.133099913597106934e+00,-1.590483427047729492e+00,-1.708504110574722290e-01
1.134356617927551270e+00,-1.592247366905212402e+00,-1.024569496512413025e-01
1.135626554489135742e+00,-1.594029903411865234e+00,-3.416276723146438599e-02
1.136906147003173828e+00,-1.595826029777526855e+00,3.420126065611839294e-02
1.138209223747253418e+00,-1.597655177116394043e+00,1.028049215674400330e-01
1.139510989189147949e+00,-1.599482297897338867e+00,1.718170791864395142e-01
1.140774011611938477e+00,-1.601255297660827637e+00,2.414012104272842407e-01
1.142155289649963379e+00,-1.603194117546081543e+00,3.117695450782775879e-01
1.143455982208251953e+00,-1.605019688606262207e+00,3.830608129501342773e-01
1.144875764846801758e+00,-1.607012629508972168e+00,4.555315673351287842e-01
1.160397648811340332e+00,-1.580437779426574707e+00,-5.253645777702331543e-01
1.161872267723083496e+00,-1.582446217536926270e+00,-4.532355666160583496e-01
1.163203358650207520e+00,-1.584259152412414551e+00,-3.820405006408691406e-01
1.164464712142944336e+00,-1.585977077484130859e+00,-3.116307854652404785e-01
1.165821194648742676e+00,-1.587824583053588867e+00,-2.418673336505889893e-01
1.167134046554565430e+00,-1.589612722396850586e+00,-1.725337356328964233e-01
1.168434143066406250e+00,-1.591383337974548340e+00,-1.034669131040573120e-01
1.169738054275512695e+00,-1.593159317970275879e+00,-3.449940681457519531e-02
1.171051025390625000e+00,-1.594947576522827148e+00,3.453813120722770691e-02
1.172361850738525391e+00,-1.596732854843139648e+00,1.038147211074829102e-01
1.173646569252014160e+00,-1.598482608795166016e+00,1.734964698553085327e-01
1.175045132637023926e+00,-1.600387454032897949e+00,2.437809854745864868e-01
1.176405787467956543e+00,-1.602240681648254395e+00,3.148264288902282715e-01
1.177661776542663574e+00,-1.603951334953308105e+00,3.867892324924468994e-01
1.179024338722229004e+00,-1.605807065963745117e+00,4.599264264106750488e-01
1.195511221885681152e+00,-1.580341696739196777e+00,-5.309665203094482422e-01
1.196850538253784180e+00,-1.582112193107604980e+00,-4.579995870590209961e-01
1.198289871215820312e+00,-1.584014892578125000e+00,-3.860781490802764893e-01
1.199632048606872559e+00,-1.585788965225219727e+00,-3.149355053901672363e-01
1.200939297676086426e+00,-1.587517023086547852e+00,-2.444138824939727783e-01
1.202325463294982910e+00,-1.589349508285522461e+00,-1.743551939725875854e-01
1.203670978546142578e+00,-1.591128110885620117e+00,-1.045597717165946960e-01
1.205011129379272461e+00,-1.592899680137634277e+00,-3.486371040344238281e-02
1.206356883049011230e+00,-1.594678521156311035e+00,3.490264341235160828e-02
1.207672834396362305e+00,-1.596418142318725586e+00,1.049074009060859680e-01
1.209079384803771973e+00,-1.598277568817138672e+00,1.753346174955368042e-01
1.210476875305175781e+00,-1.600124716758728027e+00,2.463549524545669556e-01
1.211809277534484863e+00,-1.601886153221130371e+00,3.181323707103729248e-01
1.213277339935302734e+00,-1.603826761245727539e+00,3.909069597721099854e-01
1.214608550071716309e+00,-1.605586409568786621e+00,4.647950232028961182e-01
1.231273412704467773e+00,-1.580094933509826660e+00,-5.367498993873596191e-01
1.232723355293273926e+00,-1.581955790519714355e+00,-4.630146920680999756e-01
1.234049201011657715e+00,-1.583657264709472656e+00,-3.902561962604522705e-01
1.235490441322326660e+00,-1.585506677627563477e+00,-3.183588683605194092e-01
1.236864686012268066e+00,-1.587270379066467285e+00,-2.470762729644775391e-01
1.238219857215881348e+00,-1.589009523391723633e+00,-1.762441247701644897e-01
1.239589452743530273e+00,-1.590767145156860352e+00,-1.056911721825599670e-01
1.240973234176635742e+00,-1.592542886734008789e+00,-3.524105995893478394e-02
1.242367506027221680e+00,-1.594332218170166016e+00,3.528065606951713562e-02
1.243788123130798340e+00,-1.596155166625976562e+00,1.060491651296615601e-01
1.245208978652954102e+00,-1.597978591918945312e+00,1.772389113903045654e-01
1.246588349342346191e+00,-1.599748730659484863e+00,2.490186542272567749e-01
1.248110771179199219e+00,-1.601702332496643066e+00,3.216108381748199463e-01
1.249550819396972656e+00,-1.603550434112548828e+00,3.951584100723266602e-01
1.250823140144348145e+00,-1.605183243751525879e+00,4.698130190372467041e-01
1.267660856246948242e+00,-1.579630970954895020e+00,-5.427003502845764160e-01
1.268991589546203613e+00,-1.581289172172546387e+00,-4.680878818035125732e-01
1.270461916923522949e+00,-1.583121538162231445e+00,-3.945649564266204834e-01
1.272021532058715820e+00,-1.585064888000488281e+00,-3.218930363655090332e-01
1.273354768753051758e+00,-1.586726188659667969e+00,-2.498030662536621094e-01
1.274800062179565430e+00,-1.588527202606201172e+00,-1.781962066888809204e-01
1.276223897933959961e+00,-1.590301394462585449e+00,-1.068629696965217590e-01
1.277644634246826172e+00,-1.592071771621704102e+00,-3.563166782259941101e-02
1.279067039489746094e+00,-1.593844294548034668e+00,3.567133843898773193e-02
1.280479431152343750e+00,-1.595604181289672852e+00,1.072192937135696411e-01
1.282015800476074219e+00,-1.597518682479858398e+00,1.792048513889312744e-01
1.283359527587890625e+00,-1.599193096160888672e+00,2.517657577991485596e-01
1.284820318222045898e+00,-1.601013541221618652e+00,3.251318633556365967e-01
1.286458849906921387e+00,-1.603055238723754883e+00,3.995330929756164551e-01
1.287977933883666992e+00,-1.604948163032531738e+00,4.750913083553314209e-01
1.304636955261230469e+00,-1.578872323036193848e+00,-5.487990975379943848e-01
1.306121468544006348e+00,-1.580668807029724121e+00,-4.733898341655731201e-01
1.307718157768249512e+00,-1.582601070404052734e+00,-3.990595042705535889e-01
1.309194207191467285e+00,-1.584387540817260742e+00,-3.255276381969451904e-01
1.310616970062255859e+00,-1.586109280586242676e+00,-2.526334226131439209e-01
1.312038421630859375e+00,-1.587829589843750000e+00,-1.802061498165130615e-01
1.313521981239318848e+00,-1.589625000953674316e+00,-1.080698147416114807e-01
1.314980030059814453e+00,-1.591389536857604980e+00,-3.603395447134971619e-02
1.316426396369934082e+00,-1.593139886856079102e+00,3.607358783483505249e-02
1.317938923835754395e+00,-1.594970464706420898e+00,1.084332168102264404e-01
1.319469690322875977e+00,-1.596822857856750488e+00,1.812268197536468506e-01
1.320974349975585938e+00,-1.598643898963928223e+00,2.546299099922180176e-01
1.322394609451293945e+00,-1.600362658500671387e+00,3.288098871707916260e-01
1.323964357376098633e+00,-1.602262377738952637e+00,4.040171802043914795e-01
1.325376391410827637e+00,-1.603971242904663086e+00,4.803685843944549561e-01
1.342999815940856934e+00,-1.578729152679443359e+00,-5.553741455078125000e-01
1.344654679298400879e+00,-1.580674529075622559e+00,-4.791065752506256104e-01
1.346156597137451172e+00,-1.582440018653869629e+00,-4.038360714912414551e-01
1.347775578498840332e+00,-1.584343194961547852e+00,-3.294483721256256104e-01
1.349162936210632324e+00,-1.585973978042602539e+00,-2.556615471839904785e-01
1.350689053535461426e+00,-1.587768077850341797e+00,-1.823746412992477417e-01
1.352206707000732422e+00,-1.589552044868469238e+00,-1.093694642186164856e-01
1.353712677955627441e+00,-1.591322302818298340e+00,-3.646743670105934143e-02
1.355203390121459961e+00,-1.593074679374694824e+00,3.650759160518646240e-02
1.356697082519531250e+00,-1.594830513000488281e+00,1.097326576709747314e-01
1.358341574668884277e+00,-1.596763730049133301e+00,1.834079027175903320e-01
1.359791278839111328e+00,-1.598467946052551270e+00,2.576755881309509277e-01
1.361387372016906738e+00,-1.600344181060791016e+00,3.327756226062774658e-01
1.362875223159790039e+00,-1.602093100547790527e+00,4.088515043258666992e-01
1.364531755447387695e+00,-1.604040384292602539e+00,4.861888289451599121e-01
1.381406307220458984e+00,-1.577560424804687500e+00,-5.618612170219421387e-01
1.382938146591186523e+00,-1.579309821128845215e+00,-4.846431016921997070e-01
1.384608507156372070e+00,-1.581217288970947266e+00,-4.085398316383361816e-01
1.386160135269165039e+00,-1.582989215850830078e+00,-3.332583904266357422e-01
1.387664318084716797e+00,-1.584707021713256836e+00,-2.586326599121093750e-01
1.389261364936828613e+00,-1.586530804634094238e+00,-1.844976842403411865e-01
1.390763521194458008e+00,-1.588246345520019531e+00,-1.106379777193069458e-01
1.392308354377746582e+00,-1.590010404586791992e+00,-3.689029067754745483e-02
1.393891453742980957e+00,-1.591818451881408691e+00,3.693223744630813599e-02
1.395401954650878906e+00,-1.593543410301208496e+00,1.110069751739501953e-01
1.397017002105712891e+00,-1.595387816429138184e+00,1.855276525020599365e-01
1.398613810539245605e+00,-1.597211360931396484e+00,2.606734335422515869e-01
1.400129437446594238e+00,-1.598942160606384277e+00,3.366168439388275146e-01
1.401823878288269043e+00,-1.600877165794372559e+00,4.136193990707397461e-01
1.403362154960632324e+00,-1.602633953094482422e+00,4.918005466461181641e-01
1.421894311904907227e+00,-1.577657103538513184e+00,-5.690859556198120117e-01
1.423635482788085938e+00,-1.579589009284973145e+00,-4.909316003322601318e-01
1.425221920013427734e+00,-1.581349253654479980e+00,-4.138022661209106445e-01
1.426944375038146973e+00,-1.583260416984558105e+00,-3.375807404518127441e-01
1.428568124771118164e+00,-1.585062026977539062e+00,-2.620009183883666992e-01
1.430146455764770508e+00,-1.586813211441040039e+00,-1.868918687105178833e-01
1.431718468666076660e+00,-1.588557481765747070e+00,-1.120757088065147400e-01
1.433303952217102051e+00,-1.590316534042358398e+00,-3.736954927444458008e-02
1.434908986091613770e+00,-1.592097401618957520e+00,3.741139546036720276e-02
1.436520576477050781e+00,-1.593885540962219238e+00,1.124516203999519348e-01
1.438108086585998535e+00,-1.595647096633911133e+00,1.879323124885559082e-01
1.439626455307006836e+00,-1.597331643104553223e+00,2.640290260314941406e-01
1.441311240196228027e+00,-1.599201083183288574e+00,3.409796059131622314e-01
1.442888975143432617e+00,-1.600951552391052246e+00,4.189317524433135986e-01
1.444664716720581055e+00,-1.602921843528747559e+00,4.981833994388580322e-01
1.462304592132568359e+00,-1.576526045799255371e+00,-5.761689543724060059e-01
1.464255928993225098e+00,-1.578629732131958008e+00,-4.970964491367340088e-01
1.465725302696228027e+00,-1.580213904380798340e+00,-4.189521372318267822e-01
1.467391848564147949e+00,-1.582010507583618164e+00,-3.417575955390930176e-01
1.469161391258239746e+00,-1.583918333053588867e+00,-2.652606666088104248e-01
1.470728754997253418e+00,-1.585608124732971191e+00,-1.892099380493164062e-01
1.472380399703979492e+00,-1.587388873100280762e+00,-1.134685128927230835e-01
1.474006295204162598e+00,-1.589141726493835449e+00,-3.783383592963218689e-02
1.475624322891235352e+00,-1.590886116027832031e+00,3.787536546587944031e-02
1.477328181266784668e+00,-1.592723131179809570e+00,1.138498112559318542e-01
1.478861570358276367e+00,-1.594376206398010254e+00,1.902562230825424194e-01
1.480519652366638184e+00,-1.596163868904113770e+00,2.673114240169525146e-01
1.482407331466674805e+00,-1.598199009895324707e+00,3.452547192573547363e-01
1.483868360519409180e+00,-1.599774241447448730e+00,4.241380393505096436e-01
1.485904932022094727e+00,-1.601969838142395020e+00,5.044460296630859375e-01
1.504304885864257812e+00,-1.575955748558044434e+00,-5.837699174880981445e-01
1.506152033805847168e+00,-1.577890992164611816e+00,-5.036007165908813477e-01
1.507830142974853516e+00,-1.579648971557617188e+00,-4.244808554649353027e-01
1.509654521942138672e+00,-1.581560254096984863e+00,-3.462928533554077148e-01
1.511205911636352539e+00,-1.583185434341430664e+00,-2.687328755855560303e-01
1.512919664382934570e+00,-1.584980964660644531e+00,-1.916995495557785034e-01
1.514619112014770508e+00,-1.586761236190795898e+00,-1.149615496397018433e-01
1.516298174858093262e+00,-1.588520288467407227e+00,-3.833182528614997864e-02
1.517952322959899902e+00,-1.590253233909606934e+00,3.837364166975021362e-02
1.519604563713073730e+00,-1.591984152793884277e+00,1.153399571776390076e-01
1.521432042121887207e+00,-1.593898773193359375e+00,1.927781254053115845e-01
1.523028373718261719e+00,-1.595571160316467285e+00,2.708352506160736084e-01
1.524802565574645996e+00,-1.597429752349853516e+00,3.497675657272338867e-01
1.526457905769348145e+00,-1.599164009094238281e+00,4.297249019145965576e-01
1.528330564498901367e+00,-1.601125836372375488e+00,5.110163688659667969e-01
1.548073053359985352e+00,-1.576017618179321289e+00,-5.919401049613952637e-01
1.550159335136413574e+00,-1.578141570091247559e+00,-5.107099413871765137e-01
1.551716923713684082e+00,-1.579727292060852051e+00,-4.304261803627014160e-01
1.553485274314880371e+00,-1.581527590751647949e+00,-3.511183857917785645e-01
1.555192589759826660e+00,-1.583265662193298340e+00,-2.724970877170562744e-01
1.557002305984497070e+00,-1.585108041763305664e+00,-1.943904608488082886e-01
1.558687329292297363e+00,-1.586823582649230957e+00,-1.165705099701881409e-01
1.560411095619201660e+00,-1.588578462600708008e+00,-3.886820003390312195e-02
1.562166333198547363e+00,-1.590365290641784668e+00,3.891192004084587097e-02
1.563822150230407715e+00,-1.592051029205322266e+00,1.169545277953147888e-01
1.565592408180236816e+00,-1.593853235244750977e+00,1.954629272222518921e-01
1.567334413528442383e+00,-1.595626711845397949e+00,2.746245563030242920e-01
1.569321155548095703e+00,-1.597649335861206055e+00,3.546976149082183838e-01
1.570838332176208496e+00,-1.599193930625915527e+00,4.357302188873291016e-01
1.572984337806701660e+00,-1.601378679275512695e+00,5.182298421859741211e-01
1.592823386192321777e+00,-1.575814485549926758e+00,-6.003654003143310547e-01
1.594396829605102539e+00,-1.577371120452880859e+00,-5.177929401397705078e-01
1.596206545829772949e+00,-1.579161524772644043e+00,-4.364524483680725098e-01
1.598165750503540039e+00,-1.581099748611450195e+00,-3.560655117034912109e-01
1.599813699722290039e+00,-1.582730174064636230e+00,-2.763177454471588135e-01
1.601625204086303711e+00,-1.584522366523742676e+00,-1.971098333597183228e-01
1.603403449058532715e+00,-1.586281538009643555e+00,-1.182045415043830872e-01
1.605171561241149902e+00,-1.588030815124511719e+00,-3.941291198134422302e-02
1.606933951377868652e+00,-1.589774370193481445e+00,3.945618495345115662e-02
1.608677387237548828e+00,-1.591499090194702148e+00,1.185933426022529602e-01
1.610597014427185059e+00,-1.593398213386535645e+00,1.982139647006988525e-01
1.612249612808227539e+00,-1.595033168792724609e+00,2.784656584262847900e-01
1.614084720611572266e+00,-1.596848726272583008e+00,3.596122264862060547e-01
1.616202235221862793e+00,-1.598943710327148438e+00,4.419198930263519287e-01
1.617712736129760742e+00,-1.600437998771667480e+00,5.253649353981018066e-01
1.637575507164001465e+00,-1.574355483055114746e+00,-6.086772680282592773e-01
1.639439463615417480e+00,-1.576147437095642090e+00,-5.250405073165893555e-01
1.641159415245056152e+00,-1.577801108360290527e+00,-4.425235390663146973e-01
1.643089413642883301e+00,-1.579656600952148438e+00,-3.609998822212219238e-01
1.644931674003601074e+00,-1.581427693367004395e+00,-2.801721692085266113e-01
1.646862149238586426e+00,-1.583283543586730957e+00,-1.998675763607025146e-01
1.648630380630493164e+00,-1.584983587265014648e+00,-1.198539659380912781e-01
1.650443315505981445e+00,-1.586726546287536621e+00,-3.996275365352630615e-02
1.652304887771606445e+00,-1.588516235351562500e+00,4.000782966613769531e-02
1.654032349586486816e+00,-1.590176939964294434e+00,1.202466785907745361e-01
1.655859947204589844e+00,-1.591934084892272949e+00,2.009595930576324463e-01
1.657633066177368164e+00,-1.593638777732849121e+00,2.823355197906494141e-01
1.659651756286621094e+00,-1.595579504966735840e+00,3.646387457847595215e-01
1.661581039428710938e+00,-1.597434282302856445e+00,4.480300247669219971e-01
1.663307189941406250e+00,-1.599093794822692871e+00,5.326842665672302246e-01
1.684223890304565430e+00,-1.573443889617919922e+00,-6.175818443298339844e-01
1.686405420303344727e+00,-1.575481891632080078e+00,-5.328050851821899414e-01
1.688358426094055176e+00,-1.577306509017944336e+00,-4.491167068481445312e-01
1.690188407897949219e+00,-1.579016089439392090e+00,-3.663446903228759766e-01
1.691981792449951172e+00,-1.580691576004028320e+00,-2.843031883239746094e-01
1.693923115730285645e+00,-1.582505226135253906e+00,-2.028092592954635620e-01
1.695796489715576172e+00,-1.584255337715148926e+00,-1.216218993067741394e-01
1.697655916213989258e+00,-1.585992455482482910e+00,-4.055210575461387634e-02
1.699519038200378418e+00,-1.587733030319213867e+00,4.059661179780960083e-02
1.701329231262207031e+00,-1.589424133300781250e+00,1.220187097787857056e-01
1.703298807144165039e+00,-1.591264247894287109e+00,2.039317935705184937e-01
1.705268621444702148e+00,-1.593104362487792969e+00,2.865357697010040283e-01
1.707161307334899902e+00,-1.594872593879699707e+00,3.700235486030578613e-01
1.708880662918090820e+00,-1.596478939056396484e+00,4.545757770538330078e-01
1.710832476615905762e+00,-1.598302364349365234e+00,5.405226349830627441e-01
1.733454704284667969e+00,-1.573582887649536133e+00,-6.273108720779418945e-01
1.735500931739807129e+00,-1.575440526008605957e+00,-5.411365032196044922e-01
1.737365961074829102e+00,-1.577133536338806152e+00,-4.561014473438262939e-01
1.739431977272033691e+00,-1.579008936882019043e+00,-3.720812797546386719e-01
1.741173267364501953e+00,-1.580589652061462402e+00,-2.887378036975860596e-01
1.743126630783081055e+00,-1.582362771034240723e+00,-2.059674561023712158e-01
1.745066761970520020e+00,-1.584123969078063965e+00,-1.235167011618614197e-01
1.746988654136657715e+00,-1.585868716239929199e+00,-4.118408635258674622e-02
1.748881340026855469e+00,-1.587586760520935059e+00,4.122870415449142456e-02
1.750776767730712891e+00,-1.589307427406311035e+00,1.239208579063415527e-01
1.752896308898925781e+00,-1.591231465339660645e+00,2.071218341588973999e-01
1.754741311073303223e+00,-1.592906236648559570e+00,2.909877598285675049e-01
1.756822586059570312e+00,-1.594795584678649902e+00,3.758013248443603516e-01
1.758780956268310547e+00,-1.596573352813720703e+00,4.617233872413635254e-01
1.761039137840270996e+00,-1.598623394966125488e+00,5.490993857383728027e-01
1.783102512359619141e+00,-1.572694897651672363e+00,-6.370660662651062012e-01
1.785024285316467285e+00,-1.574389815330505371e+00,-5.494952797889709473e-01
1.786812782287597656e+00,-1.575967311859130859e+00,-4.631130993366241455e-01
1.788866400718688965e+00,-1.577778697013854980e+00,-3.777862787246704102e-01
1.791049361228942871e+00,-1.579704046249389648e+00,-2.932291030883789062e-01
1.792941451072692871e+00,-1.581372857093811035e+00,-2.091576009988784790e-01
1.794875621795654297e+00,-1.583078742027282715e+00,-1.254255026578903198e-01
1.796847105026245117e+00,-1.584817528724670410e+00,-4.182041808962821960e-02
1.798843026161193848e+00,-1.586578011512756348e+00,4.186686873435974121e-02
1.800896644592285156e+00,-1.588389277458190918e+00,1.258462667465209961e-01
1.802702069282531738e+00,-1.589981675148010254e+00,2.102962434291839600e-01
1.804658412933349609e+00,-1.591707110404968262e+00,2.954571843147277832e-01
1.806917428970336914e+00,-1.593699574470520020e+00,3.815984427928924561e-01
1.809103965759277344e+00,-1.595628142356872559e+00,4.688906371593475342e-01
1.811091065406799316e+00,-1.597380757331848145e+00,5.575196146965026855e-01
1.834520936012268066e+00,-1.571942567825317383e+00,-6.473317742347717285e-01
1.836836099624633789e+00,-1.573926329612731934e+00,-5.584526062011718750e-01
1.838917255401611328e+00,-1.575709700584411621e+00,-4.707239270210266113e-01
1.840880155563354492e+00,-1.577391624450683594e+00,-3.839634358882904053e-01
1.843034267425537109e+00,-1.579237461090087891e+00,-2.980087399482727051e-01
1.844942450523376465e+00,-1.580872416496276855e+00,-2.125623971223831177e-01
1.847000956535339355e+00,-1.582636356353759766e+00,-1.274719834327697754e-01
1.849023222923278809e+00,-1.584369182586669922e+00,-4.250261560082435608e-02
1.851012110710144043e+00,-1.586073279380798340e+00,4.254833236336708069e-02
1.853151321411132812e+00,-1.587906360626220703e+00,1.278964430093765259e-01
1.855088353157043457e+00,-1.589566230773925781e+00,2.137313485145568848e-01
1.857239961624145508e+00,-1.591409802436828613e+00,3.003057241439819336e-01
1.859324216842651367e+00,-1.593195676803588867e+00,3.878104090690612793e-01
1.861234784126281738e+00,-1.594832897186279297e+00,4.764367640018463135e-01
1.863436222076416016e+00,-1.596719145774841309e+00,5.665398240089416504e-01
1.886694550514221191e+00,-1.570383071899414062e+00,-6.577429771423339844e-01
1.888912796974182129e+00,-1.572229385375976562e+00,-5.673854351043701172e-01
1.890942573547363281e+00,-1.573918819427490234e+00,-4.782255589962005615e-01
1.893210172653198242e+00,-1.575806260108947754e+00,-3.901337683200836182e-01
1.895342826843261719e+00,-1.577581405639648438e+00,-3.027845621109008789e-01
1.897411823272705078e+00,-1.579303503036499023e+00,-2.159810215234756470e-01
1.899468183517456055e+00,-1.581015110015869141e+00,-1.295179575681686401e-01
1.901541471481323242e+00,-1.582740902900695801e+00,-4.318465664982795715e-02
1.903634071350097656e+00,-1.584482550621032715e+00,4.323218017816543579e-02
1.905731439590454102e+00,-1.586228251457214355e+00,1.299450248479843140e-01
1.907793402671813965e+00,-1.587944626808166504e+00,2.171627432107925415e-01
1.909759283065795898e+00,-1.589580893516540527e+00,3.050876259803771973e-01
1.911999940872192383e+00,-1.591445922851562500e+00,3.940057754516601562e-01
1.914115786552429199e+00,-1.593207001686096191e+00,4.840861558914184570e-01
1.916588068008422852e+00,-1.595264792442321777e+00,5.756984949111938477e-01
1.943773508071899414e+00,-1.571349620819091797e+00,-6.697323322296142578e-01
1.945869207382202148e+00,-1.573043823242187500e+00,-5.776714682579040527e-01
1.948233008384704590e+00,-1.574954748153686523e+00,-4.869634211063385010e-01
1.950415134429931641e+00,-1.576718807220458984e+00,-3.972306549549102783e-01
1.952514886856079102e+00,-1.578416228294372559e+00,-3.082771301269531250e-01
1.954608440399169922e+00,-1.580108761787414551e+00,-2.198946923017501831e-01
1.956803441047668457e+00,-1.581883072853088379e+00,-1.318700462579727173e-01
1.958932518959045410e+00,-1.583604216575622559e+00,-4.396875202655792236e-02
1.961014509201049805e+00,-1.585287332534790039e+00,4.401548206806182861e-02
1.963197588920593262e+00,-1.587052226066589355e+00,1.323009580373764038e-01
1.965404152870178223e+00,-1.588835954666137695e+00,2.211092114448547363e-01
1.967568993568420410e+00,-1.590585947036743164e+00,3.106539845466613770e-01
1.969604849815368652e+00,-1.592231750488281250e+00,4.011389017105102539e-01
1.971960783004760742e+00,-1.594136357307434082e+00,4.928942024707794189e-01
1.974107861518859863e+00,-1.595872044563293457e+00,5.860546827316284180e-01
1.998583078384399414e+00,-1.568897485733032227e+00,-6.808100342750549316e-01
2.001100540161132812e+00,-1.570873737335205078e+00,-5.873328447341918945e-01
2.003355979919433594e+00,-1.572644233703613281e+00,-4.950643777847290039e-01
2.005474090576171875e+00,-1.574306964874267578e+00,-4.038135409355163574e-01
2.007559776306152344e+00,-1.575944185256958008e+00,-3.133744299411773682e-01
2.009841442108154297e+00,-1.577735304832458496e+00,-2.235449552536010742e-01
2.012040138244628906e+00,-1.579461216926574707e+00,-1.340551972389221191e-01
2.014220714569091797e+00,-1.581173181533813477e+00,-4.469715058803558350e-02
2.016407251358032227e+00,-1.582889437675476074e+00,4.474566876888275146e-02
2.018527984619140625e+00,-1.584554314613342285e+00,1.344874650239944458e-01
2.020855903625488281e+00,-1.586381793022155762e+00,2.247700542211532593e-01
2.023193836212158203e+00,-1.588217020034790039e+00,3.158148527145385742e-01
2.025450229644775391e+00,-1.589988231658935547e+00,4.078358113765716553e-01
2.027509450912475586e+00,-1.591604709625244141e+00,5.010331273078918457e-01
2.029899835586547852e+00,-1.593481302261352539e+00,5.957855582237243652e-01
2.058833837509155273e+00,-1.569095015525817871e+00,-6.936125159263610840e-01
2.061260700225830078e+00,-1.570944547653198242e+00,-5.983291864395141602e-01
2.063473224639892578e+00,-1.572630882263183594e+00,-5.043061971664428711e-01
2.065949916839599609e+00,-1.574518322944641113e+00,-4.114105999469757080e-01
2.068262338638305664e+00,-1.576280713081359863e+00,-3.192953467369079590e-01
2.070333957672119141e+00,-1.577859640121459961e+00,-2.277379482984542847e-01
2.072628974914550781e+00,-1.579608678817749023e+00,-1.365716457366943359e-01
2.074888706207275391e+00,-1.581330776214599609e+00,-4.553648084402084351e-02
2.077093601226806641e+00,-1.583011269569396973e+00,4.558487236499786377e-02
2.079520940780639648e+00,-1.584861159324645996e+00,1.370257586240768433e-01
2.081758022308349609e+00,-1.586566090583801270e+00,2.289945930242538452e-01
2.083873510360717773e+00,-1.588178515434265137e+00,3.217053711414337158e-01
2.086291551589965820e+00,-1.590021252632141113e+00,4.154614210128784180e-01
2.088564157485961914e+00,-1.591753363609313965e+00,5.104383230209350586e-01
2.091240167617797852e+00,-1.593792796134948730e+00,6.070314645767211914e-01
2.119228124618530273e+00,-1.567688226699829102e+00,-7.063270807266235352e-01
2.122134685516357422e+00,-1.569838404655456543e+00,-6.094145178794860840e-01
2.124227762222290039e+00,-1.571386694908142090e+00,-5.136048197746276855e-01
2.126651048660278320e+00,-1.573179244995117188e+00,-4.189715087413787842e-01
2.128957748413085938e+00,-1.574885725975036621e+00,-3.251520991325378418e-01
2.131231784820556641e+00,-1.576567888259887695e+00,-2.319306880235671997e-01
2.133531093597412109e+00,-1.578268885612487793e+00,-1.390818655490875244e-01
2.135850429534912109e+00,-1.579984545707702637e+00,-4.637330770492553711e-02
2.138166189193725586e+00,-1.581697702407836914e+00,4.642358794808387756e-02
2.140526771545410156e+00,-1.583443760871887207e+00,1.395378857851028442e-01
2.142886877059936523e+00,-1.585189700126647949e+00,2.331990450620651245e-01
2.145175695419311523e+00,-1.586882829666137695e+00,3.276290297508239746e-01
2.147833824157714844e+00,-1.588849067687988281e+00,4.231446981430053711e-01
2.149765729904174805e+00,-1.590278267860412598e+00,5.197795033454895020e-01
2.152708053588867188e+00,-1.592454791069030762e+00,6.181942224502563477e-01
2.183407306671142578e+00,-1.567317008972167969e+00,-7.201668620109558105e-01
2.185592174530029297e+00,-1.568885564804077148e+00,-6.211252212524414062e-01
2.188134670257568359e+00,-1.570710659027099609e+00,-5.235670208930969238e-01
2.190500974655151367e+00,-1.572409152984619141e+00,-4.270728230476379395e-01
2.192803382873535156e+00,-1.574061870574951172e+00,-3.314281702041625977e-01
2.195298194885253906e+00,-1.575852870941162109e+00,-2.364238500595092773e-01
2.197601079940795898e+00,-1.577505826950073242e+00,-1.417720317840576172e-01
2.199979066848754883e+00,-1.579212903976440430e+00,-4.727004095911979675e-02
2.202413558959960938e+00,-1.580960392951965332e+00,4.732234776020050049e-02
2.204698085784912109e+00,-1.582600355148315430e+00,1.422298848628997803e-01
2.207184553146362305e+00,-1.584385156631469727e+00,2.377039492130279541e-01
2.209653854370117188e+00,-1.586157679557800293e+00,3.339749872684478760e-01
2.212006092071533203e+00,-1.587846279144287109e+00,4.312655627727508545e-01
2.214772939682006836e+00,-1.589832425117492676e+00,5.299409031867980957e-01
2.217338800430297852e+00,-1.591674089431762695e+00,6.301472783088684082e-01
2.250387191772460938e+00,-1.567085266113281250e+00,-7.347856760025024414e-01
2.253091096878051758e+00,-1.568968176841735840e+00,-6.338607072830200195e-01
2.255524635314941406e+00,-1.570662856101989746e+00,-5.342577695846557617e-01
2.257832288742065430e+00,-1.572269797325134277e+00,-4.357678592205047607e-01
2.260416984558105469e+00,-1.574069738388061523e+00,-3.382075726985931396e-01
2.262687683105468750e+00,-1.575650930404663086e+00,-2.412278205156326294e-01
2.265170097351074219e+00,-1.577379584312438965e+00,-1.446597129106521606e-01
2.267611980438232422e+00,-1.579079866409301758e+00,-4.823265597224235535e-02
2.270017623901367188e+00,-1.580755233764648438e+00,4.828383028507232666e-02
2.272629022598266602e+00,-1.582573652267456055e+00,1.451360583305358887e-01
2.274985313415527344e+00,-1.584214448928833008e+00,2.425388842821121216e-01
2.277643442153930664e+00,-1.586065649986267090e+00,3.407850265502929688e-01
2.280237197875976562e+00,-1.587871670722961426e+00,4.400920569896697998e-01
2.282636165618896484e+00,-1.589542269706726074e+00,5.406795740127563477e-01
2.285465955734252930e+00,-1.591512799263000488e+00,6.429686546325683594e-01
2.317203998565673828e+00,-1.564849376678466797e+00,-7.492121458053588867e-01
2.319873571395874023e+00,-1.566652178764343262e+00,-6.462737917900085449e-01
2.322835445404052734e+00,-1.568652391433715820e+00,-5.448272824287414551e-01
2.325095653533935547e+00,-1.570178866386413574e+00,-4.443666934967041016e-01
2.327698469161987305e+00,-1.571936488151550293e+00,-3.448725640773773193e-01
2.330215692520141602e+00,-1.573636412620544434e+00,-2.460005283355712891e-01
2.332708835601806641e+00,-1.575320005416870117e+00,-1.475178003311157227e-01
2.335213422775268555e+00,-1.577011466026306152e+00,-4.918539896607398987e-02
2.337735176086425781e+00,-1.578714370727539062e+00,4.923851042985916138e-02
2.340252161026000977e+00,-1.580414295196533203e+00,1.479948312044143677e-01
2.342718362808227539e+00,-1.582079648971557617e+00,2.473204433917999268e-01
2.345551729202270508e+00,-1.583993077278137207e+00,3.475176692008972168e-01
2.347769260406494141e+00,-1.585490584373474121e+00,4.486999809741973877e-01
2.350334882736206055e+00,-1.587223291397094727e+00,5.512773394584655762e-01
2.353403329849243164e+00,-1.589295387268066406e+00,6.556145548820495605e-01
2.388343811035156250e+00,-1.563591957092285156e+00,-7.648990154266357422e-01
2.390873193740844727e+00,-1.565248012542724609e+00,-6.597440242767333984e-01
2.393223047256469727e+00,-1.566786289215087891e+00,-5.560197830200195312e-01
2.395973682403564453e+00,-1.568587064743041992e+00,-4.535752534866333008e-01
2.398597717285156250e+00,-1.570305109024047852e+00,-3.520108163356781006e-01
2.401380300521850586e+00,-1.572126746177673340e+00,-2.511120438575744629e-01
2.403883457183837891e+00,-1.573765516281127930e+00,-1.505788564682006836e-01
2.406453847885131836e+00,-1.575448274612426758e+00,-5.020579323172569275e-02
2.409097909927368164e+00,-1.577179193496704102e+00,5.026095733046531677e-02
2.411509752273559570e+00,-1.578758120536804199e+00,1.510565578937530518e-01
2.414087772369384766e+00,-1.580445885658264160e+00,2.524408698081970215e-01
2.416588783264160156e+00,-1.582083344459533691e+00,3.546511232852935791e-01
2.419532299041748047e+00,-1.584010362625122070e+00,4.580351114273071289e-01
2.422379255294799805e+00,-1.585874199867248535e+00,5.627936720848083496e-01
2.424959182739257812e+00,-1.587563276290893555e+00,6.691498160362243652e-01
2.462697267532348633e+00,-1.562379240989685059e+00,-7.814695835113525391e-01
2.465866565704345703e+00,-1.564389944076538086e+00,-6.741899847984313965e-01
2.468117237091064453e+00,-1.565817713737487793e+00,-5.681547522544860840e-01
2.471283435821533203e+00,-1.567826390266418457e+00,-4.635362327098846436e-01
2.473811388015747070e+00,-1.569430232048034668e+00,-3.597153723239898682e-01
2.476359844207763672e+00,-1.571046948432922363e+00,-2.565748989582061768e-01
2.479072809219360352e+00,-1.572768211364746094e+00,-1.538628190755844116e-01
2.481712579727172852e+00,-1.574442863464355469e+00,-5.130049958825111389e-02
2.484314680099487305e+00,-1.576093554496765137e+00,5.135428532958030701e-02
2.487070560455322266e+00,-1.577841997146606445e+00,1.543591916561126709e-01
2.489885330200195312e+00,-1.579627871513366699e+00,2.579762637615203857e-01
2.492140769958496094e+00,-1.581058621406555176e+00,3.623805940151214600e-01
2.495326995849609375e+00,-1.583080053329467773e+00,4.680460691452026367e-01
2.497700929641723633e+00,-1.584586143493652344e+00,5.749648809432983398e-01
2.500508069992065430e+00,-1.586367011070251465e+00,6.836612820625305176e-01
2.542231559753417969e+00,-1.562262535095214844e+00,-7.995299100875854492e-01
2.544575929641723633e+00,-1.563703298568725586e+00,-6.895197629928588867e-01
2.547426462173461914e+00,-1.565454959869384766e+00,-5.811939835548400879e-01
2.550584554672241211e+00,-1.567395687103271484e+00,-4.741540253162384033e-01
2.553135156631469727e+00,-1.568963050842285156e+00,-3.679465651512145996e-01
2.555974245071411133e+00,-1.570707798004150391e+00,-2.624674439430236816e-01
2.558705806732177734e+00,-1.572386384010314941e+00,-1.573922336101531982e-01
2.561417818069458008e+00,-1.574052929878234863e+00,-5.247700959444046021e-02
2.564147233963012695e+00,-1.575730204582214355e+00,5.253292992711067200e-02
2.566790103912353516e+00,-1.577354311943054199e+00,1.578895151615142822e-01
2.569727182388305664e+00,-1.579159259796142578e+00,2.638797163963317871e-01
