3.018477201461791992e+00,-1.304415702819824219e+00,5.208096504211425781e-01
3.021798133850097656e+00,-1.305850744247436523e+00,6.398767232894897461e-01
3.025757312774658203e+00,-1.307561755180358887e+00,7.609862685203552246e-01
3.044008493423461914e+00,-1.264059782028198242e+00,-8.831681013107299805e-01
3.048252344131469727e+00,-1.265822052955627441e+00,-7.620089650154113770e-01
3.052102327346801758e+00,-1.267420768737792969e+00,-6.423864960670471191e-01
3.055748939514160156e+00,-1.268935084342956543e+00,-5.240530371665954590e-01
3.059765815734863281e+00,-1.270603179931640625e+00,-4.067963063716888428e-01
3.063274621963500977e+00,-1.272060155868530273e+00,-2.901902198791503906e-01
3.067029953002929688e+00,-1.273619651794433594e+00,-1.740439087152481079e-01
3.070739030838012695e+00,-1.275159955024719238e+00,-5.803760141134262085e-02
3.074413776397705078e+00,-1.276685953140258789e+00,5.810705572366714478e-02
3.078360319137573242e+00,-1.278324723243713379e+00,1.746868789196014404e-01
3.081845998764038086e+00,-1.279772162437438965e+00,2.919495105743408203e-01
3.085768699645996094e+00,-1.281401157379150391e+00,4.102534055709838867e-01
3.089572191238403320e+00,-1.282980561256408691e+00,5.298536419868469238e-01
3.093081235885620117e+00,-1.284437775611877441e+00,6.510114669799804688e-01
3.097293853759765625e+00,-1.286187052726745605e+00,7.742684483528137207e-01
3.118393421173095703e+00,-1.242926120758056641e+00,-8.994957804679870605e-01
3.121559381484985352e+00,-1.244188070297241211e+00,-7.758030891418457031e-01
3.125441551208496094e+00,-1.245735406875610352e+00,-6.540025472640991211e-01
3.129757165908813477e+00,-1.247455477714538574e+00,-5.336284041404724121e-01
3.133307933807373047e+00,-1.248870849609375000e+00,-4.141547679901123047e-01
3.137239456176757812e+00,-1.250437855720520020e+00,-2.954712808132171631e-01
3.141039371490478516e+00,-1.251952409744262695e+00,-1.772086769342422485e-01
3.144837141036987305e+00,-1.253466129302978516e+00,-5.909292027354240417e-02
3.148644924163818359e+00,-1.254983782768249512e+00,5.916447192430496216e-02
3.152348279953002930e+00,-1.256459951400756836e+00,1.778466850519180298e-01
3.156481504440307617e+00,-1.258107304573059082e+00,2.972835302352905273e-01
3.159913301467895508e+00,-1.259475111961364746e+00,4.176714122295379639e-01
3.163867712020874023e+00,-1.261051297187805176e+00,5.394443273544311523e-01
3.168656110763549805e+00,-1.262959837913513184e+00,6.630452871322631836e-01
3.172034978866577148e+00,-1.264306545257568359e+00,7.883477807044982910e-01
3.195151090621948242e+00,-1.220821738243103027e+00,-9.165021777153015137e-01
3.199239253997802734e+00,-1.222383737564086914e+00,-7.906795144081115723e-01
3.202996253967285156e+00,-1.223819255828857422e+00,-6.664972901344299316e-01
3.206629514694213867e+00,-1.225207448005676270e+00,-5.436894893646240234e-01
3.210747480392456055e+00,-1.226780772209167480e+00,-4.220263659954071045e-01
3.214687108993530273e+00,-1.228286147117614746e+00,-3.010787963867187500e-01
3.218534708023071289e+00,-1.229756236076354980e+00,-1.805691719055175781e-01
3.222425460815429688e+00,-1.231242895126342773e+00,-6.021352112293243408e-02
3.226371526718139648e+00,-1.232750654220581055e+00,6.028725951910018921e-02
3.230254411697387695e+00,-1.234234094619750977e+00,1.812266856431961060e-01
3.234008312225341797e+00,-1.235668420791625977e+00,3.028883635997772217e-01
3.238317489624023438e+00,-1.237314939498901367e+00,4.256502389907836914e-01
3.242592096328735352e+00,-1.238948225975036621e+00,5.497870445251464844e-01
3.246643543243408203e+00,-1.240496277809143066e+00,6.755796074867248535e-01
3.250248908996582031e+00,-1.241873860359191895e+00,8.032863736152648926e-01
3.268995761871337891e+00,-1.195706725120544434e+00,-9.326791763305664062e-01
3.273110151290893555e+00,-1.197211742401123047e+00,-8.046188354492187500e-01
3.276927947998046875e+00,-1.198608160018920898e+00,-6.782419085502624512e-01
3.281291484832763672e+00,-1.200204133987426758e+00,-5.533791780471801758e-01
3.285387039184570312e+00,-1.201702237129211426e+00,-4.295322597026824951e-01
3.289337873458862305e+00,-1.203147292137145996e+00,-3.064260780811309814e-01
3.293140172958374023e+00,-1.204538106918334961e+00,-1.837686747312545776e-01
3.297123432159423828e+00,-1.205995082855224609e+00,-6.128048151731491089e-02
3.301290988922119141e+00,-1.207519412040710449e+00,6.135793775320053101e-02
3.305343866348266602e+00,-1.209001898765563965e+00,1.844496726989746094e-01
3.309302568435668945e+00,-1.210449814796447754e+00,3.082859516143798828e-01
3.313060998916625977e+00,-1.211824655532836914e+00,4.331503808498382568e-01
3.317459821701049805e+00,-1.213433504104614258e+00,5.594788193702697754e-01
3.321671724319458008e+00,-1.214974164962768555e+00,6.875027418136596680e-01
3.325467348098754883e+00,-1.216362476348876953e+00,8.174896240234375000e-01
3.353036880493164062e+00,-1.172315478324890137e+00,-9.517720341682434082e-01
3.357171535491943359e+00,-1.173761129379272461e+00,-8.210692405700683594e-01
3.361875534057617188e+00,-1.175405740737915039e+00,-6.922708749771118164e-01
3.365526914596557617e+00,-1.176682353019714355e+00,-5.646869540214538574e-01
3.369778871536254883e+00,-1.178168892860412598e+00,-4.383160173892974854e-01
3.373928785324096680e+00,-1.179619789123535156e+00,-3.127014338970184326e-01
3.378066778182983398e+00,-1.181066632270812988e+00,-1.875452995300292969e-01
3.382151603698730469e+00,-1.182494878768920898e+00,-6.253983080387115479e-02
3.386189937591552734e+00,-1.183906674385070801e+00,6.261450797319412231e-02
3.390248060226440430e+00,-1.185325503349304199e+00,1.882215738296508789e-01
3.394255161285400391e+00,-1.186726570129394531e+00,3.145853281021118164e-01
3.398938179016113281e+00,-1.188363909721374512e+00,4.421088397502899170e-01
3.402653694152832031e+00,-1.189662933349609375e+00,5.709162950515747070e-01
3.407059669494628906e+00,-1.191203355789184570e+00,7.015751004219055176e-01
3.411082506179809570e+00,-1.192609786987304688e+00,8.342543244361877441e-01
3.433902978897094727e+00,-1.145703911781311035e+00,-9.699718952178955078e-01
3.439118385314941406e+00,-1.147444009780883789e+00,-8.370085358619689941e-01
3.442891597747802734e+00,-1.148702979087829590e+00,-7.054955959320068359e-01
3.447328567504882812e+00,-1.150183320045471191e+00,-5.755908489227294922e-01
3.451567173004150391e+00,-1.151597499847412109e+00,-4.467646479606628418e-01
3.455739021301269531e+00,-1.152989387512207031e+00,-3.187215328216552734e-01
3.459937810897827148e+00,-1.154390335083007812e+00,-1.911537200212478638e-01
3.464120864868164062e+00,-1.155786037445068359e+00,-6.374310702085494995e-02
3.468295335769653320e+00,-1.157178759574890137e+00,6.381991505622863770e-02
3.472528934478759766e+00,-1.158591270446777344e+00,1.918493509292602539e-01
3.476749658584594727e+00,-1.159999489784240723e+00,3.206593394279479980e-01
3.480843544006347656e+00,-1.161365389823913574e+00,4.505541026592254639e-01
3.485702037811279297e+00,-1.162986516952514648e+00,5.819979906082153320e-01
3.489221572875976562e+00,-1.164160728454589844e+00,7.149892449378967285e-01
3.494832515716552734e+00,-1.166032791137695312e+00,8.505682349205017090e-01
3.527744293212890625e+00,-1.121165156364440918e+00,-9.918445348739624023e-01
3.531786441802978516e+00,-1.122449755668640137e+00,-8.555641770362854004e-01
3.536517381668090820e+00,-1.123953342437744141e+00,-7.213103175163269043e-01
3.540904998779296875e+00,-1.125347733497619629e+00,-5.884653329849243164e-01
3.545128822326660156e+00,-1.126690149307250977e+00,-4.567408561706542969e-01
3.549327373504638672e+00,-1.128024578094482422e+00,-3.258306384086608887e-01
3.553595304489135742e+00,-1.129380941390991211e+00,-1.954149752855300903e-01
3.557890892028808594e+00,-1.130746126174926758e+00,-6.516406685113906860e-02
3.562220335006713867e+00,-1.132122039794921875e+00,6.524336338043212891e-02
3.566654682159423828e+00,-1.133531332015991211e+00,1.961331069469451904e-01
3.571118354797363281e+00,-1.134949922561645508e+00,3.278310596942901611e-01
3.575492382049560547e+00,-1.136340141296386719e+00,4.606527984142303467e-01
3.579617977142333984e+00,-1.137651324272155762e+00,5.948990583419799805e-01
3.584561586380004883e+00,-1.139222383499145508e+00,7.311094403266906738e-01
3.589179277420043945e+00,-1.140689969062805176e+00,8.694674372673034668e-01
3.616919755935668945e+00,-1.092764616012573242e+00,-1.012415409088134766e+00
3.622128009796142578e+00,-1.094338297843933105e+00,-8.735651969909667969e-01
3.625883817672729492e+00,-1.095472931861877441e+00,-7.362640500068664551e-01
3.630428075790405273e+00,-1.096845865249633789e+00,-6.006726026535034180e-01
3.635357856750488281e+00,-1.098335385322570801e+00,-4.662924408912658691e-01
3.639585256576538086e+00,-1.099612474441528320e+00,-3.326374292373657227e-01
3.643923521041870117e+00,-1.100923180580139160e+00,-1.994951963424682617e-01
3.648326635360717773e+00,-1.102253556251525879e+00,-6.652465462684631348e-02
3.652803897857666016e+00,-1.103606224060058594e+00,6.660629063844680786e-02
3.657427787780761719e+00,-1.105003118515014648e+00,2.002345323562622070e-01
3.661402702331542969e+00,-1.106204032897949219e+00,3.346314132213592529e-01
3.665839433670043945e+00,-1.107544541358947754e+00,4.702021777629852295e-01
3.671173095703125000e+00,-1.109156012535095215e+00,6.074140071868896484e-01
3.675164699554443359e+00,-1.110361933708190918e+00,7.462708950042724609e-01
3.679974317550659180e+00,-1.111815094947814941e+00,8.875162601470947266e-01
3.711832761764526367e+00,-1.063711166381835938e+00,-1.034614801406860352e+00
3.715825796127319336e+00,-1.064855456352233887e+00,-8.923953771591186523e-01
3.720625400543212891e+00,-1.066230893135070801e+00,-7.523260116577148438e-01
3.725139379501342773e+00,-1.067524552345275879e+00,-6.137520074844360352e-01
3.729558944702148438e+00,-1.068791031837463379e+00,-4.763641953468322754e-01
3.734349012374877930e+00,-1.070163726806640625e+00,-3.398635387420654297e-01
3.738761663436889648e+00,-1.071428298950195312e+00,-2.038268744945526123e-01
3.743278503417968750e+00,-1.072722673416137695e+00,-6.796909868717193604e-02
3.747909307479858398e+00,-1.074049711227416992e+00,6.805317848920822144e-02
3.752200365066528320e+00,-1.075279474258422852e+00,2.045595049858093262e-01
3.756915807723999023e+00,-1.076630711555480957e+00,3.419173359870910645e-01
3.761616468429565430e+00,-1.077977895736694336e+00,4.804588258266448975e-01
3.766131877899169922e+00,-1.079271793365478516e+00,6.205059289932250977e-01
3.771592855453491211e+00,-1.080836772918701172e+00,7.626318931579589844e-01
3.775250196456909180e+00,-1.081884860992431641e+00,9.066668152809143066e-01
3.788893222808837891e+00,-1.027348399162292480e+00,-1.051887750625610352e+00
3.815496444702148438e+00,-1.034561753273010254e+00,-9.126825332641601562e-01
3.820245265960693359e+00,-1.035849452018737793e+00,-7.693927884101867676e-01
3.824732542037963867e+00,-1.037066221237182617e+00,-6.276509165763854980e-01
3.829158306121826172e+00,-1.038266181945800781e+00,-4.871376454830169678e-01
3.834003448486328125e+00,-1.039579987525939941e+00,-3.475432693958282471e-01
3.838495969772338867e+00,-1.040798068046569824e+00,-2.084305882453918457e-01
3.843131780624389648e+00,-1.042055010795593262e+00,-6.950424611568450928e-02
3.847923040390014648e+00,-1.043354272842407227e+00,6.959090381860733032e-02
3.852398872375488281e+00,-1.044567823410034180e+00,2.091855257749557495e-01
3.857351541519165039e+00,-1.045910716056823730e+00,3.496597409248352051e-01
3.862324237823486328e+00,-1.047259092330932617e+00,4.913569390773773193e-01
3.867141008377075195e+00,-1.048565149307250977e+00,6.346102952957153320e-01
3.871581554412841797e+00,-1.049769163131713867e+00,7.797318696975708008e-01
3.876966714859008789e+00,-1.051229357719421387e+00,9.273865222930908203e-01
3.814501762390136719e+00,-9.759058952331542969e-01,-1.055011272430419922e+00
3.919257640838623047e+00,-1.002706646919250488e+00,-9.339738488197326660e-01
3.924167871475219727e+00,-1.003962993621826172e+00,-7.873479127883911133e-01
3.928850889205932617e+00,-1.005161046981811523e+00,-6.423103213310241699e-01
3.934068202972412109e+00,-1.006495833396911621e+00,-4.986002445220947266e-01
3.938634872436523438e+00,-1.007664203643798828e+00,-3.556840121746063232e-01
3.943552255630493164e+00,-1.008922219276428223e+00,-2.133291363716125488e-01
3.948314666748046875e+00,-1.010140657424926758e+00,-7.113774120807647705e-02
3.952935695648193359e+00,-1.011322975158691406e+00,7.122100144624710083e-02
3.957940816879272461e+00,-1.012603402137756348e+00,2.141075134277343750e-01
3.962354421615600586e+00,-1.013732671737670898e+00,3.578260242938995361e-01
3.967386245727539062e+00,-1.015020012855529785e+00,5.028229355812072754e-01
3.972297430038452148e+00,-1.016276478767395020e+00,6.494131684303283691e-01
3.976862668991088867e+00,-1.017444372177124023e+00,7.979205846786499023e-01
3.982437133789062500e+00,-1.018870592117309570e+00,9.490297436714172363e-01
3.814851999282836914e+00,-9.180299043655395508e-01,-1.051366090774536133e+00
4.029952049255371094e+00,-9.697930216789245605e-01,-9.569468498229980469e-01
4.034828186035156250e+00,-9.709663391113281250e-01,-8.066796660423278809e-01
4.039501667022705078e+00,-9.720909595489501953e-01,-6.580579280853271484e-01
4.044762134552001953e+00,-9.733569622039794922e-01,-5.108114480972290039e-01
4.049383640289306641e+00,-9.744691252708435059e-01,-3.643884062767028809e-01
4.054403781890869141e+00,-9.756771326065063477e-01,-2.185478657484054565e-01
4.059299945831298828e+00,-9.768554568290710449e-01,-7.287800312042236328e-02
4.064084053039550781e+00,-9.780067205429077148e-01,7.296389341354370117e-02
4.069301128387451172e+00,-9.792621135711669922e-01,2.193509042263031006e-01
4.073940753936767578e+00,-9.803786277770996094e-01,3.665981888771057129e-01
4.079253196716308594e+00,-9.816570281982421875e-01,5.151672363281250000e-01
4.084476947784423828e+00,-9.829141497611999512e-01,6.653846502304077148e-01
4.089373588562011719e+00,-9.840924739837646484e-01,8.175849318504333496e-01
4.095348358154296875e+00,-9.855303168296813965e-01,9.724757075309753418e-01
3.840543508529663086e+00,-8.662572503089904785e-01,-1.054921388626098633e+00
4.145650863647460938e+00,-9.350759983062744141e-01,-9.811418652534484863e-01
4.151783943176269531e+00,-9.364593029022216797e-01,-8.272979855537414551e-01
4.156453609466552734e+00,-9.375125765800476074e-01,-6.748549342155456543e-01
4.161766052246093750e+00,-9.387108683586120605e-01,-5.238372683525085449e-01
4.166449069976806641e+00,-9.397671222686767578e-01,-3.736739456653594971e-01
4.171579360961914062e+00,-9.409242868423461914e-01,-2.241151630878448486e-01
4.176616668701171875e+00,-9.420605301856994629e-01,-7.473448663949966431e-02
4.181571483612060547e+00,-9.431781172752380371e-01,7.482314854860305786e-02
4.187008380889892578e+00,-9.444044828414916992e-01,2.249440848827362061e-01
4.191880702972412109e+00,-9.455034136772155762e-01,3.759548366069793701e-01
4.197485446929931641e+00,-9.467675685882568359e-01,5.283332467079162598e-01
4.201730728149414062e+00,-9.477251172065734863e-01,6.822062730789184570e-01
4.206747531890869141e+00,-9.488566517829895020e-01,8.382502198219299316e-01
4.212910652160644531e+00,-9.502468705177307129e-01,9.970600605010986328e-01
3.840671062469482422e+00,-8.087018132209777832e-01,-1.051669120788574219e+00
4.269464015960693359e+00,-8.989895582199096680e-01,-1.007295846939086914e+00
4.274522304534912109e+00,-9.000546932220458984e-01,-8.491011857986450195e-01
4.280295848846435547e+00,-9.012703895568847656e-01,-6.927968859672546387e-01
4.285046577453613281e+00,-9.022707343101501465e-01,-5.376738905906677246e-01
4.290419578552246094e+00,-9.034020304679870605e-01,-3.835934400558471680e-01
4.295668125152587891e+00,-9.045071601867675781e-01,-2.300626337528228760e-01
4.300855636596679688e+00,-9.055995345115661621e-01,-7.671776413917541504e-02
4.305989265441894531e+00,-9.066804051399230957e-01,7.680933177471160889e-02
4.311036109924316406e+00,-9.077430963516235352e-01,2.308856993913650513e-01
4.316768646240234375e+00,-9.089501500129699707e-01,3.859491944313049316e-01
4.321567535400390625e+00,-9.099606275558471680e-01,5.422564148902893066e-01
4.327201843261718750e+00,-9.111469984054565430e-01,7.003889083862304688e-01
4.332560539245605469e+00,-9.122753739356994629e-01,8.606300354003906250e-01
4.337344646453857422e+00,-9.132827520370483398e-01,1.023311018943786621e+00
3.840721368789672852e+00,-7.514735460281372070e-01,-1.048630237579345703e+00
4.400803565979003906e+00,-8.610588908195495605e-01,-1.035269021987915039e+00
4.405858516693115234e+00,-8.620479702949523926e-01,-8.726496696472167969e-01
4.411684036254882812e+00,-8.631877899169921875e-01,-7.119902372360229492e-01
4.416481494903564453e+00,-8.641264438629150391e-01,-5.525572896003723145e-01
4.421954154968261719e+00,-8.651972413063049316e-01,-3.942059576511383057e-01
4.427330493927001953e+00,-8.662491440773010254e-01,-2.364257872104644775e-01
4.432674407958984375e+00,-8.672947287559509277e-01,-7.883960753679275513e-02
4.437996864318847656e+00,-8.683362007141113281e-01,7.893427461385726929e-02
4.443260669708251953e+00,-8.693661093711853027e-01,2.372764945030212402e-01
4.449265956878662109e+00,-8.705410361289978027e-01,3.966407179832458496e-01
4.454334735870361328e+00,-8.715327978134155273e-01,5.572932362556457520e-01
4.460301399230957031e+00,-8.727002143859863281e-01,7.198364734649658203e-01
4.466010570526123047e+00,-8.738172650337219238e-01,8.845637440681457520e-01
4.471153736114501953e+00,-8.748236298561096191e-01,1.051818609237670898e+00
3.866510868072509766e+00,-6.992181539535522461e-01,-1.052831172943115234e+00
4.538987636566162109e+00,-8.208286166191101074e-01,-1.064903259277343750e+00
4.545469760894775391e+00,-8.220007419586181641e-01,-8.978795409202575684e-01
4.550436496734619141e+00,-8.228989243507385254e-01,-7.324072122573852539e-01
4.556210994720458984e+00,-8.239431977272033691e-01,-5.685054659843444824e-01
4.561794281005859375e+00,-8.249529004096984863e-01,-4.055781662464141846e-01
4.567307472229003906e+00,-8.259499073028564453e-01,-2.432445287704467773e-01
4.572819709777832031e+00,-8.269467353820800781e-01,-8.111339807510375977e-02
4.578341484069824219e+00,-8.279452919960021973e-01,8.121135085821151733e-02
4.583830356597900391e+00,-8.289378881454467773e-01,2.441244870424270630e-01
4.589194774627685547e+00,-8.299080133438110352e-01,4.080142676830291748e-01
4.595466613769531250e+00,-8.310422301292419434e-01,5.734036564826965332e-01
4.600339889526367188e+00,-8.319234848022460938e-01,7.404393553733825684e-01
4.606163501739501953e+00,-8.329766392707824707e-01,9.098685979843139648e-01
4.613355636596679688e+00,-8.342772126197814941e-01,1.082350850105285645e+00
3.867483139038085938e+00,-6.423741579055786133e-01,-1.050484657287597656e+00
4.587273120880126953e+00,-7.619284987449645996e-01,-1.073562979698181152e+00
4.677218437194824219e+00,-7.768681049346923828e-01,-9.216133356094360352e-01
4.683432579040527344e+00,-7.779002785682678223e-01,-7.519442439079284668e-01
4.689296722412109375e+00,-7.788742780685424805e-01,-5.836605429649353027e-01
4.694990158081054688e+00,-7.798199653625488281e-01,-4.163852632045745850e-01
4.700637340545654297e+00,-7.807579040527343750e-01,-2.497246265411376953e-01
4.706308364868164062e+00,-7.816998362541198730e-01,-8.327424526214599609e-02
4.712016582489013672e+00,-7.826479077339172363e-01,8.337524533271789551e-02
4.717716217041015625e+00,-7.835946083068847656e-01,2.506319284439086914e-01
4.723313331604003906e+00,-7.845242619514465332e-01,4.188971221446990967e-01
4.728656768798828125e+00,-7.854117751121520996e-01,5.885595083236694336e-01
4.735012054443359375e+00,-7.864673733711242676e-01,7.602254748344421387e-01
4.741157531738281250e+00,-7.874881029129028320e-01,9.342120885848999023e-01
4.746760368347167969e+00,-7.884187698364257812e-01,1.110887885093688965e+00
3.867305278778076172e+00,-5.855978727340698242e-01,-1.048052310943603516e+00
4.586841106414794922e+00,-6.945520043373107910e-01,-1.071025609970092773e+00
4.834705829620361328e+00,-7.320843338966369629e-01,-9.504830837249755859e-01
4.841019153594970703e+00,-7.330403327941894531e-01,-7.754814028739929199e-01
4.846996784210205078e+00,-7.339454889297485352e-01,-6.019197106361389160e-01
4.852823257446289062e+00,-7.348276972770690918e-01,-4.294061958789825439e-01
4.858629226684570312e+00,-7.357068657875061035e-01,-2.575322389602661133e-01
4.864488601684570312e+00,-7.365940809249877930e-01,-8.587776124477386475e-02
4.870415210723876953e+00,-7.374915480613708496e-01,8.598239719867706299e-02
4.876362323760986328e+00,-7.383920550346374512e-01,2.584721744060516357e-01
4.882227420806884766e+00,-7.392802238464355469e-01,4.320080876350402832e-01
4.887857913970947266e+00,-7.401327490806579590e-01,6.069939732551574707e-01
4.894565582275390625e+00,-7.411484718322753906e-01,7.840589880943298340e-01
4.901081085205078125e+00,-7.421349883079528809e-01,9.635320901870727539e-01
4.907059192657470703e+00,-7.430402636528015137e-01,1.145796418190002441e+00
3.893269538879394531e+00,-5.326488614082336426e-01,-1.052914619445800781e+00
4.586406230926513672e+00,-6.274787783622741699e-01,-1.068717360496520996e+00
5.003188610076904297e+00,-6.844999194145202637e-01,-9.815793633460998535e-01
5.009617805480957031e+00,-6.853795051574707031e-01,-8.008356094360351562e-01
5.015723228454589844e+00,-6.862148046493530273e-01,-6.215893626213073730e-01
5.021696567535400391e+00,-6.870320439338684082e-01,-4.434335231781005859e-01
5.027676105499267578e+00,-6.878501176834106445e-01,-2.659434676170349121e-01
5.033737182617187500e+00,-6.886793375015258789e-01,-8.868257701396942139e-02
5.039894580841064453e+00,-6.895217299461364746e-01,8.879105001688003540e-02
5.046099662780761719e+00,-6.903706789016723633e-01,2.669180035591125488e-01
5.052246093750000000e+00,-6.912116408348083496e-01,4.461311697959899902e-01
5.058171749114990234e+00,-6.920223236083984375e-01,6.268500089645385742e-01
5.065244197845458984e+00,-6.929898858070373535e-01,8.097280263900756836e-01
5.070278167724609375e+00,-6.936786174774169922e-01,9.947416782379150391e-01
5.076376914978027344e+00,-6.945129632949829102e-01,1.182889580726623535e+00
3.893851041793823242e+00,-4.760616719722747803e-01,-1.051121473312377930e+00
4.624283790588378906e+00,-5.653642416000366211e-01,-1.075547695159912109e+00
5.164166450500488281e+00,-6.313702464103698730e-01,-1.011285185813903809e+00
5.170714855194091797e+00,-6.321708559989929199e-01,-8.250575065612792969e-01
5.176949024200439453e+00,-6.329330205917358398e-01,-6.403815150260925293e-01
5.183069705963134766e+00,-6.336813569068908691e-01,-4.568356275558471680e-01
5.189216136932373047e+00,-6.344328522682189941e-01,-2.739798724651336670e-01
5.195468902587890625e+00,-6.351973414421081543e-01,-9.136237204074859619e-02
5.201845169067382812e+00,-6.359768509864807129e-01,9.147449582815170288e-02
5.208292961120605469e+00,-6.367651820182800293e-01,2.749871015548706055e-01
5.214699745178222656e+00,-6.375484466552734375e-01,4.596234858036041260e-01
5.220899581909179688e+00,-6.383064389228820801e-01,6.458181738853454590e-01
5.226663589477539062e+00,-6.390111446380615234e-01,8.339849114418029785e-01
5.233623504638671875e+00,-6.398620605468750000e-01,1.024886727333068848e+00
5.240063190460205078e+00,-6.406493782997131348e-01,1.218770027160644531e+00
3.893568754196166992e+00,-4.195625185966491699e-01,-1.049316644668579102e+00
4.623766422271728516e+00,-4.982470273971557617e-01,-1.073658823966979980e+00
5.356778621673583984e+00,-5.772348046302795410e-01,-1.047278642654418945e+00
5.363479137420654297e+00,-5.779568552970886230e-01,-8.544082045555114746e-01
5.369875431060791016e+00,-5.786461234092712402e-01,-6.631538271903991699e-01
5.376174926757812500e+00,-5.793249011039733887e-01,-4.730766117572784424e-01
5.382525444030761719e+00,-5.800092220306396484e-01,-2.837188243865966797e-01
5.389008045196533203e+00,-5.807077884674072266e-01,-9.460990130901336670e-02
5.395641803741455078e+00,-5.814226269721984863e-01,9.472636133432388306e-02
5.402376174926757812e+00,-5.821483135223388672e-01,2.847651839256286621e-01
5.409085273742675781e+00,-5.828713178634643555e-01,4.759725630283355713e-01
5.415602684020996094e+00,-5.835735797882080078e-01,6.688008904457092285e-01
5.421688556671142578e+00,-5.842294096946716309e-01,8.636810183525085449e-01
5.429040431976318359e+00,-5.850215554237365723e-01,1.061406135559082031e+00
5.435869693756103516e+00,-5.857574939727783203e-01,1.262232661247253418e+00
3.893918752670288086e+00,-3.633044064044952393e-01,-1.047902226448059082e+00
4.624032020568847656e+00,-4.314243197441101074e-01,-1.072176694869995117e+00
5.541360855102539062e+00,-5.170115232467651367e-01,-1.081807851791381836e+00
5.547081947326660156e+00,-5.175452828407287598e-01,-8.823857903480529785e-01
5.553958892822265625e+00,-5.181869268417358398e-01,-6.849010586738586426e-01
5.561252117156982422e+00,-5.188673734664916992e-01,-4.886588752269744873e-01
5.567799568176269531e+00,-5.194782614707946777e-01,-2.930628657341003418e-01
5.574503421783447266e+00,-5.201036930084228516e-01,-9.772576391696929932e-02
5.581380844116210938e+00,-5.207453966140747070e-01,9.784633666276931763e-02
5.587565422058105469e+00,-5.213224291801452637e-01,2.941032648086547852e-01
5.594239711761474609e+00,-5.219451189041137695e-01,4.915574491024017334e-01
5.602187156677246094e+00,-5.226866602897644043e-01,6.908484697341918945e-01
5.608568191528320312e+00,-5.232819914817810059e-01,8.921666145324707031e-01
5.616278648376464844e+00,-5.240013599395751953e-01,1.096433639526367188e+00
5.623464584350585938e+00,-5.246717929840087891e-01,1.303915619850158691e+00
3.920115232467651367e+00,-3.092251718044281006e-01,-1.053652882575988770e+00
4.623494148254394531e+00,-3.647088706493377686e-01,-1.070731878280639648e+00
5.686896800994873047e+00,-4.485918283462524414e-01,-1.108852863311767578e+00
5.769615173339843750e+00,-4.551168084144592285e-01,-9.166545271873474121e-01
5.776710510253906250e+00,-4.556764960289001465e-01,-7.114930748939514160e-01
5.784257888793945312e+00,-4.562718272209167480e-01,-5.076282024383544922e-01
5.791044712066650391e+00,-4.568071961402893066e-01,-3.044381141662597656e-01
5.798013210296630859e+00,-4.573568999767303467e-01,-1.015189215540885925e-01
5.805181503295898438e+00,-4.579223394393920898e-01,1.016444340348243713e-01
5.811646461486816406e+00,-4.584323167800903320e-01,3.055211603641510010e-01
5.818641662597656250e+00,-4.589841067790985107e-01,5.106457471847534180e-01
5.825466156005859375e+00,-4.595224261283874512e-01,7.174981236457824707e-01
5.833702087402343750e+00,-4.601720869541168213e-01,9.268363714218139648e-01
5.839673042297363281e+00,-4.606430828571319580e-01,1.138641715049743652e+00
5.846961975097656250e+00,-4.612180590629577637e-01,1.354068636894226074e+00
3.920260906219482422e+00,-2.528387010097503662e-01,-1.052611589431762695e+00
4.623546600341796875e+00,-2.981973886489868164e-01,-1.069646000862121582e+00
5.686785697937011719e+00,-3.667713999748229980e-01,-1.107694149017333984e+00
5.983699321746826172e+00,-3.859209418296813965e-01,-9.496924877166748047e-01
5.991011142730712891e+00,-3.863925337791442871e-01,-7.371309399604797363e-01
5.998807907104492188e+00,-3.868953883647918701e-01,-5.259173512458801270e-01
6.005829334259033203e+00,-3.873482048511505127e-01,-3.154056668281555176e-01
6.013053417205810547e+00,-3.878141343593597412e-01,-1.051761507987976074e-01
6.020497798919677734e+00,-3.882942795753479004e-01,1.053063645958900452e-01
6.027226924896240234e+00,-3.887282609939575195e-01,3.165293931961059570e-01
6.034522533416748047e+00,-3.891988098621368408e-01,5.290484428405761719e-01
6.041652202606201172e+00,-3.896586298942565918e-01,7.433617115020751953e-01
6.050261497497558594e+00,-3.902139067649841309e-01,9.602568149566650391e-01
6.056530475616455078e+00,-3.906182050704956055e-01,1.179714441299438477e+00
6.064181327819824219e+00,-3.911116719245910645e-01,1.402933239936828613e+00
3.919920682907104492e+00,-1.965277045965194702e-01,-1.051657199859619141e+00
4.623024940490722656e+00,-2.317782789468765259e-01,-1.068648338317871094e+00
5.685963153839111328e+00,-2.850693762302398682e-01,-1.106625795364379883e+00
6.243564128875732422e+00,-3.130250573158264160e-01,-9.901239871978759766e-01
6.251149654388427734e+00,-3.134053647518157959e-01,-7.685075402259826660e-01
6.259254932403564453e+00,-3.138116896152496338e-01,-5.483008027076721191e-01
6.266562461853027344e+00,-3.141780793666839600e-01,-3.288286328315734863e-01
6.274095535278320312e+00,-3.145557641983032227e-01,-1.096521317958831787e-01
6.281872272491455078e+00,-3.149456381797790527e-01,1.097880452871322632e-01
6.288914680480957031e+00,-3.152987062931060791e-01,3.300015032291412354e-01
6.296562671661376953e+00,-3.156821727752685547e-01,5.515689253807067871e-01
6.304051876068115234e+00,-3.160576522350311279e-01,7.750113010406494141e-01
6.313097953796386719e+00,-3.165111541748046875e-01,1.001150846481323242e+00
6.319710254669189453e+00,-3.168426752090454102e-01,1.229968309402465820e+00
3.919888734817504883e+00,-1.403182446956634521e-01,-1.051002144813537598e+00
4.622893333435058594e+00,-1.654833257198333740e-01,-1.067960977554321289e+00
5.685653209686279297e+00,-2.035263925790786743e-01,-1.105885148048400879e+00
6.494777202606201172e+00,-2.324901968240737915e-01,-1.029328942298889160e+00
6.502636432647705078e+00,-2.327715307474136353e-01,-7.989335060119628906e-01
6.511045455932617188e+00,-2.330725342035293579e-01,-5.700066685676574707e-01
6.518632411956787109e+00,-2.333441376686096191e-01,-3.418453633785247803e-01
6.526463031768798828e+00,-2.336244434118270874e-01,-1.139926314353942871e-01
6.534558296203613281e+00,-2.339142113924026489e-01,1.141340211033821106e-01
6.541897296905517578e+00,-2.341769337654113770e-01,3.430653810501098633e-01
6.549876213073730469e+00,-2.344625443220138550e-01,5.734061002731323242e-01
6.557702064514160156e+00,-2.347426861524581909e-01,8.056990504264831543e-01
6.567154407501220703e+00,-2.350810468196868896e-01,1.040799736976623535e+00
6.574079513549804688e+00,-2.353289425373077393e-01,1.278688073158264160e+00
3.919559717178344727e+00,-8.416087180376052856e-02,-1.050483226776123047e+00
4.622412204742431641e+00,-9.925254434347152710e-02,-1.067412257194519043e+00
5.684910774230957031e+00,-1.220665350556373596e-01,-1.105287671089172363e+00
6.802216053009033203e+00,-1.460573375225067139e-01,-1.077611923217773438e+00
6.810419559478759766e+00,-1.462334841489791870e-01,-8.364058136940002441e-01
6.819207191467285156e+00,-1.464221775531768799e-01,-5.967399477958679199e-01
6.827140331268310547e+00,-1.465925127267837524e-01,-3.578771948814392090e-01
6.835335731506347656e+00,-1.467684805393218994e-01,-1.193385496735572815e-01
6.843814849853515625e+00,-1.469505578279495239e-01,1.194865927100181580e-01
6.851510524749755859e+00,-1.471157968044281006e-01,3.591546714305877686e-01
6.859882831573486328e+00,-1.472955644130706787e-01,6.002994179725646973e-01
6.868105888366699219e+00,-1.474721282720565796e-01,8.434904813766479492e-01
6.878035545349121094e+00,-1.476853340864181519e-01,1.089623212814331055e+00
6.885323524475097656e+00,-1.478418260812759399e-01,1.338677763938903809e+00
3.919364690780639648e+00,-2.804839797317981720e-02,-1.050215840339660645e+00
4.660053253173828125e+00,-3.334903717041015625e-02,-1.075883984565734863e+00
5.684422016143798828e+00,-4.067979007959365845e-02,-1.104966282844543457e+00
7.101243019104003906e+00,-5.081907659769058228e-02,-1.124753475189208984e+00
7.109790802001953125e+00,-5.088024586439132690e-02,-8.729935884475708008e-01
7.118952274322509766e+00,-5.094581097364425659e-02,-6.228426694869995117e-01
7.127224445343017578e+00,-5.100500956177711487e-02,-3.735310137271881104e-01
7.135774135589599609e+00,-5.106619372963905334e-02,-1.245584040880203247e-01
7.144624233245849609e+00,-5.112952739000320435e-02,1.247128844261169434e-01
7.152658462524414062e+00,-5.118702352046966553e-02,3.748639822006225586e-01
7.161402225494384766e+00,-5.124959722161293030e-02,6.265566349029541016e-01
7.169998168945312500e+00,-5.131111666560173035e-02,8.803863525390625000e-01
7.178106307983398438e+00,-5.136913806200027466e-02,1.136927723884582520e+00
7.187996387481689453e+00,-5.143991485238075256e-02,1.397238612174987793e+00
3.919056892395019531e+00,2.804619632661342621e-02,-1.050133347511291504e+00
4.659618377685546875e+00,3.334592282772064209e-02,-1.075783610343933105e+00
5.683775424957275391e+00,4.067516326904296875e-02,-1.104840636253356934e+00
7.278720855712890625e+00,5.208917334675788879e-02,-1.152863860130310059e+00
7.479570388793945312e+00,5.352652445435523987e-02,-9.183979034423828125e-01
7.489201068878173828e+00,5.359544605016708374e-02,-6.552360057830810547e-01
7.497895717620849609e+00,5.365766584873199463e-02,-3.929575383663177490e-01
7.506882667541503906e+00,5.372197926044464111e-02,-1.310362815856933594e-01
7.516184329986572266e+00,5.378855019807815552e-02,1.311986595392227173e-01
7.524629116058349609e+00,5.384898185729980469e-02,3.943586349487304688e-01
7.533819675445556641e+00,5.391475558280944824e-02,6.591397523880004883e-01
7.542851448059082031e+00,5.397938936948776245e-02,9.261680245399475098e-01
7.551380634307861328e+00,5.404042825102806091e-02,1.196050047874450684e+00
3.918703556060791016e+00,8.414249122142791748e-02,-1.050253868103027344e+00
4.621224403381347656e+00,9.922704100608825684e-02,-1.067138075828552246e+00
5.683115005493164062e+00,1.220279783010482788e-01,-1.104938626289367676e+00
7.277683734893798828e+00,1.562665998935699463e-01,-1.152935862541198730e+00
7.842027187347412109e+00,1.683841943740844727e-01,-9.631003737449645996e-01
7.852124214172363281e+00,1.686009913682937622e-01,-6.871291995048522949e-01
7.861236095428466797e+00,1.687966436147689819e-01,-4.120842814445495605e-01
7.870649814605712891e+00,1.689987778663635254e-01,-1.374141573905944824e-01
7.880391120910644531e+00,1.692079454660415649e-01,1.375842392444610596e-01
7.889229297637939453e+00,1.693977117538452148e-01,4.135516583919525146e-01
7.898846626281738281e+00,1.696042269468307495e-01,6.912178397178649902e-01
7.908292770385742188e+00,1.698070466518402100e-01,9.712386131286621094e-01
7.919713497161865234e+00,1.700522750616073608e-01,1.254646658897399902e+00
3.918416738510131836e+00,1.402655392885208130e-01,-1.050607442855834961e+00
4.620850086212158203e+00,1.654101908206939697e-01,-1.067488908767700195e+00
5.682564735412597656e+00,2.034158557653427124e-01,-1.105284571647644043e+00
7.276779174804687500e+00,2.604831159114837646e-01,-1.153265118598937988e+00
8.294525146484375000e+00,2.969148755073547363e-01,-1.019090414047241211e+00
8.305212020874023438e+00,2.972974181175231934e-01,-7.270762324333190918e-01
8.314847946166992188e+00,2.976423203945159912e-01,-4.360411763191223145e-01
8.324795722961425781e+00,2.979983985424041748e-01,-1.454026997089385986e-01
8.335078239440917969e+00,2.983665168285369873e-01,1.455823034048080444e-01
8.344399452209472656e+00,2.987001538276672363e-01,4.375908672809600830e-01
8.354534149169921875e+00,2.990629374980926514e-01,7.313940525054931641e-01
8.364479064941406250e+00,2.994189560413360596e-01,1.027685165405273438e+00
8.376508712768554688e+00,2.998495697975158691e-01,1.327556371688842773e+00
3.917900800704956055e+00,1.964264363050460815e-01,-1.051115274429321289e+00
4.620220661163330078e+00,2.316377013921737671e-01,-1.068000078201293945e+00
5.681725978851318359e+00,2.848569452762603760e-01,-1.105801105499267578e+00
7.275540351867675781e+00,3.647638261318206787e-01,-1.153777956962585449e+00
1.010149478912353516e+01,5.064448714256286621e-01,-1.241863608360290527e+00
1.192844104766845703e+01,5.980399847030639648e-01,-1.044912576675415039e+00
1.194052028656005859e+01,5.986455678939819336e-01,-6.265612244606018066e-01
1.195303249359130859e+01,5.992728471755981445e-01,-2.089027017354965210e-01
1.196600532531738281e+01,5.999232530593872070e-01,2.091294229030609131e-01
1.197766208648681641e+01,6.005076766014099121e-01,6.285101175308227539e-01
1.199038219451904297e+01,6.011454463005065918e-01,1.050338506698608398e+00
3.917625427246093750e+00,2.526687383651733398e-01,-1.051903843879699707e+00
4.619887351989746094e+00,2.979613840579986572e-01,-1.068799495697021484e+00
5.681256771087646484e+00,3.664147853851318359e-01,-1.106617212295532227e+00
7.274769306182861328e+00,4.691889882087707520e-01,-1.154602408409118652e+00
1.009992027282714844e+01,6.513981819152832031e-01,-1.242689013481140137e+00
1.189839744567871094e+01,7.673916220664978027e-01,-1.043136119842529297e+00
1.191047763824462891e+01,7.681707739830017090e-01,-6.254976391792297363e-01
1.192296218872070312e+01,7.689759731292724609e-01,-2.085481733083724976e-01
1.193588161468505859e+01,7.698091864585876465e-01,2.087741494178771973e-01
1.194746589660644531e+01,7.705563306808471680e-01,6.274401545524597168e-01
1.196008396148681641e+01,7.713701128959655762e-01,1.048544168472290039e+00
3.916932821273803711e+00,3.089741468429565430e-01,-1.052797555923461914e+00
4.619074344635009766e+00,3.643602430820465088e-01,-1.069708347320556641e+00
5.680218696594238281e+00,4.480650722980499268e-01,-1.107550740242004395e+00
7.273301601409912109e+00,5.737301111221313477e-01,-1.155554533004760742e+00
1.009744930267333984e+01,7.965035438537597656e-01,-1.243660330772399902e+00
1.187057018280029297e+01,9.363702535629272461e-01,-1.041764855384826660e+00
1.188265609741210938e+01,9.373236298561096191e-01,-6.246771216392517090e-01
1.189511585235595703e+01,9.383064508438110352e-01,-2.082746773958206177e-01
1.190798091888427734e+01,9.393212795257568359e-01,2.084999382495880127e-01
1.191948890686035156e+01,9.402290582656860352e-01,6.266134381294250488e-01
1.193199729919433594e+01,9.412157535552978516e-01,1.047155737876892090e+00
3.890172481536865234e+00,3.629548847675323486e-01,-1.046894073486328125e+00
4.618757247924804688e+00,4.309321641921997070e-01,-1.070953488349914551e+00
5.622906208038330078e+00,5.246197581291198730e-01,-1.097727537155151367e+00
7.272624492645263672e+00,6.785392165184020996e-01,-1.156871438026428223e+00
1.009603691101074219e+01,9.419648647308349609e-01,-1.245019435882568359e+00
1.184103107452392578e+01,1.104773640632629395e+00,-1.040453672409057617e+00
1.185313034057617188e+01,1.105902433395385742e+00,-6.238932013511657715e-01
1.186556339263916016e+01,1.107062578201293945e+00,-2.080133855342864990e-01
1.187836360931396484e+01,1.108256816864013672e+00,2.082377821207046509e-01
1.188977622985839844e+01,1.109321594238281250e+00,6.258220672607421875e-01
1.190214633941650391e+01,1.110475659370422363e+00,1.045823693275451660e+00
3.889283895492553711e+00,4.191007614135742188e-01,-1.048161864280700684e+00
4.617731571197509766e+00,4.975966811180114746e-01,-1.072257399559020996e+00
5.621647834777832031e+00,6.057765483856201172e-01,-1.099061965942382812e+00
7.177101612091064453e+00,7.733888626098632812e-01,-1.143320202827453613e+00
9.912282943725585938e+00,1.068126082420349121e+00,-1.224119305610656738e+00
1.181307506561279297e+01,1.272951245307922363e+00,-1.039491653442382812e+00
1.182518863677978516e+01,1.274256587028503418e+00,-6.233186721801757812e-01
1.183759784698486328e+01,1.275593876838684082e+00,-2.078219205141067505e-01
1.185033321380615234e+01,1.276966094970703125e+00,2.080454975366592407e-01
1.186328315734863281e+01,1.278361558914184570e+00,6.253266334533691406e-01
1.187619686126708984e+01,1.279753088951110840e+00,1.045046091079711914e+00
3.888958692550659180e+00,4.754635393619537354e-01,-1.049800753593444824e+00
4.617393493652343750e+00,5.645218491554260254e-01,-1.073945164680480957e+00
5.621237277984619141e+00,6.872516870498657227e-01,-1.100792169570922852e+00
7.176475048065185547e+00,8.773947954177856445e-01,-1.145103693008422852e+00
9.911002159118652344e+00,1.211717724800109863e+00,-1.225977420806884766e+00
1.178393459320068359e+01,1.440702199935913086e+00,-1.038635730743408203e+00
1.179607582092285156e+01,1.442186474800109863e+00,-6.228083968162536621e-01
1.180845928192138672e+01,1.443700551986694336e+00,-2.076518684625625610e-01
1.182111644744873047e+01,1.445248007774353027e+00,2.078744471073150635e-01
1.183393859863281250e+01,1.446815609931945801e+00,6.248074769973754883e-01
1.184667587280273438e+01,1.448372840881347656e+00,1.044165730476379395e+00
3.887837648391723633e+00,5.319057106971740723e-01,-1.051445722579956055e+00
4.578882217407226562e+00,6.264494061470031738e-01,-1.066964149475097656e+00
5.619697093963623047e+00,7.688460946083068848e-01,-1.102532625198364258e+00
7.174428462982177734e+00,9.815531969070434570e-01,-1.146901488304138184e+00
9.907823562622070312e+00,1.355516433715820312e+00,-1.227858424186706543e+00
1.175574398040771484e+01,1.608335494995117188e+00,-1.038073778152465820e+00
1.176791000366210938e+01,1.610000014305114746e+00,-6.224742531776428223e-01
1.178026771545410156e+01,1.611690640449523926e+00,-2.075405269861221313e-01
1.179284858703613281e+01,1.613411903381347656e+00,2.077621817588806152e-01
1.180554676055908203e+01,1.615149140357971191e+00,6.244650483131408691e-01
1.181810951232910156e+01,1.616867899894714355e+00,1.043580770492553711e+00
3.861349582672119141e+00,5.846960544586181641e-01,-1.046438217163085938e+00
4.578476428985595703e+00,6.932853460311889648e-01,-1.069072484970092773e+00
5.619229316711425781e+00,8.508790135383605957e-01,-1.104717135429382324e+00
7.173757076263427734e+00,1.086269855499267578e+00,-1.149161934852600098e+00
9.906510353088378906e+00,1.500070691108703613e+00,-1.230230569839477539e+00
1.172687244415283203e+01,1.775714874267578125e+00,-1.037662267684936523e+00
1.173907470703125000e+01,1.777562737464904785e+00,-6.222310662269592285e-01
1.175140762329101562e+01,1.779430150985717773e+00,-2.074595391750335693e-01
1.176390075683593750e+01,1.781321883201599121e+00,2.076801061630249023e-01
1.177644729614257812e+01,1.783221721649169922e+00,6.242120265960693359e-01
1.178880214691162109e+01,1.785092592239379883e+00,1.043142199516296387e+00
3.860929012298583984e+00,6.412855386734008789e-01,-1.048704385757446289e+00
4.578066349029541016e+00,7.603993415832519531e-01,-1.071408390998840332e+00
5.618772983551025391e+00,9.332566857337951660e-01,-1.107140183448791504e+00
7.173111438751220703e+00,1.191426396369934082e+00,-1.151672363281250000e+00
9.905249595642089844e+00,1.645224094390869141e+00,-1.232872128486633301e+00
1.169821739196777344e+01,1.943029165267944336e+00,-1.037481427192687988e+00
1.171046543121337891e+01,1.945063471794128418e+00,-6.221265792846679688e-01
1.172277164459228516e+01,1.947107553482055664e+00,-2.074247747659683228e-01
1.173517227172851562e+01,1.949167251586914062e+00,2.076441943645477295e-01
1.174755859375000000e+01,1.951224446296691895e+00,6.240971684455871582e-01
1.175968742370605469e+01,1.953239083290100098e+00,1.042932987213134766e+00
3.859425783157348633e+00,6.979368925094604492e-01,-1.050901889801025391e+00
4.576375961303710938e+00,8.275898098945617676e-01,-1.073674917221069336e+00
5.561093330383300781e+00,1.005665659904479980e+00,-1.098498582839965820e+00
7.170485019683837891e+00,1.296707391738891602e+00,-1.154112339019775391e+00
9.901308059692382812e+00,1.790548205375671387e+00,-1.235444903373718262e+00
1.166955184936523438e+01,2.110316753387451172e+00,-1.037511706352233887e+00
1.168183803558349609e+01,2.112538576126098633e+00,-6.221484541893005371e-01
1.169412040710449219e+01,2.114759683609008789e+00,-2.074321657419204712e-01
1.170642852783203125e+01,2.116985321044921875e+00,2.076504826545715332e-01
1.171865844726562500e+01,2.119197130203247070e+00,6.241093873977661133e-01
1.173057079315185547e+01,2.121351242065429688e+00,1.042936801910400391e+00
3.833143234252929688e+00,7.499908208847045898e-01,-1.046561121940612793e+00
4.539210796356201172e+00,8.881396651268005371e-01,-1.067828655242919922e+00
5.560467243194580078e+00,1.087958097457885742e+00,-1.101338148117065430e+00
7.078440189361572266e+00,1.384963870048522949e+00,-1.142371058464050293e+00
9.899803161621093750e+00,1.936990261077880859e+00,-1.238589644432067871e+00
1.164091110229492188e+01,2.277654647827148438e+00,-1.037757515907287598e+00
1.165324974060058594e+01,2.280068635940551758e+00,-6.223002076148986816e-01
1.166550636291503906e+01,2.282466888427734375e+00,-2.074828445911407471e-01
1.167771148681640625e+01,2.284854888916015625e+00,2.076999396085739136e-01
1.168976116180419922e+01,2.287212610244750977e+00,6.242499947547912598e-01
1.170367431640625000e+01,2.289934873580932617e+00,1.043352723121643066e+00
3.832502841949462891e+00,8.069819211959838867e-01,-1.049432516098022461e+00
4.538580417633056641e+00,9.556554555892944336e-01,-1.070788621902465820e+00
5.559782028198242188e+00,1.170682311058044434e+00,-1.104408264160156250e+00
7.077551841735839844e+00,1.490267992019653320e+00,-1.145552992820739746e+00
9.898226737976074219e+00,2.084196567535400391e+00,-1.241997599601745605e+00
1.161233806610107422e+01,2.445124387741088867e+00,-1.038223981857299805e+00
1.162473487854003906e+01,2.447734832763671875e+00,-6.225846409797668457e-01
1.163696670532226562e+01,2.450310230255126953e+00,-2.075777798891067505e-01
1.164906311035156250e+01,2.452857494354248047e+00,2.077935487031936646e-01
1.166092300415039062e+01,2.455354452133178711e+00,6.245227456092834473e-01
1.167454624176025391e+01,2.458223104476928711e+00,1.043785810470581055e+00
3.831785202026367188e+00,8.642817735671997070e-01,-1.052515625953674316e+00
4.537870883941650391e+00,1.023543477058410645e+00,-1.073967576026916504e+00
5.504504203796386719e+00,1.241573452949523926e+00,-1.096845507621765137e+00
7.076567649841308594e+00,1.596161484718322754e+00,-1.148973822593688965e+00
9.722536087036132812e+00,2.192975282669067383e+00,-1.223765730857849121e+00
1.158377647399902344e+01,2.612789154052734375e+00,-1.038907647132873535e+00
1.159623622894287109e+01,2.615599393844604492e+00,-6.229996085166931152e-01
1.160844230651855469e+01,2.618352413177490234e+00,-2.077162116765975952e-01
1.162042522430419922e+01,2.621055364608764648e+00,2.079306393861770630e-01
1.163365745544433594e+01,2.624039888381958008e+00,6.250100731849670410e-01
1.164540481567382812e+01,2.626689672470092773e+00,1.044434785842895508e+00
3.805631160736083984e+00,9.158109426498413086e-01,-1.048824787139892578e+00
4.501081466674804688e+00,1.083168506622314453e+00,-1.068820595741271973e+00
5.503625392913818359e+00,1.324427008628845215e+00,-1.100335121154785156e+00
7.075449943542480469e+00,1.702680706977844238e+00,-1.152631282806396484e+00
9.720723152160644531e+00,2.339255809783935547e+00,-1.227626323699951172e+00
1.155516433715820312e+01,2.780707359313964844e+00,-1.039804697036743164e+00
1.156769180297851562e+01,2.783721923828125000e+00,-6.235428452491760254e-01
1.157987213134765625e+01,2.786653041839599609e+00,-2.078974097967147827e-01
1.159173774719238281e+01,2.789508581161499023e+00,2.081104367971420288e-01
1.160474586486816406e+01,2.792638778686523438e+00,6.255401968955993652e-01
1.161618900299072266e+01,2.795392513275146484e+00,1.045296072959899902e+00
3.804699897766113281e+00,9.733980894088745117e-01,-1.052300214767456055e+00
4.500143051147460938e+00,1.151321053504943848e+00,-1.072401046752929688e+00
5.502603530883789062e+00,1.407791495323181152e+00,-1.104046344757080078e+00
7.074160575866699219e+00,1.809860110282897949e+00,-1.156522989273071289e+00
9.718687057495117188e+00,2.486438512802124023e+00,-1.231737613677978516e+00
1.152643966674804688e+01,2.948935508728027344e+00,-1.040911436080932617e+00
1.153903865814208984e+01,2.952158689498901367e+00,-6.242121458053588867e-01
1.155119228363037109e+01,2.955268383026123047e+00,-2.081206291913986206e-01
1.156293678283691406e+01,2.958272933959960938e+00,2.083322107791900635e-01
1.157571125030517578e+01,2.961541175842285156e+00,6.261959671974182129e-01
1.158683681488037109e+01,2.964387655258178711e+00,1.046365737915039062e+00
3.778650522232055664e+00,1.024571180343627930e+00,-1.049044132232666016e+00
4.463678359985351562e+00,1.210314631462097168e+00,-1.067730307579040527e+00
5.448019981384277344e+00,1.477216243743896484e+00,-1.097224593162536621e+00
6.983892440795898438e+00,1.893664002418518066e+00,-1.146079182624816895e+00
9.716370582580566406e+00,2.634568452835083008e+00,-1.236096739768981934e+00
1.149860286712646484e+01,3.117815971374511719e+00,-1.042320966720581055e+00
