-1.507765293121337891e+01,-3.287687540054321289e+00,-2.693649828433990479e-01
-1.509605216979980469e+01,-3.291699409484863281e+00,2.696936726570129395e-01
-1.511322402954101562e+01,-3.295443534851074219e+00,8.106600642204284668e-01
-3.917765140533447266e+00,-9.131969809532165527e-01,-1.077900767326354980e+00
-4.647404193878173828e+00,-1.083269476890563965e+00,-1.101697802543640137e+00
-5.706573009490966797e+00,-1.330152511596679688e+00,-1.138978719711303711e+00
-7.384943962097167969e+00,-1.721366167068481445e+00,-1.201012969017028809e+00
-1.045123004913330078e+01,-2.436090707778930664e+00,-1.317647099494934082e+00
-1.214671230316162109e+01,-2.831292867660522461e+00,-1.091185212135314941e+00
-1.216130924224853516e+01,-2.834695339202880859e+00,-6.544312834739685059e-01
-1.217590045928955078e+01,-2.838096380233764648e+00,-2.182280272245407104e-01
-1.219053840637207031e+01,-2.841508388519287109e+00,2.184903770685195923e-01
-1.220486450195312500e+01,-2.844847679138183594e+00,6.567751169204711914e-01
-1.222032737731933594e+01,-2.848452091217041016e+00,1.097798347473144531e+00
-3.904081821441650391e+00,-9.691217541694641113e-01,-1.077842116355895996e+00
-4.643776893615722656e+00,-1.152738451957702637e+00,-1.104636073112487793e+00
-5.683857440948486328e+00,-1.410920619964599609e+00,-1.138358950614929199e+00
-7.386898040771484375e+00,-1.833671450614929199e+00,-1.205475687980651855e+00
-1.011297702789306641e+01,-2.510374069213867188e+00,-1.279400706291198730e+00
-1.012519931793212891e+01,-2.513407945632934570e+00,-9.127233624458312988e-01
-1.013743209838867188e+01,-2.516444683074951172e+00,-5.474034547805786133e-01
-1.014963436126708984e+01,-2.519473552703857422e+00,-1.825390011072158813e-01
-1.016182994842529297e+01,-2.522500991821289062e+00,1.827583312988281250e-01
-1.017414093017578125e+01,-2.525557041168212891e+00,5.493856668472290039e-01
-1.018635368347167969e+01,-2.528588533401489258e+00,9.182360768318176270e-01
-3.893536329269409180e+00,-1.025879025459289551e+00,-1.078874111175537109e+00
-4.616882324218750000e+00,-1.216467976570129395e+00,-1.102267503738403320e+00
-5.665794849395751953e+00,-1.492838263511657715e+00,-1.138904213905334473e+00
-7.325221538543701172e+00,-1.930068254470825195e+00,-1.199795961380004883e+00
-8.694627761840820312e+00,-2.290883064270019531e+00,-1.103999495506286621e+00
-8.705436706542968750e+00,-2.293730974197387695e+00,-7.876195311546325684e-01
-8.715670585632324219e+00,-2.296427488327026367e+00,-4.723573923110961914e-01
-8.726181030273437500e+00,-2.299196720123291016e+00,-1.575142294168472290e-01
-8.736989974975585938e+00,-2.302044630050659180e+00,1.577093452215194702e-01
-8.747306823730468750e+00,-2.304763078689575195e+00,4.740719497203826904e-01
-8.758390426635742188e+00,-2.307683229446411133e+00,7.924104332923889160e-01
-8.769401550292968750e+00,-2.310584545135498047e+00,1.113493919372558594e+00
-3.863738775253295898e+00,-1.077394604682922363e+00,-1.074780464172363281e+00
-4.617414951324462891e+00,-1.287555456161499023e+00,-1.106681346893310547e+00
-5.647760391235351562e+00,-1.574864745140075684e+00,-1.139693498611450195e+00
-7.333987236022949219e+00,-2.045065164566040039e+00,-1.205902576446533203e+00
-7.591405391693115234e+00,-2.116845607757568359e+00,-9.676660895347595215e-01
-7.600637435913085938e+00,-2.119420051574707031e+00,-6.903373599052429199e-01
-7.609797477722167969e+00,-2.121974229812622070e+00,-4.140267670154571533e-01
-7.618986129760742188e+00,-2.124536514282226562e+00,-1.380632966756820679e-01
-7.628228664398193359e+00,-2.127113819122314453e+00,1.382307708263397217e-01
-7.637465000152587891e+00,-2.129689455032348633e+00,4.155321121215820312e-01
-7.646532058715820312e+00,-2.132217645645141602e+00,6.945058107376098633e-01
-7.656608581542968750e+00,-2.135027408599853516e+00,9.759774804115295410e-01
-7.664813041687011719e+00,-2.137315273284912109e+00,1.260299205780029297e+00
-3.853108882904052734e+00,-1.134108304977416992e+00,-1.076228857040405273e+00
-4.590361595153808594e+00,-1.351108312606811523e+00,-1.104719281196594238e+00
-5.629857063293457031e+00,-1.657069087028503418e+00,-1.140750169754028320e+00
-6.701121807098388672e+00,-1.972380757331848145e+00,-1.106371402740478516e+00
-6.709118366241455078e+00,-1.974734425544738770e+00,-8.587171435356140137e-01
-6.717098712921142578e+00,-1.977083325386047363e+00,-6.125963926315307617e-01
-6.725397109985351562e+00,-1.979525923728942871e+00,-3.674131035804748535e-01
-6.733525753021240234e+00,-1.981918334960937500e+00,-1.225194111466407776e-01
-6.741515159606933594e+00,-1.984269976615905762e+00,1.226647943258285522e-01
-6.749870300292968750e+00,-1.986729145050048828e+00,3.687500655651092529e-01
-6.758316516876220703e+00,-1.989215254783630371e+00,6.163554191589355469e-01
-6.766624450683593750e+00,-1.991660594940185547e+00,8.660775423049926758e-01
-6.774493217468261719e+00,-1.993976593017578125e+00,1.118485212326049805e+00
-6.783364772796630859e+00,-1.996587753295898438e+00,1.374479770660400391e+00
-3.829178571701049805e+00,-1.186873793601989746e+00,-1.074179768562316895e+00
-4.570683002471923828e+00,-1.416706919670104980e+00,-1.104750275611877441e+00
-5.621478557586669922e+00,-1.742406487464904785e+00,-1.143988728523254395e+00
-6.054634571075439453e+00,-1.876665472984313965e+00,-1.003966927528381348e+00
-6.062469005584716797e+00,-1.879093766212463379e+00,-7.793135643005371094e-01
-6.069965362548828125e+00,-1.881417393684387207e+00,-5.559771656990051270e-01
-6.077282428741455078e+00,-1.883685231208801270e+00,-3.334449231624603271e-01
-6.084634304046630859e+00,-1.885963916778564453e+00,-1.111923456192016602e-01
-6.092046260833740234e+00,-1.888261318206787109e+00,1.113277897238731384e-01
-6.099329471588134766e+00,-1.890518903732299805e+00,3.346545994281768799e-01
-6.106356620788574219e+00,-1.892696976661682129e+00,5.593103766441345215e-01
-6.114108085632324219e+00,-1.895099520683288574e+00,7.859516143798828125e-01
-6.121650695800781250e+00,-1.897437453269958496e+00,1.015079379081726074e+00
-6.130301952362060547e+00,-1.900118827819824219e+00,1.247535943984985352e+00
-3.821738243103027344e+00,-1.244792461395263672e+00,-1.076980471611022949e+00
-4.547199726104736328e+00,-1.481085300445556641e+00,-1.104085206985473633e+00
-5.467263221740722656e+00,-1.780762434005737305e+00,-1.117678046226501465e+00
-5.474395275115966797e+00,-1.783085465431213379e+00,-9.118914008140563965e-01
-5.481185913085937500e+00,-1.785297274589538574e+00,-7.078035473823547363e-01
-5.487843990325927734e+00,-1.787466049194335938e+00,-5.049495697021484375e-01
-5.494522094726562500e+00,-1.789641141891479492e+00,-3.028448224067687988e-01
-5.501176357269287109e+00,-1.791808605194091797e+00,-1.009884104132652283e-01
-5.507823467254638672e+00,-1.793973565101623535e+00,1.011104360222816467e-01
-5.514536380767822266e+00,-1.796160101890563965e+00,3.039479851722717285e-01
-5.521193027496337891e+00,-1.798328161239624023e+00,5.080180764198303223e-01
-5.527626991271972656e+00,-1.800423860549926758e+00,7.138006687164306641e-01
-5.534890174865722656e+00,-1.802789449691772461e+00,9.219682812690734863e-01
-5.541822910308837891e+00,-1.805047512054443359e+00,1.132920265197753906e+00
-5.549788475036621094e+00,-1.807642102241516113e+00,1.347519278526306152e+00
-3.797582626342773438e+00,-1.297329545021057129e+00,-1.075296163558959961e+00
-4.527393817901611328e+00,-1.546647548675537109e+00,-1.104538321495056152e+00
-5.001277923583984375e+00,-1.708535671234130859e+00,-1.027310371398925781e+00
-5.007412433624267578e+00,-1.710631251335144043e+00,-8.380969762802124023e-01
-5.013384342193603516e+00,-1.712671518325805664e+00,-6.504938006401062012e-01
-5.019724845886230469e+00,-1.714837551116943359e+00,-4.640877544879913330e-01
-5.025681972503662109e+00,-1.716872572898864746e+00,-2.783294618129730225e-01
-5.031771659851074219e+00,-1.718953013420104980e+00,-9.281343221664428711e-02
-5.038009166717529297e+00,-1.721083760261535645e+00,9.292848408222198486e-02
-5.043906688690185547e+00,-1.723098516464233398e+00,2.793387770652770996e-01
-5.050248146057128906e+00,-1.725264906883239746e+00,4.669097363948822021e-01
-5.056527137756347656e+00,-1.727409958839416504e+00,6.560916900634765625e-01
-5.062528133392333984e+00,-1.729460000991821289e+00,8.473218083381652832e-01
-5.069371700286865234e+00,-1.731797814369201660e+00,1.041297435760498047e+00
-5.075712203979492188e+00,-1.733963847160339355e+00,1.238310217857360840e+00
-3.773325920104980469e+00,-1.349651694297790527e+00,-1.073787689208984375e+00
-4.507617473602294922e+00,-1.612294912338256836e+00,-1.105230450630187988e+00
-4.595338821411132812e+00,-1.643671274185180664e+00,-9.486620426177978516e-01
-4.601536750793457031e+00,-1.645888090133666992e+00,-7.740287780761718750e-01
-4.606805324554443359e+00,-1.647772550582885742e+00,-6.007382869720458984e-01
-4.612560272216796875e+00,-1.649830937385559082e+00,-4.285835921764373779e-01
-4.618203639984130859e+00,-1.651849508285522461e+00,-2.570458352565765381e-01
-4.623802661895751953e+00,-1.653852224349975586e+00,-8.571611344814300537e-02
-4.629370212554931641e+00,-1.655843496322631836e+00,8.581931889057159424e-02
-4.634866237640380859e+00,-1.657809495925903320e+00,2.579732537269592285e-01
-4.640920162200927734e+00,-1.659974694252014160e+00,4.312186837196350098e-01
-4.646137237548828125e+00,-1.661840796470642090e+00,6.058672666549682617e-01
-4.651951789855957031e+00,-1.663920521736145020e+00,7.825090885162353516e-01
-4.658701896667480469e+00,-1.666334986686706543e+00,9.617426395416259766e-01
-4.663619995117187500e+00,-1.668094277381896973e+00,1.143481016159057617e+00
-3.772216081619262695e+00,-1.410469412803649902e+00,-1.079106569290161133e+00
-4.256097316741943359e+00,-1.591397404670715332e+00,-1.049037456512451172e+00
-4.260992527008056641e+00,-1.593227744102478027e+00,-8.842566609382629395e-01
-4.266452789306640625e+00,-1.595269441604614258e+00,-7.214309573173522949e-01
-4.271647930145263672e+00,-1.597211956977844238e+00,-5.599568486213684082e-01
-4.276741981506347656e+00,-1.599116683006286621e+00,-3.994663059711456299e-01
-4.281856536865234375e+00,-1.601029038429260254e+00,-2.395759373903274536e-01
-4.287048339843750000e+00,-1.602970242500305176e+00,-7.989051192998886108e-02
-4.292335510253906250e+00,-1.604947328567504883e+00,7.998903840780258179e-02
-4.297677516937255859e+00,-1.606944561004638672e+00,2.404611408710479736e-01
-4.302984714508056641e+00,-1.608929157257080078e+00,4.019175171852111816e-01
-4.308113574981689453e+00,-1.610846757888793945e+00,5.647369623184204102e-01
-4.313927173614501953e+00,-1.613020539283752441e+00,7.294585704803466797e-01
-4.318269729614257812e+00,-1.614644408226013184e+00,8.961431384086608887e-01
-4.324535846710205078e+00,-1.616987228393554688e+00,1.065905928611755371e+00
-3.750927448272705078e+00,-1.464033484458923340e+00,-1.078900694847106934e+00
-3.958034753799438477e+00,-1.544870138168334961e+00,-9.809210896492004395e-01
-3.963187217712402344e+00,-1.546881079673767090e+00,-8.269651532173156738e-01
-3.967999935150146484e+00,-1.548759579658508301e+00,-6.746438145637512207e-01
-3.972673892974853516e+00,-1.550583958625793457e+00,-5.236210227012634277e-01
-3.977369785308837891e+00,-1.552416801452636719e+00,-3.735408782958984375e-01
-3.982287406921386719e+00,-1.554336190223693848e+00,-2.240364849567413330e-01
-3.987119674682617188e+00,-1.556222319602966309e+00,-7.470869272947311401e-02
-3.991876840591430664e+00,-1.558079123497009277e+00,7.479783147573471069e-02
-3.996891260147094727e+00,-1.560036301612854004e+00,2.248580753803253174e-01
-4.001987457275390625e+00,-1.562025427818298340e+00,3.758528828620910645e-01
-4.007030963897705078e+00,-1.563993930816650391e+00,5.281494855880737305e-01
-4.011841297149658203e+00,-1.565871357917785645e+00,6.820977330207824707e-01
-4.016191005706787109e+00,-1.567569255828857422e+00,8.380250930786132812e-01
-4.022471904754638672e+00,-1.570020794868469238e+00,9.968906044960021973e-01
-3.685904502868652344e+00,-1.499791264533996582e+00,-1.066263318061828613e+00
-3.690969944000244141e+00,-1.501852393150329590e+00,-9.199676513671875000e-01
-3.695589542388916016e+00,-1.503732085227966309e+00,-7.755395174026489258e-01
-3.699995756149291992e+00,-1.505524873733520508e+00,-6.326764822006225586e-01
-3.704810619354248047e+00,-1.507484078407287598e+00,-4.911088049411773682e-01
-3.709412097930908203e+00,-1.509356498718261719e+00,-3.503683209419250488e-01
-3.713896989822387695e+00,-1.511181354522705078e+00,-2.101326584815979004e-01
-3.718404769897460938e+00,-1.513015508651733398e+00,-7.007225602865219116e-02
-3.722944974899291992e+00,-1.514862895011901855e+00,7.015781104564666748e-02
-3.727403879165649414e+00,-1.516677260398864746e+00,2.108968794345855713e-01
-3.731700897216796875e+00,-1.518425703048706055e+00,3.524735569953918457e-01
-3.736487150192260742e+00,-1.520373344421386719e+00,4.953078627586364746e-01
-3.741164684295654297e+00,-1.522276520729064941e+00,6.397160887718200684e-01
-3.745515108108520508e+00,-1.524046778678894043e+00,7.860167026519775391e-01
-3.750532627105712891e+00,-1.526088356971740723e+00,9.348134994506835938e-01
-3.461664676666259766e+00,-1.466638565063476562e+00,-1.007364511489868164e+00
-3.466050863265991211e+00,-1.468496918678283691e+00,-8.690569400787353516e-01
-3.470100641250610352e+00,-1.470212697982788086e+00,-7.325606346130371094e-01
-3.474038362503051758e+00,-1.471881031990051270e+00,-5.975803732872009277e-01
-3.478454351425170898e+00,-1.473752021789550781e+00,-4.638518393039703369e-01
-3.482757806777954102e+00,-1.475575327873229980e+00,-3.309209644794464111e-01
-3.487042427062988281e+00,-1.477390527725219727e+00,-1.984733492136001587e-01
-3.491275310516357422e+00,-1.479184031486511230e+00,-6.618427485227584839e-02
-3.495469093322753906e+00,-1.480960726737976074e+00,6.626377254724502563e-02
-3.499672889709472656e+00,-1.482741832733154297e+00,1.991922557353973389e-01
-3.503816604614257812e+00,-1.484497547149658203e+00,3.329219222068786621e-01
-3.508514165878295898e+00,-1.486487746238708496e+00,4.678603112697601318e-01
-3.513198137283325195e+00,-1.488472342491149902e+00,6.043164134025573730e-01
-3.517663717269897461e+00,-1.490364193916320801e+00,7.426014542579650879e-01
-3.521659851074218750e+00,-1.492057323455810547e+00,8.830000162124633789e-01
-3.242952823638916016e+00,-1.429058909416198730e+00,-9.495732784271240234e-01
-3.246818065643310547e+00,-1.430762052536010742e+00,-8.191387057304382324e-01
-3.251146078109741211e+00,-1.432669281959533691e+00,-6.905961632728576660e-01
-3.255161285400390625e+00,-1.434438705444335938e+00,-5.634046792984008789e-01
-3.259031772613525391e+00,-1.436144232749938965e+00,-4.372882246971130371e-01
-3.262884378433227539e+00,-1.437842011451721191e+00,-3.119527995586395264e-01
-3.266809701919555664e+00,-1.439571857452392578e+00,-1.870919167995452881e-01
-3.270777702331542969e+00,-1.441320300102233887e+00,-6.238898634910583496e-02
-3.274795770645141602e+00,-1.443090915679931641e+00,6.246562674641609192e-02
-3.278917551040649414e+00,-1.444907307624816895e+00,1.877853423357009888e-01
-3.283070087432861328e+00,-1.446737051010131836e+00,3.138826787471771240e-01
-3.287146091461181641e+00,-1.448533296585083008e+00,4.410605430603027344e-01
-3.290997505187988281e+00,-1.450230479240417480e+00,5.696072578430175781e-01
-3.295427560806274414e+00,-1.452182650566101074e+00,7.000022530555725098e-01
-3.299511432647705078e+00,-1.453982353210449219e+00,8.324327468872070312e-01
-3.068359375000000000e+00,-1.404901623725891113e+00,-9.042458534240722656e-01
-3.072659254074096680e+00,-1.406870484352111816e+00,-7.802007794380187988e-01
-3.075884103775024414e+00,-1.408346891403198242e+00,-6.575822830200195312e-01
-3.080196619033813477e+00,-1.410321593284606934e+00,-5.365606546401977539e-01
-3.083785533905029297e+00,-1.411964774131774902e+00,-4.164432287216186523e-01
-3.087656974792480469e+00,-1.413737416267395020e+00,-2.971041500568389893e-01
-3.091296434402465820e+00,-1.415403842926025391e+00,-1.781821846961975098e-01
-3.095051288604736328e+00,-1.417122960090637207e+00,-5.941788479685783386e-02
-3.098929166793823242e+00,-1.418898582458496094e+00,5.949233472347259521e-02
-3.102606296539306641e+00,-1.420582175254821777e+00,1.788340806961059570e-01
-3.106609582901000977e+00,-1.422415137290954590e+00,2.989278137683868408e-01
-3.109950780868530273e+00,-1.423945069313049316e+00,4.199766516685485840e-01
-3.114476680755615234e+00,-1.426017165184020996e+00,5.425321459770202637e-01
-3.118021249771118164e+00,-1.427640199661254883e+00,6.665906310081481934e-01
-3.122115612030029297e+00,-1.429514884948730469e+00,7.927585840225219727e-01
-2.895855665206909180e+00,-1.376387953758239746e+00,-8.591268658638000488e-01
-2.899747133255004883e+00,-1.378237485885620117e+00,-7.412285804748535156e-01
-2.903316020965576172e+00,-1.379933834075927734e+00,-6.248481869697570801e-01
-2.907237768173217773e+00,-1.381797790527343750e+00,-5.098248720169067383e-01
-2.910543680191040039e+00,-1.383369088172912598e+00,-3.956815600395202637e-01
-2.914189338684082031e+00,-1.385101914405822754e+00,-2.822912931442260742e-01
-2.917766094207763672e+00,-1.386801838874816895e+00,-1.693067103624343872e-01
-2.921309709548950195e+00,-1.388486146926879883e+00,-5.645820125937461853e-02
-2.924834728240966797e+00,-1.390161514282226562e+00,5.652632191777229309e-02
-2.928310155868530273e+00,-1.391813397407531738e+00,1.699185520410537720e-01
-2.932173013687133789e+00,-1.393649339675903320e+00,2.840333282947540283e-01
-2.935478687286376953e+00,-1.395220518112182617e+00,3.990714251995086670e-01
-2.939220190048217773e+00,-1.396998882293701172e+00,5.154334306716918945e-01
-2.942735910415649414e+00,-1.398669958114624023e+00,6.333321332931518555e-01
-2.946849346160888672e+00,-1.400624990463256836e+00,7.532687783241271973e-01
-2.748012065887451172e+00,-1.354668021202087402e+00,-8.209338188171386719e-01
-2.751459360122680664e+00,-1.356367349624633789e+00,-7.082135677337646484e-01
-2.754660129547119141e+00,-1.357945322990417480e+00,-5.969766974449157715e-01
-2.758263826370239258e+00,-1.359721779823303223e+00,-4.870633184909820557e-01
-2.761678457260131836e+00,-1.361405014991760254e+00,-3.780541121959686279e-01
-2.765013217926025391e+00,-1.363049030303955078e+00,-2.697032094001770020e-01
-2.768341779708862305e+00,-1.364689826965332031e+00,-1.617530733346939087e-01
-2.771705389022827148e+00,-1.366347908973693848e+00,-5.393933877348899841e-02
-2.775111913681030273e+00,-1.368027329444885254e+00,5.400563403964042664e-02
-2.778539180755615234e+00,-1.369716763496398926e+00,1.623488962650299072e-01
-2.781924724578857422e+00,-1.371385693550109863e+00,2.713527679443359375e-01
-2.785182714462280273e+00,-1.372991681098937988e+00,3.812716603279113770e-01
-2.788919687271118164e+00,-1.374833941459655762e+00,4.924766123294830322e-01
-2.792506694793701172e+00,-1.376602172851562500e+00,6.051785945892333984e-01
-2.795743465423583984e+00,-1.378197789192199707e+00,7.196121215820312500e-01
-2.609806060791015625e+00,-1.333300709724426270e+00,-7.852672338485717773e-01
-2.613664388656616211e+00,-1.335271954536437988e+00,-6.775958538055419922e-01
-2.616533041000366211e+00,-1.336737394332885742e+00,-5.711304545402526855e-01
-2.619845151901245117e+00,-1.338429450988769531e+00,-4.659560322761535645e-01
-2.623037576675415039e+00,-1.340060472488403320e+00,-3.616638481616973877e-01
-2.626214265823364258e+00,-1.341683387756347656e+00,-2.580113112926483154e-01
-2.629510879516601562e+00,-1.343367576599121094e+00,-1.547489017248153687e-01
-2.632706642150878906e+00,-1.345000147819519043e+00,-5.160368978977203369e-02
-2.635809659957885742e+00,-1.346585512161254883e+00,5.166451632976531982e-02
-2.639055490493774414e+00,-1.348243713378906250e+00,1.553106009960174561e-01
-2.642324209213256836e+00,-1.349913597106933594e+00,2.595940232276916504e-01
-2.645528078079223633e+00,-1.351550459861755371e+00,3.647648394107818604e-01
-2.649256467819213867e+00,-1.353455185890197754e+00,4.711870253086090088e-01
-2.652070760726928711e+00,-1.354892969131469727e+00,5.788875222206115723e-01
-2.655318021774291992e+00,-1.356551885604858398e+00,6.883946061134338379e-01
-2.481878042221069336e+00,-1.313070774078369141e+00,-7.523528933525085449e-01
-2.484671115875244141e+00,-1.314548492431640625e+00,-6.489656567573547363e-01
-2.487904310226440430e+00,-1.316259026527404785e+00,-5.471100211143493652e-01
-2.490952968597412109e+00,-1.317871928215026855e+00,-4.463409781455993652e-01
-2.494253635406494141e+00,-1.319618225097656250e+00,-3.464759588241577148e-01
-2.497162580490112305e+00,-1.321157336235046387e+00,-2.471652179956436157e-01
-2.500243186950683594e+00,-1.322787046432495117e+00,-1.482404470443725586e-01
-2.503281354904174805e+00,-1.324394464492797852e+00,-4.943333193659782410e-02
-2.506287336349487305e+00,-1.325984835624694824e+00,4.949269071221351624e-02
-2.509486913681030273e+00,-1.327677607536315918e+00,1.487885117530822754e-01
-2.512329578399658203e+00,-1.329181551933288574e+00,2.486664056777954102e-01
-2.515478610992431641e+00,-1.330847620964050293e+00,3.494243323802947998e-01
-2.518510580062866211e+00,-1.332451701164245605e+00,4.512788951396942139e-01
-2.522075414657592773e+00,-1.334337830543518066e+00,5.546245574951171875e-01
-2.525435209274291992e+00,-1.336115241050720215e+00,6.596127152442932129e-01
-2.361739397048950195e+00,-1.293106794357299805e+00,-7.214710712432861328e-01
-2.364948272705078125e+00,-1.294863700866699219e+00,-6.224725842475891113e-01
-2.367880582809448242e+00,-1.296469211578369141e+00,-5.247429013252258301e-01
-2.371105194091796875e+00,-1.298234820365905762e+00,-4.281518757343292236e-01
-2.373792886734008789e+00,-1.299706459045410156e+00,-3.322929441928863525e-01
-2.376754999160766602e+00,-1.301328301429748535e+00,-2.370668053627014160e-01
-2.379633903503417969e+00,-1.302904486656188965e+00,-1.421806365251541138e-01
-2.382526397705078125e+00,-1.304488182067871094e+00,-4.741259664297103882e-02
-2.385439872741699219e+00,-1.306083321571350098e+00,4.747056961059570312e-02
-2.388292789459228516e+00,-1.307645440101623535e+00,1.426979899406433105e-01
-2.391455411911010742e+00,-1.309377074241638184e+00,2.385330647230148315e-01
-2.394130468368530273e+00,-1.310841679573059082e+00,3.351398706436157227e-01
-2.397162199020385742e+00,-1.312501668930053711e+00,4.328570365905761719e-01
-2.399998426437377930e+00,-1.314054608345031738e+00,5.318605303764343262e-01
-2.403341293334960938e+00,-1.315884828567504883e+00,6.325779557228088379e-01
-2.250140666961669922e+00,-1.274197101593017578e+00,-6.928800344467163086e-01
-2.253017187118530273e+00,-1.275825977325439453e+00,-5.977568626403808594e-01
-2.255677461624145508e+00,-1.277332425117492676e+00,-5.038777589797973633e-01
-2.258665323257446289e+00,-1.279024362564086914e+00,-4.111121892929077148e-01
-2.261477231979370117e+00,-1.280616641044616699e+00,-3.191037774085998535e-01
-2.264028072357177734e+00,-1.282061219215393066e+00,-2.276300340890884399e-01
-2.266835212707519531e+00,-1.283650755882263184e+00,-1.365248411893844604e-01
-2.269593000411987305e+00,-1.285212397575378418e+00,-4.552662000060081482e-02
-2.272301912307739258e+00,-1.286746501922607422e+00,4.558096081018447876e-02
-2.275293111801147461e+00,-1.288440227508544922e+00,1.370342373847961426e-01
-2.278053998947143555e+00,-1.290003657341003418e+00,2.290402203798294067e-01
-2.280685901641845703e+00,-1.291494011878967285e+00,3.218141794204711914e-01
-2.283711194992065430e+00,-1.293207287788391113e+00,4.156709611415863037e-01
-2.286596775054931641e+00,-1.294841170310974121e+00,5.107846260070800781e-01
-2.289185285568237305e+00,-1.296307086944580078e+00,6.073527336120605469e-01
-2.152511835098266602e+00,-1.259934425354003906e+00,-6.683021187782287598e-01
-2.155117273330688477e+00,-1.261459589004516602e+00,-5.765140652656555176e-01
-2.157555580139160156e+00,-1.262886643409729004e+00,-4.859472513198852539e-01
-2.160353422164916992e+00,-1.264524340629577637e+00,-3.964717090129852295e-01
-2.163023471832275391e+00,-1.266087174415588379e+00,-3.077371120452880859e-01
-2.165652990341186523e+00,-1.267626404762268066e+00,-2.195409685373306274e-01
-2.168299913406372070e+00,-1.269175648689270020e+00,-1.316709518432617188e-01
-2.170934200286865234e+00,-1.270717620849609375e+00,-4.390793666243553162e-02
-2.173570156097412109e+00,-1.272260546684265137e+00,4.396124929189682007e-02
-2.176240205764770508e+00,-1.273823380470275879e+00,1.321531385183334351e-01
-2.178900003433227539e+00,-1.275380253791809082e+00,2.208838611841201782e-01
-2.181478977203369141e+00,-1.276889920234680176e+00,3.103628456592559814e-01
-2.184479475021362305e+00,-1.278646111488342285e+00,4.008993506431579590e-01
-2.187389850616455078e+00,-1.280349612236022949e+00,4.926668405532836914e-01
-2.190053939819335938e+00,-1.281909108161926270e+00,5.858599543571472168e-01
-2.059725999832153320e+00,-1.245541095733642578e+00,-6.449635624885559082e-01
-2.062752246856689453e+00,-1.247370958328247070e+00,-5.565246343612670898e-01
-2.064989328384399414e+00,-1.248723745346069336e+00,-4.690761566162109375e-01
-2.067612409591674805e+00,-1.250310063362121582e+00,-3.826968967914581299e-01
-2.070420503616333008e+00,-1.252008080482482910e+00,-2.970814704895019531e-01
-2.072856187820434570e+00,-1.253481030464172363e+00,-2.119308859109878540e-01
-2.075346946716308594e+00,-1.254987120628356934e+00,-1.271041482686996460e-01
-2.077872991561889648e+00,-1.256514668464660645e+00,-4.238515347242355347e-02
-2.080433845520019531e+00,-1.258063316345214844e+00,4.243738949298858643e-02
-2.083072185516357422e+00,-1.259658813476562500e+00,1.275772899389266968e-01
-2.085365056991577148e+00,-1.261045217514038086e+00,2.132097929716110229e-01
-2.087887525558471680e+00,-1.262570619583129883e+00,2.995878159999847412e-01
-2.090859413146972656e+00,-1.264367818832397461e+00,3.869997262954711914e-01
-2.093103885650634766e+00,-1.265725016593933105e+00,4.754625260829925537e-01
-2.095734596252441406e+00,-1.267315864562988281e+00,5.654232501983642578e-01
-1.972723007202148438e+00,-1.231827855110168457e+00,-6.231774091720581055e-01
-1.975499749183654785e+00,-1.233561754226684570e+00,-5.376927852630615234e-01
-1.978009104728698730e+00,-1.235128641128540039e+00,-4.532874822616577148e-01
-1.980373859405517578e+00,-1.236605286598205566e+00,-3.697880506515502930e-01
-1.982696175575256348e+00,-1.238055467605590820e+00,-2.870073914527893066e-01
-1.985209584236145020e+00,-1.239624857902526855e+00,-2.047629207372665405e-01
-1.987558126449584961e+00,-1.241091370582580566e+00,-1.228029429912567139e-01
-1.989975452423095703e+00,-1.242600798606872559e+00,-4.095079749822616577e-02
-1.992468237876892090e+00,-1.244157433509826660e+00,4.100209474563598633e-02
-1.994811892509460449e+00,-1.245620846748352051e+00,1.232511177659034729e-01
-1.997378826141357422e+00,-1.247223734855651855e+00,2.060181051492691040e-01
-1.999945282936096191e+00,-1.248826265335083008e+00,2.895043194293975830e-01
-2.002422332763671875e+00,-1.250373005867004395e+00,3.739050626754760742e-01
-2.004695177078247070e+00,-1.251792311668395996e+00,4.594029784202575684e-01
-2.007379055023193359e+00,-1.253468155860900879e+00,5.463697314262390137e-01
-1.890430927276611328e+00,-1.218390464782714844e+00,-6.026289463043212891e-01
-1.892977714538574219e+00,-1.220031976699829102e+00,-5.199317336082458496e-01
-1.895302295684814453e+00,-1.221530199050903320e+00,-4.382959902286529541e-01
-1.897523522377014160e+00,-1.222961783409118652e+00,-3.575496971607208252e-01
-1.899988889694213867e+00,-1.224550724029541016e+00,-2.775438129901885986e-01
-1.902179002761840820e+00,-1.225962162017822266e+00,-1.979884654283523560e-01
-1.904542088508605957e+00,-1.227485179901123047e+00,-1.187471151351928711e-01
-1.906858921051025391e+00,-1.228978395462036133e+00,-3.959831967949867249e-02
-1.909134387969970703e+00,-1.230444908142089844e+00,3.964557126164436340e-02
-1.911600828170776367e+00,-1.232034564018249512e+00,1.191872209310531616e-01
-1.913818240165710449e+00,-1.233463644981384277e+00,1.991999298334121704e-01
-1.916324257850646973e+00,-1.235078930854797363e+00,2.799300253391265869e-01
-1.918778657913208008e+00,-1.236660718917846680e+00,3.615547716617584229e-01
-1.921072125434875488e+00,-1.238138914108276367e+00,4.442553520202636719e-01
-1.923799157142639160e+00,-1.239896416664123535e+00,5.283972620964050293e-01
-1.817792534828186035e+00,-1.208744406700134277e+00,-5.849286913871765137e-01
-1.820154666900634766e+00,-1.210315108299255371e+00,-5.046364068984985352e-01
-1.822330832481384277e+00,-1.211762189865112305e+00,-4.253884255886077881e-01
-1.824774265289306641e+00,-1.213386893272399902e+00,-3.470786213874816895e-01
-1.826814174652099609e+00,-1.214743375778198242e+00,-2.693669795989990234e-01
-1.829098820686340332e+00,-1.216262578964233398e+00,-1.921742409467697144e-01
-1.831341147422790527e+00,-1.217753529548645020e+00,-1.152580380439758301e-01
-1.833568453788757324e+00,-1.219234704971313477e+00,-3.843481838703155518e-02
-1.835788369178771973e+00,-1.220710754394531250e+00,3.848135098814964294e-02
-1.837980508804321289e+00,-1.222168445587158203e+00,1.156758964061737061e-01
-1.840445160865783691e+00,-1.223807334899902344e+00,1.933663338422775269e-01
-1.842545390129089355e+00,-1.225203871726989746e+00,2.716865539550781250e-01
-1.844964146614074707e+00,-1.226812243461608887e+00,3.509187996387481689e-01
-1.847259163856506348e+00,-1.228338360786437988e+00,4.312075078487396240e-01
-1.849302291870117188e+00,-1.229696869850158691e+00,5.127176046371459961e-01
-1.743588328361511230e+00,-1.195739746093750000e+00,-5.665006041526794434e-01
-1.745757222175598145e+00,-1.197227120399475098e+00,-4.887107908725738525e-01
-1.747777819633483887e+00,-1.198612928390502930e+00,-4.119480848312377930e-01
-1.750087022781372070e+00,-1.200196504592895508e+00,-3.361059129238128662e-01
-1.752274274826049805e+00,-1.201696515083312988e+00,-2.608854472637176514e-01
-1.754401564598083496e+00,-1.203155398368835449e+00,-1.861164718866348267e-01
-1.756522059440612793e+00,-1.204609632492065430e+00,-1.116229146718978882e-01
-1.758659601211547852e+00,-1.206075549125671387e+00,-3.722264617681503296e-02
-1.760818123817443848e+00,-1.207555890083312988e+00,3.726833313703536987e-02
-1.762984871864318848e+00,-1.209041714668273926e+00,1.120336130261421204e-01
-1.765119552612304688e+00,-1.210505723953247070e+00,1.872534751892089844e-01
-1.767167329788208008e+00,-1.211910128593444824e+00,2.631027996540069580e-01
-1.769554495811462402e+00,-1.213547229766845703e+00,3.398446738719940186e-01
-1.771854400634765625e+00,-1.215124487876892090e+00,4.176228940486907959e-01
-1.773942470550537109e+00,-1.216556429862976074e+00,4.966010451316833496e-01
-1.677840948104858398e+00,-1.186311364173889160e+00,-5.505995154380798340e-01
-1.679854035377502441e+00,-1.187734723091125488e+00,-4.749722480773925781e-01
-1.682152271270751953e+00,-1.189359545707702637e+00,-4.004517197608947754e-01
-1.683956146240234375e+00,-1.190635085105895996e+00,-3.266448974609375000e-01
-1.686068654060363770e+00,-1.192128658294677734e+00,-2.535429894924163818e-01
-1.688288807868957520e+00,-1.193698406219482422e+00,-1.808969080448150635e-01
-1.690301775932312012e+00,-1.195121645927429199e+00,-1.084907278418540955e-01
-1.692358374595642090e+00,-1.196575880050659180e+00,-3.617815673351287842e-02
-1.694463849067687988e+00,-1.198064446449279785e+00,3.622316569089889526e-02
-1.696376204490661621e+00,-1.199416637420654297e+00,1.088806092739105225e-01
-1.698420643806457520e+00,-1.200862050056457520e+00,1.819825023412704468e-01
-1.700813412666320801e+00,-1.202553987503051758e+00,2.557602524757385254e-01
-1.702755808830261230e+00,-1.203927278518676758e+00,3.302915692329406738e-01
-1.705043673515319824e+00,-1.205544948577880859e+00,4.059012532234191895e-01
-1.707152843475341797e+00,-1.207036137580871582e+00,4.826908707618713379e-01
-1.615070462226867676e+00,-1.176958084106445312e+00,-5.354742407798767090e-01
-1.616941332817077637e+00,-1.178321361541748047e+00,-4.619053602218627930e-01
-1.619111657142639160e+00,-1.179903030395507812e+00,-3.894249200820922852e-01
-1.621134996414184570e+00,-1.181377530097961426e+00,-3.177067041397094727e-01
-1.623093605041503906e+00,-1.182804822921752930e+00,-2.465936988592147827e-01
-1.625051259994506836e+00,-1.184231400489807129e+00,-1.759193092584609985e-01
-1.627094268798828125e+00,-1.185720205307006836e+00,-1.055123135447502136e-01
-1.629075050354003906e+00,-1.187163710594177246e+00,-3.518497198820114136e-02
-1.630995035171508789e+00,-1.188562870025634766e+00,3.522644191980361938e-02
-1.633016586303710938e+00,-1.190036058425903320e+00,1.058963611721992493e-01
-1.635061860084533691e+00,-1.191526532173156738e+00,1.770030111074447632e-01
-1.637075304985046387e+00,-1.192993760108947754e+00,2.487179189920425415e-01
-1.638985872268676758e+00,-1.194386005401611328e+00,3.212050497531890869e-01
-1.641256213188171387e+00,-1.196040511131286621e+00,3.947510719299316406e-01
-1.643379569053649902e+00,-1.197587847709655762e+00,4.694578647613525391e-01
-1.555096268653869629e+00,-1.167691469192504883e+00,-5.210778713226318359e-01
-1.557289958000183105e+00,-1.169338703155517578e+00,-4.496002197265625000e-01
-1.558891654014587402e+00,-1.170541286468505859e+00,-3.789318501949310303e-01
-1.560828208923339844e+00,-1.171995401382446289e+00,-3.091438114643096924e-01
-1.562937021255493164e+00,-1.173578858375549316e+00,-2.399817258119583130e-01
-1.564773917198181152e+00,-1.174958229064941406e+00,-1.711970716714859009e-01
-1.566719055175781250e+00,-1.176418781280517578e+00,-1.026785746216773987e-01
-1.568625807762145996e+00,-1.177850484848022461e+00,-3.423999994993209839e-02
-1.570498704910278320e+00,-1.179256796836853027e+00,3.428088128566741943e-02
-1.572492361068725586e+00,-1.180753827095031738e+00,1.030569449067115784e-01
-1.574237585067749023e+00,-1.182064294815063477e+00,1.722324490547180176e-01
-1.576188683509826660e+00,-1.183529376983642578e+00,2.420164644718170166e-01
-1.578523516654968262e+00,-1.185282588005065918e+00,3.126486241817474365e-01
-1.580311179161071777e+00,-1.186624884605407715e+00,3.841384947299957275e-01
-1.582442641258239746e+00,-1.188225388526916504e+00,4.568619728088378906e-01
-1.497752904891967773e+00,-1.158522963523864746e+00,-5.073678493499755859e-01
-1.499812483787536621e+00,-1.160115957260131836e+00,-4.377552866935729980e-01
-1.501685261726379395e+00,-1.161564588546752930e+00,-3.690298795700073242e-01
-1.503463864326477051e+00,-1.162940382957458496e+00,-3.010480701923370361e-01
-1.505226612091064453e+00,-1.164303898811340332e+00,-2.336554825305938721e-01
-1.507155060768127441e+00,-1.165795564651489258e+00,-1.667017191648483276e-01
-1.509007453918457031e+00,-1.167228341102600098e+00,-9.998100250959396362e-02
-1.510842561721801758e+00,-1.168647766113281250e+00,-3.334041684865951538e-02
-1.512668371200561523e+00,-1.170060157775878906e+00,3.338070958852767944e-02
-1.514428853988647461e+00,-1.171421885490417480e+00,1.003402024507522583e-01
-1.516380906105041504e+00,-1.172931790351867676e+00,1.677221506834030151e-01
-1.518348336219787598e+00,-1.174453616142272949e+00,2.356923818588256836e-01
-1.520263910293579102e+00,-1.175935268402099609e+00,3.044120371341705322e-01
-1.522040247917175293e+00,-1.177309393882751465e+00,3.740319907665252686e-01
-1.524170398712158203e+00,-1.178957104682922363e+00,4.448647201061248779e-01
-1.442886948585510254e+00,-1.149462699890136719e+00,-4.943046569824218750e-01
-1.444824218750000000e+00,-1.151006102561950684e+00,-4.264705777168273926e-01
-1.446601152420043945e+00,-1.152421712875366211e+00,-3.595100641250610352e-01
-1.448585867881774902e+00,-1.154002785682678223e+00,-2.933369278907775879e-01
-1.450220227241516113e+00,-1.155304789543151855e+00,-2.276605069637298584e-01
-1.452039003372192383e+00,-1.156753659248352051e+00,-1.624201983213424683e-01
-1.453801989555358887e+00,-1.158158183097839355e+00,-9.741166979074478149e-02
-1.455571293830871582e+00,-1.159567594528198242e+00,-3.248365968465805054e-02
-1.457350492477416992e+00,-1.160984992980957031e+00,3.252336382865905762e-02
-1.459088087081909180e+00,-1.162369251251220703e+00,9.776587039232254028e-02
-1.461030840873718262e+00,-1.163916945457458496e+00,1.634259968996047974e-01
-1.462654829025268555e+00,-1.165210604667663574e+00,2.296125292778015137e-01
-1.464527249336242676e+00,-1.166702270507812500e+00,2.965650260448455811e-01
-1.466286540031433105e+00,-1.168103814125061035e+00,3.644022941589355469e-01
-1.468408942222595215e+00,-1.169794678688049316e+00,4.334321022033691406e-01
-1.390357017517089844e+00,-1.140521049499511719e+00,-4.818521440029144287e-01
-1.392182469367980957e+00,-1.142018437385559082e+00,-4.157145917415618896e-01
-1.394213676452636719e+00,-1.143684744834899902e+00,-3.505230844020843506e-01
-1.395781517028808594e+00,-1.144970893859863281e+00,-2.859334647655487061e-01
-1.397567272186279297e+00,-1.146435737609863281e+00,-2.219481319189071655e-01
-1.399281263351440430e+00,-1.147841691970825195e+00,-1.583404392004013062e-01
-1.400961995124816895e+00,-1.149220466613769531e+00,-9.496359527111053467e-02
-1.402667164802551270e+00,-1.150619268417358398e+00,-3.166730701923370361e-02
-1.404401421546936035e+00,-1.152041792869567871e+00,3.170645982027053833e-02
-1.406113147735595703e+00,-1.153445959091186523e+00,9.531276673078536987e-02
-1.407776474952697754e+00,-1.154810428619384766e+00,1.593017429113388062e-01
-1.409685969352722168e+00,-1.156376719474792480e+00,2.238727062940597534e-01
-1.411167979240417480e+00,-1.157592535018920898e+00,2.890854775905609131e-01
-1.412905573844909668e+00,-1.159017801284790039e+00,3.552224636077880859e-01
-1.415015459060668945e+00,-1.160748600959777832e+00,4.225326776504516602e-01
-1.343767642974853516e+00,-1.134862303733825684e+00,-4.712870717048645020e-01
-1.345437645912170410e+00,-1.136272788047790527e+00,-4.065712094306945801e-01
-1.346991300582885742e+00,-1.137584805488586426e+00,-3.427093923091888428e-01
-1.348772406578063965e+00,-1.139089107513427734e+00,-2.796147763729095459e-01
-1.350450754165649414e+00,-1.140506505966186523e+00,-2.170358300209045410e-01
-1.351961255073547363e+00,-1.141782164573669434e+00,-1.548192501068115234e-01
-1.353642821311950684e+00,-1.143202304840087891e+00,-9.285575151443481445e-02
-1.355291247367858887e+00,-1.144594430923461914e+00,-3.096442669630050659e-02
-1.356907725334167480e+00,-1.145959734916687012e+00,3.100135922431945801e-02
-1.358708024024963379e+00,-1.147480010986328125e+00,9.320320188999176025e-02
-1.360362410545349121e+00,-1.148877263069152832e+00,1.557813137769699097e-01
-1.361939549446105957e+00,-1.150209188461303711e+00,2.188822478055953979e-01
-1.363787531852722168e+00,-1.151769876480102539e+00,2.827275693416595459e-01
-1.365561366081237793e+00,-1.153267979621887207e+00,3.474340736865997314e-01
-1.367169022560119629e+00,-1.154625654220581055e+00,4.131380915641784668e-01
-1.295319318771362305e+00,-1.126098990440368652e+00,-4.599012136459350586e-01
-1.296898603439331055e+00,-1.127471923828125000e+00,-3.967394232749938965e-01
-1.298700451850891113e+00,-1.129038453102111816e+00,-3.345003128051757812e-01
-1.300101041793823242e+00,-1.130255937576293945e+00,-2.728505730628967285e-01
-1.301737666130065918e+00,-1.131678819656372070e+00,-2.117885649204254150e-01
-1.303342819213867188e+00,-1.133074283599853516e+00,-1.510934680700302124e-01
-1.304946780204772949e+00,-1.134468793869018555e+00,-9.061995893716812134e-02
-1.306536316871643066e+00,-1.135850548744201660e+00,-3.021886944770812988e-02
-1.308111667633056641e+00,-1.137220144271850586e+00,3.025530837476253510e-02
-1.309700489044189453e+00,-1.138601303100585938e+00,9.095006436109542847e-02
-1.311273932456970215e+00,-1.139969348907470703e+00,1.520129144191741943e-01
-1.313115715980529785e+00,-1.141570448875427246e+00,2.136397361755371094e-01
-1.314585804939270020e+00,-1.142848491668701172e+00,2.758904695510864258e-01
-1.316329121589660645e+00,-1.144363999366760254e+00,3.390408158302307129e-01
-1.317927718162536621e+00,-1.145753741264343262e+00,4.031725227832794189e-01
-1.251766920089721680e+00,-1.120091319084167480e+00,-4.500841498374938965e-01
-1.253650903701782227e+00,-1.121777057647705078e+00,-3.883814811706542969e-01
-1.255014657974243164e+00,-1.122997403144836426e+00,-3.273549377918243408e-01
-1.256623387336730957e+00,-1.124436855316162109e+00,-2.670763731002807617e-01
-1.258163690567016602e+00,-1.125815153121948242e+00,-2.072997391223907471e-01
-1.259685873985290527e+00,-1.127177238464355469e+00,-1.478876471519470215e-01
-1.261222243309020996e+00,-1.128551959991455078e+00,-8.869624137878417969e-02
-1.262757301330566406e+00,-1.129925489425659180e+00,-2.957734465599060059e-02
-1.264294266700744629e+00,-1.131300806999206543e+00,2.961334399878978729e-02
-1.265858530998229980e+00,-1.132700562477111816e+00,8.902229368686676025e-02
-1.267421960830688477e+00,-1.134099483489990234e+00,1.487958431243896484e-01
-1.268943309783935547e+00,-1.135460853576660156e+00,2.090758234262466431e-01
-1.270749807357788086e+00,-1.137077331542968750e+00,2.700787186622619629e-01
-1.272070288658142090e+00,-1.138258934020996094e+00,3.318036794662475586e-01
-1.273649573326110840e+00,-1.139672160148620605e+00,3.945771157741546631e-01
-1.207429647445678711e+00,-1.111941933631896973e+00,-4.398198723793029785e-01
-1.208797454833984375e+00,-1.113201618194580078e+00,-3.793832957744598389e-01
-1.210405707359313965e+00,-1.114682674407958984e+00,-3.198481202125549316e-01
-1.211900353431701660e+00,-1.116059064865112305e+00,-2.609395980834960938e-01
-1.213343024253845215e+00,-1.117387652397155762e+00,-2.025293409824371338e-01
-1.214781403541564941e+00,-1.118712306022644043e+00,-1.444809138774871826e-01
-1.216248273849487305e+00,-1.120063185691833496e+00,-8.665200322866439819e-02
-1.217729210853576660e+00,-1.121426939964294434e+00,-2.889567054808139801e-02
-1.219226360321044922e+00,-1.122805714607238770e+00,2.893119677901268005e-02
-1.220763921737670898e+00,-1.124221682548522949e+00,8.697371929883956909e-02
-1.222316384315490723e+00,-1.125651359558105469e+00,1.453770995140075684e-01
-1.223841667175292969e+00,-1.127056121826171875e+00,2.042817622423171997e-01
-1.225285291671752930e+00,-1.128385424613952637e+00,2.638215720653533936e-01
-1.227015018463134766e+00,-1.129978418350219727e+00,3.242371082305908203e-01
-1.228636264801025391e+00,-1.131471514701843262e+00,3.856097757816314697e-01
-1.167031526565551758e+00,-1.106022000312805176e+00,-4.308269023895263672e-01
-1.168343663215637207e+00,-1.107265472412109375e+00,-3.716229200363159180e-01
-1.169900536537170410e+00,-1.108740925788879395e+00,-3.133062124252319336e-01
-1.171360731124877930e+00,-1.110124826431274414e+00,-2.556059658527374268e-01
-1.172785043716430664e+00,-1.111474752426147461e+00,-1.983946561813354492e-01
-1.174315571784973145e+00,-1.112925171852111816e+00,-1.415482163429260254e-01
-1.175722002983093262e+00,-1.114258170127868652e+00,-8.489228039979934692e-02
-1.177152872085571289e+00,-1.115614175796508789e+00,-2.830884419381618500e-02
-1.178612828254699707e+00,-1.116997838020324707e+00,2.834395319223403931e-02
-1.179957747459411621e+00,-1.118272423744201660e+00,8.519811928272247314e-02
-1.181428790092468262e+00,-1.119666576385498047e+00,1.424056142568588257e-01
-1.182887554168701172e+00,-1.121049046516418457e+00,2.001036554574966431e-01
-1.184280276298522949e+00,-1.122368931770324707e+00,2.584251463413238525e-01
-1.185962319374084473e+00,-1.123963117599487305e+00,3.176076710224151611e-01
-1.187553882598876953e+00,-1.125471353530883789e+00,3.777332305908203125e-01
-1.128029108047485352e+00,-1.100127935409545898e+00,-4.221984148025512695e-01
-1.129634976387023926e+00,-1.101693987846374512e+00,-3.642890155315399170e-01
-1.131086468696594238e+00,-1.103109717369079590e+00,-3.071085810661315918e-01
-1.132453560829162598e+00,-1.104442954063415527e+00,-2.505398392677307129e-01
-1.133795499801635742e+00,-1.105751633644104004e+00,-1.944564580917358398e-01
-1.135253310203552246e+00,-1.107173442840576172e+00,-1.387357711791992188e-01
-1.136602520942687988e+00,-1.108489274978637695e+00,-8.320477604866027832e-02
-1.137985587120056152e+00,-1.109838128089904785e+00,-2.774611115455627441e-02
-1.139408826828002930e+00,-1.111226081848144531e+00,2.778081223368644714e-02
-1.140731215476989746e+00,-1.112515807151794434e+00,8.350701630115509033e-02
-1.142186284065246582e+00,-1.113934993743896484e+00,1.395830363035202026e-01
-1.143641829490661621e+00,-1.115354537963867188e+00,1.961452066898345947e-01
-1.145044445991516113e+00,-1.116722464561462402e+00,2.533254027366638184e-01
-1.146329045295715332e+00,-1.117975234985351562e+00,3.112471997737884521e-01
-1.147886037826538086e+00,-1.119493722915649414e+00,3.701747357845306396e-01
-1.090749025344848633e+00,-1.094663262367248535e+00,-4.140672385692596436e-01
-1.091906666755676270e+00,-1.095825076103210449e+00,-3.571438789367675781e-01
-1.093318104743957520e+00,-1.097241520881652832e+00,-3.010872602462768555e-01
-1.094874739646911621e+00,-1.098803758621215820e+00,-2.456804215908050537e-01
-1.096141934394836426e+00,-1.100075483322143555e+00,-1.906795650720596313e-01
-1.097531080245971680e+00,-1.101469516754150391e+00,-1.360386013984680176e-01
-1.098823666572570801e+00,-1.102766752243041992e+00,-8.158632367849349976e-02
-1.100161790847778320e+00,-1.104109764099121094e+00,-2.720643207430839539e-02
-1.101548671722412109e+00,-1.105501651763916016e+00,2.724073082208633423e-02
-1.102846503257751465e+00,-1.106804132461547852e+00,8.188501745462417603e-02
-1.104285240173339844e+00,-1.108247995376586914e+00,1.368757933378219604e-01
-1.105455040931701660e+00,-1.109421968460083008e+00,1.922996193170547485e-01
-1.106802344322204590e+00,-1.110774159431457520e+00,2.483568787574768066e-01
-1.108443498611450195e+00,-1.112421154975891113e+00,3.052526116371154785e-01
-1.110020875930786133e+00,-1.114004135131835938e+00,3.630686998367309570e-01
-1.054333090782165527e+00,-1.088848829269409180e+00,-4.061179161071777344e-01
-1.055776596069335938e+00,-1.090339541435241699e+00,-3.503950536251068115e-01
-1.057093620300292969e+00,-1.091699838638305664e+00,-2.953844070434570312e-01
-1.058353662490844727e+00,-1.093001008033752441e+00,-2.409712225198745728e-01
-1.059758067131042480e+00,-1.094451546669006348e+00,-1.870563179254531860e-01
-1.060992956161499023e+00,-1.095726847648620605e+00,-1.334400475025177002e-01
-1.062323927879333496e+00,-1.097101330757141113e+00,-8.003401756286621094e-02
-1.063617229461669922e+00,-1.098436951637268066e+00,-2.668877877295017242e-02
-1.064876079559326172e+00,-1.099737048149108887e+00,2.672036737203598022e-02
-1.066241621971130371e+00,-1.101147294044494629e+00,8.032917231321334839e-02
-1.067450642585754395e+00,-1.102395892143249512e+00,1.342522203922271729e-01
-1.068830251693725586e+00,-1.103820681571960449e+00,1.886576265096664429e-01
-1.070180416107177734e+00,-1.105215072631835938e+00,2.436640262603759766e-01
-1.071439504623413086e+00,-1.106515288352966309e+00,2.993930876255035400e-01
-1.072974205017089844e+00,-1.108100175857543945e+00,3.561026751995086670e-01
-1.019496798515319824e+00,-1.083480715751647949e+00,-3.986321389675140381e-01
-1.020842313766479492e+00,-1.084910750389099121e+00,-3.439195156097412109e-01
-1.022072076797485352e+00,-1.086217641830444336e+00,-2.899131178855895996e-01
-1.023255109786987305e+00,-1.087474942207336426e+00,-2.364996373653411865e-01
-1.024588823318481445e+00,-1.088892340660095215e+00,-1.835808753967285156e-01
-1.025763273239135742e+00,-1.090140581130981445e+00,-1.309582889080047607e-01
-1.027042150497436523e+00,-1.091499686241149902e+00,-7.854491472244262695e-02
-1.028292536735534668e+00,-1.092828512191772461e+00,-2.619221247732639313e-02
-1.029517292976379395e+00,-1.094130158424377441e+00,2.622340992093086243e-02
-1.030856490135192871e+00,-1.095553398132324219e+00,7.883662730455398560e-02
-1.032050609588623047e+00,-1.096822381019592285e+00,1.317609846591949463e-01
-1.033419013023376465e+00,-1.098276615142822266e+00,1.851630061864852905e-01
-1.034768342971801758e+00,-1.099710702896118164e+00,2.391606122255325317e-01
-1.036036372184753418e+00,-1.101058363914489746e+00,2.938740849494934082e-01
-1.037155151367187500e+00,-1.102247357368469238e+00,3.494152426719665527e-01
