-1.986019134521484375e+00,-2.301056385040283203e+00,3.732146620750427246e-01
-1.988716125488281250e+00,-2.304180860519409180e+00,4.820774197578430176e-01
-1.991303086280822754e+00,-2.307178258895874023e+00,5.924082994461059570e-01
-1.993641138076782227e+00,-2.309887170791625977e+00,7.044376730918884277e-01
-1.905624866485595703e+00,-2.272878646850585938e+00,-7.947463393211364746e-01
-1.908014297485351562e+00,-2.275728464126586914e+00,-6.856214404106140137e-01
-1.910737872123718262e+00,-2.278976917266845703e+00,-5.780854821205139160e-01
-1.912827372550964355e+00,-2.281469106674194336e+00,-4.715491533279418945e-01
-1.915258288383483887e+00,-2.284368515014648438e+00,-3.660241961479187012e-01
-1.917611837387084961e+00,-2.287175655364990234e+00,-2.611266374588012695e-01
-1.919938802719116211e+00,-2.289951324462890625e+00,-1.566108465194702148e-01
-1.922267556190490723e+00,-2.292728662490844727e+00,-5.222446471452713013e-02
-1.924604058265686035e+00,-2.295515537261962891e+00,5.228794366121292114e-02
-1.926930904388427734e+00,-2.298290729522705078e+00,1.571812033653259277e-01
-1.929208636283874512e+00,-2.301007509231567383e+00,2.627058327198028564e-01
-1.931871414184570312e+00,-2.304183483123779297e+00,3.691991567611694336e-01
-1.933947324752807617e+00,-2.306659460067749023e+00,4.767556488513946533e-01
-1.936426281929016113e+00,-2.309616088867187500e+00,5.858573913574218750e-01
-1.938677430152893066e+00,-2.312301158905029297e+00,6.966398954391479492e-01
-1.850882053375244141e+00,-2.272880792617797852e+00,-7.854031324386596680e-01
-1.853136777877807617e+00,-2.275649547576904297e+00,-6.775370240211486816e-01
-1.855248332023620605e+00,-2.278242588043212891e+00,-5.711047053337097168e-01
-1.857711195945739746e+00,-2.281266927719116211e+00,-4.659637808799743652e-01
-1.860038995742797852e+00,-2.284125566482543945e+00,-3.616822957992553711e-01
-1.862302184104919434e+00,-2.286904811859130859e+00,-2.580259740352630615e-01
-1.864550709724426270e+00,-2.289665937423706055e+00,-1.547502726316452026e-01
-1.866812467575073242e+00,-2.292443275451660156e+00,-5.160403251647949219e-02
-1.869092941284179688e+00,-2.295243740081787109e+00,5.166706815361976624e-02
-1.871375799179077148e+00,-2.298047065734863281e+00,1.553167253732681274e-01
-1.873621702194213867e+00,-2.300805091857910156e+00,2.595942914485931396e-01
-1.875770211219787598e+00,-2.303443431854248047e+00,3.647412061691284180e-01
-1.878325462341308594e+00,-2.306581258773803711e+00,4.711343944072723389e-01
-1.880800366401672363e+00,-2.309620618820190430e+00,5.789704918861389160e-01
-1.883063435554504395e+00,-2.312399625778198242e+00,6.884787082672119141e-01
-1.797313928604125977e+00,-2.272773265838623047e+00,-7.763968110084533691e-01
-1.799444675445556641e+00,-2.275467634201049805e+00,-6.697457432746887207e-01
-1.801444411277770996e+00,-2.277996540069580078e+00,-5.645215511322021484e-01
-1.803797125816345215e+00,-2.280971527099609375e+00,-4.605826735496520996e-01
-1.806027770042419434e+00,-2.283792257308959961e+00,-3.574995994567871094e-01
-1.808205008506774902e+00,-2.286545515060424805e+00,-2.550391256809234619e-01
-1.810378193855285645e+00,-2.289293527603149414e+00,-1.529580950736999512e-01
-1.812574267387390137e+00,-2.292070627212524414e+00,-5.100639909505844116e-02
-1.814799070358276367e+00,-2.294883966445922852e+00,5.106900632381439209e-02
-1.817035794258117676e+00,-2.297712326049804688e+00,1.535205841064453125e-01
-1.819246530532836914e+00,-2.300508022308349609e+00,2.565965056419372559e-01
-1.821372509002685547e+00,-2.303196430206298828e+00,3.605370819568634033e-01
-1.823904752731323242e+00,-2.306398391723632812e+00,4.657169580459594727e-01
-1.826368093490600586e+00,-2.309513330459594727e+00,5.723319053649902344e-01
-1.828633666038513184e+00,-2.312378406524658203e+00,6.806097626686096191e-01
-1.746390461921691895e+00,-2.274544715881347656e+00,-7.683840990066528320e-01
-1.748508810997009277e+00,-2.277303695678710938e+00,-6.628518700599670410e-01
-1.750963211059570312e+00,-2.280500173568725586e+00,-5.588739514350891113e-01
-1.753219246864318848e+00,-2.283438444137573242e+00,-4.559668898582458496e-01
-1.755363583564758301e+00,-2.286231279373168945e+00,-3.539120852947235107e-01
-1.757464051246643066e+00,-2.288967132568359375e+00,-2.524775862693786621e-01
-1.759568095207214355e+00,-2.291707515716552734e+00,-1.514210999011993408e-01
-1.761702656745910645e+00,-2.294487714767456055e+00,-5.049386993050575256e-02
-1.763873219490051270e+00,-2.297314643859863281e+00,5.055608227849006653e-02
-1.766063332557678223e+00,-2.300167083740234375e+00,1.519800573587417603e-01
-1.768236160278320312e+00,-2.302996873855590820e+00,2.540251016616821289e-01
-1.770333647727966309e+00,-2.305728912353515625e+00,3.569303452968597412e-01
-1.772278666496276855e+00,-2.308262109756469727e+00,4.609237611293792725e-01
-1.774624109268188477e+00,-2.311316728591918945e+00,5.664260387420654297e-01
-1.776787877082824707e+00,-2.314135074615478516e+00,6.735723614692687988e-01
-1.694946169853210449e+00,-2.274199008941650391e+00,-7.599937915802001953e-01
-1.696956515312194824e+00,-2.276896476745605469e+00,-6.555963158607482910e-01
-1.699301481246948242e+00,-2.280042648315429688e+00,-5.527444481849670410e-01
-1.701460480690002441e+00,-2.282939434051513672e+00,-4.509579539299011230e-01
-1.703518390655517578e+00,-2.285700798034667969e+00,-3.500195443630218506e-01
-1.705541372299194336e+00,-2.288414955139160156e+00,-2.496983855962753296e-01
-1.707575559616088867e+00,-2.291144371032714844e+00,-1.497536450624465942e-01
-1.709647178649902344e+00,-2.293923854827880859e+00,-4.993782937526702881e-02
-1.711761593818664551e+00,-2.296761035919189453e+00,4.999959096312522888e-02
-1.713902950286865234e+00,-2.299634218215942383e+00,1.503085494041442871e-01
-1.716035008430480957e+00,-2.302495002746582031e+00,2.512347102165222168e-01
-1.718101382255554199e+00,-2.305267333984375000e+00,3.530158698558807373e-01
-1.720026969909667969e+00,-2.307851076126098633e+00,4.558788537979125977e-01
-1.722349524497985840e+00,-2.310967445373535156e+00,5.602414608001708984e-01
-1.724502682685852051e+00,-2.313856363296508789e+00,6.662383675575256348e-01
-1.644559383392333984e+00,-2.273800134658813477e+00,-7.519171237945556641e-01
-1.646470546722412109e+00,-2.276442766189575195e+00,-6.486135721206665039e-01
-1.648713827133178711e+00,-2.279544353485107422e+00,-5.468466281890869141e-01
-1.650782823562622070e+00,-2.282404899597167969e+00,-4.461392462253570557e-01
-1.652759432792663574e+00,-2.285137653350830078e+00,-3.462751805782318115e-01
-1.654708623886108398e+00,-2.287832736968994141e+00,-2.470252215862274170e-01
-1.656675577163696289e+00,-2.290552377700805664e+00,-1.481498479843139648e-01
-1.658685684204101562e+00,-2.293331623077392578e+00,-4.940302670001983643e-02
-1.660743832588195801e+00,-2.296177148818969727e+00,4.946432635188102722e-02
-1.662835121154785156e+00,-2.299068689346313477e+00,1.487006694078445435e-01
-1.664923906326293945e+00,-2.301956653594970703e+00,2.485502362251281738e-01
-1.666955351829528809e+00,-2.304765462875366211e+00,3.492494523525238037e-01
-1.668855905532836914e+00,-2.307393074035644531e+00,4.510236680507659912e-01
-1.671149373054504395e+00,-2.310564041137695312e+00,5.542880296707153320e-01
-1.673283934593200684e+00,-2.313515424728393555e+00,6.591764688491821289e-01
-1.597009301185607910e+00,-2.275956630706787109e+00,-7.449948191642761230e-01
-1.598836064338684082e+00,-2.278559923171997070e+00,-6.426305770874023438e-01
-1.600990176200866699e+00,-2.281630039215087891e+00,-5.417941808700561523e-01
-1.602651834487915039e+00,-2.283998012542724609e+00,-4.419214129447937012e-01
-1.604648351669311523e+00,-2.286843299865722656e+00,-3.430180847644805908e-01
-1.606766700744628906e+00,-2.289862155914306641e+00,-2.447360605001449585e-01
-1.608671545982360840e+00,-2.292577028274536133e+00,-1.467764973640441895e-01
-1.610623359680175781e+00,-2.295358419418334961e+00,-4.894505813717842102e-02
-1.612627267837524414e+00,-2.298214435577392578e+00,4.900595173239707947e-02
-1.614432215690612793e+00,-2.300786733627319336e+00,1.473021060228347778e-01
-1.616382241249084473e+00,-2.303565740585327148e+00,2.462006658315658569e-01
-1.618704438209533691e+00,-2.306875228881835938e+00,3.460227847099304199e-01
-1.620574593544006348e+00,-2.309540271759033203e+00,4.468635022640228271e-01
-1.622831583023071289e+00,-2.312756776809692383e+00,5.491855144500732422e-01
-1.624938607215881348e+00,-2.315759658813476562e+00,6.531221270561218262e-01
-1.547939777374267578e+00,-2.274580478668212891e+00,-7.372163534164428711e-01
-1.550256848335266113e+00,-2.277985334396362305e+00,-6.361451745033264160e-01
-1.551918148994445801e+00,-2.280426502227783203e+00,-5.361786484718322754e-01
-1.553915381431579590e+00,-2.283361434936523438e+00,-4.374499320983886719e-01
-1.555837631225585938e+00,-2.286185741424560547e+00,-3.395443558692932129e-01
-1.557882547378540039e+00,-2.289190769195556641e+00,-2.422562390565872192e-01
-1.559724807739257812e+00,-2.291897773742675781e+00,-1.452888250350952148e-01
-1.561617374420166016e+00,-2.294678688049316406e+00,-4.844897240400314331e-02
-1.563565135002136230e+00,-2.297540903091430664e+00,4.850940406322479248e-02
-1.565324187278747559e+00,-2.300125837326049805e+00,1.458104103803634644e-01
-1.567228913307189941e+00,-2.302924633026123047e+00,2.437096387147903442e-01
-1.569091081619262695e+00,-2.305660724639892578e+00,3.424367606639862061e-01
-1.571336030960083008e+00,-2.308959722518920898e+00,4.423541128635406494e-01
-1.572970986366271973e+00,-2.311362028121948242e+00,5.434523224830627441e-01
-1.574963331222534180e+00,-2.314289569854736328e+00,6.462833881378173828e-01
-1.502023339271545410e+00,-2.276489496231079102e+00,-7.307921051979064941e-01
-1.504253149032592773e+00,-2.279868841171264648e+00,-6.305938363075256348e-01
-1.505848407745361328e+00,-2.282286643981933594e+00,-5.314938426017761230e-01
-1.507773756980895996e+00,-2.285204648971557617e+00,-4.336240887641906738e-01
-1.509628891944885254e+00,-2.288016557693481445e+00,-3.365725278854370117e-01
-1.511606812477111816e+00,-2.291014194488525391e+00,-2.401349246501922607e-01
-1.513391017913818359e+00,-2.293718338012695312e+00,-1.440162956714630127e-01
-1.515227317810058594e+00,-2.296501636505126953e+00,-4.802462458610534668e-02
-1.517120838165283203e+00,-2.299371480941772461e+00,4.808463901281356812e-02
-1.518834233283996582e+00,-2.301968097686767578e+00,1.445342749357223511e-01
-1.520692348480224609e+00,-2.304784536361694336e+00,2.415782660245895386e-01
-1.522512435913085938e+00,-2.307542800903320312e+00,3.394449055194854736e-01
-1.524707555770874023e+00,-2.310869932174682617e+00,4.384941160678863525e-01
-1.526313066482543945e+00,-2.313303232192993164e+00,5.387168526649475098e-01
-1.528268814086914062e+00,-2.316267490386962891e+00,6.406614184379577637e-01
-1.455298900604248047e+00,-2.275875568389892578e+00,-7.238339781761169434e-01
-1.457443475723266602e+00,-2.279229402542114258e+00,-6.245830059051513672e-01
-1.458974719047546387e+00,-2.281624078750610352e+00,-5.264224410057067871e-01
-1.460828900337219238e+00,-2.284523725509643555e+00,-4.294832348823547363e-01
-1.462618112564086914e+00,-2.287321805953979492e+00,-3.333566188812255859e-01
-1.464529037475585938e+00,-2.290310144424438477e+00,-2.378395795822143555e-01
-1.466254949569702148e+00,-2.293009281158447266e+00,-1.426394283771514893e-01
-1.468034386634826660e+00,-2.295791864395141602e+00,-4.756549745798110962e-02
-1.469871640205383301e+00,-2.298665285110473633e+00,4.762502759695053101e-02
-1.471537351608276367e+00,-2.301270246505737305e+00,1.431533098220825195e-01
-1.473346114158630371e+00,-2.304098844528198242e+00,2.392714768648147583e-01
-1.475120782852172852e+00,-2.306874036788940430e+00,3.362061679363250732e-01
-1.477262377738952637e+00,-2.310223340988159180e+00,4.343146681785583496e-01
-1.478834033012390137e+00,-2.312681198120117188e+00,5.335879921913146973e-01
-1.480748534202575684e+00,-2.315675258636474609e+00,6.345703005790710449e-01
-1.410881638526916504e+00,-2.277590036392211914e+00,-7.178828716278076172e-01
-1.412950873374938965e+00,-2.280930280685424805e+00,-6.194435358047485352e-01
-1.414426207542419434e+00,-2.283312082290649414e+00,-5.220873355865478516e-01
-1.416216969490051270e+00,-2.286202907562255859e+00,-4.259443879127502441e-01
-1.417946338653564453e+00,-2.288994789123535156e+00,-3.306086063385009766e-01
-1.419795513153076172e+00,-2.291979789733886719e+00,-2.358784079551696777e-01
-1.421466827392578125e+00,-2.294677734375000000e+00,-1.414630711078643799e-01
-1.423192024230957031e+00,-2.297462701797485352e+00,-4.717322438955307007e-02
-1.424975156784057617e+00,-2.300341367721557617e+00,4.723232984542846680e-02
-1.426593303680419922e+00,-2.302953481674194336e+00,1.419732570648193359e-01
-1.428352594375610352e+00,-2.305793285369873047e+00,2.373000383377075195e-01
-1.430079936981201172e+00,-2.308581829071044922e+00,3.334376811981201172e-01
-1.432165265083312988e+00,-2.311948299407958984e+00,4.307410418987274170e-01
-1.433699250221252441e+00,-2.314424514770507812e+00,5.292013287544250488e-01
-1.435567617416381836e+00,-2.317440748214721680e+00,6.293588280677795410e-01
-1.365780353546142578e+00,-2.276943683624267578e+00,-7.114445567131042480e-01
-1.367342710494995117e+00,-2.279548168182373047e+00,-6.136902570724487305e-01
-1.369199156761169434e+00,-2.282643079757690430e+00,-5.174002647399902344e-01
-1.370927929878234863e+00,-2.285525321960449219e+00,-4.221189618110656738e-01
-1.372598290443420410e+00,-2.288310050964355469e+00,-3.276385366916656494e-01
-1.374386072158813477e+00,-2.291290521621704102e+00,-2.337589710950851440e-01
-1.376002788543701172e+00,-2.293985843658447266e+00,-1.401918679475784302e-01
-1.377672910690307617e+00,-2.296770095825195312e+00,-4.674932360649108887e-02
-1.379400372505187988e+00,-2.299650192260742188e+00,4.680794477462768555e-02
-1.380969285964965820e+00,-2.302265644073486328e+00,1.406978666782379150e-01
-1.382675886154174805e+00,-2.305110931396484375e+00,2.351689338684082031e-01
-1.384352803230285645e+00,-2.307906389236450195e+00,3.304443359375000000e-01
-1.385938882827758789e+00,-2.310550689697265625e+00,4.267409741878509521e-01
-1.387869834899902344e+00,-2.313769817352294922e+00,5.244556069374084473e-01
-1.389686703681945801e+00,-2.316798686981201172e+00,6.237186193466186523e-01
-1.322747468948364258e+00,-2.278505802154541016e+00,-7.059445977210998535e-01
-1.324258208274841309e+00,-2.281108140945434570e+00,-6.089448928833007812e-01
-1.326054096221923828e+00,-2.284201622009277344e+00,-5.133986473083496094e-01
-1.327726840972900391e+00,-2.287083148956298828e+00,-4.188538193702697754e-01
-1.329343438148498535e+00,-2.289867877960205078e+00,-3.251039385795593262e-01
-1.331074237823486328e+00,-2.292849063873291016e+00,-2.319504916667938232e-01
-1.332639694213867188e+00,-2.295545578002929688e+00,-1.391072422266006470e-01
-1.334257006645202637e+00,-2.298331737518310547e+00,-4.638763144612312317e-02
-1.335930705070495605e+00,-2.301214694976806641e+00,4.644582048058509827e-02
-1.337450981140136719e+00,-2.303833246231079102e+00,1.396094709634780884e-01
-1.339105129241943359e+00,-2.306682825088500977e+00,2.333499491214752197e-01
-1.340730905532836914e+00,-2.309483289718627930e+00,3.278888463973999023e-01
-1.342269062995910645e+00,-2.312132835388183594e+00,4.234414100646972656e-01
-1.344141602516174316e+00,-2.315358400344848633e+00,5.204014778137207031e-01
-1.345903992652893066e+00,-2.318394184112548828e+00,6.188985109329223633e-01
-1.279142260551452637e+00,-2.277864933013916016e+00,-7.000016570091247559e-01
-1.280604958534240723e+00,-2.280469655990600586e+00,-6.038194298744201660e-01
-1.282342910766601562e+00,-2.283564567565917969e+00,-5.090779066085815430e-01
-1.283961534500122070e+00,-2.286446809768676758e+00,-4.153290390968322754e-01
-1.285525560379028320e+00,-2.289232015609741211e+00,-3.223682641983032227e-01
-1.287199616432189941e+00,-2.292213201522827148e+00,-2.299987524747848511e-01
-1.288714051246643066e+00,-2.294909954071044922e+00,-1.379367858171463013e-01
-1.290278077125549316e+00,-2.297695159912109375e+00,-4.599732533097267151e-02
-1.291896343231201172e+00,-2.300576925277709961e+00,4.605501890182495117e-02
-1.293366193771362305e+00,-2.303194284439086914e+00,1.384347230195999146e-01
-1.294964909553527832e+00,-2.306041479110717773e+00,2.313862740993499756e-01
-1.296536445617675781e+00,-2.308840036392211914e+00,3.251294493675231934e-01
-1.298022866249084473e+00,-2.311486959457397461e+00,4.198775589466094971e-01
-1.299832224845886230e+00,-2.314708948135375977e+00,5.160209536552429199e-01
-1.301535010337829590e+00,-2.317741394042968750e+00,6.136881709098815918e-01
-1.237382650375366211e+00,-2.279309034347534180e+00,-6.949315071105957031e-01
-1.239195108413696289e+00,-2.282647609710693359e+00,-5.996382236480712891e-01
-1.240487217903137207e+00,-2.285027742385864258e+00,-5.053940415382385254e-01
-1.242056250572204590e+00,-2.287917852401733398e+00,-4.123246669769287109e-01
-1.243571758270263672e+00,-2.290709733963012695e+00,-3.200369775295257568e-01
-1.245193004608154297e+00,-2.293695926666259766e+00,-2.283357977867126465e-01
-1.246658563613891602e+00,-2.296395540237426758e+00,-1.369395256042480469e-01
-1.248171806335449219e+00,-2.299182891845703125e+00,-4.566477984189987183e-02
-1.249736547470092773e+00,-2.302065134048461914e+00,4.572202637791633606e-02
-1.251156806945800781e+00,-2.304681539535522461e+00,1.374336332082748413e-01
-1.252701282501220703e+00,-2.307526588439941406e+00,2.297126203775405884e-01
-1.254218339920043945e+00,-2.310320854187011719e+00,3.227768838405609131e-01
-1.256049871444702148e+00,-2.313694715499877930e+00,4.169701039791107178e-01
-1.257398009300231934e+00,-2.316178083419799805e+00,5.122837424278259277e-01
-1.259039640426635742e+00,-2.319201946258544922e+00,6.092408895492553711e-01
-1.196183919906616211e+00,-2.280672788619995117e+00,-6.900565028190612793e-01
-1.197943329811096191e+00,-2.284027576446533203e+00,-5.954354405403137207e-01
-1.199199199676513672e+00,-2.286422014236450195e+00,-5.018545389175415039e-01
-1.200721144676208496e+00,-2.289323806762695312e+00,-4.094387590885162354e-01
-1.202190160751342773e+00,-2.292124748229980469e+00,-3.177980482578277588e-01
-1.203760027885437012e+00,-2.295117855072021484e+00,-2.267388850450515747e-01
-1.205178141593933105e+00,-2.297821521759033203e+00,-1.359819471836090088e-01
-1.206641077995300293e+00,-2.300610780715942383e+00,-4.534546658396720886e-02
-1.208152532577514648e+00,-2.303492546081542969e+00,4.540226608514785767e-02
-1.209523081779479980e+00,-2.306105852127075195e+00,1.364722102880477905e-01
-1.211012363433837891e+00,-2.308945178985595703e+00,2.281049042940139771e-01
-1.212473750114440918e+00,-2.311731576919555664e+00,3.205164968967437744e-01
-1.214237451553344727e+00,-2.315094232559204102e+00,4.140477478504180908e-01
-1.215533375740051270e+00,-2.317565202713012695e+00,5.086902976036071777e-01
-1.217111706733703613e+00,-2.320574283599853516e+00,6.049630045890808105e-01
-1.154557824134826660e+00,-2.280056953430175781e+00,-6.847998499870300293e-01
-1.156267523765563965e+00,-2.283433198928833008e+00,-5.909054279327392578e-01
-1.157490015029907227e+00,-2.285847663879394531e+00,-4.980409741401672363e-01
-1.158967018127441406e+00,-2.288764476776123047e+00,-4.063302576541900635e-01
-1.160391092300415039e+00,-2.291576623916625977e+00,-3.153869509696960449e-01
-1.161910295486450195e+00,-2.294576883316040039e+00,-2.250193953514099121e-01
-1.163281321525573730e+00,-2.297284603118896484e+00,-1.349509954452514648e-01
-1.164693474769592285e+00,-2.300073146820068359e+00,-4.500167444348335266e-02
-1.166150331497192383e+00,-2.302950143814086914e+00,4.505796357989311218e-02
-1.167469263076782227e+00,-2.305554866790771484e+00,1.354368329048156738e-01
-1.168900609016418457e+00,-2.308381557464599609e+00,2.263731658458709717e-01
-1.170303344726562500e+00,-2.311151742935180664e+00,3.180810213088989258e-01
-1.171995520591735840e+00,-2.314493417739868164e+00,4.108980000019073486e-01
-1.173234581947326660e+00,-2.316940546035766602e+00,5.048155188560485840e-01
-1.174744248390197754e+00,-2.319921731948852539e+00,6.003478765487670898e-01
-1.114476442337036133e+00,-2.281340837478637695e+00,-6.803247332572937012e-01
-1.116139769554138184e+00,-2.284745693206787109e+00,-5.870506763458251953e-01
-1.117331385612487793e+00,-2.287184953689575195e+00,-4.947971403598785400e-01
-1.118765950202941895e+00,-2.290121555328369141e+00,-4.036869406700134277e-01
-1.120147585868835449e+00,-2.292949676513671875e+00,-3.133372068405151367e-01
-1.121618390083312988e+00,-2.295960426330566406e+00,-2.235578149557113647e-01
-1.122944235801696777e+00,-2.298674583435058594e+00,-1.340747326612472534e-01
-1.124307513236999512e+00,-2.301465272903442383e+00,-4.470947012305259705e-02
-1.125711441040039062e+00,-2.304338932037353516e+00,4.476529732346534729e-02
-1.126980423927307129e+00,-2.306936740875244141e+00,1.345566213130950928e-01
-1.128355383872985840e+00,-2.309751272201538086e+00,2.249006330966949463e-01
-1.129700541496276855e+00,-2.312504768371582031e+00,3.160094320774078369e-01
-1.131322383880615234e+00,-2.315824747085571289e+00,4.082176983356475830e-01
-1.132505536079406738e+00,-2.318246603012084961e+00,5.015168786048889160e-01
-1.133947372436523438e+00,-2.321197986602783203e+00,5.964168906211853027e-01
-1.074448704719543457e+00,-2.281634092330932617e+00,-6.757567524909973145e-01
-1.075671434402465820e+00,-2.284230947494506836e+00,-5.829026699066162109e-01
-1.077116012573242188e+00,-2.287298440933227539e+00,-4.914360940456390381e-01
-1.078229784965515137e+00,-2.289663553237915039e+00,-4.008446633815765381e-01
-1.079570174217224121e+00,-2.292510032653808594e+00,-3.111336231231689453e-01
-1.080993652343750000e+00,-2.295532703399658203e+00,-2.219868451356887817e-01
-1.082274675369262695e+00,-2.298253059387207031e+00,-1.331329494714736938e-01
-1.083588600158691406e+00,-2.301043272018432617e+00,-4.439542070031166077e-02
-1.084938764572143555e+00,-2.303910255432128906e+00,4.445073753595352173e-02
-1.086155891418457031e+00,-2.306494951248168945e+00,1.336103975772857666e-01
-1.087472081184387207e+00,-2.309289932250976562e+00,2.233172059059143066e-01
-1.089039802551269531e+00,-2.312619209289550781e+00,3.138628005981445312e-01
-1.090304255485534668e+00,-2.315304040908813477e+00,4.053334891796112061e-01
-1.091830253601074219e+00,-2.318544626235961914e+00,4.981494843959808350e-01
-1.093256592750549316e+00,-2.321573495864868164e+00,5.924319624900817871e-01
-1.034597992897033691e+00,-2.281154632568359375e+00,-6.711600422859191895e-01
-1.035796165466308594e+00,-2.283796310424804688e+00,-5.789491534233093262e-01
-1.037204027175903320e+00,-2.286900520324707031e+00,-4.881108701229095459e-01
-1.038290977478027344e+00,-2.289297103881835938e+00,-3.981379568576812744e-01
-1.039744496345520020e+00,-2.292501926422119141e+00,-3.090810775756835938e-01
-1.040969729423522949e+00,-2.295203447341918945e+00,-2.204915285110473633e-01
-1.042206764221191406e+00,-2.297930955886840820e+00,-1.322365999221801758e-01
-1.043472170829772949e+00,-2.300720930099487305e+00,-4.409652203321456909e-02
-1.044768691062927246e+00,-2.303579568862915039e+00,4.415131360292434692e-02
-1.046086668968200684e+00,-2.306485652923583984e+00,1.327288895845413208e-01
-1.047191143035888672e+00,-2.308920860290527344e+00,2.218093127012252808e-01
-1.048686385154724121e+00,-2.312217712402343750e+00,3.117392063140869141e-01
-1.049887061119079590e+00,-2.314865112304687500e+00,4.025845825672149658e-01
-1.051335811614990234e+00,-2.318059206008911133e+00,4.947612881660461426e-01
-1.052685260772705078e+00,-2.321034669876098633e+00,5.883891582489013672e-01
-9.960179924964904785e-01,-2.282377481460571289e+00,-6.672569513320922852e-01
-9.971917867660522461e-01,-2.285067081451416016e+00,-5.755940079689025879e-01
-9.985638260841369629e-01,-2.288211107254028320e+00,-4.852902591228485107e-01
-9.998278021812438965e-01,-2.291107654571533203e+00,-3.959234356880187988e-01
-1.001033544540405273e+00,-2.293870687484741211e+00,-3.073023557662963867e-01
-1.002220153808593750e+00,-2.296589851379394531e+00,-2.192241549491882324e-01
-1.003414869308471680e+00,-2.299327373504638672e+00,-1.314769983291625977e-01
-1.004633188247680664e+00,-2.302119016647338867e+00,-4.384322464466094971e-02
-1.005877971649169922e+00,-2.304971456527709961e+00,4.389754310250282288e-02
-1.007140040397644043e+00,-2.307863473892211914e+00,1.319651007652282715e-01
-1.008398056030273438e+00,-2.310746192932128906e+00,2.205754965543746948e-01
-1.009618759155273438e+00,-2.313543796539306641e+00,3.099378943443298340e-01
-1.010757923126220703e+00,-2.316154003143310547e+00,4.002516567707061768e-01
-1.012132048606872559e+00,-2.319302797317504883e+00,4.918842315673828125e-01
-1.013407826423645020e+00,-2.322226285934448242e+00,5.849541425704956055e-01
-9.572009444236755371e-01,-2.281976222991943359e+00,-6.630662083625793457e-01
-9.583538770675659180e-01,-2.284724712371826172e+00,-5.719938874244689941e-01
-9.596928358078002930e-01,-2.287916898727416992e+00,-4.822651445865631104e-01
-9.609240889549255371e-01,-2.290852069854736328e+00,-3.934621512889862061e-01
-9.620957374572753906e-01,-2.293645381927490234e+00,-3.053960502147674561e-01
-9.632446765899658203e-01,-2.296384572982788086e+00,-2.178661525249481201e-01
-9.643973708152770996e-01,-2.299132585525512695e+00,-1.306631565093994141e-01
-9.655682444572448730e-01,-2.301923990249633789e+00,-4.357183352112770081e-02
-9.667603373527526855e-01,-2.304765939712524414e+00,4.362562671303749084e-02
-9.679648280143737793e-01,-2.307637453079223633e+00,1.311465054750442505e-01
-9.691612124443054199e-01,-2.310489654541015625e+00,2.192043513059616089e-01
-9.703179001808166504e-01,-2.313246965408325195e+00,3.080059885978698730e-01
-9.713922739028930664e-01,-2.315808534622192383e+00,3.977484703063964844e-01
-9.726876020431518555e-01,-2.318896532058715820e+00,4.887953102588653564e-01
-9.738851189613342285e-01,-2.321751356124877930e+00,5.812637209892272949e-01
-9.194919466972351074e-01,-2.283147573471069336e+00,-6.595148444175720215e-01
-9.209120273590087891e-01,-2.286673545837402344e+00,-5.691233873367309570e-01
-9.219283461570739746e-01,-2.289197206497192383e+00,-4.797043502330780029e-01
-9.231269955635070801e-01,-2.292173385620117188e+00,-3.913795948028564453e-01
-9.242645502090454102e-01,-2.294998168945312500e+00,-3.037835657596588135e-01
-9.253766536712646484e-01,-2.297759532928466797e+00,-2.167177796363830566e-01
-9.264880418777465820e-01,-2.300519227981567383e+00,-1.299749910831451416e-01
-9.276129603385925293e-01,-2.303312301635742188e+00,-4.334235563874244690e-02
-9.287540912628173828e-01,-2.306145906448364258e+00,4.339567199349403381e-02
-9.299031496047973633e-01,-2.308999061584472656e+00,1.304540932178497314e-01
-9.310404062271118164e-01,-2.311822891235351562e+00,2.180441915988922119e-01
-9.321357607841491699e-01,-2.314542770385742188e+00,3.063706457614898682e-01
-9.334408044815063477e-01,-2.317783117294311523e+00,3.957523405551910400e-01
-9.343691468238830566e-01,-2.320088386535644531e+00,4.861776232719421387e-01
-9.358837008476257324e-01,-2.323849201202392578e+00,5.783759355545043945e-01
-8.819282054901123047e-01,-2.283662080764770508e+00,-6.559498310089111328e-01
-8.829936385154724121e-01,-2.286420822143554688e+00,-5.658569335937500000e-01
-8.839920759201049805e-01,-2.289006233215332031e+00,-4.769640266895294189e-01
-8.851600885391235352e-01,-2.292030572891235352e+00,-3.891520500183105469e-01
-8.862650394439697266e-01,-2.294891595840454102e+00,-3.020593822002410889e-01
-8.873410224914550781e-01,-2.297677993774414062e+00,-2.154901027679443359e-01
-8.884116411209106445e-01,-2.300450086593627930e+00,-1.292394101619720459e-01
-8.894903659820556641e-01,-2.303243398666381836e+00,-4.309706389904022217e-02
-8.905798196792602539e-01,-2.306064367294311523e+00,4.314985126256942749e-02
-8.916720151901245117e-01,-2.308892488479614258e+00,1.297137141227722168e-01
-8.927482366561889648e-01,-2.311679363250732422e+00,2.168032377958297729e-01
-8.937797546386718750e-01,-2.314350366592407227e+00,3.046205937862396240e-01
-8.950069546699523926e-01,-2.317528009414672852e+00,3.934811353683471680e-01
-8.961974978446960449e-01,-2.320611000061035156e+00,4.835495352745056152e-01
-8.972883820533752441e-01,-2.323435544967651367e+00,5.750175714492797852e-01
-8.444786667823791504e-01,-2.283408164978027344e+00,-6.523382067680358887e-01
-8.455282449722290039e-01,-2.286246299743652344e+00,-5.627608895301818848e-01
-8.467277288436889648e-01,-2.289489507675170898e+00,-4.744907319545745850e-01
-8.476474285125732422e-01,-2.291976213455200195e+00,-3.870432078838348389e-01
-8.487206101417541504e-01,-2.294878005981445312e+00,-3.004278540611267090e-01
-8.497610092163085938e-01,-2.297691345214843750e+00,-2.143286764621734619e-01
-8.507913947105407715e-01,-2.300477266311645508e+00,-1.285436302423477173e-01
-8.518244028091430664e-01,-2.303270578384399414e+00,-4.286504164338111877e-02
-8.528627157211303711e-01,-2.306077957153320312e+00,4.291729256510734558e-02
-8.538984656333923340e-01,-2.308878660202026367e+00,1.290130615234375000e-01
-8.549143075942993164e-01,-2.311625480651855469e+00,2.156284451484680176e-01
-8.561027050018310547e-01,-2.314838886260986328e+00,3.030409514904022217e-01
-8.570322990417480469e-01,-2.317352294921875000e+00,3.913284242153167725e-01
-8.581426143646240234e-01,-2.320354461669921875e+00,4.808874130249023438e-01
-8.591532707214355469e-01,-2.323087215423583984e+00,5.718293190002441406e-01
-8.079165220260620117e-01,-2.284528017044067383e+00,-6.492878794670104980e-01
-8.089475631713867188e-01,-2.287443399429321289e+00,-5.601480603218078613e-01
-8.101173043251037598e-01,-2.290750980377197266e+00,-4.723006486892700195e-01
-8.110160231590270996e-01,-2.293292284011840820e+00,-3.852656781673431396e-01
-8.120564222335815430e-01,-2.296234369277954102e+00,-2.990531325340270996e-01
-8.130612373352050781e-01,-2.299075365066528320e+00,-2.133503705263137817e-01
-8.140518069267272949e-01,-2.301876544952392578e+00,-1.279576271772384644e-01
-8.150401711463928223e-01,-2.304671287536621094e+00,-4.266962781548500061e-02
-8.160290122032165527e-01,-2.307467460632324219e+00,4.272139817476272583e-02
-8.170109391212463379e-01,-2.310244083404541016e+00,1.284227669239044189e-01
-8.179690241813659668e-01,-2.312953233718872070e+00,2.146382033824920654e-01
-8.190871477127075195e-01,-2.316114902496337891e+00,3.016422986984252930e-01
-8.199543356895446777e-01,-2.318567037582397461e+00,3.895117342472076416e-01
-8.209892511367797852e-01,-2.321493387222290039e+00,4.786390364170074463e-01
-8.222665190696716309e-01,-2.325105190277099609e+00,5.693706274032592773e-01
-7.715303301811218262e-01,-2.285172462463378906e+00,-6.462662816047668457e-01
-7.725051045417785645e-01,-2.288059711456298828e+00,-5.575341582298278809e-01
-7.734072208404541016e-01,-2.290731668472290039e+00,-4.699661135673522949e-01
-7.744423747062683105e-01,-2.293797731399536133e+00,-3.834490478038787842e-01
-7.752959728240966797e-01,-2.296325922012329102e+00,-2.975893318653106689e-01
-7.762657999992370605e-01,-2.299198389053344727e+00,-2.123089432716369629e-01
-7.772168517112731934e-01,-2.302015304565429688e+00,-1.273338943719863892e-01
-7.781606912612915039e-01,-2.304810762405395508e+00,-4.246164485812187195e-02
-7.790993452072143555e-01,-2.307590961456298828e+00,4.251286387443542480e-02
-7.800261974334716797e-01,-2.310336112976074219e+00,1.277941614389419556e-01
-7.810816168785095215e-01,-2.313462257385253906e+00,2.136260718107223511e-01
-7.819708585739135742e-01,-2.316096067428588867e+00,3.001514077186584473e-01
-7.830158472061157227e-01,-2.319191217422485352e+00,3.876940310001373291e-01
-7.840142250061035156e-01,-2.322148084640502930e+00,4.764115214347839355e-01
-7.849117517471313477e-01,-2.324806690216064453e+00,5.664883255958557129e-01
-7.352268099784851074e-01,-2.285043478012084961e+00,-6.431877017021179199e-01
-7.361875772476196289e-01,-2.288029432296752930e+00,-5.549022555351257324e-01
-7.370743155479431152e-01,-2.290785312652587891e+00,-4.677647352218627930e-01
-7.380819320678710938e-01,-2.293916940689086914e+00,-3.816638588905334473e-01
-7.389121651649475098e-01,-2.296497344970703125e+00,-2.962105572223663330e-01
-7.398473620414733887e-01,-2.299403905868530273e+00,-2.113284021615982056e-01
-7.407593131065368652e-01,-2.302237987518310547e+00,-1.267467588186264038e-01
-7.416588068008422852e-01,-2.305033683776855469e+00,-4.226584732532501221e-02
-7.425480484962463379e-01,-2.307797431945800781e+00,4.231652617454528809e-02
-7.434206604957580566e-01,-2.310509443283081055e+00,1.272021234035491943e-01
-7.444097399711608887e-01,-2.313583374023437500e+00,2.126315832138061523e-01
-7.452359795570373535e-01,-2.316151142120361328e+00,2.987456023693084717e-01
-7.462045550346374512e-01,-2.319161415100097656e+00,3.858640789985656738e-01
-7.471238374710083008e-01,-2.322018623352050781e+00,4.741424024105072021e-01
-7.482515573501586914e-01,-2.325523614883422852e+00,5.639955401420593262e-01
-6.995298862457275391e-01,-2.285796642303466797e+00,-6.405157446861267090e-01
-7.002229094505310059e-01,-2.288061141967773438e+00,-5.524227023124694824e-01
-7.012722492218017578e-01,-2.291490077972412109e+00,-4.658112823963165283e-01
-7.020732760429382324e-01,-2.294107437133789062e+00,-3.799846768379211426e-01
-7.029806375503540039e-01,-2.297072410583496094e+00,-2.949566841125488281e-01
-7.037804126739501953e-01,-2.299685716629028320e+00,-2.104069590568542480e-01
-7.046534419059753418e-01,-2.302538633346557617e+00,-1.261950880289077759e-01
-7.055091857910156250e-01,-2.305334806442260742e+00,-4.208189249038696289e-02
-7.063496112823486328e-01,-2.308080911636352539e+00,4.213202372193336487e-02
-7.072696685791015625e-01,-2.311087369918823242e+00,1.266636252403259277e-01
-7.080925703048706055e-01,-2.313776254653930664e+00,2.116961330175399780e-01
-7.090372443199157715e-01,-2.316863059997558594e+00,2.974978983402252197e-01
-7.097507119178771973e-01,-2.319194555282592773e+00,3.841399550437927246e-01
-7.108492255210876465e-01,-2.322783946990966797e+00,4.721727073192596436e-01
-7.116268277168273926e-01,-2.325324773788452148e+00,5.614195466041564941e-01
-6.638961434364318848e-01,-2.285769462585449219e+00,-6.377800107002258301e-01
-6.647914648056030273e-01,-2.288851976394653320e+00,-5.502598285675048828e-01
-6.656094789505004883e-01,-2.291668415069580078e+00,-4.638633430004119873e-01
-6.663923263549804688e-01,-2.294363498687744141e+00,-3.784084320068359375e-01
-6.672698259353637695e-01,-2.297384738922119141e+00,-2.937403321266174316e-01
-6.680405139923095703e-01,-2.300038337707519531e+00,-2.095428854227066040e-01
-6.688747406005859375e-01,-2.302910566329956055e+00,-1.256778836250305176e-01
-6.696869730949401855e-01,-2.305706977844238281e+00,-4.190941900014877319e-02
-6.704794168472290039e-01,-2.308435440063476562e+00,4.195901006460189819e-02
-6.713410615921020508e-01,-2.311402082443237305e+00,1.261412948369979858e-01
-6.721057891845703125e-01,-2.314034938812255859e+00,2.108180373907089233e-01
-6.729798913002014160e-01,-2.317044496536254883e+00,2.962539792060852051e-01
-6.738372445106506348e-01,-2.319996356964111328e+00,3.826360404491424561e-01
-6.746391654014587402e-01,-2.322757244110107422e+00,4.701561629772186279e-01
-6.756170988082885742e-01,-2.326124191284179688e+00,5.592204332351684570e-01
-6.287958621978759766e-01,-2.286606311798095703e+00,-6.354371309280395508e-01
-6.294500231742858887e-01,-2.288985252380371094e+00,-5.480697751045227051e-01
-6.302518844604492188e-01,-2.291901111602783203e+00,-4.620371460914611816e-01
-6.311404705047607422e-01,-2.295132398605346680e+00,-3.770066797733306885e-01
-6.318625807762145996e-01,-2.297758340835571289e+00,-2.926017343997955322e-01
-6.326580643653869629e-01,-2.300651073455810547e+00,-2.087523192167282104e-01
-6.333991885185241699e-01,-2.303346157073974609e+00,-1.251940727233886719e-01
-6.341683864593505859e-01,-2.306143522262573242e+00,-4.174808785319328308e-02
-6.349673867225646973e-01,-2.309048891067504883e+00,4.180068522691726685e-02
-6.357179284095764160e-01,-2.311778306961059570e+00,1.256523877382278442e-01
-6.365515589714050293e-01,-2.314809799194335938e+00,2.100370377302169800e-01
-6.372309923171997070e-01,-2.317280530929565430e+00,2.950877249240875244e-01
-6.380151510238647461e-01,-2.320132017135620117e+00,3.811132013797760010e-01
-6.389709711074829102e-01,-2.323607921600341797e+00,4.684291183948516846e-01
-6.396293044090270996e-01,-2.326001882553100586e+00,5.569329857826232910e-01
-5.937420725822448730e-01,-2.286653995513916016e+00,-6.330239176750183105e-01
-5.945742726325988770e-01,-2.289859056472778320e+00,-5.461853742599487305e-01
-5.953270792961120605e-01,-2.292758226394653320e+00,-4.604449868202209473e-01
-5.960373282432556152e-01,-2.295493841171264648e+00,-3.756261765956878662e-01
-5.967361927032470703e-01,-2.298185110092163086e+00,-2.915385365486145020e-01
-5.974983572959899902e-01,-2.301120519638061523e+00,-2.079976052045822144e-01
-5.982040166854858398e-01,-2.303838253021240234e+00,-1.247426494956016541e-01
-5.989305377006530762e-01,-2.306636333465576172e+00,-4.159755632281303406e-02
-5.996794700622558594e-01,-2.309520483016967773e+00,4.164956882596015930e-02
-6.003773212432861328e-01,-2.312208175659179688e+00,1.251958459615707397e-01
-6.011476516723632812e-01,-2.315174818038940430e+00,2.092679888010025024e-01
-6.019192337989807129e-01,-2.318146467208862305e+00,2.940707802772521973e-01
-6.026647686958312988e-01,-2.321017742156982422e+00,3.798028230667114258e-01
-6.033501625061035156e-01,-2.323657274246215820e+00,4.666503071784973145e-01
-6.041809320449829102e-01,-2.326856851577758789e+00,5.550101995468139648e-01
-5.591526627540588379e-01,-2.287545204162597656e+00,-6.309903264045715332e-01
-5.597683787345886230e-01,-2.290064334869384766e+00,-5.442674756050109863e-01
-5.605037212371826172e-01,-2.293072700500488281e+00,-4.588499069213867188e-01
-5.611942410469055176e-01,-2.295897483825683594e+00,-3.743394613265991211e-01
-5.618687868118286133e-01,-2.298657178878784180e+00,-2.905484437942504883e-01
-5.625971555709838867e-01,-2.301636934280395508e+00,-2.072951793670654297e-01
-5.632672309875488281e-01,-2.304378271102905273e+00,-1.243226155638694763e-01
-5.639513134956359863e-01,-2.307177066802978516e+00,-4.145748913288116455e-02
-5.646508336067199707e-01,-2.310039043426513672e+00,4.150891304016113281e-02
-5.652972459793090820e-01,-2.312683582305908203e+00,1.247706860303878784e-01
-5.660059452056884766e-01,-2.315582752227783203e+00,2.085511982440948486e-01
-5.667104721069335938e-01,-2.318465232849121094e+00,2.930521667003631592e-01
-5.673854947090148926e-01,-2.321226596832275391e+00,3.784692883491516113e-01
-5.682010650634765625e-01,-2.324563026428222656e+00,4.651512503623962402e-01
-5.689744949340820312e-01,-2.327727317810058594e+00,5.532186031341552734e-01
-5.245958566665649414e-01,-2.287637710571289062e+00,-6.288802623748779297e-01
-5.253643989562988281e-01,-2.290989160537719727e+00,-5.426445007324218750e-01
-5.260528326034545898e-01,-2.293991327285766602e+00,-4.574801921844482422e-01
-5.265904068946838379e-01,-2.296335697174072266e+00,-3.731437325477600098e-01
-5.273134112358093262e-01,-2.299488306045532227e+00,-2.896698117256164551e-01
-5.279332399368286133e-01,-2.302191257476806641e+00,-2.066433727741241455e-01
-5.285675525665283203e-01,-2.304957389831542969e+00,-1.239329949021339417e-01
-5.292095541954040527e-01,-2.307757139205932617e+00,-4.132756590843200684e-02
-5.298605561256408691e-01,-2.310595989227294922e+00,4.137840494513511658e-02
-5.305309295654296875e-01,-2.313519239425659180e+00,1.243933439254760742e-01
-5.311055779457092285e-01,-2.316025257110595703e+00,2.078850865364074707e-01
-5.318781137466430664e-01,-2.319394111633300781e+00,2.921773791313171387e-01
-5.325133204460144043e-01,-2.322163820266723633e+00,3.773407042026519775e-01
-5.330852866172790527e-01,-2.324658155441284180e+00,4.635959565639495850e-01
-5.337741971015930176e-01,-2.327662229537963867e+00,5.513309240341186523e-01
-4.902741611003875732e-01,-2.287784576416015625e+00,-6.269272565841674805e-01
-4.908525049686431885e-01,-2.290483474731445312e+00,-5.408051609992980957e-01
-4.915238320827484131e-01,-2.293616056442260742e+00,-4.559555947780609131e-01
-4.921455383300781250e-01,-2.296517133712768555e+00,-3.719904422760009766e-01
-4.927422404289245605e-01,-2.299301385879516602e+00,-2.887282371520996094e-01
-4.933331906795501709e-01,-2.302058935165405273e+00,-2.059765756130218506e-01
-4.939318299293518066e-01,-2.304852485656738281e+00,-1.235345676541328430e-01
-4.945318102836608887e-01,-2.307652235031127930e+00,-4.119470715522766113e-02
-4.951342642307281494e-01,-2.310463428497314453e+00,4.124489054083824158e-02
-4.957489073276519775e-01,-2.313331604003906250e+00,1.239890232682228088e-01
-4.963652491569519043e-01,-2.316207647323608398e+00,2.072425186634063721e-01
-4.969668984413146973e-01,-2.319015264511108398e+00,2.912037372589111328e-01
-4.975319504737854004e-01,-2.321651935577392578e+00,3.760617971420288086e-01
-4.982081949710845947e-01,-2.324807405471801758e+00,4.621562659740447998e-01
-4.988371729850769043e-01,-2.327742338180541992e+00,5.496023893356323242e-01
-4.563205838203430176e-01,-2.288745880126953125e+00,-6.253367662429809570e-01
-4.568650424480438232e-01,-2.291476726531982422e+00,-5.394404530525207520e-01
-4.573771953582763672e-01,-2.294045448303222656e+00,-4.546929597854614258e-01
-4.579755961894989014e-01,-2.297046899795532227e+00,-3.709764480590820312e-01
-4.585460424423217773e-01,-2.299907922744750977e+00,-2.879507243633270264e-01
-4.591062068939208984e-01,-2.302717447280883789e+00,-2.054264843463897705e-01
-4.596684575080871582e-01,-2.305537700653076172e+00,-1.232060268521308899e-01
-4.602268040180206299e-01,-2.308338165283203125e+00,-4.108515009284019470e-02
-4.607823491096496582e-01,-2.311124563217163086e+00,4.113474115729331970e-02
-4.613440930843353271e-01,-2.313942193984985352e+00,1.236551553010940552e-01
-4.619024991989135742e-01,-2.316742658615112305e+00,2.066776752471923828e-01
-4.624422788619995117e-01,-2.319450139999389648e+00,2.903974354267120361e-01
-4.630819559097290039e-01,-2.322658538818359375e+00,3.751127719879150391e-01
-4.637050926685333252e-01,-2.325783967971801758e+00,4.609837234020233154e-01
-4.642789661884307861e-01,-2.328662395477294922e+00,5.481943488121032715e-01
-4.223820567131042480e-01,-2.288890361785888672e+00,-6.236605048179626465e-01
-4.230410158634185791e-01,-2.292461156845092773e+00,-5.381916165351867676e-01
-4.235170185565948486e-01,-2.295040607452392578e+00,-4.536422193050384521e-01
-4.240676760673522949e-01,-2.298024654388427734e+00,-3.701161444187164307e-01
-4.245283305644989014e-01,-2.300520896911621094e+00,-2.872372567653656006e-01
-4.250565767288208008e-01,-2.303383588790893555e+00,-2.049221396446228027e-01
-4.255819916725158691e-01,-2.306230783462524414e+00,-1.229049488902091980e-01
-4.260989129543304443e-01,-2.309031963348388672e+00,-4.098474979400634766e-02
-4.266084730625152588e-01,-2.311793327331542969e+00,4.103375971317291260e-02
-4.271188676357269287e-01,-2.314558982849121094e+00,1.233487874269485474e-01
-4.277036488056182861e-01,-2.317728042602539062e+00,2.061983048915863037e-01
-4.282070398330688477e-01,-2.320456027984619141e+00,2.897263169288635254e-01
-4.287976324558258057e-01,-2.323656320571899414e+00,3.742443621158599854e-01
-4.292176067829132080e-01,-2.325932025909423828e+00,4.597482979297637939e-01
-4.298870563507080078e-01,-2.329560041427612305e+00,5.469011068344116211e-01
-3.886480033397674561e-01,-2.289210081100463867e+00,-6.221681833267211914e-01
-3.891481757164001465e-01,-2.292156219482421875e+00,-5.367573499679565430e-01
-3.896116912364959717e-01,-2.294886350631713867e+00,-4.524631202220916748e-01
-3.901382386684417725e-01,-2.297987937927246094e+00,-3.691730201244354248e-01
-3.906316757202148438e-01,-2.300894260406494141e+00,-2.865564227104187012e-01
-3.911066651344299316e-01,-2.303692102432250977e+00,-2.044306248426437378e-01
-3.915735781192779541e-01,-2.306442260742187500e+00,-1.226049661636352539e-01
-3.920490443706512451e-01,-2.309242725372314453e+00,-4.088469594717025757e-02
-3.925344645977020264e-01,-2.312102079391479492e+00,4.093531891703605652e-02
-3.930153250694274902e-01,-2.314934492111206055e+00,1.230563893914222717e-01
-3.934834599494934082e-01,-2.317691802978515625e+00,2.056729644536972046e-01
-3.939264714717864990e-01,-2.320301294326782227e+00,2.889733910560607910e-01
-3.944438099861145020e-01,-2.323348522186279297e+00,3.732472360134124756e-01
-3.949376642704010010e-01,-2.326257467269897461e+00,4.586482644081115723e-01
-3.955373764038085938e-01,-2.329789876937866211e+00,5.455700755119323730e-01
-3.550789654254913330e-01,-2.289598226547241211e+00,-6.208287477493286133e-01
-3.555463254451751709e-01,-2.292611837387084961e+00,-5.356174707412719727e-01
-3.559752702713012695e-01,-2.295377731323242188e+00,-4.515091478824615479e-01
-3.563885688781738281e-01,-2.298042774200439453e+00,-3.683246076107025146e-01
-3.568536639213562012e-01,-2.301041603088378906e+00,-2.859093546867370605e-01
-3.572972714900970459e-01,-2.303902149200439453e+00,-2.039745301008224487e-01
-3.577287793159484863e-01,-2.306684732437133789e+00,-1.223331391811370850e-01
-3.581631779670715332e-01,-2.309485673904418945e+00,-4.079405590891838074e-02
-3.586016595363616943e-01,-2.312313079833984375e+00,4.084399342536926270e-02
-3.590312004089355469e-01,-2.315082788467407227e+00,1.227785199880599976e-01
-3.594444692134857178e-01,-2.317747592926025391e+00,2.052003294229507446e-01
-3.599174022674560547e-01,-2.320797204971313477e+00,2.883640229701995850e-01
-3.603846728801727295e-01,-2.323810100555419922e+00,3.724545538425445557e-01
-3.608253598213195801e-01,-2.326651811599731445e+00,4.576608538627624512e-01
-3.612148761749267578e-01,-2.329163312911987305e+00,5.441569089889526367e-01
-3.217245936393737793e-01,-2.290534973144531250e+00,-6.197706460952758789e-01
-3.221556842327117920e-01,-2.293604135513305664e+00,-5.347172021865844727e-01
-3.225478827953338623e-01,-2.296396255493164062e+00,-4.507552087306976318e-01
-3.229215145111083984e-01,-2.299056529998779297e+00,-3.677085936069488525e-01
-3.232936561107635498e-01,-2.301705837249755859e+00,-2.853876948356628418e-01
-3.237036466598510742e-01,-2.304625034332275391e+00,-2.036074548959732056e-01
-3.240987062454223633e-01,-2.307437658309936523e+00,-1.221145391464233398e-01
-3.244922757148742676e-01,-2.310239553451538086e+00,-4.072115942835807800e-02
-3.248854279518127441e-01,-2.313038587570190430e+00,4.077049717307090759e-02
-3.252664804458618164e-01,-2.315751552581787109e+00,1.225545331835746765e-01
-3.256903886795043945e-01,-2.318769693374633789e+00,2.048570960760116577e-01
-3.261197805404663086e-01,-2.321826696395874023e+00,2.878824472427368164e-01
-3.265396356582641602e-01,-2.324815750122070312e+00,3.718285262584686279e-01
-3.269311487674713135e-01,-2.327603340148925781e+00,4.568807482719421387e-01
-3.272723555564880371e-01,-2.330032587051391602e+00,5.432099103927612305e-01
-2.884131371974945068e-01,-2.290961980819702148e+00,-6.187058091163635254e-01
-2.887249886989593506e-01,-2.293439149856567383e+00,-5.336605906486511230e-01
-2.890970408916473389e-01,-2.296394348144531250e+00,-4.498964846134185791e-01
-2.894487082958221436e-01,-2.299187898635864258e+00,-3.670293986797332764e-01
-2.898342609405517578e-01,-2.302250385284423828e+00,-2.849116325378417969e-01
-2.901707291603088379e-01,-2.304923057556152344e+00,-2.032460421323776245e-01
-2.905290722846984863e-01,-2.307769536972045898e+00,-1.218995451927185059e-01
-2.908819019794464111e-01,-2.310572147369384766e+00,-4.064946994185447693e-02
-2.912301123142242432e-01,-2.313338279724121094e+00,4.069813340902328491e-02
-2.916028201580047607e-01,-2.316298723220825195e+00,1.223500594496726990e-01
-2.919306457042694092e-01,-2.318902730941772461e+00,2.044787406921386719e-01
-2.922986149787902832e-01,-2.321825504302978516e+00,2.873341441154479980e-01
-2.926541268825531006e-01,-2.324649333953857422e+00,3.710939288139343262e-01
-2.930806279182434082e-01,-2.328037500381469727e+00,4.560958147048950195e-01
-2.933724522590637207e-01,-2.330355405807495117e+00,5.422506928443908691e-01
