4.041099250316619873e-01,-3.034524679183959961e+00,-2.678298950195312500e-01
4.047074913978576660e-01,-3.039011716842651367e+00,-1.606736779212951660e-01
4.053154289722442627e-01,-3.043576955795288086e+00,-5.359476059675216675e-02
4.059265851974487305e-01,-3.048166036605834961e+00,5.367556959390640259e-02
4.065320193767547607e-01,-3.052712202072143555e+00,1.613980233669281006e-01
4.071234166622161865e-01,-3.057153224945068359e+00,2.698270976543426514e-01
4.077763557434082031e-01,-3.062056303024291992e+00,3.792918622493743896e-01
4.084205627441406250e-01,-3.066893815994262695e+00,4.900358319282531738e-01
4.090325534343719482e-01,-3.071489334106445312e+00,6.023069024085998535e-01
4.097260534763336182e-01,-3.076696872711181641e+00,7.165811657905578613e-01
4.531385600566864014e-01,-3.066597938537597656e+00,-8.306134343147277832e-01
4.537938535213470459e-01,-3.071032762527465820e+00,-7.167013287544250488e-01
4.545139968395233154e-01,-3.075906276702880859e+00,-6.043868660926818848e-01
4.552004039287567139e-01,-3.080551385879516602e+00,-4.932086169719696045e-01
4.559241533279418945e-01,-3.085449457168579102e+00,-3.829586505889892578e-01
4.565865695476531982e-01,-3.089932441711425781e+00,-2.732690572738647461e-01
4.572747945785522461e-01,-3.094589948654174805e+00,-1.639413684606552124e-01
4.579629600048065186e-01,-3.099246978759765625e+00,-5.468488857150077820e-02
4.586426913738250732e-01,-3.103847026824951172e+00,5.476605892181396484e-02
4.593621492385864258e-01,-3.108716011047363281e+00,1.646897196769714355e-01
4.600171744823455811e-01,-3.113148689270019531e+00,2.753222584724426270e-01
4.607291817665100098e-01,-3.117967128753662109e+00,3.869946897029876709e-01
4.614196717739105225e-01,-3.122640132904052734e+00,4.999471902847290039e-01
4.622017145156860352e-01,-3.127932786941528320e+00,6.146095991134643555e-01
4.629433453083038330e-01,-3.132951736450195312e+00,7.311516404151916504e-01
5.079423785209655762e-01,-3.127283573150634766e+00,-8.489329218864440918e-01
5.087197422981262207e-01,-3.132069826126098633e+00,-7.325701117515563965e-01
5.094567537307739258e-01,-3.136607170104980469e+00,-6.176835894584655762e-01
5.102617144584655762e-01,-3.141563177108764648e+00,-5.040945410728454590e-01
5.110409259796142578e-01,-3.146360635757446289e+00,-3.913865983486175537e-01
5.118437409400939941e-01,-3.151303291320800781e+00,-2.793159186840057373e-01
5.126011967658996582e-01,-3.155966758728027344e+00,-1.675644367933273315e-01
5.133740901947021484e-01,-3.160725355148315430e+00,-5.589358136057853699e-02
5.141640901565551758e-01,-3.165589332580566406e+00,5.597959086298942566e-02
5.149020552635192871e-01,-3.170132875442504883e+00,1.683165878057479858e-01
5.156825184822082520e-01,-3.174937725067138672e+00,2.814107537269592285e-01
5.164476633071899414e-01,-3.179648876190185547e+00,3.955274224281311035e-01
5.173070430755615234e-01,-3.184939861297607422e+00,5.110547542572021484e-01
5.181434154510498047e-01,-3.190088987350463867e+00,6.282156109809875488e-01
5.189203619956970215e-01,-3.194872379302978516e+00,7.472592592239379883e-01
5.649294257164001465e-01,-3.189022064208984375e+00,-8.677986264228820801e-01
5.658423900604248047e-01,-3.194175958633422852e+00,-7.489139437675476074e-01
5.666946172714233398e-01,-3.198986530303955078e+00,-6.315004825592041016e-01
5.675224065780639648e-01,-3.203659534454345703e+00,-5.153091549873352051e-01
5.684132575988769531e-01,-3.208688259124755859e+00,-4.001108109951019287e-01
5.692813992500305176e-01,-3.213588953018188477e+00,-2.855295836925506592e-01
5.701419115066528320e-01,-3.218446493148803711e+00,-1.712975203990936279e-01
5.710033178329467773e-01,-3.223309278488159180e+00,-5.713897570967674255e-02
5.718672871589660645e-01,-3.228186368942260742e+00,5.722543224692344666e-02
5.727286934852600098e-01,-3.233048915863037109e+00,1.720747053623199463e-01
5.735758543014526367e-01,-3.237830877304077148e+00,2.876835167407989502e-01
5.745110511779785156e-01,-3.243110179901123047e+00,4.044030904769897461e-01
5.754377245903015137e-01,-3.248341083526611328e+00,5.224962234497070312e-01
5.763223767280578613e-01,-3.253334999084472656e+00,6.422292590141296387e-01
5.773189663887023926e-01,-3.258960723876953125e+00,7.641035914421081543e-01
6.251449584960937500e-01,-3.256839513778686523e+00,-8.885970711708068848e-01
6.262167692184448242e-01,-3.262423276901245117e+00,-7.669384479522705078e-01
6.270858645439147949e-01,-3.266951322555541992e+00,-6.466227769851684570e-01
6.281434297561645508e-01,-3.272460937500000000e+00,-5.277680158615112305e-01
6.290698051452636719e-01,-3.277287244796752930e+00,-4.097456634044647217e-01
6.300076842308044434e-01,-3.282173156738281250e+00,-2.923946082592010498e-01
6.309812068939208984e-01,-3.287244796752929688e+00,-1.754219383001327515e-01
6.319364905357360840e-01,-3.292221784591674805e+00,-5.851492658257484436e-02
6.328757405281066895e-01,-3.297114849090576172e+00,5.860189348459243774e-02
6.338700652122497559e-01,-3.302295207977294922e+00,1.762250959873199463e-01
6.348856091499328613e-01,-3.307585954666137695e+00,2.946585118770599365e-01
6.357680559158325195e-01,-3.312183380126953125e+00,4.141085743904113770e-01
6.368868350982666016e-01,-3.318011760711669922e+00,5.351142883300781250e-01
6.378076672554016113e-01,-3.322809219360351562e+00,6.576786637306213379e-01
6.388317942619323730e-01,-3.328144311904907227e+00,7.823882699012756348e-01
6.879093647003173828e-01,-3.325964450836181641e+00,-9.100503921508789062e-01
6.890012621879577637e-01,-3.331243515014648438e+00,-7.853547930717468262e-01
6.901632547378540039e-01,-3.336861610412597656e+00,-6.623474359512329102e-01
6.912546753883361816e-01,-3.342138528823852539e+00,-5.405456423759460449e-01
6.923101544380187988e-01,-3.347241640090942383e+00,-4.196877181529998779e-01
6.933567523956298828e-01,-3.352301597595214844e+00,-2.994954884052276611e-01
6.944133043289184570e-01,-3.357409954071044922e+00,-1.796782761812210083e-01
6.954671144485473633e-01,-3.362504959106445312e+00,-5.993490666151046753e-02
6.965354681015014648e-01,-3.367670774459838867e+00,6.002698093652725220e-02
6.976201534271240234e-01,-3.372915029525756836e+00,1.805080473423004150e-01
6.987064480781555176e-01,-3.378166913986206055e+00,3.018063008785247803e-01
6.997709870338439941e-01,-3.383313894271850586e+00,4.242105782032012939e-01
7.007832527160644531e-01,-3.388208150863647461e+00,5.479967594146728516e-01
7.019059062004089355e-01,-3.393635749816894531e+00,6.736168265342712402e-01
7.031759619712829590e-01,-3.399776458740234375e+00,8.015117049217224121e-01
7.535168528556823730e-01,-3.397278308868408203e+00,-9.324189424514770508e-01
7.545921206474304199e-01,-3.402126550674438477e+00,-8.045296669006347656e-01
7.559177279472351074e-01,-3.408102989196777344e+00,-6.785666346549987793e-01
7.570376992225646973e-01,-3.413152456283569336e+00,-5.537270307540893555e-01
7.582332491874694824e-01,-3.418542861938476562e+00,-4.299443960189819336e-01
7.593960165977478027e-01,-3.423784971237182617e+00,-3.068214952945709229e-01
7.605460882186889648e-01,-3.428970098495483398e+00,-1.840716898441314697e-01
7.617198228836059570e-01,-3.434262037277221680e+00,-6.140198931097984314e-02
7.629026174545288086e-01,-3.439594745635986328e+00,6.149733066558837891e-02
7.640794515609741211e-01,-3.444900751113891602e+00,1.849268525838851929e-01
7.652344703674316406e-01,-3.450108051300048828e+00,3.091804385185241699e-01
7.664995193481445312e-01,-3.455811500549316406e+00,4.346316456794738770e-01
7.675598263740539551e-01,-3.460592031478881836e+00,5.614233016967773438e-01
7.689353227615356445e-01,-3.466793775558471680e+00,6.902521848678588867e-01
7.702584862709045410e-01,-3.472759246826171875e+00,8.212327957153320312e-01
8.229873776435852051e-01,-3.474491119384765625e+00,-9.567458629608154297e-01
8.244404196739196777e-01,-3.480625629425048828e+00,-8.257989883422851562e-01
8.256264925003051758e-01,-3.485632896423339844e+00,-6.962847113609313965e-01
8.269266486167907715e-01,-3.491122007369995117e+00,-5.682382583618164062e-01
8.282812237739562988e-01,-3.496840715408325195e+00,-4.412376582622528076e-01
8.295291662216186523e-01,-3.502109527587890625e+00,-3.148722946643829346e-01
8.308160901069641113e-01,-3.507542371749877930e+00,-1.889085769653320312e-01
8.321016430854797363e-01,-3.512969732284545898e+00,-6.301571428775787354e-02
8.333694934844970703e-01,-3.518322229385375977e+00,6.311172991991043091e-02
8.347026705741882324e-01,-3.523950815200805664e+00,1.897922903299331665e-01
8.359220027923583984e-01,-3.529098510742187500e+00,3.172988593578338623e-01
8.372325897216796875e-01,-3.534631729125976562e+00,4.460062086582183838e-01
8.387014865875244141e-01,-3.540833234786987305e+00,5.763295888900756836e-01
8.399087190628051758e-01,-3.545929670333862305e+00,7.083294987678527832e-01
8.412352204322814941e-01,-3.551529884338378906e+00,8.426214456558227539e-01
8.957794308662414551e-01,-3.554207324981689453e+00,-9.821267724037170410e-01
8.972356915473937988e-01,-3.559985399246215820e+00,-8.475877642631530762e-01
8.986048102378845215e-01,-3.565417528152465820e+00,-7.147185206413269043e-01
9.000666141510009766e-01,-3.571217775344848633e+00,-5.833123922348022461e-01
9.014719724655151367e-01,-3.576793909072875977e+00,-4.529080390930175781e-01
9.028554558753967285e-01,-3.582283258438110352e+00,-3.232094645500183105e-01
9.042419195175170898e-01,-3.587784051895141602e+00,-1.939074248075485229e-01
9.056447744369506836e-01,-3.593350410461425781e+00,-6.468348205089569092e-02
9.070670008659362793e-01,-3.598993301391601562e+00,6.478506326675415039e-02
9.085000157356262207e-01,-3.604679107666015625e+00,1.948205381631851196e-01
9.099248647689819336e-01,-3.610332489013671875e+00,3.257401883602142334e-01
9.113118052482604980e-01,-3.615835666656494141e+00,4.578516781330108643e-01
9.128389358520507812e-01,-3.621894836425781250e+00,5.915898084640502930e-01
9.143089056015014648e-01,-3.627727270126342773e+00,7.272090315818786621e-01
9.156587719917297363e-01,-3.633083105087280273e+00,8.649913668632507324e-01
9.733800292015075684e-01,-3.641372442245483398e+00,-1.009959340095520020e+00
9.748454689979553223e-01,-3.646854639053344727e+00,-8.715030550956726074e-01
9.764283895492553711e-01,-3.652776241302490234e+00,-7.349566221237182617e-01
9.779459834098815918e-01,-3.658453464508056641e+00,-5.997861623764038086e-01
9.795389175415039062e-01,-3.664412498474121094e+00,-4.657303094863891602e-01
9.810245037078857422e-01,-3.669970035552978516e+00,-3.323538303375244141e-01
9.825696945190429688e-01,-3.675750494003295898e+00,-1.994013935327529907e-01
9.840985536575317383e-01,-3.681469917297363281e+00,-6.651645898818969727e-02
9.856138229370117188e-01,-3.687138557434082031e+00,6.661887466907501221e-02
9.872207045555114746e-01,-3.693149566650390625e+00,2.003452479839324951e-01
9.887112379074096680e-01,-3.698725938796997070e+00,3.349579572677612305e-01
9.903219938278198242e-01,-3.704751491546630859e+00,4.708572328090667725e-01
9.918937683105468750e-01,-3.710631608963012695e+00,6.083405017852783203e-01
9.936426877975463867e-01,-3.717174291610717773e+00,7.479138374328613281e-01
9.953032135963439941e-01,-3.723386049270629883e+00,8.897920846939086914e-01
1.054376602172851562e+00,-3.729580879211425781e+00,-1.038504123687744141e+00
1.056106090545654297e+00,-3.735698699951171875e+00,-8.962551355361938477e-01
1.057924270629882812e+00,-3.742130041122436523e+00,-7.559044361114501953e-01
1.059635877609252930e+00,-3.748184442520141602e+00,-6.169204711914062500e-01
1.061293959617614746e+00,-3.754049301147460938e+00,-4.790043830871582031e-01
1.062939763069152832e+00,-3.759871244430541992e+00,-3.418381214141845703e-01
1.064602613449096680e+00,-3.765752792358398438e+00,-2.050894498825073242e-01
1.066264033317565918e+00,-3.771629571914672852e+00,-6.841419637203216553e-02
1.067952156066894531e+00,-3.777601003646850586e+00,6.852251291275024414e-02
1.069666981697082520e+00,-3.783666610717773438e+00,2.060650587081909180e-01
1.071385741233825684e+00,-3.789746284484863281e+00,3.445542752742767334e-01
1.073073148727416992e+00,-3.795715093612670898e+00,4.843207895755767822e-01
1.074681758880615234e+00,-3.801405191421508789e+00,6.256801486015319824e-01
1.076442480087280273e+00,-3.807633399963378906e+00,7.691359519958496094e-01
1.078403353691101074e+00,-3.814569473266601562e+00,9.151775240898132324e-01
1.141283988952636719e+00,-3.826900959014892578e+00,-1.070042014122009277e+00
1.143280148506164551e+00,-3.833594322204589844e+00,-9.235733151435852051e-01
1.145135998725891113e+00,-3.839817285537719727e+00,-7.788681983947753906e-01
1.146923780441284180e+00,-3.845812082290649414e+00,-6.356261372566223145e-01
1.148805260658264160e+00,-3.852120876312255859e+00,-4.935655593872070312e-01
1.150631666183471680e+00,-3.858245372772216797e+00,-3.522433340549468994e-01
1.152433633804321289e+00,-3.864287614822387695e+00,-2.113325297832489014e-01
1.154265403747558594e+00,-3.870429515838623047e+00,-7.049880921840667725e-02
1.156102776527404785e+00,-3.876590490341186523e+00,7.061103731393814087e-02
1.157926201820373535e+00,-3.882704734802246094e+00,2.123397439718246460e-01
1.159711480140686035e+00,-3.888691186904907227e+00,3.550229072570800781e-01
1.161643385887145996e+00,-3.895169019699096680e+00,4.990812242031097412e-01
1.163538813591003418e+00,-3.901525020599365234e+00,6.448341608047485352e-01
1.165331244468688965e+00,-3.907535076141357422e+00,7.926040887832641602e-01
1.167294383049011230e+00,-3.914117813110351562e+00,9.429727196693420410e-01
1.217096209526062012e+00,-3.877584457397460938e+00,-1.088973164558410645e+00
1.234523892402648926e+00,-3.933107852935791016e+00,-9.517073035240173340e-01
1.236664533615112305e+00,-3.939928054809570312e+00,-8.026829361915588379e-01
1.238687872886657715e+00,-3.946373939514160156e+00,-6.551100015640258789e-01
1.240655899047851562e+00,-3.952644109725952148e+00,-5.086686015129089355e-01
1.242617726325988770e+00,-3.958894491195678711e+00,-3.630188405513763428e-01
1.244616150856018066e+00,-3.965260982513427734e+00,-2.178065925836563110e-01
1.246601104736328125e+00,-3.971585035324096680e+00,-7.265889644622802734e-02
1.248546242713928223e+00,-3.977782487869262695e+00,7.277227938175201416e-02
1.250570178031921387e+00,-3.984230279922485352e+00,2.188485413789749146e-01
1.252606391906738281e+00,-3.990717649459838867e+00,3.659369349479675293e-01
1.254613518714904785e+00,-3.997112035751342773e+00,5.143912434577941895e-01
1.256535887718200684e+00,-4.003236770629882812e+00,6.645493507385253906e-01
1.258633852005004883e+00,-4.009920597076416016e+00,8.169425129890441895e-01
1.260959386825561523e+00,-4.017329692840576172e+00,9.720867872238159180e-01
1.267711639404296875e+00,-3.845342159271240234e+00,-1.084903001785278320e+00
1.332730650901794434e+00,-4.042563915252685547e+00,-9.827080368995666504e-01
1.334936618804931641e+00,-4.049255371093750000e+00,-8.287641406059265137e-01
1.337231636047363281e+00,-4.056217193603515625e+00,-6.764523386955261230e-01
1.339301466941833496e+00,-4.062495231628417969e+00,-5.252186655998229980e-01
1.341478824615478516e+00,-4.069099903106689453e+00,-3.748466670513153076e-01
1.343632936477661133e+00,-4.075634002685546875e+00,-2.249025851488113403e-01
1.345783948898315430e+00,-4.082159042358398438e+00,-7.502653449773788452e-02
1.347936034202575684e+00,-4.088686943054199219e+00,7.514651119709014893e-02
1.350077390670776367e+00,-4.095181941986083984e+00,2.259812802076339722e-01
1.352380633354187012e+00,-4.102168560028076172e+00,3.778929412364959717e-01
1.354451656341552734e+00,-4.108450412750244141e+00,5.311599373817443848e-01
1.356683611869812012e+00,-4.115220546722412109e+00,6.862922906875610352e-01
1.359149813652038574e+00,-4.122701168060302734e+00,8.437963724136352539e-01
1.361501693725585938e+00,-4.129835128784179688e+00,1.003922820091247559e+00
1.324195265769958496e+00,-3.831373691558837891e+00,-1.086198329925537109e+00
1.436030268669128418e+00,-4.154952526092529297e+00,-1.014921188354492188e+00
1.438302874565124512e+00,-4.161528110504150391e+00,-8.558689355850219727e-01
1.440719246864318848e+00,-4.168519496917724609e+00,-6.985483765602111816e-01
1.443071484565734863e+00,-4.175324916839599609e+00,-5.424206852912902832e-01
1.445481657981872559e+00,-4.182298660278320312e+00,-3.871408700942993164e-01
1.447801828384399414e+00,-4.189011573791503906e+00,-2.322787642478942871e-01
1.450128793716430664e+00,-4.195744514465332031e+00,-7.748769223690032959e-02
1.452503204345703125e+00,-4.202614784240722656e+00,7.761456817388534546e-02
1.454764246940612793e+00,-4.209156513214111328e+00,2.333957850933074951e-01
1.457141399383544922e+00,-4.216034412384033203e+00,3.902636468410491943e-01
1.459484815597534180e+00,-4.222814559936523438e+00,5.485901236534118652e-01
1.462051033973693848e+00,-4.230239868164062500e+00,7.088913321495056152e-01
1.464541673660278320e+00,-4.237446308135986328e+00,8.714824318885803223e-01
1.466855287551879883e+00,-4.244140148162841797e+00,1.036706924438476562e+00
1.381834387779235840e+00,-3.820157289505004883e+00,-1.088514328002929688e+00
1.547274827957153320e+00,-4.277526855468750000e+00,-1.050164341926574707e+00
1.549877285957336426e+00,-4.284721374511718750e+00,-8.856768608093261719e-01
1.552383303642272949e+00,-4.291649341583251953e+00,-7.228317260742187500e-01
1.555000185966491699e+00,-4.298883914947509766e+00,-5.613062977790832520e-01
1.557545661926269531e+00,-4.305921077728271484e+00,-4.006067812442779541e-01
1.560061097145080566e+00,-4.312875270843505859e+00,-2.403604984283447266e-01
1.562618851661682129e+00,-4.319945812225341797e+00,-8.018631488084793091e-02
1.565184235572814941e+00,-4.327038288116455078e+00,8.031795918941497803e-02
1.567733287811279297e+00,-4.334084987640380859e+00,2.415425479412078857e-01
1.570234298706054688e+00,-4.340999126434326172e+00,4.038703441619873047e-01
1.572920560836791992e+00,-4.348425865173339844e+00,5.677750110626220703e-01
1.575552940368652344e+00,-4.355702877044677734e+00,7.336201071739196777e-01
1.578041434288024902e+00,-4.362582683563232422e+00,9.017712473869323730e-01
1.581181168556213379e+00,-4.371262550354003906e+00,1.073177099227905273e+00
1.434288620948791504e+00,-3.794491052627563477e+00,-1.086939215660095215e+00
1.667378187179565430e+00,-4.411142349243164062e+00,-1.088715791702270508e+00
1.670110225677490234e+00,-4.418370246887207031e+00,-9.181501269340515137e-01
1.672983407974243164e+00,-4.425971508026123047e+00,-7.494116425514221191e-01
1.675768852233886719e+00,-4.433340549468994141e+00,-5.819346308708190918e-01
1.678531646728515625e+00,-4.440649509429931641e+00,-4.153341352939605713e-01
1.681326150894165039e+00,-4.448042869567871094e+00,-2.492091804742813110e-01
1.684096217155456543e+00,-4.455370903015136719e+00,-8.313897997140884399e-02
1.686802625656127930e+00,-4.462531089782714844e+00,8.327259123325347900e-02
1.689599752426147461e+00,-4.469931125640869141e+00,2.504355013370513916e-01
1.692399621009826660e+00,-4.477338314056396484e+00,4.187656342983245850e-01
1.695146918296813965e+00,-4.484606266021728516e+00,5.886639356613159180e-01
1.698128223419189453e+00,-4.492493629455566406e+00,7.606753110885620117e-01
1.701004862785339355e+00,-4.500103950500488281e+00,9.351345896720886230e-01
1.704137802124023438e+00,-4.508392333984375000e+00,1.112717986106872559e+00
1.486652374267578125e+00,-3.769021511077880859e+00,-1.085627794265747070e+00
1.775886058807373047e+00,-4.502298355102539062e+00,-1.117373108863830566e+00
1.797443747520446777e+00,-4.556951999664306641e+00,-9.521965980529785156e-01
1.800451159477233887e+00,-4.564577102661132812e+00,-7.771644592285156250e-01
1.803559541702270508e+00,-4.572457313537597656e+00,-6.035222411155700684e-01
1.806491732597351074e+00,-4.579891204833984375e+00,-4.307316839694976807e-01
1.809512972831726074e+00,-4.587550640106201172e+00,-2.584500014781951904e-01
1.812508940696716309e+00,-4.595146179199218750e+00,-8.622251451015472412e-02
1.815485000610351562e+00,-4.602691173553466797e+00,8.636409044265747070e-02
1.818614602088928223e+00,-4.610625743865966797e+00,2.597499787807464600e-01
1.821546912193298340e+00,-4.618059635162353516e+00,4.343213737010955811e-01
1.824667572975158691e+00,-4.625971317291259766e+00,6.105856299400329590e-01
1.827704429626464844e+00,-4.633670330047607422e+00,7.889283299446105957e-01
1.831000447273254395e+00,-4.642026424407958984e+00,9.699732661247253418e-01
1.834106206893920898e+00,-4.649900436401367188e+00,1.154004812240600586e+00
1.541321396827697754e+00,-3.749496936798095703e+00,-1.086247324943542480e+00
1.835024237632751465e+00,-4.463973522186279297e+00,-1.114266157150268555e+00
1.938729047775268555e+00,-4.716251373291015625e+00,-9.911798238754272461e-01
1.941923499107360840e+00,-4.724021911621093750e+00,-8.089612126350402832e-01
1.945270538330078125e+00,-4.732163906097412109e+00,-6.282128691673278809e-01
1.948561310768127441e+00,-4.740169525146484375e+00,-4.483827650547027588e-01
1.951848149299621582e+00,-4.748165130615234375e+00,-2.690449357032775879e-01
1.955098152160644531e+00,-4.756071567535400391e+00,-8.975798636674880981e-02
1.958369731903076172e+00,-4.764029979705810547e+00,8.990818262100219727e-02
1.961654901504516602e+00,-4.772021293640136719e+00,2.703967094421386719e-01
1.964912414550781250e+00,-4.779945850372314453e+00,4.521453082561492920e-01
1.968419909477233887e+00,-4.788478374481201172e+00,6.356887817382812500e-01
1.971884727478027344e+00,-4.796907424926757812e+00,8.214423656463623047e-01
1.975193619728088379e+00,-4.804956436157226562e+00,1.009822368621826172e+00
1.978749036788940430e+00,-4.813605785369873047e+00,1.201538920402526855e+00
1.596016764640808105e+00,-3.729835748672485352e+00,-1.087058067321777344e+00
1.903731703758239746e+00,-4.448954582214355469e+00,-1.117204546928405762e+00
2.088806152343750000e+00,-4.881467342376708984e+00,-1.032079815864562988e+00
2.092432498931884766e+00,-4.889941692352294922e+00,-8.424164652824401855e-01
2.095968008041381836e+00,-4.898204326629638672e+00,-6.541709899902343750e-01
2.099494695663452148e+00,-4.906445503234863281e+00,-4.669059514999389648e-01
2.103077650070190430e+00,-4.914819240570068359e+00,-2.801650464534759521e-01
2.106658220291137695e+00,-4.923186779022216797e+00,-9.347132593393325806e-02
2.110184192657470703e+00,-4.931427001953125000e+00,9.362777322530746460e-02
2.113844156265258789e+00,-4.939980030059814453e+00,2.815993130207061768e-01
2.117526769638061523e+00,-4.948586463928222656e+00,4.709161520004272461e-01
2.121163606643676758e+00,-4.957085132598876953e+00,6.620347499847412109e-01
2.124659061431884766e+00,-4.965254306793212891e+00,8.553909063339233398e-01
2.128396749496459961e+00,-4.973989009857177734e+00,1.051641464233398438e+00
2.132437705993652344e+00,-4.983432769775390625e+00,1.251420617103576660e+00
1.645139217376708984e+00,-3.697407007217407227e+00,-1.084358692169189453e+00
1.964218020439147949e+00,-4.414527893066406250e+00,-1.115505218505859375e+00
2.252210378646850586e+00,-5.061783313751220703e+00,-1.076909065246582031e+00
2.256096839904785156e+00,-5.070518016815185547e+00,-8.789984583854675293e-01
2.260097503662109375e+00,-5.079509258270263672e+00,-6.826353669166564941e-01
2.263896465301513672e+00,-5.088047504425048828e+00,-4.872212707996368408e-01
2.267804622650146484e+00,-5.096830844879150391e+00,-2.923608720302581787e-01
2.271691083908081055e+00,-5.105565547943115234e+00,-9.754131734371185303e-02
2.275563240051269531e+00,-5.114267826080322266e+00,9.770756959915161133e-02
2.279629230499267578e+00,-5.123406410217285156e+00,2.938852906227111816e-01
2.283462524414062500e+00,-5.132021427154541016e+00,4.914321005344390869e-01
2.287523508071899414e+00,-5.141148567199707031e+00,6.909191012382507324e-01
2.291481256484985352e+00,-5.150043487548828125e+00,8.927845358848571777e-01
2.295737981796264648e+00,-5.159610271453857422e+00,1.097722172737121582e+00
2.299748420715332031e+00,-5.168623924255371094e+00,1.306057453155517578e+00
1.702344417572021484e+00,-3.683124780654907227e+00,-1.087204694747924805e+00
2.026172161102294922e+00,-4.383745670318603516e+00,-1.114941000938415527e+00
2.430597782135009766e+00,-5.258745193481445312e+00,-1.126099705696105957e+00
2.435050487518310547e+00,-5.268378257751464844e+00,-9.192464351654052734e-01
2.439160585403442383e+00,-5.277270793914794922e+00,-7.138313651084899902e-01
2.443447589874267578e+00,-5.286546230316162109e+00,-5.095259547233581543e-01
2.447724103927612305e+00,-5.295798301696777344e+00,-3.057522773742675781e-01
2.451949357986450195e+00,-5.304940223693847656e+00,-1.020103991031646729e-01
2.456201553344726562e+00,-5.314140319824218750e+00,1.021873056888580322e-01
2.460465192794799805e+00,-5.323364257812500000e+00,3.073437809944152832e-01
2.465015649795532227e+00,-5.333209991455078125e+00,5.140234827995300293e-01
2.469201087951660156e+00,-5.342265605926513672e+00,7.226228713989257812e-01
2.473645448684692383e+00,-5.351881027221679688e+00,9.338162541389465332e-01
2.477880716323852539e+00,-5.361044406890869141e+00,1.148005962371826172e+00
2.483020067214965820e+00,-5.372163772583007812e+00,1.366330623626708984e+00
1.753940820693969727e+00,-3.656419754028320312e+00,-1.086621046066284180e+00
2.089671611785888672e+00,-4.356313705444335938e+00,-1.115457177162170410e+00
2.582458019256591797e+00,-5.383619785308837891e+00,-1.160636663436889648e+00
2.630723953247070312e+00,-5.484239101409912109e+00,-9.633820652961730957e-01
2.635425090789794922e+00,-5.494039058685302734e+00,-7.481784224510192871e-01
2.640087842941284180e+00,-5.503759860992431641e+00,-5.340487957000732422e-01
2.644788026809692383e+00,-5.513558387756347656e+00,-3.204773962497711182e-01
2.649468183517456055e+00,-5.523314952850341797e+00,-1.069278791546821594e-01
2.654057025909423828e+00,-5.532881259918212891e+00,1.071130782365798950e-01
2.658786058425903320e+00,-5.542739391326904297e+00,3.221735656261444092e-01
2.663516044616699219e+00,-5.552600383758544922e+00,5.387879610061645508e-01
2.668160915374755859e+00,-5.562283039093017578e+00,7.574719190597534180e-01
2.673118352890014648e+00,-5.572618484497070312e+00,9.789071083068847656e-01
2.677890300750732422e+00,-5.582566261291503906e+00,1.203526973724365234e+00
1.799800753593444824e+00,-3.618295192718505859e+00,-1.082836151123046875e+00
2.144657611846923828e+00,-4.311590671539306641e+00,-1.111751914024353027e+00
2.651141405105590820e+00,-5.329818725585937500e+00,-1.157100319862365723e+00
2.845870971679687500e+00,-5.721300601959228516e+00,-1.012076973915100098e+00
2.850973129272460938e+00,-5.731557846069335938e+00,-7.860003709793090820e-01
2.856168270111083984e+00,-5.742002487182617188e+00,-5.610756874084472656e-01
2.861249208450317383e+00,-5.752216815948486328e+00,-3.366954922676086426e-01
2.866357326507568359e+00,-5.762485980987548828e+00,-1.123408377170562744e-01
2.871589183807373047e+00,-5.773004055023193359e+00,1.125458925962448120e-01
2.876643657684326172e+00,-5.783165931701660156e+00,3.385070264339447021e-01
2.881923198699951172e+00,-5.793779850006103516e+00,5.661351084709167480e-01
2.887148141860961914e+00,-5.804283618927001953e+00,7.959736585617065430e-01
2.892740726470947266e+00,-5.815526962280273438e+00,1.028745412826538086e+00
2.898163080215454102e+00,-5.826427936553955078e+00,1.264913916587829590e+00
1.853967308998107910e+00,-3.597144365310668945e+00,-1.084336876869201660e+00
2.211327791213989258e+00,-4.290509700775146484e+00,-1.114363551139831543e+00
2.721763134002685547e+00,-5.280877590179443359e+00,-1.154814720153808594e+00
3.082854270935058594e+00,-5.981482028961181641e+00,-1.065798759460449219e+00
3.088432073593139648e+00,-5.992304325103759766e+00,-8.277354240417480469e-01
3.094138860702514648e+00,-6.003376483917236328e+00,-5.908827185630798340e-01
3.099762916564941406e+00,-6.014288902282714844e+00,-3.545961081981658936e-01
3.105448246002197266e+00,-6.025319576263427734e+00,-1.183192729949951172e-01
3.111106395721435547e+00,-6.036297321319580078e+00,1.185348406434059143e-01
3.116709232330322266e+00,-6.047168731689453125e+00,3.565346598625183105e-01
3.122587203979492188e+00,-6.058573246002197266e+00,5.963154435157775879e-01
3.128438949584960938e+00,-6.069927215576171875e+00,8.384577035903930664e-01
3.134123563766479492e+00,-6.080956459045410156e+00,1.083523511886596680e+00
3.140144586563110352e+00,-6.092638492584228516e+00,1.332329392433166504e+00
1.903778433799743652e+00,-3.567466259002685547e+00,-1.083493828773498535e+00
2.271120786666870117e+00,-4.255824089050292969e+00,-1.113683819770812988e+00
2.796449899673461914e+00,-5.240231513977050781e+00,-1.154561042785644531e+00
3.634807825088500977e+00,-6.811219692230224609e+00,-1.222789049148559570e+00
5.185478687286376953e+00,-9.717001914978027344e+00,-1.352353453636169434e+00
7.110356807708740234e+00,-1.332400703430175781e+01,-1.321298003196716309e+00
7.118744373321533203e+00,-1.333972454071044922e+01,-7.924224138259887695e-01
7.127081871032714844e+00,-1.335534763336181641e+01,-2.642352879047393799e-01
7.135392665863037109e+00,-1.337092113494873047e+01,2.645434141159057617e-01
7.143611907958984375e+00,-1.338632392883300781e+01,7.951905727386474609e-01
1.954946756362915039e+00,-3.540407419204711914e+00,-1.083663225173950195e+00
2.332567214965820312e+00,-4.224277973175048828e+00,-1.114051342010498047e+00
2.873215198516845703e+00,-5.203391075134277344e+00,-1.155386805534362793e+00
3.736902952194213867e+00,-6.767529487609863281e+00,-1.224422574043273926e+00
5.282716274261474609e+00,-9.566996574401855469e+00,-1.341862559318542480e+00
7.182042598724365234e+00,-1.300667476654052734e+01,-1.299890398979187012e+00
7.190256595611572266e+00,-1.302155113220214844e+01,-7.795556783676147461e-01
7.198691368103027344e+00,-1.303682613372802734e+01,-2.599453330039978027e-01
7.207334995269775391e+00,-1.305247974395751953e+01,2.602574527263641357e-01
7.215820312500000000e+00,-1.306784725189208984e+01,7.823272347450256348e-01
2.007487535476684570e+00,-3.515692234039306641e+00,-1.084782242774963379e+00
2.385425806045532227e+00,-4.177571296691894531e+00,-1.110624432563781738e+00
2.952085494995117188e+00,-5.169957160949707031e+00,-1.157226800918579102e+00
3.814965486526489258e+00,-6.681109428405761719e+00,-1.218541622161865234e+00
5.438167572021484375e+00,-9.523806571960449219e+00,-1.346584558486938477e+00
7.252833366394042969e+00,-1.270181274414062500e+01,-1.279666423797607422e+00
7.261346340179443359e+00,-1.271672058105468750e+01,-7.674501538276672363e-01
7.269861221313476562e+00,-1.273163318634033203e+01,-2.559085786342620850e-01
7.278398513793945312e+00,-1.274658393859863281e+01,2.562091052532196045e-01
7.286896705627441406e+00,-1.276146697998046875e+01,7.701505422592163086e-01
2.055691957473754883e+00,-3.483370304107666016e+00,-1.083777070045471191e+00
2.445831060409545898e+00,-4.144461154937744141e+00,-1.111015200614929199e+00
3.016478061676025391e+00,-5.111422538757324219e+00,-1.153670787811279297e+00
3.931282758712768555e+00,-6.661559104919433594e+00,-1.225113391876220703e+00
5.579722881317138672e+00,-9.454841613769531250e+00,-1.347987651824951172e+00
7.317599296569824219e+00,-1.239967346191406250e+01,-1.259649991989135742e+00
7.326382160186767578e+00,-1.241455554962158203e+01,-7.554658651351928711e-01
7.334975719451904297e+00,-1.242911720275878906e+01,-2.519124448299407959e-01
7.343418121337890625e+00,-1.244342327117919922e+01,2.522024214267730713e-01
7.352066040039062500e+00,-1.245807743072509766e+01,7.581142187118530273e-01
2.102230072021484375e+00,-3.448498725891113281e+00,-1.082178592681884766e+00
2.511444091796875000e+00,-4.119773387908935547e+00,-1.113919615745544434e+00
3.099259376525878906e+00,-5.084025382995605469e+00,-1.157381176948547363e+00
4.013784408569335938e+00,-6.584212303161621094e+00,-1.221329331398010254e+00
5.687415599822998047e+00,-9.329637527465820312e+00,-1.341605901718139648e+00
7.382704257965087891e+00,-1.211058998107910156e+01,-1.240890622138977051e+00
7.391358375549316406e+00,-1.212478542327880859e+01,-7.441941499710083008e-01
7.400042057037353516e+00,-1.213902950286865234e+01,-2.481543421745300293e-01
7.408760547637939453e+00,-1.215333175659179688e+01,2.484467178583145142e-01
7.417569160461425781e+00,-1.216778182983398438e+01,7.468331456184387207e-01
2.151684522628784180e+00,-3.418558597564697266e+00,-1.082336902618408203e+00
2.569954156875610352e+00,-4.083097934722900391e+00,-1.113835096359252930e+00
3.169997215270996094e+00,-5.036435604095458984e+00,-1.156758189201354980e+00
4.101657390594482422e+00,-6.516641139984130859e+00,-1.219560503959655762e+00
5.802175521850585938e+00,-9.218394279479980469e+00,-1.337414622306823730e+00
7.447796821594238281e+00,-1.183292865753173828e+01,-1.223238229751586914e+00
7.456464767456054688e+00,-1.184670066833496094e+01,-7.336014509201049805e-01
7.465222835540771484e+00,-1.186061477661132812e+01,-2.446220964193344116e-01
7.474090576171875000e+00,-1.187470340728759766e+01,2.449126839637756348e-01
7.483001708984375000e+00,-1.188886165618896484e+01,7.362122535705566406e-01
2.202826023101806641e+00,-3.391162872314453125e+00,-1.083534836769104004e+00
2.618313074111938477e+00,-4.030788421630859375e+00,-1.109675288200378418e+00
3.243128061294555664e+00,-4.992666244506835938e+00,-1.157248497009277344e+00
4.192360877990722656e+00,-6.453972816467285156e+00,-1.218937516212463379e+00
5.920236110687255859e+00,-9.113967895507812500e+00,-1.334421634674072266e+00
7.509493827819824219e+00,-1.156056594848632812e+01,-1.206070542335510254e+00
7.518428802490234375e+00,-1.157432079315185547e+01,-7.233244180679321289e-01
7.527273654937744141e+00,-1.158793735504150391e+01,-2.411956340074539185e-01
7.536031723022460938e+00,-1.160142040252685547e+01,2.414762675762176514e-01
7.545361042022705078e+00,-1.161578273773193359e+01,7.259154915809631348e-01
2.247093677520751953e+00,-3.353258609771728516e+00,-1.081589818000793457e+00
2.680570125579833984e+00,-4.000120162963867188e+00,-1.111681103706359863e+00
3.299495697021484375e+00,-4.923720836639404297e+00,-1.152096390724182129e+00
4.286376953125000000e+00,-6.396408557891845703e+00,-1.219528198242187500e+00
6.109065532684326172e+00,-9.116342544555664062e+00,-1.347434163093566895e+00
7.568899631500244141e+00,-1.129480075836181641e+01,-1.189524769783020020e+00
7.577880859375000000e+00,-1.130820274353027344e+01,-7.133990526199340820e-01
7.586791992187500000e+00,-1.132150173187255859e+01,-2.378858625888824463e-01
7.595657348632812500e+00,-1.133473014831542969e+01,2.381638437509536743e-01
7.604408264160156250e+00,-1.134778976440429688e+01,7.158963680267333984e-01
2.292802810668945312e+00,-3.317784309387207031e+00,-1.080622434616088867e+00
2.732217311859130859e+00,-3.953636169433593750e+00,-1.109517574310302734e+00
3.377669811248779297e+00,-4.887633800506591797e+00,-1.154846549034118652e+00
4.384223937988281250e+00,-6.344161033630371094e+00,-1.221406102180480957e+00
6.168792247772216797e+00,-8.926507949829101562e+00,-1.332289934158325195e+00
7.626030921936035156e+00,-1.103519535064697266e+01,-1.173559784889221191e+00
7.635072708129882812e+00,-1.104827880859375000e+01,-7.038235068321228027e-01
7.644049167633056641e+00,-1.106126880645751953e+01,-2.346928268671035767e-01
7.653000831604003906e+00,-1.107422256469726562e+01,2.349676638841629028e-01
7.662355422973632812e+00,-1.108775901794433594e+01,7.063385844230651855e-01
2.340183258056640625e+00,-3.284814119338989258e+00,-1.080682992935180664e+00
2.785674571990966797e+00,-3.910130977630615234e+00,-1.108384609222412109e+00
3.438193798065185547e+00,-4.826044082641601562e+00,-1.151804208755493164e+00
4.450497627258300781e+00,-6.246971130371093750e+00,-1.214834451675415039e+00
6.300650596618652344e+00,-8.843951225280761719e+00,-1.333291769027709961e+00
7.681256294250488281e+00,-1.078184795379638672e+01,-1.158190727233886719e+00
7.690234184265136719e+00,-1.079444885253906250e+01,-6.945945024490356445e-01
7.699291229248046875e+00,-1.080716228485107422e+01,-2.316158413887023926e-01
7.708433151245117188e+00,-1.081999492645263672e+01,2.318908572196960449e-01
7.717732429504394531e+00,-1.083304786682128906e+01,6.970782279968261719e-01
2.391359090805053711e+00,-3.256982088088989258e+00,-1.082676529884338379e+00
2.843492507934570312e+00,-3.872778654098510742e+00,-1.109219908714294434e+00
3.503782272338867188e+00,-4.772079944610595703e+00,-1.150776267051696777e+00
4.559757709503173828e+00,-6.210297107696533203e+00,-1.220269680023193359e+00
6.444039821624755859e+00,-8.776650428771972656e+00,-1.336914062500000000e+00
7.738913059234619141e+00,-1.054024124145507812e+01,-1.144019126892089844e+00
7.748001575469970703e+00,-1.055261993408203125e+01,-6.860992908477783203e-01
7.757124423980712891e+00,-1.056504440307617188e+01,-2.287829965353012085e-01
7.766305446624755859e+00,-1.057754898071289062e+01,2.290537804365158081e-01
7.775475025177001953e+00,-1.059003829956054688e+01,6.885321140289306641e-01
7.784472465515136719e+00,-1.060229206085205078e+01,1.150753974914550781e+00
2.432537794113159180e+00,-3.215562582015991211e+00,-1.080371379852294922e+00
2.901477575302124023e+00,-3.835452318191528320e+00,-1.110310316085815430e+00
3.569127798080444336e+00,-4.718016624450683594e+00,-1.149940609931945801e+00
4.631892204284667969e+00,-6.122880458831787109e+00,-1.215995550155639648e+00
6.588947772979736328e+00,-8.709904670715332031e+00,-1.340975642204284668e+00
7.791472911834716797e+00,-1.029951858520507812e+01,-1.129880189895629883e+00
7.800672054290771484e+00,-1.031167888641357422e+01,-6.776241064071655273e-01
7.809854507446289062e+00,-1.032381725311279297e+01,-2.259568274021148682e-01
7.819062709808349609e+00,-1.033598995208740234e+01,2.262232452630996704e-01
7.828079223632812500e+00,-1.034790802001953125e+01,6.800048947334289551e-01
7.837700366973876953e+00,-1.036062717437744141e+01,1.136583924293518066e+00
2.475335121154785156e+00,-3.176601409912109375e+00,-1.079074740409851074e+00
2.946732759475708008e+00,-3.781546592712402344e+00,-1.106801867485046387e+00
3.637348651885986328e+00,-4.667815208435058594e+00,-1.150276541709899902e+00
4.706934928894042969e+00,-6.040416717529296875e+00,-1.212874174118041992e+00
6.660212516784667969e+00,-8.547060966491699219e+00,-1.330444931983947754e+00
7.843179225921630859e+00,-1.006516361236572266e+01,-1.116372108459472656e+00
7.852358818054199219e+00,-1.007694339752197266e+01,-6.695159673690795898e-01
7.861618995666503906e+00,-1.008882713317871094e+01,-2.232536226511001587e-01
7.870964050292968750e+00,-1.010082054138183594e+01,2.235190123319625854e-01
7.880477428436279297e+00,-1.011302852630615234e+01,6.719135046005249023e-01
7.889990329742431641e+00,-1.012523651123046875e+01,1.123035073280334473e+00
2.519959688186645508e+00,-3.140119552612304688e+00,-1.078824043273925781e+00
3.009736299514770508e+00,-3.750429630279541016e+00,-1.110189557075500488e+00
3.708801507949829102e+00,-4.621534347534179688e+00,-1.151835441589355469e+00
4.785274028778076172e+00,-5.962925434112548828e+00,-1.210943579673767090e+00
6.817510128021240234e+00,-8.495293617248535156e+00,-1.337439537048339844e+00
7.894359588623046875e+00,-9.837154388427734375e+00,-1.103502392768859863e+00
7.903689861297607422e+00,-9.848780632019042969e+00,-6.618053317070007324e-01
7.913009166717529297e+00,-9.860393524169921875e+00,-2.206824123859405518e-01
7.922339439392089844e+00,-9.872019767761230469e+00,2.209426313638687134e-01
7.931610107421875000e+00,-9.883572578430175781e+00,6.641432046890258789e-01
7.941665172576904297e+00,-9.896101951599121094e+00,1.110114932060241699e+00
2.566629171371459961e+00,-3.106135845184326172e+00,-1.079659581184387207e+00
3.059423923492431641e+00,-3.702516555786132812e+00,-1.108855724334716797e+00
3.758472204208374023e+00,-4.548505306243896484e+00,-1.146924614906311035e+00
4.867308616638183594e+00,-5.890419006347656250e+00,-1.210243225097656250e+00
6.896848678588867188e+00,-8.346570014953613281e+00,-1.329430818557739258e+00
7.945325851440429688e+00,-9.615437507629394531e+00,-1.091276407241821289e+00
7.954833984375000000e+00,-9.626944541931152344e+00,-6.544826626777648926e-01
7.964210510253906250e+00,-9.638292312622070312e+00,-2.182405740022659302e-01
7.973499298095703125e+00,-9.649533271789550781e+00,2.184951156377792358e-01
7.983210086822509766e+00,-9.661285400390625000e+00,6.568173170089721680e-01
7.993031501770019531e+00,-9.673171043395996094e+00,1.097828745841979980e+00
2.613441228866577148e+00,-3.072164058685302734e+00,-1.080742955207824707e+00
3.108866930007934570e+00,-3.654549121856689453e+00,-1.107703328132629395e+00
3.833221912384033203e+00,-4.506046295166015625e+00,-1.149935483932495117e+00
4.949180603027343750e+00,-5.817883014678955078e+00,-1.209770679473876953e+00
7.063067436218261719e+00,-8.302808761596679688e+00,-1.338425993919372559e+00
7.992122173309326172e+00,-9.394934654235839844e+00,-1.079123497009277344e+00
8.001648902893066406e+00,-9.406133651733398438e+00,-6.471910476684570312e-01
8.011097908020019531e+00,-9.417241096496582031e+00,-2.158095985651016235e-01
8.020476341247558594e+00,-9.428265571594238281e+00,2.160622328519821167e-01
8.029874801635742188e+00,-9.439314842224121094e+00,6.494740843772888184e-01
8.040184974670410156e+00,-9.451434135437011719e+00,1.085613131523132324e+00
2.652524709701538086e+00,-3.029172658920288086e+00,-1.078864932060241699e+00
3.163412809371948242e+00,-3.612604618072509766e+00,-1.108600616455078125e+00
3.888293266296386719e+00,-4.440415382385253906e+00,-1.147272109985351562e+00
5.039757728576660156e+00,-5.755383014678955078e+00,-1.211650371551513672e+00
7.152540206909179688e+00,-8.168171882629394531e+00,-1.333089232444763184e+00
8.043961524963378906e+00,-9.186171531677246094e+00,-1.068259954452514648e+00
8.053233146667480469e+00,-9.196759223937988281e+00,-6.406505107879638672e-01
8.062742233276367188e+00,-9.207618713378906250e+00,-2.136286050081253052e-01
8.072493553161621094e+00,-9.218754768371582031e+00,2.138869762420654297e-01
8.081807136535644531e+00,-9.229391098022460938e+00,6.429236531257629395e-01
8.091746330261230469e+00,-9.240741729736328125e+00,1.074605941772460938e+00
2.701736450195312500e+00,-2.997700691223144531e+00,-1.081318259239196777e+00
3.215404510498046875e+00,-3.567639112472534180e+00,-1.108811736106872559e+00
3.967325925827026367e+00,-4.401930332183837891e+00,-1.151882648468017578e+00
5.126378536224365234e+00,-5.687952518463134766e+00,-1.212777853012084961e+00
7.233860969543457031e+00,-8.026301383972167969e+00,-1.326697945594787598e+00
8.087297439575195312e+00,-8.973228454589843750e+00,-1.056849956512451172e+00
8.096770286560058594e+00,-8.983737945556640625e+00,-6.338196396827697754e-01
8.106328010559082031e+00,-8.994343757629394531e+00,-2.113507390022277832e-01
8.115997314453125000e+00,-9.005072593688964844e+00,2.116028368473052979e-01
8.125706672668457031e+00,-9.015845298767089844e+00,6.360847949981689453e-01
8.135283470153808594e+00,-9.026471138000488281e+00,1.063120722770690918e+00
2.742811441421508789e+00,-2.957053899765014648e+00,-1.080706954002380371e+00
3.254204034805297852e+00,-3.508391857147216797e+00,-1.104761242866516113e+00
4.025467872619628906e+00,-4.339899539947509766e+00,-1.150610208511352539e+00
5.222593784332275391e+00,-5.630533218383789062e+00,-1.216349244117736816e+00
7.326554298400878906e+00,-7.898835659027099609e+00,-1.322827219963073730e+00
8.135714530944824219e+00,-8.771200180053710938e+00,-1.046663522720336914e+00
8.145438194274902344e+00,-8.781682014465332031e+00,-6.277254819869995117e-01
8.155051231384277344e+00,-8.792047500610351562e+00,-2.093185633420944214e-01
8.164602279663085938e+00,-8.802343368530273438e+00,2.095637023448944092e-01
8.174651145935058594e+00,-8.813178062438964844e+00,6.299768686294555664e-01
8.183740615844726562e+00,-8.822977066040039062e+00,1.052842020988464355e+00
2.783761262893676758e+00,-2.916353464126586914e+00,-1.080283761024475098e+00
3.311568021774291992e+00,-3.469299793243408203e+00,-1.107264041900634766e+00
4.083319664001464844e+00,-4.277810096740722656e+00,-1.149526596069335938e+00
5.269388198852539062e+00,-5.520372390747070312e+00,-1.208721160888671875e+00
7.519031047821044922e+00,-7.877166748046875000e+00,-1.337085127830505371e+00
8.180773735046386719e+00,-8.570428848266601562e+00,-1.036572217941284180e+00
8.190577507019042969e+00,-8.580698966979980469e+00,-6.216754317283630371e-01
8.200263977050781250e+00,-8.590847969055175781e+00,-2.073016464710235596e-01
8.209836006164550781e+00,-8.600874900817871094e+00,2.075436115264892578e-01
8.219401359558105469e+00,-8.610896110534667969e+00,6.238632202148437500e-01
8.229938507080078125e+00,-8.621935844421386719e+00,1.042801856994628906e+00
2.824648380279541016e+00,-2.875636577606201172e+00,-1.080067038536071777e+00
3.349516391754150391e+00,-3.409979104995727539e+00,-1.103519678115844727e+00
4.140969276428222656e+00,-4.215719223022460938e+00,-1.148651242256164551e+00
5.365970134735107422e+00,-5.462832450866699219e+00,-1.212815284729003906e+00
7.611951828002929688e+00,-7.749356746673583984e+00,-1.333747744560241699e+00
8.223140716552734375e+00,-8.371578216552734375e+00,-1.026652336120605469e+00
8.232686996459960938e+00,-8.381297111511230469e+00,-6.157030463218688965e-01
8.242422103881835938e+00,-8.391207695007324219e+00,-2.053100764751434326e-01
8.252348899841308594e+00,-8.401313781738281250e+00,2.055573314428329468e-01
8.261734008789062500e+00,-8.410868644714355469e+00,6.178753972053527832e-01
8.271744728088378906e+00,-8.421059608459472656e+00,1.032720565795898438e+00
2.853651046752929688e+00,-2.823178291320800781e+00,-1.075595259666442871e+00
3.410177707672119141e+00,-3.373762369155883789e+00,-1.107482075691223145e+00
4.202124595642089844e+00,-4.157252311706542969e+00,-1.148991346359252930e+00
5.415375709533691406e+00,-5.357547760009765625e+00,-1.206526041030883789e+00
7.710947036743164062e+00,-7.628605842590332031e+00,-1.331824779510498047e+00
8.266344070434570312e+00,-8.178071975708007812e+00,-1.017327666282653809e+00
8.276175498962402344e+00,-8.187798500061035156e+00,-6.101281046867370605e-01
8.285960197448730469e+00,-8.197479248046875000e+00,-2.034510523080825806e-01
8.295722007751464844e+00,-8.207136154174804688e+00,2.036907225847244263e-01
8.305388450622558594e+00,-8.216699600219726562e+00,6.122816801071166992e-01
8.315985679626464844e+00,-8.227184295654296875e+00,1.023437023162841797e+00
2.899012565612792969e+00,-2.787093639373779297e+00,-1.077546119689941406e+00
3.453405380249023438e+00,-3.320083618164062500e+00,-1.105974078178405762e+00
4.267049312591552734e+00,-4.102315902709960938e+00,-1.150570511817932129e+00
5.522643089294433594e+00,-5.309436798095703125e+00,-1.213368773460388184e+00
7.816459655761718750e+00,-7.514698505401611328e+00,-1.331334471702575684e+00
8.311614990234375000e+00,-7.990737438201904297e+00,-1.008719682693481445e+00
8.321221351623535156e+00,-7.999973297119140625e+00,-6.049453616142272949e-01
8.331057548522949219e+00,-8.009429931640625000e+00,-2.017227858304977417e-01
8.341147422790527344e+00,-8.019130706787109375e+00,2.019670903682708740e-01
8.350541114807128906e+00,-8.028161048889160156e+00,6.070768833160400391e-01
8.360460281372070312e+00,-8.037697792053222656e+00,1.014647841453552246e+00
2.944654464721679688e+00,-2.750969648361206055e+00,-1.079764604568481445e+00
3.496353626251220703e+00,-3.266380786895751953e+00,-1.104642391204833984e+00
4.299047470092773438e+00,-4.016277313232421875e+00,-1.143580555915832520e+00
5.575478553771972656e+00,-5.208751201629638672e+00,-1.208472967147827148e+00
7.921789646148681641e+00,-7.400732994079589844e+00,-1.331095933914184570e+00
8.353622436523437500e+00,-7.804162502288818359e+00,-1.000158786773681641e+00
8.363550186157226562e+00,-7.813436508178710938e+00,-5.998306870460510254e-01
8.373435020446777344e+00,-7.822671413421630859e+00,-2.000172287225723267e-01
8.383322715759277344e+00,-7.831909179687500000e+00,2.002534270286560059e-01
8.392951965332031250e+00,-7.840904712677001953e+00,6.019394397735595703e-01
8.403395652770996094e+00,-7.850661277770996094e+00,1.006117939949035645e+00
2.975149869918823242e+00,-2.700759887695312500e+00,-1.076661467552185059e+00
3.539086818695068359e+00,-3.212686300277709961e+00,-1.103502154350280762e+00
4.363687038421630859e+00,-3.961236000061035156e+00,-1.145575523376464844e+00
5.627303600311279297e+00,-5.108313083648681641e+00,-1.203734636306762695e+00
8.027104377746582031e+00,-7.286787033081054688e+00,-1.331130266189575195e+00
