-9.078221321105957031e+00,-8.603633880615234375e+00,2.183182537555694580e-01
-9.089201927185058594e+00,-8.614040374755859375e+00,6.562801599502563477e-01
-9.101181983947753906e+00,-8.625393867492675781e+00,1.097027063369750977e+00
-2.889339208602905273e+00,-2.817873001098632812e+00,-1.081421136856079102e+00
-3.429515600204467773e+00,-3.344688415527343750e+00,-1.105963349342346191e+00
-4.214782714843750000e+00,-4.110532760620117188e+00,-1.144382953643798828e+00
-5.461869239807128906e+00,-5.326773166656494141e+00,-1.208363771438598633e+00
-7.748922824859619141e+00,-7.557257652282714844e+00,-1.329012274742126465e+00
-8.813293457031250000e+00,-8.595301628112792969e+00,-1.077045083045959473e+00
-8.824383735656738281e+00,-8.606118202209472656e+00,-6.459873914718627930e-01
-8.835723876953125000e+00,-8.617177009582519531e+00,-2.154306471347808838e-01
-8.847396850585937500e+00,-8.628561019897460938e+00,2.157152593135833740e-01
-8.858262062072753906e+00,-8.639158248901367188e+00,6.484674811363220215e-01
-8.870196342468261719e+00,-8.650796890258789062e+00,1.083999156951904297e+00
-2.838331460952758789e+00,-2.848516941070556641e+00,-1.077479839324951172e+00
-3.396379947662353516e+00,-3.408567905426025391e+00,-1.110897421836853027e+00
-4.182203292846679688e+00,-4.197211265563964844e+00,-1.151730775833129883e+00
-5.364856243133544922e+00,-5.384108066558837891e+00,-1.203827261924743652e+00
-7.611255645751953125e+00,-7.638568878173828125e+00,-1.324017286300659180e+00
-8.587892532348632812e+00,-8.618710517883300781e+00,-1.064466476440429688e+00
-8.598610877990722656e+00,-8.629467010498046875e+00,-6.384364366531372070e-01
-8.609656333923339844e+00,-8.640552520751953125e+00,-2.129123657941818237e-01
-8.621109962463378906e+00,-8.652047157287597656e+00,2.131956070661544800e-01
-8.631853103637695312e+00,-8.662828445434570312e+00,6.409046053886413574e-01
-8.643725395202636719e+00,-8.674743652343750000e+00,1.071386814117431641e+00
-2.806515455245971680e+00,-2.898392438888549805e+00,-1.081039905548095703e+00
-3.335487842559814453e+00,-3.444681882858276367e+00,-1.106994152069091797e+00
-4.107078552246093750e+00,-4.241532325744628906e+00,-1.147643923759460449e+00
-5.338755607604980469e+00,-5.513531208038330078e+00,-1.215554475784301758e+00
-7.474354267120361328e+00,-7.719043254852294922e+00,-1.319287180900573730e+00
-8.366203308105468750e+00,-8.640089035034179688e+00,-1.052209138870239258e+00
-8.377257347106933594e+00,-8.651504516601562500e+00,-6.311309933662414551e-01
-8.388013839721679688e+00,-8.662612915039062500e+00,-2.104759514331817627e-01
-8.398499488830566406e+00,-8.673441886901855469e+00,2.107390761375427246e-01
-8.409857749938964844e+00,-8.685172080993652344e+00,6.335870027542114258e-01
-8.419950485229492188e+00,-8.695595741271972656e+00,1.058968901634216309e+00
-2.755663871765136719e+00,-2.928610324859619141e+00,-1.077488660812377930e+00
-3.274911165237426758e+00,-3.480445623397827148e+00,-1.103310227394104004e+00
-4.032354354858398438e+00,-4.285426139831542969e+00,-1.143786549568176270e+00
-5.241515636444091797e+00,-5.570474624633789062e+00,-1.211444258689880371e+00
-7.338208675384521484e+00,-7.798757076263427734e+00,-1.314824700355529785e+00
-8.149514198303222656e+00,-8.660980224609375000e+00,-1.040441155433654785e+00
-8.160208702087402344e+00,-8.672346115112304688e+00,-6.240667700767517090e-01
-8.170683860778808594e+00,-8.683478355407714844e+00,-2.081200480461120605e-01
-8.180960655212402344e+00,-8.694399833679199219e+00,2.083818167448043823e-01
-8.192162513732910156e+00,-8.706305503845214844e+00,6.265105605125427246e-01
-8.202195167541503906e+00,-8.716967582702636719e+00,1.047166943550109863e+00
-2.723571777343750000e+00,-2.978800535202026367e+00,-1.081501007080078125e+00
-3.241175174713134766e+00,-3.544909000396728516e+00,-1.108925223350524902e+00
-3.998782873153686523e+00,-4.373513221740722656e+00,-1.151902556419372559e+00
-5.144799232482910156e+00,-5.626924037933349609e+00,-1.207581996917724609e+00
-7.340983390808105469e+00,-8.028914451599121094e+00,-1.335776090621948242e+00
-7.937001228332519531e+00,-8.680786132812500000e+00,-1.029067635536193848e+00
-7.947350502014160156e+00,-8.692105293273925781e+00,-6.172396540641784668e-01
-7.957548141479492188e+00,-8.703258514404296875e+00,-2.058431506156921387e-01
-7.967616558074951172e+00,-8.714270591735839844e+00,2.061036080121994019e-01
-7.977486133575439453e+00,-8.725064277648925781e+00,6.195801496505737305e-01
-7.988610744476318359e+00,-8.737232208251953125e+00,1.035759091377258301e+00
-2.672860622406005859e+00,-3.008695602416992188e+00,-1.078354358673095703e+00
-3.180706977844238281e+00,-3.580351114273071289e+00,-1.105657219886779785e+00
-3.924069643020629883e+00,-4.417114257812500000e+00,-1.148475408554077148e+00
-5.048593997955322266e+00,-5.682931423187255859e+00,-1.203970074653625488e+00
-7.203725814819335938e+00,-8.108846664428710938e+00,-1.331783652305603027e+00
-7.728553295135498047e+00,-8.699617385864257812e+00,-1.018081903457641602e+00
-7.738569259643554688e+00,-8.710891723632812500e+00,-6.106455326080322266e-01
-7.748494625091552734e+00,-8.722064018249511719e+00,-2.036439627408981323e-01
-7.758352756500244141e+00,-8.733160972595214844e+00,2.039030492305755615e-01
-7.768074989318847656e+00,-8.744104385375976562e+00,6.129737496376037598e-01
-7.779084205627441406e+00,-8.756497383117675781e+00,1.024738311767578125e+00
-2.622387647628784180e+00,-3.038370132446289062e+00,-1.075426697731018066e+00
-3.120533943176269531e+00,-3.615536212921142578e+00,-1.102616548538208008e+00
-3.849732160568237305e+00,-4.460405349731445312e+00,-1.145286798477172852e+00
-5.019978523254394531e+00,-5.816284656524658203e+00,-1.216874718666076660e+00
-7.067186355590820312e+00,-8.188236236572265625e+00,-1.328072547912597656e+00
-7.524051189422607422e+00,-8.717571258544921875e+00,-1.007476687431335449e+00
-7.533747673034667969e+00,-8.728806495666503906e+00,-6.042801737785339355e-01
-7.543406963348388672e+00,-8.739997863769531250e+00,-2.015210837125778198e-01
-7.553053379058837891e+00,-8.751174926757812500e+00,2.017787992954254150e-01
-7.562620639801025391e+00,-8.762259483337402344e+00,6.065960526466369629e-01
-7.571953296661376953e+00,-8.773072242736816406e+00,1.013890862464904785e+00
-1.305697441101074219e+00,-1.557332634925842285e+00,-5.445448756217956543e-01
-1.307433366775512695e+00,-1.559403061866760254e+00,-4.698100686073303223e-01
-1.309394001960754395e+00,-1.561741590499877930e+00,-3.961515128612518311e-01
-1.310924768447875977e+00,-1.563567399978637695e+00,-3.231684863567352295e-01
-1.312685608863830566e+00,-1.565667629241943359e+00,-2.508668005466461182e-01
-1.314393639564514160e+00,-1.567704796791076660e+00,-1.789847016334533691e-01
-1.316083669662475586e+00,-1.569720506668090820e+00,-1.073539331555366516e-01
-1.317775249481201172e+00,-1.571738123893737793e+00,-3.580152615904808044e-02
-1.319472312927246094e+00,-1.573762178421020508e+00,3.584763035178184509e-02
-1.321163058280944824e+00,-1.575778722763061523e+00,1.077682599425315857e-01
-1.322820425033569336e+00,-1.577755689620971680e+00,1.801322102546691895e-01
-1.324746727943420410e+00,-1.580053091049194336e+00,2.531717717647552490e-01
-1.326266169548034668e+00,-1.581865310668945312e+00,3.269504010677337646e-01
-1.328066825866699219e+00,-1.584013104438781738e+00,4.018008708953857422e-01
-1.329711675643920898e+00,-1.585974931716918945e+00,4.778155386447906494e-01
-1.268997788429260254e+00,-1.558327674865722656e+00,-5.384864211082458496e-01
-1.270638823509216309e+00,-1.560342907905578613e+00,-4.645662903785705566e-01
-1.272181510925292969e+00,-1.562237381935119629e+00,-3.916181623935699463e-01
-1.273961663246154785e+00,-1.564423322677612305e+00,-3.195437490940093994e-01
-1.275649189949035645e+00,-1.566495537757873535e+00,-2.480484247207641602e-01
-1.277292728424072266e+00,-1.568513870239257812e+00,-1.769716441631317139e-01
-1.278926372528076172e+00,-1.570520043373107910e+00,-1.061457917094230652e-01
-1.280569314956665039e+00,-1.572537422180175781e+00,-3.539859503507614136e-02
-1.282225847244262695e+00,-1.574571609497070312e+00,3.544438630342483521e-02
-1.283883690834045410e+00,-1.576607465744018555e+00,1.065572202205657959e-01
-1.285516619682312012e+00,-1.578612685203552246e+00,1.781110763549804688e-01
-1.287083148956298828e+00,-1.580536484718322754e+00,2.502717375755310059e-01
-1.288933157920837402e+00,-1.582808375358581543e+00,3.232990205287933350e-01
-1.290728807449340820e+00,-1.585013270378112793e+00,3.973275721073150635e-01
-1.292378664016723633e+00,-1.587039351463317871e+00,4.725147187709808350e-01
-1.233042359352111816e+00,-1.559230089187622070e+00,-5.326449871063232422e-01
-1.234595656394958496e+00,-1.561194181442260742e+00,-4.595113098621368408e-01
-1.236059546470642090e+00,-1.563045382499694824e+00,-3.873459696769714355e-01
-1.237761497497558594e+00,-1.565197587013244629e+00,-3.160507977008819580e-01
-1.239379763603210449e+00,-1.567243933677673340e+00,-2.453327625989913940e-01
-1.240962028503417969e+00,-1.569244742393493652e+00,-1.750320941209793091e-01
-1.242541670799255371e+00,-1.571242213249206543e+00,-1.049818173050880432e-01
-1.244137167930603027e+00,-1.573259830474853516e+00,-3.501040488481521606e-02
-1.245752692222595215e+00,-1.575302720069885254e+00,3.505586832761764526e-02
-1.247376680374145508e+00,-1.577356338500976562e+00,1.053903326392173767e-01
-1.248983144760131836e+00,-1.579387784004211426e+00,1.761634349822998047e-01
-1.250531554222106934e+00,-1.581345677375793457e+00,2.475402355194091797e-01
-1.252363443374633789e+00,-1.583662152290344238e+00,3.197792470455169678e-01
-1.254148244857788086e+00,-1.585919260978698730e+00,3.930144608020782471e-01
-1.255797743797302246e+00,-1.588005065917968750e+00,4.674026370048522949e-01
-1.198766350746154785e+00,-1.561304688453674316e+00,-5.274381637573242188e-01
-1.200308680534362793e+00,-1.563313484191894531e+00,-4.550316631793975830e-01
-1.202077984809875488e+00,-1.565617799758911133e+00,-3.836802840232849121e-01
-1.203711509704589844e+00,-1.567745327949523926e+00,-3.130541741847991943e-01
-1.205268383026123047e+00,-1.569773197174072266e+00,-2.430032789707183838e-01
-1.206795573234558105e+00,-1.571762084960937500e+00,-1.733684539794921875e-01
-1.208325505256652832e+00,-1.573754787445068359e+00,-1.039834693074226379e-01
-1.209876537322998047e+00,-1.575774908065795898e+00,-3.467744588851928711e-02
-1.211452484130859375e+00,-1.577827453613281250e+00,3.472261503338813782e-02
-1.213042259216308594e+00,-1.579897999763488770e+00,1.043893694877624512e-01
-1.214620232582092285e+00,-1.581953167915344238e+00,1.744925528764724731e-01
-1.216146826744079590e+00,-1.583941459655761719e+00,2.451965510845184326e-01
-1.217568874359130859e+00,-1.585793614387512207e+00,3.166581392288208008e-01
-1.219270229339599609e+00,-1.588009357452392578e+00,3.891676962375640869e-01
-1.220847129821777344e+00,-1.590063333511352539e+00,4.628176987171173096e-01
-1.164158225059509277e+00,-1.562012553215026855e+00,-5.219947099685668945e-01
-1.165623903274536133e+00,-1.563979268074035645e+00,-4.503231048583984375e-01
-1.167315959930419922e+00,-1.566249608993530273e+00,-3.797015547752380371e-01
-1.168880581855773926e+00,-1.568348884582519531e+00,-3.098020851612091064e-01
-1.170375943183898926e+00,-1.570355296134948730e+00,-2.404755055904388428e-01
-1.171847343444824219e+00,-1.572329640388488770e+00,-1.715633571147918701e-01
-1.173326849937438965e+00,-1.574314713478088379e+00,-1.029002591967582703e-01
-1.174832463264465332e+00,-1.576334834098815918e+00,-3.431619331240653992e-02
-1.176367521286010742e+00,-1.578394532203674316e+00,3.436103090643882751e-02
-1.177921414375305176e+00,-1.580479502677917480e+00,1.033032014966011047e-01
-1.179469227790832520e+00,-1.582556247711181641e+00,1.726792305707931519e-01
-1.180972218513488770e+00,-1.584572792053222656e+00,2.426526993513107300e-01
-1.182378292083740234e+00,-1.586459517478942871e+00,3.133795559406280518e-01
-1.184061646461486816e+00,-1.588718175888061523e+00,3.851485550403594971e-01
-1.185628890991210938e+00,-1.590821027755737305e+00,4.580517709255218506e-01
-1.130222320556640625e+00,-1.562667608261108398e+00,-5.167545080184936523e-01
-1.131617784500122070e+00,-1.564597010612487793e+00,-4.457915425300598145e-01
-1.133237838745117188e+00,-1.566836953163146973e+00,-3.758731484413146973e-01
-1.134738206863403320e+00,-1.568911433219909668e+00,-3.066734373569488525e-01
-1.136175513267517090e+00,-1.570898652076721191e+00,-2.380439639091491699e-01
-1.137594103813171387e+00,-1.572860002517700195e+00,-1.698271483182907104e-01
-1.139025092124938965e+00,-1.574838519096374512e+00,-1.018584445118904114e-01
-1.140486001968383789e+00,-1.576858520507812500e+00,-3.396873921155929565e-02
-1.141980290412902832e+00,-1.578924536705017090e+00,3.401324525475502014e-02
-1.143497586250305176e+00,-1.581022262573242188e+00,1.022583991289138794e-01
-1.145013213157653809e+00,-1.583117961883544922e+00,1.709347218275070190e-01
-1.146489858627319336e+00,-1.585159540176391602e+00,2.402049601078033447e-01
-1.147876501083374023e+00,-1.587076783180236816e+00,3.102242052555084229e-01
-1.149537563323974609e+00,-1.589373230934143066e+00,3.812794387340545654e-01
-1.151089549064636230e+00,-1.591518998146057129e+00,4.534622728824615479e-01
-1.098114252090454102e+00,-1.564962983131408691e+00,-5.122634172439575195e-01
-1.099449276924133301e+00,-1.566865563392639160e+00,-4.419088065624237061e-01
-1.101006269454956055e+00,-1.569084405899047852e+00,-3.725936114788055420e-01
-1.102227926254272461e+00,-1.570825576782226562e+00,-3.039326071739196777e-01
-1.103676915168762207e+00,-1.572890520095825195e+00,-2.359277904033660889e-01
-1.105206012725830078e+00,-1.575069665908813477e+00,-1.683404147624969482e-01
-1.106592178344726562e+00,-1.577045202255249023e+00,-1.009663641452789307e-01
-1.108011007308959961e+00,-1.579067111015319824e+00,-3.367122262716293335e-02
-1.109465837478637695e+00,-1.581140518188476562e+00,3.371543437242507935e-02
-1.110780239105224609e+00,-1.583013772964477539e+00,1.013484895229339600e-01
-1.112198472023010254e+00,-1.585034847259521484e+00,1.694054752588272095e-01
-1.113876581192016602e+00,-1.587426424026489258e+00,2.381081134080886841e-01
-1.115240097045898438e+00,-1.589369654655456543e+00,3.075206279754638672e-01
-1.116873979568481445e+00,-1.591698050498962402e+00,3.779634535312652588e-01
-1.118404746055603027e+00,-1.593879699707031250e+00,4.495276808738708496e-01
-1.064989805221557617e+00,-1.564922094345092773e+00,-5.072082877159118652e-01
-1.066656589508056641e+00,-1.567371249198913574e+00,-4.377006292343139648e-01
-1.067875504493713379e+00,-1.569162368774414062e+00,-3.689447641372680664e-01
-1.069322586059570312e+00,-1.571288824081420898e+00,-3.010299801826477051e-01
-1.070718169212341309e+00,-1.573339343070983887e+00,-2.336723804473876953e-01
-1.072194933891296387e+00,-1.575509428977966309e+00,-1.667301058769226074e-01
-1.073535799980163574e+00,-1.577479839324951172e+00,-1.000001803040504456e-01
-1.074911713600158691e+00,-1.579501509666442871e+00,-3.334899619221687317e-02
-1.076325774192810059e+00,-1.581579446792602539e+00,3.339286521077156067e-02
-1.077606678009033203e+00,-1.583461523056030273e+00,1.003793776035308838e-01
-1.078991532325744629e+00,-1.585496544837951660e+00,1.677870005369186401e-01
-1.080347180366516113e+00,-1.587488532066345215e+00,2.357738167047500610e-01
-1.081970214843750000e+00,-1.589873552322387695e+00,3.045904636383056641e-01
-1.083169817924499512e+00,-1.591636180877685547e+00,3.742288649082183838e-01
-1.084619283676147461e+00,-1.593766093254089355e+00,4.450716078281402588e-01
-1.033919095993041992e+00,-1.567023515701293945e+00,-5.030413866043090820e-01
-1.035523891448974609e+00,-1.569455742835998535e+00,-4.340991377830505371e-01
-1.036695361137390137e+00,-1.571231245994567871e+00,-3.659048080444335938e-01
-1.038090705871582031e+00,-1.573346138000488281e+00,-2.985468804836273193e-01
-1.039438366889953613e+00,-1.575388550758361816e+00,-2.317433059215545654e-01
-1.040867090225219727e+00,-1.577553987503051758e+00,-1.653528809547424316e-01
-1.042165994644165039e+00,-1.579522728919982910e+00,-9.917390346527099609e-02
-1.043501257896423340e+00,-1.581546306610107422e+00,-3.307342529296875000e-02
-1.044875860214233398e+00,-1.583629846572875977e+00,3.311699256300926208e-02
-1.046123266220092773e+00,-1.585520267486572266e+00,9.955047816038131714e-02
-1.047474026679992676e+00,-1.587567567825317383e+00,1.664024740457534790e-01
-1.048798561096191406e+00,-1.589575052261352539e+00,2.338301688432693481e-01
-1.050385355949401855e+00,-1.591980099678039551e+00,3.020827174186706543e-01
-1.051562547683715820e+00,-1.593764066696166992e+00,3.711522221565246582e-01
-1.052984714508056641e+00,-1.595919609069824219e+00,4.414188265800476074e-01
-1.002314448356628418e+00,-1.567473888397216797e+00,-4.985293745994567871e-01
-1.003858566284179688e+00,-1.569888591766357422e+00,-4.302005171775817871e-01
-1.004983782768249512e+00,-1.571648240089416504e+00,-3.626148998737335205e-01
-1.006328344345092773e+00,-1.573750972747802734e+00,-2.958602011203765869e-01
-1.007628321647644043e+00,-1.575783967971801758e+00,-2.296563535928726196e-01
-1.009009122848510742e+00,-1.577943325042724609e+00,-1.638631224632263184e-01
-1.010265827178955078e+00,-1.579908609390258789e+00,-9.828013926744461060e-02
-1.011559605598449707e+00,-1.581931948661804199e+00,-3.277534618973731995e-02
-1.012893676757812500e+00,-1.584018230438232422e+00,3.281857073307037354e-02
-1.014106154441833496e+00,-1.585914492607116699e+00,9.865373373031616211e-02
-1.015420913696289062e+00,-1.587970614433288574e+00,1.649044007062911987e-01
-1.016712188720703125e+00,-1.589989900588989258e+00,2.317267358303070068e-01
-1.018259882926940918e+00,-1.592410206794738770e+00,2.993680834770202637e-01
-1.019411802291870117e+00,-1.594211578369140625e+00,3.678207695484161377e-01
-1.020803332328796387e+00,-1.596387743949890137e+00,4.374621510505676270e-01
-9.721961021423339844e-01,-1.569418787956237793e+00,-4.946714937686920166e-01
-9.736865162849426270e-01,-1.571824789047241211e+00,-4.268682301044464111e-01
-9.747713208198547363e-01,-1.573575973510742188e+00,-3.598036766052246094e-01
-9.760702252388000488e-01,-1.575672864913940430e+00,-2.935649454593658447e-01
-9.773269891738891602e-01,-1.577701568603515625e+00,-2.278737127780914307e-01
-9.786635041236877441e-01,-1.579859137535095215e+00,-1.625907272100448608e-01
-9.798807501792907715e-01,-1.581824064254760742e+00,-9.751682728528976440e-02
-9.811351299285888672e-01,-1.583849072456359863e+00,-3.252077475190162659e-02
-9.824299812316894531e-01,-1.585939288139343262e+00,3.256369382143020630e-02
-9.836079478263854980e-01,-1.587840914726257324e+00,9.788776189088821411e-02
-9.848864674568176270e-01,-1.589904904365539551e+00,1.636245846748352051e-01
-9.861432909965515137e-01,-1.591933727264404297e+00,2.299293279647827148e-01
-9.876502752304077148e-01,-1.594366550445556641e+00,2.970477640628814697e-01
-9.887741208076477051e-01,-1.596180677413940430e+00,3.649723231792449951e-01
-9.901316761970520020e-01,-1.598372220993041992e+00,4.340778589248657227e-01
-9.416260123252868652e-01,-1.569820046424865723e+00,-4.904995858669281006e-01
-9.427683353424072266e-01,-1.571724414825439453e+00,-4.231329262256622314e-01
-9.441103935241699219e-01,-1.573961734771728516e+00,-3.567654490470886230e-01
-9.453647732734680176e-01,-1.576053023338317871e+00,-2.910849153995513916e-01
-9.465790987014770508e-01,-1.578077435493469238e+00,-2.259479612112045288e-01
-9.478715062141418457e-01,-1.580232024192810059e+00,-1.612163186073303223e-01
-9.490491151809692383e-01,-1.582195281982421875e+00,-9.669236838817596436e-02
-9.502635598182678223e-01,-1.584219932556152344e+00,-3.224581107497215271e-02
-9.515180587768554688e-01,-1.586311340332031250e+00,3.228837996721267700e-02
-9.526601433753967285e-01,-1.588215351104736328e+00,9.706027060747146606e-02
-9.539004564285278320e-01,-1.590283155441284180e+00,1.622417420148849487e-01
-9.551205635070800781e-01,-1.592317223548889160e+00,2.279867976903915405e-01
-9.562779664993286133e-01,-1.594246864318847656e+00,2.944451570510864258e-01
-9.576767086982727051e-01,-1.596578717231750488e+00,3.618919551372528076e-01
-9.589967131614685059e-01,-1.598779320716857910e+00,4.304165542125701904e-01
-9.123877286911010742e-01,-1.571638464927673340e+00,-4.869373738765716553e-01
-9.134924411773681641e-01,-1.573541402816772461e+00,-4.200589954853057861e-01
-9.147911667823791504e-01,-1.575778484344482422e+00,-3.541730046272277832e-01
-9.160050749778747559e-01,-1.577869534492492676e+00,-2.889692485332489014e-01
-9.171804785728454590e-01,-1.579894185066223145e+00,-2.243054360151290894e-01
-9.184318780899047852e-01,-1.582049727439880371e+00,-1.600442081689834595e-01
-9.195721745491027832e-01,-1.584013938903808594e+00,-9.598930180072784424e-02
-9.207485914230346680e-01,-1.586040377616882324e+00,-3.201133385300636292e-02
-9.219638705253601074e-01,-1.588133931159973145e+00,3.205358609557151794e-02
-9.230707287788391113e-01,-1.590040445327758789e+00,9.635449200868606567e-02
-9.242728948593139648e-01,-1.592111349105834961e+00,1.610620617866516113e-01
-9.254558682441711426e-01,-1.594148993492126465e+00,2.263292670249938965e-01
-9.265784025192260742e-01,-1.596082687377929688e+00,2.923047840595245361e-01
-9.279348850250244141e-01,-1.598419308662414551e+00,3.592617809772491455e-01
-9.292154312133789062e-01,-1.600625038146972656e+00,4.272890388965606689e-01
-8.827717304229736328e-01,-1.572017908096313477e+00,-4.830906391143798828e-01
-8.838410973548889160e-01,-1.573922276496887207e+00,-4.167408347129821777e-01
-8.850979804992675781e-01,-1.576160550117492676e+00,-3.513754308223724365e-01
-8.862727880477905273e-01,-1.578252553939819336e+00,-2.866868078708648682e-01
-8.874100446701049805e-01,-1.580277800559997559e+00,-2.225337624549865723e-01
-8.886207938194274902e-01,-1.582433819770812988e+00,-1.587800830602645874e-01
-8.897238373756408691e-01,-1.584398150444030762e+00,-9.523109346628189087e-02
-8.908616304397583008e-01,-1.586424231529235840e+00,-3.175846487283706665e-02
-8.920369148254394531e-01,-1.588517189025878906e+00,3.180036321282386780e-02
-8.931070566177368164e-01,-1.590422868728637695e+00,9.559321403503417969e-02
-8.942693471908569336e-01,-1.592492580413818359e+00,1.597893834114074707e-01
-8.954128026962280273e-01,-1.594528913497924805e+00,2.245405912399291992e-01
-8.964976072311401367e-01,-1.596460700035095215e+00,2.899942994117736816e-01
-8.978086113929748535e-01,-1.598795294761657715e+00,3.564214408397674561e-01
-8.990460634231567383e-01,-1.600998997688293457e+00,4.239101707935333252e-01
-8.543429374694824219e-01,-1.573734283447265625e+00,-4.798110127449035645e-01
-8.556494712829589844e-01,-1.576140999794006348e+00,-4.140430688858032227e-01
-8.565995693206787109e-01,-1.577891111373901367e+00,-3.489921391010284424e-01
-8.577382564544677734e-01,-1.579988598823547363e+00,-2.847428619861602783e-01
-8.588401675224304199e-01,-1.582018375396728516e+00,-2.210251390933990479e-01
-8.600126504898071289e-01,-1.584178209304809570e+00,-1.577038168907165527e-01
-8.610804080963134766e-01,-1.586144924163818359e+00,-9.458559751510620117e-02
-8.621811866760253906e-01,-1.588172674179077148e+00,-3.154318779706954956e-02
-8.633177876472473145e-01,-1.590266346931457520e+00,3.158476948738098145e-02
-8.643520474433898926e-01,-1.592171430587768555e+00,9.494496881961822510e-02
-8.654749393463134766e-01,-1.594239950180053711e+00,1.587054431438446045e-01
-8.665789961814880371e-01,-1.596273541450500488e+00,2.230167388916015625e-01
-8.679031133651733398e-01,-1.598712801933288574e+00,2.881172895431518555e-01
-8.688908815383911133e-01,-1.600532174110412598e+00,3.539998233318328857e-01
-8.700843453407287598e-01,-1.602730631828308105e+00,4.210280179977416992e-01
-8.262699246406555176e-01,-1.575386047363281250e+00,-4.766599535942077637e-01
-8.275381922721862793e-01,-1.577804207801818848e+00,-4.113262593746185303e-01
-8.284613490104675293e-01,-1.579564213752746582e+00,-3.467039465904235840e-01
-8.295658826828002930e-01,-1.581670165061950684e+00,-2.828770279884338379e-01
-8.306339383125305176e-01,-1.583706498146057129e+00,-2.195774465799331665e-01
-8.317692875862121582e-01,-1.585871219635009766e+00,-1.566711217164993286e-01
-8.328025341033935547e-01,-1.587841272354125977e+00,-9.396629035472869873e-02
-8.338669538497924805e-01,-1.589870691299438477e+00,-3.133664652705192566e-02
-8.349647521972656250e-01,-1.591963887214660645e+00,3.137790411710739136e-02
-8.359630703926086426e-01,-1.593867182731628418e+00,9.432289749383926392e-02
-8.370459675788879395e-01,-1.595932006835937500e+00,1.576650440692901611e-01
-8.381099104881286621e-01,-1.597960352897644043e+00,2.215536981821060181e-01
-8.393855690956115723e-01,-1.600392580032348633e+00,2.862254679203033447e-01
-8.403353095054626465e-01,-1.602203488349914551e+00,3.516731262207031250e-01
-8.414830565452575684e-01,-1.604391813278198242e+00,4.182575047016143799e-01
-7.979148030281066895e-01,-1.575747251510620117e+00,-4.732651710510253906e-01
-7.991472482681274414e-01,-1.578181028366088867e+00,-4.084006845951080322e-01
-8.000453114509582520e-01,-1.579954624176025391e+00,-3.442408442497253418e-01
-8.011171817779541016e-01,-1.582071304321289062e+00,-2.808692157268524170e-01
-8.021523952484130859e-01,-1.584115743637084961e+00,-2.180199474096298218e-01
-8.032512068748474121e-01,-1.586285710334777832e+00,-1.555602848529815674e-01
-8.042501211166381836e-01,-1.588258385658264160e+00,-9.330017864704132080e-02
-8.052776455879211426e-01,-1.590287566184997559e+00,-3.111449070274829865e-02
-8.063361048698425293e-01,-1.592377781867980957e+00,3.115538693964481354e-02
-8.072970509529113770e-01,-1.594275474548339844e+00,9.365364164113998413e-02
-8.083382844924926758e-01,-1.596331715583801270e+00,1.565454602241516113e-01
-8.093596696853637695e-01,-1.598348855972290039e+00,2.199788391590118408e-01
-8.105840682983398438e-01,-1.600766777992248535e+00,2.841882407665252686e-01
-8.114928007125854492e-01,-1.602561473846435547e+00,3.491664528846740723e-01
-8.125911355018615723e-01,-1.604730486869812012e+00,4.152711331844329834e-01
-7.705515027046203613e-01,-1.577324271202087402e+00,-4.703780710697174072e-01
-7.717502117156982422e-01,-1.579777956008911133e+00,-4.059137701988220215e-01
-7.726251482963562012e-01,-1.581568956375122070e+00,-3.421480357646942139e-01
-7.736660838127136230e-01,-1.583699703216552734e+00,-2.791637480258941650e-01
-7.746702432632446289e-01,-1.585755348205566406e+00,-2.166973501443862915e-01
-7.757340669631958008e-01,-1.587932944297790527e+00,-1.546171307563781738e-01
-7.767001390457153320e-01,-1.589910507202148438e+00,-9.273466467857360840e-02
-7.776920795440673828e-01,-1.591940999031066895e+00,-3.092588111758232117e-02
-7.787123918533325195e-01,-1.594029545783996582e+00,3.096645511686801910e-02
-7.796370387077331543e-01,-1.595922350883483887e+00,9.308531880378723145e-02
-7.806375026702880859e-01,-1.597970366477966309e+00,1.555944681167602539e-01
-7.816175222396850586e-01,-1.599976420402526855e+00,2.186406999826431274e-01
-7.827915549278259277e-01,-1.602379679679870605e+00,2.824565172195434570e-01
-7.836598157882690430e-01,-1.604156970977783203e+00,3.470346033573150635e-01
-7.847094535827636719e-01,-1.606305599212646484e+00,4.127298891544342041e-01
-7.432340383529663086e-01,-1.578286886215209961e+00,-4.674447774887084961e-01
-7.441287040710449219e-01,-1.580186724662780762e+00,-4.032407701015472412e-01
-7.451746463775634766e-01,-1.582407712936401367e+00,-3.399872183799743652e-01
-7.459940910339355469e-01,-1.584147930145263672e+00,-2.773321270942687988e-01
-7.469682693481445312e-01,-1.586216688156127930e+00,-2.152772843837738037e-01
-7.479978203773498535e-01,-1.588402986526489258e+00,-1.536046713590621948e-01
-7.489310503005981445e-01,-1.590384721755981445e+00,-9.212762862443923950e-02
-7.498872876167297363e-01,-1.592415213584899902e+00,-3.072343394160270691e-02
-7.508686184883117676e-01,-1.594499111175537109e+00,3.076363913714885712e-02
-7.517557740211486816e-01,-1.596383094787597656e+00,9.247510880231857300e-02
-7.527139186859130859e-01,-1.598417758941650391e+00,1.545731425285339355e-01
-7.538486719131469727e-01,-1.600827336311340332e+00,2.172602117061614990e-01
-7.547712326049804688e-01,-1.602786540985107422e+00,2.805951237678527832e-01
-7.558773756027221680e-01,-1.605135440826416016e+00,3.448703885078430176e-01
-7.569144964218139648e-01,-1.607337832450866699e+00,4.101693332195281982e-01
-7.160093784332275391e-01,-1.578707933425903320e+00,-4.644865691661834717e-01
-7.168852090835571289e-01,-1.580639004707336426e+00,-4.006966352462768555e-01
-7.179042100906372070e-01,-1.582885861396789551e+00,-3.378475606441497803e-01
-7.187032103538513184e-01,-1.584647536277770996e+00,-2.755904197692871094e-01
-7.197519540786743164e-01,-1.586959838867187500e+00,-2.139580547809600830e-01
-7.206448316574096680e-01,-1.588928580284118652e+00,-1.526423692703247070e-01
-7.215461730957031250e-01,-1.590915799140930176e+00,-9.155074506998062134e-02
-7.224670648574829102e-01,-1.592946290969848633e+00,-3.053103759884834290e-02
-7.234097719192504883e-01,-1.595024824142456055e+00,3.057087399065494537e-02
-7.243674397468566895e-01,-1.597136378288269043e+00,9.190871566534042358e-02
-7.251750230789184570e-01,-1.598917007446289062e+00,1.536019295454025269e-01
-7.262579798698425293e-01,-1.601304650306701660e+00,2.158920615911483765e-01
-7.271345853805541992e-01,-1.603237628936767578e+00,2.788234651088714600e-01
-7.281854748725891113e-01,-1.605554699897766113e+00,3.426859378814697266e-01
-7.291677594184875488e-01,-1.607720494270324707e+00,4.075618982315063477e-01
-6.895974874496459961e-01,-1.580214142799377441e+00,-4.619782865047454834e-01
-6.904547810554504395e-01,-1.582178592681884766e+00,-3.985408246517181396e-01
-6.914473772048950195e-01,-1.584453105926513672e+00,-3.360352516174316406e-01
-6.923653483390808105e-01,-1.586556673049926758e+00,-2.741708755493164062e-01
-6.932430863380432129e-01,-1.588568091392517090e+00,-2.128152847290039062e-01
-6.941077709197998047e-01,-1.590549468994140625e+00,-1.518280953168869019e-01
-6.949780583381652832e-01,-1.592543721199035645e+00,-9.106266498565673828e-02
-6.958647966384887695e-01,-1.594575643539428711e+00,-3.036825358867645264e-02
-6.967699527740478516e-01,-1.596649885177612305e+00,3.040775470435619354e-02
-6.976873278617858887e-01,-1.598752021789550781e+00,9.141765534877777100e-02
-6.986019015312194824e-01,-1.600847840309143066e+00,1.528111547231674194e-01
-6.994909048080444336e-01,-1.602884888648986816e+00,2.147332578897476196e-01
-7.003234028816223145e-01,-1.604792594909667969e+00,2.773221731185913086e-01
-7.013209462165832520e-01,-1.607078433036804199e+00,3.408336937427520752e-01
-7.022504210472106934e-01,-1.609208464622497559e+00,4.053494334220886230e-01
-6.630292534828186035e-01,-1.580668091773986816e+00,-4.592894613742828369e-01
-6.638703942298889160e-01,-1.582673430442810059e+00,-3.962312936782836914e-01
-6.648386120796203613e-01,-1.584981560707092285e+00,-3.340949118137359619e-01
-6.657323837280273438e-01,-1.587112307548522949e+00,-2.725922763347625732e-01
-6.665848493576049805e-01,-1.589144706726074219e+00,-2.115926593542098999e-01
-6.674218177795410156e-01,-1.591140031814575195e+00,-1.509571075439453125e-01
-6.682614088058471680e-01,-1.593141674995422363e+00,-9.054063260555267334e-02
-6.691137552261352539e-01,-1.595173597335815430e+00,-3.019415028393268585e-02
-6.699809432029724121e-01,-1.597240924835205078e+00,3.023328259587287903e-02
-6.708567142486572266e-01,-1.599328756332397461e+00,9.089226275682449341e-02
-6.717270612716674805e-01,-1.601403713226318359e+00,1.519308686256408691e-01
-6.725699305534362793e-01,-1.603413224220275879e+00,2.134924829006195068e-01
-6.733559966087341309e-01,-1.605287075042724609e+00,2.757138609886169434e-01
-6.742973327636718750e-01,-1.607531189918518066e+00,3.388481140136718750e-01
-6.751708388328552246e-01,-1.609613776206970215e+00,4.029759764671325684e-01
-6.371675133705139160e-01,-1.582120895385742188e+00,-4.570148289203643799e-01
-6.381903290748596191e-01,-1.584660649299621582e+00,-3.944014906883239746e-01
-6.389353871345520020e-01,-1.586510658264160156e+00,-3.324554264545440674e-01
-6.398050785064697266e-01,-1.588670134544372559e+00,-2.712591588497161865e-01
-6.406324505805969238e-01,-1.590724468231201172e+00,-2.105605006217956543e-01
-6.414422392845153809e-01,-1.592735290527343750e+00,-1.502220183610916138e-01
-6.422517895698547363e-01,-1.594745397567749023e+00,-9.010010212659835815e-02
-6.430706977844238281e-01,-1.596778750419616699e+00,-3.004722855985164642e-02
-6.439009308815002441e-01,-1.598840355873107910e+00,3.008602000772953033e-02
-6.447368264198303223e-01,-1.600915908813476562e+00,9.044872969388961792e-02
-6.455646753311157227e-01,-1.602971434593200684e+00,1.511874645948410034e-01
-6.463634967803955078e-01,-1.604954957962036133e+00,2.124441713094711304e-01
-6.473097801208496094e-01,-1.607304692268371582e+00,2.744409441947937012e-01
-6.479929685592651367e-01,-1.609001040458679199e+00,3.371683061122894287e-01
-6.490867733955383301e-01,-1.611716985702514648e+00,4.011354744434356689e-01
-6.114106178283691406e-01,-1.583184719085693359e+00,-4.547475874423980713e-01
-6.121879816055297852e-01,-1.585197448730468750e+00,-3.923140168190002441e-01
-6.129189729690551758e-01,-1.587090373039245605e+00,-3.307046592235565186e-01
-6.137658357620239258e-01,-1.589283227920532227e+00,-2.698361873626708984e-01
-6.145691871643066406e-01,-1.591363430023193359e+00,-2.094592452049255371e-01
-6.153524518013000488e-01,-1.593391537666320801e+00,-1.494378745555877686e-01
-6.161321401596069336e-01,-1.595410585403442383e+00,-8.963025361299514771e-02
-6.169174909591674805e-01,-1.597444057464599609e+00,-2.989052422344684601e-02
-6.177104115486145020e-01,-1.599497318267822266e+00,2.992894127964973450e-02
-6.185052990913391113e-01,-1.601555585861206055e+00,8.997547626495361328e-02
-6.192892789840698242e-01,-1.603585600852966309e+00,1.503939330577850342e-01
-6.200423240661621094e-01,-1.605535507202148438e+00,2.113246023654937744e-01
-6.209329366683959961e-01,-1.607841730117797852e+00,2.729871273040771484e-01
-6.217983365058898926e-01,-1.610082507133483887e+00,3.354955613613128662e-01
-6.225946545600891113e-01,-1.612144589424133301e+00,3.989830613136291504e-01
-5.857075452804565430e-01,-1.583710074424743652e+00,-4.524441063404083252e-01
-5.864722728729248047e-01,-1.585777997970581055e+00,-3.903402090072631836e-01
-5.873395204544067383e-01,-1.588122725486755371e+00,-3.291343152523040771e-01
-5.880143642425537109e-01,-1.589947581291198730e+00,-2.684924900531768799e-01
-5.887940526008605957e-01,-1.592055678367614746e+00,-2.084197402000427246e-01
-5.895511507987976074e-01,-1.594102978706359863e+00,-1.486979424953460693e-01
-5.903014540672302246e-01,-1.596131682395935059e+00,-8.918695151805877686e-02
-5.910536646842956543e-01,-1.598165631294250488e+00,-2.974267862737178802e-02
-5.918095707893371582e-01,-1.600209593772888184e+00,2.978071756660938263e-02
-5.925638675689697266e-01,-1.602249026298522949e+00,8.952876925468444824e-02
-5.933043360710144043e-01,-1.604251265525817871e+00,1.496445834636688232e-01
-5.941663980484008789e-01,-1.606582164764404297e+00,2.103214263916015625e-01
-5.948472619056701660e-01,-1.608423233032226562e+00,2.716124653816223145e-01
-5.956553816795349121e-01,-1.610608339309692383e+00,3.337943851947784424e-01
-5.963944196701049805e-01,-1.612606644630432129e+00,3.969441056251525879e-01
-5.605665445327758789e-01,-1.585101723670959473e+00,-4.505032896995544434e-01
-5.613169670104980469e-01,-1.587223768234252930e+00,-3.886786103248596191e-01
-5.621619820594787598e-01,-1.589613199234008789e+00,-3.277420103549957275e-01
-5.628207921981811523e-01,-1.591476082801818848e+00,-2.673628032207489014e-01
-5.635763406753540039e-01,-1.593612551689147949e+00,-2.075462639331817627e-01
-5.643072724342346191e-01,-1.595679283142089844e+00,-1.480763852596282959e-01
-5.650284290313720703e-01,-1.597718596458435059e+00,-8.881461620330810547e-02
-5.657482147216796875e-01,-1.599753975868225098e+00,-2.961849980056285858e-02
-5.664682984352111816e-01,-1.601790189743041992e+00,2.965619787573814392e-02
-5.671836733818054199e-01,-1.603812932968139648e+00,8.915339410305023193e-02
-5.678827166557312012e-01,-1.605789542198181152e+00,1.490145921707153320e-01
-5.686944723129272461e-01,-1.608084917068481445e+00,2.094310820102691650e-01
-5.693305730819702148e-01,-1.609883546829223633e+00,2.704552114009857178e-01
-5.700846910476684570e-01,-1.612016081809997559e+00,3.323609828948974609e-01
-5.710089206695556641e-01,-1.614629507064819336e+00,3.953897058963775635e-01
-5.355492234230041504e-01,-1.586227178573608398e+00,-4.485985338687896729e-01
-5.362590551376342773e-01,-1.588329553604125977e+00,-3.870301246643066406e-01
-5.369185209274291992e-01,-1.590282917022705078e+00,-3.262621760368347168e-01
-5.376689434051513672e-01,-1.592505455017089844e+00,-2.662155926227569580e-01
-5.382947921752929688e-01,-1.594359278678894043e+00,-2.066188901662826538e-01
-5.390000343322753906e-01,-1.596448063850402832e+00,-1.474166810512542725e-01
-5.396924018859863281e-01,-1.598498702049255371e+00,-8.841951191425323486e-02
-5.403797030448913574e-01,-1.600534439086914062e+00,-2.948672696948051453e-02
-5.410636067390441895e-01,-1.602560043334960938e+00,2.952404506504535675e-02
-5.417392849922180176e-01,-1.604561328887939453e+00,8.875486254692077637e-02
-5.425059199333190918e-01,-1.606832027435302734e+00,1.483755409717559814e-01
-5.431557297706604004e-01,-1.608756661415100098e+00,2.084846943616867065e-01
-5.439152121543884277e-01,-1.611006259918212891e+00,2.693083286285400391e-01
-5.446425676345825195e-01,-1.613160490989685059e+00,3.309557139873504639e-01
-5.452999472618103027e-01,-1.615107536315917969e+00,3.935551345348358154e-01
-5.105659961700439453e-01,-1.586810350418090820e+00,-4.466509819030761719e-01
-5.112646222114562988e-01,-1.588981509208679199e+00,-3.853663206100463867e-01
-5.119119286537170410e-01,-1.590993285179138184e+00,-3.248713612556457520e-01
-5.126417875289916992e-01,-1.593261718750000000e+00,-2.650882601737976074e-01
-5.132499933242797852e-01,-1.595152020454406738e+00,-2.057484984397888184e-01
-5.139297842979431152e-01,-1.597264647483825684e+00,-1.467977911233901978e-01
-5.145934224128723145e-01,-1.599327325820922852e+00,-8.804890513420104980e-02
-5.152485370635986328e-01,-1.601363301277160645e+00,-2.936311811208724976e-02
-5.158966779708862305e-01,-1.603377699851989746e+00,2.940005622804164886e-02
-5.165332555770874023e-01,-1.605356097221374512e+00,8.838081359863281250e-02
-5.172522068023681641e-01,-1.607590556144714355e+00,1.477468013763427734e-01
-5.178567767143249512e-01,-1.609469652175903320e+00,2.075952291488647461e-01
-5.185617208480834961e-01,-1.611660599708557129e+00,2.681494653224945068e-01
-5.192325711250305176e-01,-1.613745450973510742e+00,3.295172452926635742e-01
-5.200498104095458984e-01,-1.616285443305969238e+00,3.919881880283355713e-01
-4.859785139560699463e-01,-1.587992310523986816e+00,-4.449801445007324219e-01
-4.864910244941711426e-01,-1.589666962623596191e+00,-3.838044703006744385e-01
-4.872484207153320312e-01,-1.592141866683959961e+00,-3.236486613750457764e-01
-4.878348410129547119e-01,-1.594058036804199219e+00,-2.640319168567657471e-01
-4.884937405586242676e-01,-1.596211075782775879e+00,-2.049622535705566406e-01
-4.890793561935424805e-01,-1.598124742507934570e+00,-1.462184786796569824e-01
-4.897146224975585938e-01,-1.600200533866882324e+00,-8.770209550857543945e-02
-4.903378784656524658e-01,-1.602236986160278320e+00,-2.924745157361030579e-02
-4.909506738185882568e-01,-1.604239463806152344e+00,2.928400412201881409e-02
-4.916201531887054443e-01,-1.606427073478698730e+00,8.804334700107574463e-02
-4.922208189964294434e-01,-1.608389854431152344e+00,1.471576690673828125e-01
-4.929076135158538818e-01,-1.610633969306945801e+00,2.068142294883728027e-01
-4.934324622154235840e-01,-1.612348914146423340e+00,2.670615315437316895e-01
-4.942276775836944580e-01,-1.614947438240051270e+00,3.282845616340637207e-01
-4.947985410690307617e-01,-1.616812825202941895e+00,3.903584778308868408e-01
-4.614129066467285156e-01,-1.588627219200134277e+00,-4.432619810104370117e-01
-4.620631933212280273e-01,-1.590866208076477051e+00,-3.824580311775207520e-01
-4.626597762107849121e-01,-1.592920184135437012e+00,-3.224276900291442871e-01
-4.632319808006286621e-01,-1.594890236854553223e+00,-2.630445957183837891e-01
-4.638688266277313232e-01,-1.597082853317260742e+00,-2.042007297277450562e-01
-4.644327461719512939e-01,-1.599024415016174316e+00,-1.456776559352874756e-01
-4.650396108627319336e-01,-1.601113796234130859e+00,-8.737839013338088989e-02
-4.656312763690948486e-01,-1.603150963783264160e+00,-2.913948893547058105e-02
-4.662092328071594238e-01,-1.605140805244445801e+00,2.917565777897834778e-02
-4.668367505073547363e-01,-1.607301354408264160e+00,8.771606534719467163e-02
-4.673955440521240234e-01,-1.609225273132324219e+00,1.466069817543029785e-01
-4.680317938327789307e-01,-1.611415743827819824e+00,2.060333043336868286e-01
-4.686564505100250244e-01,-1.613566517829895020e+00,2.661248445510864258e-01
-4.692426919937133789e-01,-1.615584850311279297e+00,3.270153105258941650e-01
-4.699527323246002197e-01,-1.618029594421386719e+00,3.889883458614349365e-01
-4.371941089630126953e-01,-1.589849472045898438e+00,-4.418117105960845947e-01
-4.376765191555023193e-01,-1.591603755950927734e+00,-3.810902237892150879e-01
-4.382604360580444336e-01,-1.593727111816406250e+00,-3.212883770465850830e-01
-4.389035105705261230e-01,-1.596065759658813477e+00,-2.621754705905914307e-01
-4.394321441650390625e-01,-1.597988128662109375e+00,-2.034914046525955200e-01
-4.400106668472290039e-01,-1.600091934204101562e+00,-1.451862454414367676e-01
-4.405525922775268555e-01,-1.602062582969665527e+00,-8.707711845636367798e-02
-4.411130547523498535e-01,-1.604100704193115234e+00,-2.903901413083076477e-02
-4.416953921318054199e-01,-1.606218338012695312e+00,2.907735109329223633e-02
-4.422428905963897705e-01,-1.608209371566772461e+00,8.741120994091033936e-02
-4.428494274616241455e-01,-1.610414981842041016e+00,1.461229324340820312e-01
-4.433476328849792480e-01,-1.612226724624633789e+00,2.053045779466629028e-01
-4.439199566841125488e-01,-1.614307880401611328e+00,2.651720046997070312e-01
-4.446129798889160156e-01,-1.616828083992004395e+00,3.259454369544982910e-01
-4.450979232788085938e-01,-1.618591547012329102e+00,3.875521421432495117e-01
-4.129867851734161377e-01,-1.590518832206726074e+00,-4.403098821640014648e-01
-4.135903418064117432e-01,-1.592843294143676758e+00,-3.799306452274322510e-01
-4.141386747360229492e-01,-1.594954967498779297e+00,-3.203080892562866211e-01
-4.146575927734375000e-01,-1.596953511238098145e+00,-2.613196074962615967e-01
-4.151686131954193115e-01,-1.598921537399291992e+00,-2.028327733278274536e-01
-4.157226085662841797e-01,-1.601055145263671875e+00,-1.447189152240753174e-01
-4.162384569644927979e-01,-1.603041887283325195e+00,-8.679762482643127441e-02
-4.167678058147430420e-01,-1.605080485343933105e+00,-2.894579619169235229e-02
-4.173138439655303955e-01,-1.607183337211608887e+00,2.898371964693069458e-02
-4.178233742713928223e-01,-1.609145760536193848e+00,8.712812513113021851e-02
-4.183844625949859619e-01,-1.611306667327880859e+00,1.456455439329147339e-01
-4.189465343952178955e-01,-1.613471388816833496e+00,2.046785056591033936e-01
-4.194905459880828857e-01,-1.615566492080688477e+00,2.643653750419616699e-01
-4.199927747249603271e-01,-1.617500782012939453e+00,3.248358368873596191e-01
-4.205973148345947266e-01,-1.619828939437866211e+00,3.863673806190490723e-01
-3.890798389911651611e-01,-1.591761589050292969e+00,-4.390672445297241211e-01
-3.895324766635894775e-01,-1.593613505363464355e+00,-3.787456750869750977e-01
-3.900672793388366699e-01,-1.595801353454589844e+00,-3.193240761756896973e-01
-3.905710577964782715e-01,-1.597862362861633301e+00,-2.605268359184265137e-01
-3.910637497901916504e-01,-1.599877953529357910e+00,-2.022233158349990845e-01
-3.915928304195404053e-01,-1.602042436599731445e+00,-1.442867368459701538e-01
-3.920825123786926270e-01,-1.604045867919921875e+00,-8.653925359249114990e-02
-3.925809562206268311e-01,-1.606085062026977539e+00,-2.885962091386318207e-02
-3.930913209915161133e-01,-1.608173012733459473e+00,2.889713831245899200e-02
-3.935635983943939209e-01,-1.610105156898498535e+00,8.686615526676177979e-02
-3.940804302692413330e-01,-1.612219452857971191e+00,1.452033221721649170e-01
-3.945944011211395264e-01,-1.614322185516357422e+00,2.040490508079528809e-01
-3.950878083705902100e-01,-1.616340875625610352e+00,2.635397017002105713e-01
-3.956802487373352051e-01,-1.618764519691467285e+00,3.239190876483917236e-01
-3.962434530258178711e-01,-1.621068716049194336e+00,3.852708041667938232e-01
-3.651757836341857910e-01,-1.592444777488708496e+00,-4.377690851688385010e-01
-3.657323420047760010e-01,-1.594871878623962402e+00,-3.777619004249572754e-01
-3.662331998348236084e-01,-1.597055912017822266e+00,-3.184935450553894043e-01
-3.666300177574157715e-01,-1.598786354064941406e+00,-2.597952485084533691e-01
-3.671540915966033936e-01,-1.601071715354919434e+00,-2.016892731189727783e-01
-3.676072955131530762e-01,-1.603047966957092285e+00,-1.438886672258377075e-01
-3.680706918239593506e-01,-1.605068802833557129e+00,-8.630136400461196899e-02
-3.685384690761566162e-01,-1.607108592987060547e+00,-2.878027595579624176e-02
-3.690135776996612549e-01,-1.609180450439453125e+00,2.881737984716892242e-02
-3.695022761821746826e-01,-1.611311554908752441e+00,8.663702756166458130e-02
-3.699233233928680420e-01,-1.613147616386413574e+00,1.447951942682266235e-01
-3.704842627048492432e-01,-1.615593791007995605e+00,2.035186439752578735e-01
-3.709485828876495361e-01,-1.617618560791015625e+00,2.628554105758666992e-01
-3.713689744472503662e-01,-1.619451761245727539e+00,3.229598701000213623e-01
-3.718717992305755615e-01,-1.621644496917724609e+00,3.841032683849334717e-01
-3.414284586906433105e-01,-1.593220353126525879e+00,-4.365940988063812256e-01
-3.418520987033843994e-01,-1.595197200775146484e+00,-3.766413927078247070e-01
-3.423397243022918701e-01,-1.597472548484802246e+00,-3.175669312477111816e-01
-3.427927494049072266e-01,-1.599586606025695801e+00,-2.591014504432678223e-01
-3.432284593582153320e-01,-1.601619839668273926e+00,-2.011188566684722900e-01
-3.436601758003234863e-01,-1.603634357452392578e+00,-1.434850692749023438e-01
-3.440973758697509766e-01,-1.605674386024475098e+00,-8.606029301881790161e-02
-3.445345759391784668e-01,-1.607714533805847168e+00,-2.869987487792968750e-02
-3.449744582176208496e-01,-1.609767198562622070e+00,2.873651869595050812e-02
-3.454229235649108887e-01,-1.611859798431396484e+00,8.639182150363922119e-02
-3.458726406097412109e-01,-1.613958358764648438e+00,1.444088220596313477e-01
-3.463121652603149414e-01,-1.616009354591369629e+00,2.029257863759994507e-01
-3.467262089252471924e-01,-1.617941379547119141e+00,2.620745599269866943e-01
-3.472187221050262451e-01,-1.620239615440368652e+00,3.220928609371185303e-01
-3.476783335208892822e-01,-1.622384428977966309e+00,3.830605447292327881e-01
-3.179021179676055908e-01,-1.594486832618713379e+00,-4.356496036052703857e-01
-3.183007538318634033e-01,-1.596486330032348633e+00,-3.758315443992614746e-01
-3.186769783496856689e-01,-1.598373174667358398e+00,-3.168067336082458496e-01
-3.191124200820922852e-01,-1.600557327270507812e+00,-2.584923505783081055e-01
-3.195284605026245117e-01,-1.602643966674804688e+00,-2.006525993347167969e-01
-3.199373781681060791e-01,-1.604695081710815430e+00,-1.431555747985839844e-01
-3.203478455543518066e-01,-1.606753706932067871e+00,-8.586359024047851562e-02
-3.207547068595886230e-01,-1.608794450759887695e+00,-2.863426133990287781e-02
-3.211605548858642578e-01,-1.610830068588256836e+00,2.867049351334571838e-02
-3.215708136558532715e-01,-1.612887740135192871e+00,8.619138598442077637e-02
-3.219787180423736572e-01,-1.614933729171752930e+00,1.440689712762832642e-01
-3.223738074302673340e-01,-1.616915225982666016e+00,2.024393677711486816e-01
-3.228393197059631348e-01,-1.619250178337097168e+00,2.615112662315368652e-01
