7.740973830223083496e-01,-5.812818050384521484e+00,5.130445957183837891e-01
7.748924493789672852e-01,-5.818788528442382812e+00,7.207636833190917969e-01
7.756698727607727051e-01,-5.824625968933105469e+00,9.306730628013610840e-01
7.763848304748535156e-01,-5.829994678497314453e+00,1.143238902091979980e+00
7.772368788719177246e-01,-5.836392879486083984e+00,1.359331011772155762e+00
5.854826569557189941e-01,-3.962231636047363281e+00,-1.073203206062316895e+00
6.983208060264587402e-01,-4.725859642028808594e+00,-1.102896094322204590e+00
8.574473261833190918e-01,-5.802742481231689453e+00,-1.140184760093688965e+00
9.081499576568603516e-01,-6.145870685577392578e+00,-9.839785099029541016e-01
9.090722203254699707e-01,-6.152112007141113281e+00,-7.635855078697204590e-01
9.098508954048156738e-01,-6.157381534576416016e+00,-5.445497035980224609e-01
9.106997251510620117e-01,-6.163125991821289062e+00,-3.265024721622467041e-01
9.115269780158996582e-01,-6.168724060058593750e+00,-1.088445037603378296e-01
9.123564958572387695e-01,-6.174338340759277344e+00,1.089435592293739319e-01
9.132441282272338867e-01,-6.180345058441162109e+00,3.274147212505340576e-01
9.140227437019348145e-01,-6.185614109039306641e+00,5.470465421676635742e-01
9.148932099342346191e-01,-6.191504955291748047e+00,7.684748768806457520e-01
9.157196283340454102e-01,-6.197098255157470703e+00,9.921802282333374023e-01
9.167061448097229004e-01,-6.203774452209472656e+00,1.218983769416809082e+00
6.423057317733764648e-01,-3.954527616500854492e+00,-1.073496699333190918e+00
7.645160555839538574e-01,-4.706948280334472656e+00,-1.100923657417297363e+00
9.435386657714843750e-01,-5.809149265289306641e+00,-1.143980145454406738e+00
1.071145296096801758e+00,-6.594793796539306641e+00,-1.058199167251586914e+00
1.072117924690246582e+00,-6.600781917572021484e+00,-8.210939168930053711e-01
1.073163032531738281e+00,-6.607216358184814453e+00,-5.856309533119201660e-01
1.074086904525756836e+00,-6.612904071807861328e+00,-3.511087596416473389e-01
1.075041532516479492e+00,-6.618782043457031250e+00,-1.170450970530509949e-01
1.076030373573303223e+00,-6.624869346618652344e+00,1.171527504920959473e-01
1.076934933662414551e+00,-6.630438804626464844e+00,3.520397543907165527e-01
1.077901721000671387e+00,-6.636391162872314453e+00,5.882168412208557129e-01
1.078835248947143555e+00,-6.642138481140136719e+00,8.262384533882141113e-01
1.079939126968383789e+00,-6.648934841156005859e+00,1.066886663436889648e+00
1.080992817878723145e+00,-6.655422687530517578e+00,1.310634493827819824e+00
6.991564631462097168e-01,-3.946732521057128906e+00,-1.073987245559692383e+00
8.305122852325439453e-01,-4.688235282897949219e+00,-1.099214673042297363e+00
1.021914243698120117e+00,-5.768697261810302734e+00,-1.138777852058410645e+00
1.258415102958679199e+00,-7.103743076324462891e+00,-1.142638325691223145e+00
1.259579658508300781e+00,-7.110316753387451172e+00,-8.866285681724548340e-01
1.260691761970520020e+00,-7.116594314575195312e+00,-6.323143243789672852e-01
1.261785030364990234e+00,-7.122766494750976562e+00,-3.790997564792633057e-01
1.262878537178039551e+00,-7.128939151763916016e+00,-1.263733208179473877e-01
1.263976931571960449e+00,-7.135139942169189453e+00,1.264832466840744019e-01
1.265068054199218750e+00,-7.141299247741699219e+00,3.800861239433288574e-01
1.266125679016113281e+00,-7.147269248962402344e+00,6.350398063659667969e-01
1.267345786094665527e+00,-7.154156684875488281e+00,8.920952677726745605e-01
1.268544673919677734e+00,-7.160924434661865234e+00,1.151835918426513672e+00
7.566524147987365723e-01,-3.941958665847778320e+00,-1.075525164604187012e+00
8.970633149147033691e-01,-4.673462390899658203e+00,-1.098648905754089355e+00
1.109313249588012695e+00,-5.779228210449218750e+00,-1.143874049186706543e+00
1.422452449798583984e+00,-7.410600662231445312e+00,-1.195148825645446777e+00
1.485507249832153320e+00,-7.739099025726318359e+00,-9.675875306129455566e-01
1.486682057380676270e+00,-7.745220184326171875e+00,-6.899881362915039062e-01
1.487975716590881348e+00,-7.751959323883056641e+00,-4.136788845062255859e-01
1.489224314689636230e+00,-7.758464336395263672e+00,-1.378965228796005249e-01
1.490434765815734863e+00,-7.764770507812500000e+00,1.380086094141006470e-01
1.491735219955444336e+00,-7.771545410156250000e+00,4.147240519523620605e-01
1.493083119392395020e+00,-7.778567314147949219e+00,6.929589509963989258e-01
1.494152665138244629e+00,-7.784139633178710938e+00,9.732187986373901367e-01
1.495701074600219727e+00,-7.792206764221191406e+00,1.256692647933959961e+00
8.142902255058288574e-01,-3.937001466751098633e+00,-1.077242374420166016e+00
9.696255326271057129e-01,-4.688030242919921875e+00,-1.105222940444946289e+00
1.188051819801330566e+00,-5.744096755981445312e+00,-1.140169501304626465e+00
1.532119870185852051e+00,-7.407626628875732422e+00,-1.198083281517028809e+00
1.752532124519348145e+00,-8.473295211791992188e+00,-1.062408447265625000e+00
1.753890395164489746e+00,-8.479862213134765625e+00,-7.575930953025817871e-01
1.755270600318908691e+00,-8.486536026000976562e+00,-4.541733264923095703e-01
1.756689667701721191e+00,-8.493396759033203125e+00,-1.513903886079788208e-01
1.758096814155578613e+00,-8.500200271606445312e+00,1.515116542577743530e-01
1.759542107582092285e+00,-8.507187843322753906e+00,4.552785754203796387e-01
1.760987997055053711e+00,-8.514178276062011719e+00,7.606589198112487793e-01
1.762377142906188965e+00,-8.520895004272460938e+00,1.068376660346984863e+00
8.676040768623352051e-01,-3.911648035049438477e+00,-1.073593139648437500e+00
1.036431193351745605e+00,-4.672815799713134766e+00,-1.105020284652709961e+00
1.266385912895202637e+00,-5.709580898284912109e+00,-1.136799931526184082e+00
1.642232775688171387e+00,-7.404110431671142578e+00,-1.201193332672119141e+00
2.072023391723632812e+00,-9.341849327087402344e+00,-1.174908757209777832e+00
2.073585748672485352e+00,-9.348893165588378906e+00,-8.377982974052429199e-01
2.075109243392944336e+00,-9.355761528015136719e+00,-5.022297501564025879e-01
2.076640844345092773e+00,-9.362667083740234375e+00,-1.673973500728607178e-01
2.078249931335449219e+00,-9.369921684265136719e+00,1.675270497798919678e-01
2.079838991165161133e+00,-9.377085685729980469e+00,5.033744573593139648e-01
2.081365585327148438e+00,-9.383968353271484375e+00,8.409416079521179199e-01
2.083129644393920898e+00,-9.391921997070312500e+00,1.181206345558166504e+00
9.260407090187072754e-01,-3.909562110900878906e+00,-1.076548218727111816e+00
1.097387194633483887e+00,-4.632953166961669922e+00,-1.099195480346679688e+00
1.355706930160522461e+00,-5.723528385162353516e+00,-1.143323302268981934e+00
1.754280209541320801e+00,-7.406226634979248047e+00,-1.205486774444580078e+00
2.447547435760498047e+00,-1.033306503295898438e+01,-1.303844809532165527e+00
2.480350017547607422e+00,-1.047155094146728516e+01,-9.414901137351989746e-01
2.482132911682128906e+00,-1.047907733917236328e+01,-5.643802285194396973e-01
2.483833074569702148e+00,-1.048625564575195312e+01,-1.881026327610015869e-01
2.485549926757812500e+00,-1.049350452423095703e+01,1.882326602935791016e-01
2.487383365631103516e+00,-1.050124454498291016e+01,5.655741095542907715e-01
2.488946914672851562e+00,-1.050784587860107422e+01,9.447533488273620605e-01
9.798110127449035645e-01,-3.887621641159057617e+00,-1.074258446693420410e+00
1.164833664894104004e+00,-4.621740818023681641e+00,-1.100378394126892090e+00
1.435007572174072266e+00,-5.693716526031494141e+00,-1.141354322433471680e+00
1.848782539367675781e+00,-7.335462570190429688e+00,-1.198153257369995117e+00
2.594974994659423828e+00,-1.029614925384521484e+01,-1.303739905357360840e+00
2.991161584854125977e+00,-1.186810970306396484e+01,-1.070793509483337402e+00
2.992967605590820312e+00,-1.187527561187744141e+01,-6.418179273605346680e-01
2.994822978973388672e+00,-1.188263702392578125e+01,-2.138979732990264893e-01
2.996736049652099609e+00,-1.189022731781005859e+01,2.140346169471740723e-01
2.998679876327514648e+00,-1.189794063568115234e+01,6.430428624153137207e-01
3.000591039657592773e+00,-1.190552330017089844e+01,1.074169039726257324e+00
1.034237146377563477e+00,-3.869036436080932617e+00,-1.073103547096252441e+00
1.233398318290710449e+00,-4.614089488983154297e+00,-1.102646946907043457e+00
1.515362620353698730e+00,-5.668905735015869141e+00,-1.140611886978149414e+00
1.962844967842102051e+00,-7.342917919158935547e+00,-1.203836679458618164e+00
2.744736671447753906e+00,-1.026794052124023438e+01,-1.305009007453918457e+00
3.683944225311279297e+00,-1.378147602081298828e+01,-1.248055458068847656e+00
3.685972690582275391e+00,-1.378906345367431641e+01,-7.480263710021972656e-01
3.687928438186645508e+00,-1.379638004302978516e+01,-2.492717206478118896e-01
3.689826250076293945e+00,-1.380347919464111328e+01,2.493999898433685303e-01
3.691929578781127930e+00,-1.381134796142578125e+01,7.492352724075317383e-01
1.093876600265502930e+00,-3.869302034378051758e+00,-1.077409505844116211e+00
1.302170753479003906e+00,-4.606087684631347656e+00,-1.105075716972351074e+00
1.595651030540466309e+00,-5.644197463989257812e+00,-1.140118956565856934e+00
2.058068275451660156e+00,-7.279877662658691406e+00,-1.198208212852478027e+00
2.894734621047973633e+00,-1.023936557769775391e+01,-1.306509375572204590e+00
4.626307964324951172e+00,-1.636435317993164062e+01,-1.487806200981140137e+00
4.628037452697753906e+00,-1.637047004699707031e+01,-8.915642499923706055e-01
4.629934787750244141e+00,-1.637718200683593750e+01,-2.970683574676513672e-01
4.631756305694580078e+00,-1.638362503051757812e+01,2.971852123737335205e-01
4.633691310882568359e+00,-1.639046859741210938e+01,8.926534056663513184e-01
1.149251341819763184e+00,-3.853616952896118164e+00,-1.077512025833129883e+00
1.364362716674804688e+00,-4.574918270111083984e+00,-1.102169990539550781e+00
1.677280664443969727e+00,-5.624180793762207031e+00,-1.140808343887329102e+00
2.174698114395141602e+00,-7.292098045349121094e+00,-1.205219507217407227e+00
3.047585248947143555e+00,-1.021902275085449219e+01,-1.309345602989196777e+00
5.082246780395507812e+00,-1.704155540466308594e+01,-1.555830121040344238e+00
7.695198535919189453e+00,-2.580318450927734375e+01,-1.411140441894531250e+00
7.704753398895263672e+00,-2.583522605895996094e+01,-4.705815315246582031e-01
7.714424133300781250e+00,-2.586765289306640625e+01,4.711722135543823242e-01
1.204630017280578613e+00,-3.837868213653564453e+00,-1.077819347381591797e+00
1.434473514556884766e+00,-4.570133686065673828e+00,-1.105850577354431152e+00
1.758982181549072266e+00,-5.603995800018310547e+00,-1.141704082489013672e+00
2.271214962005615234e+00,-7.235934734344482422e+00,-1.201186895370483398e+00
3.200914144515991211e+00,-1.019789218902587891e+01,-1.312373995780944824e+00
5.410266399383544922e+00,-1.723673629760742188e+01,-1.580557465553283691e+00
9.465504646301269531e+00,-3.015644454956054688e+01,-1.656453847885131836e+00
9.467279434204101562e+00,-3.016209983825683594e+01,-5.518060922622680664e-01
1.255187511444091797e+00,-3.807353019714355469e+00,-1.074185013771057129e+00
1.497682332992553711e+00,-4.542911052703857422e+00,-1.104337453842163086e+00
1.842283844947814941e+00,-5.588188648223876953e+00,-1.143738746643066406e+00
2.369305133819580078e+00,-7.186799526214599609e+00,-1.198537230491638184e+00
3.357571125030517578e+00,-1.018450164794921875e+01,-1.316700577735900879e+00
5.626476287841796875e+00,-1.706675720214843750e+01,-1.572194576263427734e+00
1.301781368255615234e+01,-3.948685836791992188e+01,-2.178973197937011719e+00
1.301677417755126953e+01,-3.948370742797851562e+01,-7.256761789321899414e-01
1.311492919921875000e+00,-3.794621229171752930e+00,-1.075778961181640625e+00
1.560779213905334473e+00,-4.515895843505859375e+00,-1.103088021278381348e+00
1.925773501396179199e+00,-5.571955680847167969e+00,-1.145940542221069336e+00
2.489227771759033203e+00,-7.202231884002685547e+00,-1.206929206848144531e+00
3.514912605285644531e+00,-1.016990756988525391e+01,-1.321182847023010254e+00
5.841435432434082031e+00,-1.690137481689453125e+01,-1.564501523971557617e+00
1.833541107177734375e+01,-5.305094528198242188e+01,-2.941650390625000000e+00
1.368965387344360352e+00,-3.784580469131469727e+00,-1.078377008438110352e+00
1.625085473060607910e+00,-4.492638587951660156e+00,-1.102975845336914062e+00
1.997554063796997070e+00,-5.522348403930664062e+00,-1.141501545906066895e+00
2.589435577392578125e+00,-7.158637523651123047e+00,-1.205711245536804199e+00
3.630383491516113281e+00,-1.003639602661132812e+01,-1.310454607009887695e+00
6.060397148132324219e+00,-1.675430107116699219e+01,-1.558757543563842773e+00
1.823526191711425781e+01,-5.041238784790039062e+01,-2.809528827667236328e+00
1.421415686607360840e+00,-3.760434865951538086e+00,-1.077183842658996582e+00
1.690725088119506836e+00,-4.472908020019531250e+00,-1.103960156440734863e+00
2.084473133087158203e+00,-5.514590263366699219e+00,-1.145947813987731934e+00
2.691743612289428711e+00,-7.121158599853515625e+00,-1.205764532089233398e+00
3.794084072113037109e+00,-1.003746223449707031e+01,-1.317549705505371094e+00
6.414653778076171875e+00,-1.697032737731933594e+01,-1.587235331535339355e+00
1.933017158508300781e+01,-5.113905334472656250e+01,-2.865152835845947266e+00
1.473795533180236816e+00,-3.736426115036010742e+00,-1.076238989830017090e+00
1.756424784660339355e+00,-4.452959537506103516e+00,-1.105128288269042969e+00
2.157636880874633789e+00,-5.470129013061523438e+00,-1.143009185791015625e+00
2.794056177139282227e+00,-7.083604812622070312e+00,-1.206053853034973145e+00
3.911436080932617188e+00,-9.916431427001953125e+00,-1.308877706527709961e+00
6.639543056488037109e+00,-1.683283805847167969e+01,-1.583102464675903320e+00
2.045425415039062500e+01,-5.185645294189453125e+01,-2.921450138092041016e+00
3.014154434204101562e+01,-7.641606903076171875e+01,-1.433857679367065430e+00
1.528489351272583008e+00,-3.718281030654907227e+00,-1.077203869819641113e+00
1.815703988075256348e+00,-4.416974067687988281e+00,-1.102534413337707520e+00
2.234199523925781250e+00,-5.435027599334716797e+00,-1.142239809036254883e+00
2.901104450225830078e+00,-7.057374477386474609e+00,-1.208534240722656250e+00
4.082540512084960938e+00,-9.931395530700683594e+00,-1.318430662155151367e+00
6.875433921813964844e+00,-1.672553062438964844e+01,-1.582103729248046875e+00
1.705392646789550781e+01,-4.148625183105468750e+01,-2.350732564926147461e+00
1.710186958312988281e+01,-4.160287857055664062e+01,-7.851418256759643555e-01
1.583224654197692871e+00,-3.699940919876098633e+00,-1.078345298767089844e+00
1.884342908859252930e+00,-4.403643608093261719e+00,-1.105826258659362793e+00
2.310722589492797852e+00,-5.400078296661376953e+00,-1.141728758811950684e+00
2.983849525451660156e+00,-6.973152160644531250e+00,-1.201302289962768555e+00
4.205843925476074219e+00,-9.828910827636718750e+00,-1.312682747840881348e+00
7.111251831054687500e+00,-1.661874771118164062e+01,-1.581469058990478516e+00
1.229844379425048828e+01,-2.874103355407714844e+01,-1.638357877731323242e+00
1.232887268066406250e+01,-2.881214523315429688e+01,-5.470256805419921875e-01
1.632537126541137695e+00,-3.669084072113037109e+00,-1.076052308082580566e+00
1.945012331008911133e+00,-4.371363639831542969e+00,-1.104598164558410645e+00
2.389088392257690430e+00,-5.369413375854492188e+00,-1.142358303070068359e+00
3.093340873718261719e+00,-6.952201843261718750e+00,-1.205197334289550781e+00
4.332265853881835938e+00,-9.736653327941894531e+00,-1.308508992195129395e+00
7.353060245513916016e+00,-1.652580833435058594e+01,-1.582478284835815430e+00
1.087672996520996094e+01,-2.444516372680664062e+01,-1.402206540107727051e+00
1.089022159576416016e+01,-2.447548484802246094e+01,-4.676016569137573242e-01
1.090362358093261719e+01,-2.450560569763183594e+01,4.681771099567413330e-01
1.689808964729309082e+00,-3.656003475189208984e+00,-1.079198956489562988e+00
2.007160425186157227e+00,-4.342612743377685547e+00,-1.104479551315307617e+00
2.469405889511108398e+00,-5.342708587646484375e+00,-1.144079566001892090e+00
3.180565834045410156e+00,-6.881345748901367188e+00,-1.200683116912841797e+00
4.511892795562744141e+00,-9.761751174926757812e+00,-1.320425748825073242e+00
7.601217269897460938e+00,-1.644569206237792969e+01,-1.585062623023986816e+00
1.123844528198242188e+01,-2.431505393981933594e+01,-1.403826594352722168e+00
1.125238037109375000e+01,-2.434520149230957031e+01,-4.681417047977447510e-01
1.126626205444335938e+01,-2.437523651123046875e+01,4.687192440032958984e-01
1.741615176200866699e+00,-3.630724430084228516e+00,-1.078984975814819336e+00
2.070867300033569336e+00,-4.317112445831298828e+00,-1.105419516563415527e+00
2.551778554916381836e+00,-5.319662570953369141e+00,-1.146848440170288086e+00
3.295392036437988281e+00,-6.869864463806152344e+00,-1.206786274909973145e+00
4.645475864410400391e+00,-9.684368133544921875e+00,-1.318817615509033203e+00
7.856048583984375000e+00,-1.637741088867187500e+01,-1.589156627655029297e+00
1.160123538970947266e+01,-2.418495750427246094e+01,-1.405758619308471680e+00
1.161562824249267578e+01,-2.421496200561523438e+01,-4.687863290309906006e-01
1.162976646423339844e+01,-2.424443626403808594e+01,4.693569242954254150e-01
1.787815451622009277e+00,-3.594200134277343750e+00,-1.075625300407409668e+00
2.126286983489990234e+00,-4.274658679962158203e+00,-1.102228999137878418e+00
2.621042251586914062e+00,-5.269308090209960938e+00,-1.143963456153869629e+00
3.387585401535034180e+00,-6.810356140136718750e+00,-1.204727053642272949e+00
4.782709598541259766e+00,-9.615095138549804688e+00,-1.318571448326110840e+00
7.972362995147705078e+00,-1.602753067016601562e+01,-1.566118836402893066e+00
9.730300903320312500e+00,-1.956166648864746094e+01,-1.145006418228149414e+00
9.746391296386718750e+00,-1.959401321411132812e+01,-3.819893002510070801e-01
9.762860298156738281e+00,-1.962712287902832031e+01,3.826347887516021729e-01
1.842203974723815918e+00,-3.574320554733276367e+00,-1.077456712722778320e+00
2.193188667297363281e+00,-4.255315303802490234e+00,-1.105222582817077637e+00
2.692245721817016602e+00,-5.223606586456298828e+00,-1.142290711402893066e+00
3.482351303100585938e+00,-6.756602287292480469e+00,-1.203912138938903809e+00
4.923720359802246094e+00,-9.553206443786621094e+00,-1.319613814353942871e+00
8.239102363586425781e+00,-1.598584842681884766e+01,-1.573408126831054688e+00
9.105039596557617188e+00,-1.766597557067871094e+01,-1.041567206382751465e+00
9.119862556457519531e+00,-1.769473648071289062e+01,-3.474717438220977783e-01
9.134634971618652344e+00,-1.772339820861816406e+01,3.480345606803894043e-01
1.892362475395202637e+00,-3.546073913574218750e+00,-1.076996684074401855e+00
2.253424167633056641e+00,-4.222662925720214844e+00,-1.105005979537963867e+00
2.767510890960693359e+00,-5.186003208160400391e+00,-1.142613053321838379e+00
3.582474946975708008e+00,-6.713154315948486328e+00,-1.205183744430541992e+00
5.072530269622802734e+00,-9.505350112915039062e+00,-1.322896957397460938e+00
8.519927978515625000e+00,-1.596538448333740234e+01,-1.583234667778015137e+00
8.565746307373046875e+00,-1.605124282836914062e+01,-9.534952640533447266e-01
8.579326629638671875e+00,-1.607669067382812500e+01,-3.180769979953765869e-01
8.592879295349121094e+00,-1.610208511352539062e+01,3.185794353485107422e-01
8.606325149536132812e+00,-1.612728309631347656e+01,9.580123424530029297e-01
1.943882584571838379e+00,-3.520370244979858398e+00,-1.077530145645141602e+00
2.315317392349243164e+00,-4.193038940429687500e+00,-1.105812788009643555e+00
2.844866275787353516e+00,-5.152051448822021484e+00,-1.143987059593200684e+00
3.685381650924682617e+00,-6.674224376678466797e+00,-1.207541227340698242e+00
5.173323631286621094e+00,-9.368885993957519531e+00,-1.314075708389282227e+00
8.106468200683593750e+00,-1.468080997467041016e+01,-1.467203855514526367e+00
8.118946075439453125e+00,-1.470340728759765625e+01,-8.802426457405090332e-01
8.131526947021484375e+00,-1.472619056701660156e+01,-2.936300933361053467e-01
8.144509315490722656e+00,-1.474970149993896484e+01,2.940988838672637939e-01
8.157235145568847656e+00,-1.477274894714355469e+01,8.843938708305358887e-01
1.996777892112731934e+00,-3.496936559677124023e+00,-1.078995108604431152e+00
2.368812799453735352e+00,-4.148477554321289062e+00,-1.102889776229858398e+00
2.924333572387695312e+00,-5.121355056762695312e+00,-1.146347880363464355e+00
3.765067100524902344e+00,-6.593723297119140625e+00,-1.202603578567504883e+00
5.329880237579345703e+00,-9.334163665771484375e+00,-1.319770574569702148e+00
7.732389926910400391e+00,-1.354165458679199219e+01,-1.364277720451354980e+00
7.744262695312500000e+00,-1.356244754791259766e+01,-8.184894919395446777e-01
7.756146430969238281e+00,-1.358325862884521484e+01,-2.730264663696289062e-01
7.768063068389892578e+00,-1.360412883758544922e+01,2.734459638595581055e-01
7.779944419860839844e+00,-1.362493705749511719e+01,8.222606778144836426e-01
2.045455217361450195e+00,-3.466024398803710938e+00,-1.078380227088928223e+00
2.429803848266601562e+00,-4.117303371429443359e+00,-1.103734970092773438e+00
2.989803791046142578e+00,-5.066223144531250000e+00,-1.143469095230102539e+00
3.882164478302001953e+00,-6.578328132629394531e+00,-1.209806561470031738e+00
5.473659515380859375e+00,-9.275116920471191406e+00,-1.322364091873168945e+00
7.584883689880371094e+00,-1.285258674621582031e+01,-1.305660247802734375e+00
7.594509601593017578e+00,-1.286889743804931641e+01,-7.831140160560607910e-01
7.603953838348388672e+00,-1.288490104675292969e+01,-2.611502408981323242e-01
7.613228797912597656e+00,-1.290061664581298828e+01,2.614687681198120117e-01
7.622731685638427734e+00,-1.291671943664550781e+01,7.860241532325744629e-01
2.092510938644409180e+00,-3.432555198669433594e+00,-1.077175378799438477e+00
2.495945930480957031e+00,-4.094350337982177734e+00,-1.107045650482177734e+00
3.073283195495605469e+00,-5.041414260864257812e+00,-1.147680759429931641e+00
3.966419458389282227e+00,-6.506515026092529297e+00,-1.206916928291320801e+00
5.585017681121826172e+00,-9.161664009094238281e+00,-1.317451238632202148e+00
7.784929752349853516e+00,-1.277040004730224609e+01,-1.308496952056884766e+00
7.794600009918212891e+00,-1.278626251220703125e+01,-7.847942709922790527e-01
7.804288387298583984e+00,-1.280215644836425781e+01,-2.617104351520538330e-01
7.814027786254882812e+00,-1.281813240051269531e+01,2.620370388031005859e-01
7.823863983154296875e+00,-1.283426856994628906e+01,7.877407073974609375e-01
2.142462491989135742e+00,-3.403906583786010742e+00,-1.077697992324829102e+00
2.555135488510131836e+00,-4.059554100036621094e+00,-1.107412576675415039e+00
3.145019054412841797e+00,-4.996750831604003906e+00,-1.147643446922302246e+00
4.055953025817871094e+00,-6.444026947021484375e+00,-1.205971121788024902e+00
5.472993373870849609e+00,-8.695395469665527344e+00,-1.261537432670593262e+00
5.481326580047607422e+00,-8.708635330200195312e+00,-9.002619385719299316e-01
5.489647388458251953e+00,-8.721855163574218750e+00,-5.400968790054321289e-01
5.498038768768310547e+00,-8.735187530517578125e+00,-1.801609694957733154e-01
5.506516933441162109e+00,-8.748657226562500000e+00,1.804387867450714111e-01
5.515032768249511719e+00,-8.762187004089355469e+00,5.425943732261657715e-01
5.523469924926757812e+00,-8.775591850280761719e+00,9.071837067604064941e-01
5.531651973724365234e+00,-8.788591384887695312e+00,1.275058269500732422e+00
2.194124937057495117e+00,-3.377768039703369141e+00,-1.079254984855651855e+00
2.604376792907714844e+00,-4.009334564208984375e+00,-1.103768944740295410e+00
3.219191789627075195e+00,-4.955817222595214844e+00,-1.148707270622253418e+00
4.148386478424072266e+00,-6.386275291442871094e+00,-1.206151843070983887e+00
5.229608535766601562e+00,-8.050773620605468750e+00,-1.178754091262817383e+00
5.237236499786376953e+00,-8.062517166137695312e+00,-8.411321640014648438e-01
5.245207786560058594e+00,-8.074788093566894531e+00,-5.046249628067016602e-01
5.253073215484619141e+00,-8.086896896362304688e+00,-1.683236807584762573e-01
5.260930538177490234e+00,-8.098993301391601562e+00,1.685754507780075073e-01
5.269237041473388672e+00,-8.111780166625976562e+00,5.069367289543151855e-01
5.277126789093017578e+00,-8.123926162719726562e+00,8.475387692451477051e-01
5.284725189208984375e+00,-8.135622978210449219e+00,1.191177368164062500e+00
2.239030838012695312e+00,-3.341226577758789062e+00,-1.077708959579467773e+00
2.667372941970825195e+00,-3.980426311492919922e+00,-1.106208086013793945e+00
3.276983261108398438e+00,-4.890126228332519531e+00,-1.144235610961914062e+00
4.244200706481933594e+00,-6.333470821380615234e+00,-1.207528591156005859e+00
5.012973308563232422e+00,-7.480682373046875000e+00,-1.105676651000976562e+00
5.020593643188476562e+00,-7.492053985595703125e+00,-7.890341877937316895e-01
5.028117656707763672e+00,-7.503282070159912109e+00,-4.733585119247436523e-01
5.035599708557128906e+00,-7.514446735382080078e+00,-1.578925549983978271e-01
5.043054103851318359e+00,-7.525571346282958984e+00,1.581262946128845215e-01
5.050438404083251953e+00,-7.536590576171875000e+00,4.754598438739776611e-01
5.058259010314941406e+00,-7.548260688781738281e+00,7.949537038803100586e-01
5.066063880920410156e+00,-7.559907913208007812e+00,1.117386460304260254e+00
2.285402774810791016e+00,-3.307076215744018555e+00,-1.077134728431701660e+00
2.719957590103149414e+00,-3.935895919799804688e+00,-1.104539036750793457e+00
3.356282711029052734e+00,-4.856685638427734375e+00,-1.147534251213073730e+00
4.343912124633789062e+00,-6.285828113555908203e+00,-1.210175633430480957e+00
4.820378780364990234e+00,-6.975295543670654297e+00,-1.041069626808166504e+00
4.827317714691162109e+00,-6.985336780548095703e+00,-7.428694963455200195e-01
4.834460258483886719e+00,-6.995671749114990234e+00,-4.456548094749450684e-01
4.841605663299560547e+00,-7.006011962890625000e+00,-1.486502885818481445e-01
4.848698139190673828e+00,-7.016274929046630859e+00,1.488680392503738403e-01
4.856089591979980469e+00,-7.026970386505126953e+00,4.476486742496490479e-01
4.862960338592529297e+00,-7.036912918090820312e+00,7.483544349670410156e-01
4.870191574096679688e+00,-7.047377109527587891e+00,1.051827788352966309e+00
2.333464384078979492e+00,-3.275382995605468750e+00,-1.077580213546752930e+00
2.774376392364501953e+00,-3.894272327423095703e+00,-1.103889226913452148e+00
3.418298244476318359e+00,-4.798117637634277344e+00,-1.145139098167419434e+00
4.412852287292480469e+00,-6.194130420684814453e+00,-1.204558610916137695e+00
4.647619724273681641e+00,-6.523663043975830078e+00,-9.834909439086914062e-01
4.654315948486328125e+00,-6.533061981201171875e+00,-7.017843127250671387e-01
4.661084651947021484e+00,-6.542562961578369141e+00,-4.209967851638793945e-01
4.667866706848144531e+00,-6.552083015441894531e+00,-1.404222548007965088e-01
4.674740791320800781e+00,-6.561731338500976562e+00,1.406290531158447266e-01
4.681715965270996094e+00,-6.571522235870361328e+00,4.228602349758148193e-01
4.688687801361083984e+00,-6.581308364868164062e+00,7.069669961929321289e-01
4.695508003234863281e+00,-6.590881824493408203e+00,9.936247467994689941e-01
4.702861309051513672e+00,-6.601202964782714844e+00,1.283721208572387695e+00
2.385288715362548828e+00,-3.248714447021484375e+00,-1.079928159713745117e+00
2.833103418350219727e+00,-3.858628749847412109e+00,-1.105167269706726074e+00
3.485291481018066406e+00,-4.746895790100097656e+00,-1.144703149795532227e+00
4.495403289794921875e+00,-6.122647762298583984e+00,-1.203047275543212891e+00
4.502120018005371094e+00,-6.131795406341552734e+00,-9.340332746505737305e-01
4.508662700653076172e+00,-6.140706539154052734e+00,-6.665014028549194336e-01
4.515173912048339844e+00,-6.149574756622314453e+00,-3.998267054557800293e-01
4.521709918975830078e+00,-6.158476352691650391e+00,-1.333600282669067383e-01
4.528284549713134766e+00,-6.167431354522705078e+00,1.335539519786834717e-01
4.534854412078857422e+00,-6.176378726959228516e+00,4.015693962574005127e-01
4.541329860687255859e+00,-6.185198783874511719e+00,6.713305115699768066e-01
4.548288822174072266e+00,-6.194676399230957031e+00,9.436117410659790039e-01
4.555108070373535156e+00,-6.203964233398437500e+00,1.219025254249572754e+00
2.427266120910644531e+00,-3.208594083786010742e+00,-1.078030109405517578e+00
2.892094612121582031e+00,-3.823049068450927734e+00,-1.106719732284545898e+00
3.552181959152221680e+00,-4.695615768432617188e+00,-1.144480824470520020e+00
4.356102943420410156e+00,-5.758316040039062500e+00,-1.143593549728393555e+00
4.362266540527343750e+00,-5.766463756561279297e+00,-8.878037929534912109e-01
4.368687152862548828e+00,-5.774950981140136719e+00,-6.335250139236450195e-01
4.374948501586914062e+00,-5.783227920532226562e+00,-3.800404071807861328e-01
4.381247997283935547e+00,-5.791555404663085938e+00,-1.267594546079635620e-01
4.387535572052001953e+00,-5.799866676330566406e+00,1.269413679838180542e-01
4.393718242645263672e+00,-5.808039665222167969e+00,3.816708624362945557e-01
4.400278091430664062e+00,-5.816710948944091797e+00,6.381061673164367676e-01
4.406802654266357422e+00,-5.825335979461669922e+00,8.968678116798400879e-01
4.413097858428955078e+00,-5.833657741546630859e+00,1.158556342124938965e+00
2.470876455307006836e+00,-3.170879602432250977e+00,-1.077131032943725586e+00
2.938520669937133789e+00,-3.771008014678955078e+00,-1.103717327117919922e+00
3.621970415115356445e+00,-4.648080348968505859e+00,-1.145413279533386230e+00
4.230734348297119141e+00,-5.429307937622070312e+00,-1.090167760848999023e+00
4.236765384674072266e+00,-5.437047004699707031e+00,-8.463367819786071777e-01
4.242738723754882812e+00,-5.444713115692138672e+00,-6.038973927497863770e-01
4.248748302459716797e+00,-5.452425003051757812e+00,-3.622611761093139648e-01
4.254789829254150391e+00,-5.460177898406982422e+00,-1.208271831274032593e-01
4.260912895202636719e+00,-5.468035697937011719e+00,1.210010573267936707e-01
4.267127037048339844e+00,-5.476010322570800781e+00,3.638282418251037598e-01
4.273346900939941406e+00,-5.483992576599121094e+00,6.082540750503540039e-01
4.279426097869873047e+00,-5.491794109344482422e+00,8.548587560653686523e-01
4.286042690277099609e+00,-5.500285148620605469e+00,1.104419469833374023e+00
4.292379379272460938e+00,-5.508416652679443359e+00,1.357423663139343262e+00
2.516320943832397461e+00,-3.135585308074951172e+00,-1.077266335487365723e+00
3.002567529678344727e+00,-3.741496801376342773e+00,-1.107545256614685059e+00
3.695015907287597656e+00,-4.604355812072753906e+00,-1.147554039955139160e+00
4.117877483367919922e+00,-5.131283283233642578e+00,-1.042054772377014160e+00
4.123473167419433594e+00,-5.138256072998046875e+00,-8.089310526847839355e-01
4.129401206970214844e+00,-5.145642757415771484e+00,-5.772227644920349121e-01
4.135245800018310547e+00,-5.152925968170166016e+00,-3.462594747543334961e-01
4.141102790832519531e+00,-5.160224437713623047e+00,-1.154893860220909119e-01
4.146971702575683594e+00,-5.167538166046142578e+00,1.156530678272247314e-01
4.152808189392089844e+00,-5.174810886383056641e+00,3.477300703525543213e-01
4.159092903137207031e+00,-5.182641506195068359e+00,5.813731551170349121e-01
4.164712905883789062e+00,-5.189644813537597656e+00,8.170213699340820312e-01
4.170756340026855469e+00,-5.197175979614257812e+00,1.055436134338378906e+00
4.177418708801269531e+00,-5.205477714538574219e+00,1.297373056411743164e+00
2.563825368881225586e+00,-3.102742671966552734e+00,-1.078480124473571777e+00
3.053448438644409180e+00,-3.695284843444824219e+00,-1.106689929962158203e+00
3.746556997299194336e+00,-4.534085273742675781e+00,-1.143288612365722656e+00
4.016336917877197266e+00,-4.860572814941406250e+00,-9.986513853073120117e-01
4.021906375885009766e+00,-4.867313385009765625e+00,-7.752593159675598145e-01
4.027475833892822266e+00,-4.874053478240966797e+00,-5.531666874885559082e-01
4.033189296722412109e+00,-4.880968093872070312e+00,-3.318300247192382812e-01
4.038883209228515625e+00,-4.887858867645263672e+00,-1.106761544942855835e-01
4.044506072998046875e+00,-4.894663333892822266e+00,1.108302325010299683e-01
4.050374031066894531e+00,-4.901764392852783203e+00,3.332438468933105469e-01
4.056301593780517578e+00,-4.908938407897949219e+00,5.571258664131164551e-01
4.062150001525878906e+00,-4.916016101837158203e+00,7.830166816711425781e-01
4.067744731903076172e+00,-4.922786712646484375e+00,1.011433839797973633e+00
4.073837757110595703e+00,-4.930160522460937500e+00,1.243160605430603027e+00
2.611537933349609375e+00,-3.069926500320434570e+00,-1.079955816268920898e+00
3.104172229766845703e+00,-3.649030447006225586e+00,-1.106030702590942383e+00
3.823060989379882812e+00,-4.494101524353027344e+00,-1.146887302398681641e+00
3.917348623275756836e+00,-4.604938983917236328e+00,-9.575511813163757324e-01
3.922552347183227539e+00,-4.611056327819824219e+00,-7.433096766471862793e-01
3.928127527236938477e+00,-4.617609977722167969e+00,-5.303891301155090332e-01
3.933664560317993164e+00,-4.624118804931640625e+00,-3.181634843349456787e-01
3.939153194427490234e+00,-4.630570888519287109e+00,-1.061161831021308899e-01
3.944639682769775391e+00,-4.637020587921142578e+00,1.062639802694320679e-01
3.950134277343750000e+00,-4.643479347229003906e+00,3.194955885410308838e-01
3.956111431121826172e+00,-4.650505542755126953e+00,5.341676473617553711e-01
3.961486816406250000e+00,-4.656824588775634766e+00,7.506875991821289062e-01
3.967325210571289062e+00,-4.663687705993652344e+00,9.697673320770263672e-01
3.972851991653442383e+00,-4.670184612274169922e+00,1.191823363304138184e+00
3.978912591934204102e+00,-4.677309036254882812e+00,1.417704582214355469e+00
2.651529550552368164e+00,-3.028036117553710938e+00,-1.078460097312927246e+00
3.159922361373901367e+00,-3.608618736267089844e+00,-1.107377529144287109e+00
3.830410718917846680e+00,-4.374313354492187500e+00,-1.130193352699279785e+00
3.835811376571655273e+00,-4.380481243133544922e+00,-9.221996068954467773e-01
3.841081380844116211e+00,-4.386499404907226562e+00,-7.159001827239990234e-01
3.846579313278198242e+00,-4.392777919769287109e+00,-5.108361840248107910e-01
3.851835489273071289e+00,-4.398780822753906250e+00,-3.064211010932922363e-01
3.857196807861328125e+00,-4.404903411865234375e+00,-1.021994277834892273e-01
3.862702131271362305e+00,-4.411190032958984375e+00,1.023452952504158020e-01
3.867975234985351562e+00,-4.417212009429931641e+00,3.077050447463989258e-01
3.873575925827026367e+00,-4.423607826232910156e+00,5.144214034080505371e-01
3.879128217697143555e+00,-4.429948806762695312e+00,7.229912877082824707e-01
3.884459495544433594e+00,-4.436037063598632812e+00,9.338954687118530273e-01
3.890321016311645508e+00,-4.442730903625488281e+00,1.147870421409606934e+00
3.895754814147949219e+00,-4.448935985565185547e+00,1.365245819091796875e+00
2.701719284057617188e+00,-2.997681617736816406e+00,-1.081311345100402832e+00
3.213296413421630859e+00,-3.565299987792968750e+00,-1.108084797859191895e+00
3.742862462997436523e+00,-4.152877807617187500e+00,-1.086711406707763672e+00
3.748433351516723633e+00,-4.159059047698974609e+00,-8.867892026901245117e-01
3.753741979598999023e+00,-4.164949417114257812e+00,-6.884403228759765625e-01
3.758940219879150391e+00,-4.170717239379882812e+00,-4.912191927433013916e-01
3.764123916625976562e+00,-4.176468372344970703e+00,-2.946576774120330811e-01
3.769334793090820312e+00,-4.182250022888183594e+00,-9.827528148889541626e-02
3.774614095687866211e+00,-4.188107967376708984e+00,9.841292351484298706e-02
3.779912710189819336e+00,-4.193986892700195312e+00,2.958936393260955811e-01
3.785152673721313477e+00,-4.199800491333007812e+00,4.946446120738983154e-01
3.790209531784057617e+00,-4.205411911010742188e+00,6.951285004615783691e-01
3.795745372772216797e+00,-4.211554050445556641e+00,8.979821801185607910e-01
3.801000118255615234e+00,-4.217384338378906250e+00,1.103591322898864746e+00
3.806814432144165039e+00,-4.223835468292236328e+00,1.312755703926086426e+00
2.743763923645019531e+00,-2.958080768585205078e+00,-1.081082224845886230e+00
3.253474712371826172e+00,-3.507605314254760742e+00,-1.104513645172119141e+00
3.671792984008789062e+00,-3.958598613739013672e+00,-1.049518227577209473e+00
3.676993608474731445e+00,-3.964205741882324219e+00,-8.563769459724426270e-01
3.682420253753662109e+00,-3.970056056976318359e+00,-6.648699045181274414e-01
3.687378883361816406e+00,-3.975402116775512695e+00,-4.743829965591430664e-01
3.692517042160034180e+00,-3.980941534042358398e+00,-2.845626175403594971e-01
3.697616577148437500e+00,-3.986439466476440430e+00,-9.490802139043807983e-02
3.702678680419921875e+00,-3.991896867752075195e+00,9.503795206546783447e-02
3.707991838455200195e+00,-3.997625112533569336e+00,2.857551872730255127e-01
3.712849617004394531e+00,-4.002862453460693359e+00,4.776598215103149414e-01
3.718053102493286133e+00,-4.008472442626953125e+00,6.713035106658935547e-01
3.723870515823364258e+00,-4.014744281768798828e+00,8.672946095466613770e-01
3.728586912155151367e+00,-4.019828796386718750e+00,1.065751791000366211e+00
3.734819173812866211e+00,-4.026547908782958984e+00,1.267924070358276367e+00
2.785743951797485352e+00,-2.918430566787719727e+00,-1.081053137779235840e+00
3.312223911285400391e+00,-3.469987154006958008e+00,-1.107483386993408203e+00
3.601712942123413086e+00,-3.773264646530151367e+00,-1.013945937156677246e+00
3.607047796249389648e+00,-3.778853416442871094e+00,-8.274043798446655273e-01
3.611757993698120117e+00,-3.783788204193115234e+00,-6.422673463821411133e-01
3.616833209991455078e+00,-3.789105176925659180e+00,-4.582829475402832031e-01
3.621874570846557617e+00,-3.794386386871337891e+00,-2.749049663543701172e-01
3.626827478408813477e+00,-3.799575328826904297e+00,-9.168574213981628418e-02
3.631767272949218750e+00,-3.804750442504882812e+00,9.181062132120132446e-02
3.636707782745361328e+00,-3.809926509857177734e+00,2.760308384895324707e-01
3.642101287841796875e+00,-3.815576791763305664e+00,4.614846110343933105e-01
3.646914005279541016e+00,-3.820618629455566406e+00,6.485189795494079590e-01
3.652187347412109375e+00,-3.826143026351928711e+00,8.377587199211120605e-01
3.657176494598388672e+00,-3.831369876861572266e+00,1.029559850692749023e+00
3.662723064422607422e+00,-3.837180614471435547e+00,1.224677085876464844e+00
2.827722311019897461e+00,-2.878766059875488281e+00,-1.081242442131042480e+00
3.351703166961669922e+00,-3.412205457687377930e+00,-1.104240179061889648e+00
3.532656192779541016e+00,-3.596425056457519531e+00,-9.799130558967590332e-01
3.537642240524291992e+00,-3.601500988006591797e+00,-7.995770573616027832e-01
3.542484760284423828e+00,-3.606431007385253906e+00,-6.207056045532226562e-01
3.547536134719848633e+00,-3.611573457717895508e+00,-4.429069757461547852e-01
3.552338361740112305e+00,-3.616462469100952148e+00,-2.656708955764770508e-01
3.557184219360351562e+00,-3.621395587921142578e+00,-8.860571682453155518e-02
3.562150716781616211e+00,-3.626451969146728516e+00,8.872942626476287842e-02
3.566864490509033203e+00,-3.631250619888305664e+00,2.667572796344757080e-01
3.571874856948852539e+00,-3.636351585388183594e+00,4.459456503391265869e-01
3.576820135116577148e+00,-3.641386032104492188e+00,6.267217397689819336e-01
3.582358837127685547e+00,-3.647024869918823242e+00,8.096839189529418945e-01
3.586797237396240234e+00,-3.651543378829956055e+00,9.949311017990112305e-01
3.592739582061767578e+00,-3.657592773437500000e+00,1.183651208877563477e+00
2.857824325561523438e+00,-2.827307224273681641e+00,-1.077168345451354980e+00
3.413851261138916016e+00,-3.377396583557128906e+00,-1.108675003051757812e+00
3.471063375473022461e+00,-3.433997869491577148e+00,-9.490965604782104492e-01
3.476237297058105469e+00,-3.439116477966308594e+00,-7.744930386543273926e-01
3.480761289596557617e+00,-3.443592071533203125e+00,-6.011925935745239258e-01
3.485618352890014648e+00,-3.448397159576416016e+00,-4.289702773094177246e-01
3.490404605865478516e+00,-3.453132390975952148e+00,-2.573162019252777100e-01
3.495159387588500977e+00,-3.457836389541625977e+00,-8.581911772489547729e-02
3.499919652938842773e+00,-3.462545871734619141e+00,8.593600243330001831e-02
3.504637002944946289e+00,-3.467212915420532227e+00,2.583654224872589111e-01
3.509773969650268555e+00,-3.472295045852661133e+00,4.319430887699127197e-01
3.514302968978881836e+00,-3.476775646209716797e+00,6.069858670234680176e-01
3.519260168075561523e+00,-3.481679916381835938e+00,7.840783596038818359e-01
3.524870634078979492e+00,-3.487230539321899414e+00,9.638091325759887695e-01
3.529126167297363281e+00,-3.491440534591674805e+00,1.146111488342285156e+00
2.904268980026245117e+00,-2.792147159576416016e+00,-1.079499840736389160e+00
3.411934614181518555e+00,-3.280214071273803711e+00,-1.092692971229553223e+00
3.416444778442382812e+00,-3.284549951553344727e+00,-9.212128520011901855e-01
3.421362638473510742e+00,-3.289278030395507812e+00,-7.517006993293762207e-01
3.426097393035888672e+00,-3.293829917907714844e+00,-5.835482478141784668e-01
3.430990934371948242e+00,-3.298534631729125977e+00,-4.163942337036132812e-01
3.435579776763916016e+00,-3.302946329116821289e+00,-2.497635930776596069e-01
3.440250873565673828e+00,-3.307436943054199219e+00,-8.329998701810836792e-02
3.445041656494140625e+00,-3.312042713165283203e+00,8.341598510742187500e-02
3.449524641036987305e+00,-3.316352844238281250e+00,2.507773637771606445e-01
3.454246520996093750e+00,-3.320892333984375000e+00,4.192165732383728027e-01
3.458861112594604492e+00,-3.325328826904296875e+00,5.891287326812744141e-01
3.464019060134887695e+00,-3.330287694931030273e+00,7.610726356506347656e-01
3.468996286392211914e+00,-3.335072755813598633e+00,9.353829026222229004e-01
3.473548889160156250e+00,-3.339449644088745117e+00,1.112425208091735840e+00
2.951057672500610352e+00,-2.756951570510864258e+00,-1.082112550735473633e+00
3.358108758926391602e+00,-3.137228727340698242e+00,-1.060965180397033691e+00
3.362888574600219727e+00,-3.141694307327270508e+00,-8.945549726486206055e-01
3.367423772811889648e+00,-3.145931005477905273e+00,-7.298818230628967285e-01
3.371886491775512695e+00,-3.150100469589233398e+00,-5.665770769119262695e-01
3.376617431640625000e+00,-3.154520273208618164e+00,-4.042741060256958008e-01
3.381213903427124023e+00,-3.158814430236816406e+00,-2.424994260072708130e-01
3.385816812515258789e+00,-3.163114547729492188e+00,-8.087740838527679443e-02
3.390388965606689453e+00,-3.167385816574096680e+00,8.098662644624710083e-02
3.394869804382324219e+00,-3.171571969985961914e+00,2.434788048267364502e-01
3.399702548980712891e+00,-3.176086902618408203e+00,4.070380330085754395e-01
3.404537439346313477e+00,-3.180603742599487305e+00,5.720633864402770996e-01
3.409219264984130859e+00,-3.184977531433105469e+00,7.389409542083740234e-01
3.413558721542358398e+00,-3.189031600952148438e+00,9.080336093902587891e-01
3.418398380279541016e+00,-3.193552970886230469e+00,1.080013155937194824e+00
2.982745409011840820e+00,-2.707654953002929688e+00,-1.079410076141357422e+00
3.304761171340942383e+00,-2.999972105026245117e+00,-1.030438423156738281e+00
3.309192180633544922e+00,-3.003994464874267578e+00,-8.687446117401123047e-01
3.313979864120483398e+00,-3.008340597152709961e+00,-7.088922858238220215e-01
3.318176031112670898e+00,-3.012149810791015625e+00,-5.502513051033020020e-01
3.322751283645629883e+00,-3.016303062438964844e+00,-3.926155567169189453e-01
3.327303171157836914e+00,-3.020435094833374023e+00,-2.355081886053085327e-01
3.331794023513793945e+00,-3.024511575698852539e+00,-7.854481041431427002e-02
3.336248636245727539e+00,-3.028555393218994141e+00,7.864982634782791138e-02
3.340725183486938477e+00,-3.032619237899780273e+00,2.364581972360610962e-01
3.345661401748657227e+00,-3.037100076675415039e+00,3.953225910663604736e-01
3.350048065185546875e+00,-3.041082382202148438e+00,5.555366277694702148e-01
3.354918479919433594e+00,-3.045503616333007812e+00,7.176494598388671875e-01
3.359552145004272461e+00,-3.049709796905517578e+00,8.819653391838073730e-01
3.364794731140136719e+00,-3.054468870162963867e+00,1.049157142639160156e+00
3.016501188278198242e+00,-2.660551548004150391e+00,-1.077734231948852539e+00
3.257702350616455078e+00,-2.873290538787841797e+00,-1.002839088439941406e+00
3.261842250823974609e+00,-2.876941919326782227e+00,-8.454169631004333496e-01
3.266435146331787109e+00,-2.880992889404296875e+00,-6.898303627967834473e-01
3.271231174468994141e+00,-2.885223150253295898e+00,-5.355632305145263672e-01
3.275533199310302734e+00,-2.889017581939697266e+00,-3.821110129356384277e-01
3.279915332794189453e+00,-2.892882585525512695e+00,-2.291997671127319336e-01
3.284333944320678711e+00,-2.896779775619506836e+00,-7.644067704677581787e-02
3.288821935653686523e+00,-2.900738239288330078e+00,7.654513418674468994e-02
3.293429613113403320e+00,-2.904802083969116211e+00,2.301441282033920288e-01
3.297554016113281250e+00,-2.908439636230468750e+00,3.846798539161682129e-01
3.301990985870361328e+00,-2.912353277206420898e+00,5.405992269515991211e-01
3.307009696960449219e+00,-2.916779756546020508e+00,6.983992457389831543e-01
3.311901330947875977e+00,-2.921093940734863281e+00,8.583914637565612793e-01
3.316429853439331055e+00,-2.925088167190551758e+00,1.020917534828186035e+00
3.066242933273315430e+00,-2.627365827560424805e+00,-1.081959009170532227e+00
3.210934162139892578e+00,-2.751347303390502930e+00,-9.762191772460937500e-01
3.215407848358154297e+00,-2.755180597305297852e+00,-8.230764269828796387e-01
3.219678401947021484e+00,-2.758840084075927734e+00,-6.715476512908935547e-01
3.224251270294189453e+00,-2.762758255004882812e+00,-5.213441252708435059e-01
3.228428125381469727e+00,-2.766337394714355469e+00,-3.719587326049804688e-01
3.232840776443481445e+00,-2.770118474960327148e+00,-2.231166064739227295e-01
3.237193346023559570e+00,-2.773848056793212891e+00,-7.441182434558868408e-02
3.241475582122802734e+00,-2.777517318725585938e+00,7.451025396585464478e-02
3.246069431304931641e+00,-2.781453609466552734e+00,2.240295857191085815e-01
3.250282764434814453e+00,-2.785063743591308594e+00,3.744766712188720703e-01
3.254902124404907227e+00,-2.789021968841552734e+00,5.263001918792724609e-01
3.259406089782714844e+00,-2.792881488800048828e+00,6.798338890075683594e-01
3.263605594635009766e+00,-2.796479701995849609e+00,8.354139924049377441e-01
3.268348217010498047e+00,-2.800543546676635742e+00,9.936746954917907715e-01
3.102370023727416992e+00,-2.582246065139770508e+00,-1.081554055213928223e+00
3.170005798339843750e+00,-2.638542413711547852e+00,-9.521960020065307617e-01
3.174245119094848633e+00,-2.642070770263671875e+00,-8.027769923210144043e-01
3.178856849670410156e+00,-2.645909309387207031e+00,-6.550669670104980469e-01
3.183237552642822266e+00,-2.649555683135986328e+00,-5.085281729698181152e-01
3.187516689300537109e+00,-2.653117418289184570e+00,-3.628327250480651855e-01
3.191778182983398438e+00,-2.656664371490478516e+00,-2.176359742879867554e-01
3.196068048477172852e+00,-2.660235166549682617e+00,-7.258380204439163208e-02
3.200385570526123047e+00,-2.663828611373901367e+00,7.268185168504714966e-02
3.204721212387084961e+00,-2.667437553405761719e+00,2.185184955596923828e-01
3.209003686904907227e+00,-2.671001911163330078e+00,3.652785718441009521e-01
3.213124275207519531e+00,-2.674431800842285156e+00,5.133026242256164551e-01
3.217741250991821289e+00,-2.678274869918823242e+00,6.630798578262329102e-01
3.222149133682250977e+00,-2.681943416595458984e+00,8.148920536041259766e-01
3.227190017700195312e+00,-2.686139345169067383e+00,9.693727493286132812e-01
3.119644880294799805e+00,-2.521925926208496094e+00,-1.074881911277770996e+00
3.123834609985351562e+00,-2.525312900543212891e+00,-9.273747801780700684e-01
3.128426074981689453e+00,-2.529024839401245117e+00,-7.819542288780212402e-01
3.132729530334472656e+00,-2.532503604888916016e+00,-6.380262970924377441e-01
3.136899709701538086e+00,-2.535874843597412109e+00,-4.952763617038726807e-01
3.141064405441284180e+00,-2.539241552352905273e+00,-3.533717393875122070e-01
3.145362854003906250e+00,-2.542716503143310547e+00,-2.119677066802978516e-01
3.149585247039794922e+00,-2.546129941940307617e+00,-7.069326192140579224e-02
3.153711080551147461e+00,-2.549465179443359375e+00,7.078587263822555542e-02
3.158015489578247070e+00,-2.552944898605346680e+00,2.128203660249710083e-01
3.162374973297119141e+00,-2.556469202041625977e+00,3.557691872119903564e-01
3.166668415069580078e+00,-2.559939861297607422e+00,4.999764263629913330e-01
