-2.586803674697875977e+00,-1.885093927383422852e+00,2.800334692001342773e-01
-2.590141057968139648e+00,-1.887526035308837891e+00,3.935154974460601807e-01
-2.593311548233032227e+00,-1.889836311340332031e+00,5.082318186759948730e-01
-2.597060680389404297e+00,-1.892568469047546387e+00,6.246389150619506836e-01
-2.600578546524047852e+00,-1.895132064819335938e+00,7.428972125053405762e-01
-2.467102527618408203e+00,-1.852499127388000488e+00,-8.266707062721252441e-01
-2.470722675323486328e+00,-1.855217456817626953e+00,-7.133144736289978027e-01
-2.473408460617065430e+00,-1.857234239578247070e+00,-6.012305617332458496e-01
-2.476622581481933594e+00,-1.859647631645202637e+00,-4.905296862125396729e-01
-2.480101585388183594e+00,-1.862259864807128906e+00,-3.808081150054931641e-01
-2.483157873153686523e+00,-1.864554762840270996e+00,-2.716746032238006592e-01
-2.486381530761718750e+00,-1.866975426673889160e+00,-1.629507988691329956e-01
-2.489549398422241211e+00,-1.869354009628295898e+00,-5.434194207191467285e-02
-2.492653369903564453e+00,-1.871684670448303223e+00,5.440969392657279968e-02
-2.495960235595703125e+00,-1.874167919158935547e+00,1.635785549879074097e-01
-2.498867988586425781e+00,-1.876351237297058105e+00,2.733934223651885986e-01
-2.502107381820678711e+00,-1.878783583641052246e+00,3.841869831085205078e-01
-2.505962610244750977e+00,-1.881678342819213867e+00,4.963408410549163818e-01
-2.508943319320678711e+00,-1.883916616439819336e+00,6.098682880401611328e-01
-2.512474536895751953e+00,-1.886568188667297363e+00,7.253684997558593750e-01
-2.383777856826782227e+00,-1.843869805335998535e+00,-8.075112700462341309e-01
-2.387188673019409180e+00,-1.846508026123046875e+00,-6.967567205429077148e-01
-2.390300989151000977e+00,-1.848915457725524902e+00,-5.874017477035522461e-01
-2.393266201019287109e+00,-1.851209044456481934e+00,-4.792188107967376709e-01
-2.396205902099609375e+00,-1.853482961654663086e+00,-3.719617128372192383e-01
-2.399404525756835938e+00,-1.855957150459289551e+00,-2.653906643390655518e-01
-2.402479171752929688e+00,-1.858335375785827637e+00,-1.591789871454238892e-01
-2.405538082122802734e+00,-1.860701441764831543e+00,-5.308404937386512756e-02
-2.408572196960449219e+00,-1.863048315048217773e+00,5.315100401639938354e-02
-2.411505460739135742e+00,-1.865317225456237793e+00,1.597770303487777710e-01
-2.414747476577758789e+00,-1.867824912071228027e+00,2.670876681804656982e-01
-2.418015003204345703e+00,-1.870352387428283691e+00,3.753471374511718750e-01
-2.421200037002563477e+00,-1.872816205024719238e+00,4.848122298717498779e-01
-2.424164533615112305e+00,-1.875109076499938965e+00,5.957234501838684082e-01
-2.427700281143188477e+00,-1.877844095230102539e+00,7.085810303688049316e-01
-2.303573131561279297e+00,-1.835120558738708496e+00,-7.891588211059570312e-01
-2.306792020797729492e+00,-1.837684869766235352e+00,-6.808987259864807129e-01
-2.309754610061645508e+00,-1.840044975280761719e+00,-5.740213990211486816e-01
-2.313043117523193359e+00,-1.842664718627929688e+00,-4.683884978294372559e-01
-2.315781831741333008e+00,-1.844846606254577637e+00,-3.635393381118774414e-01
-2.318806171417236328e+00,-1.847255825996398926e+00,-2.593738734722137451e-01
-2.321743011474609375e+00,-1.849595308303833008e+00,-1.555678546428680420e-01
-2.324697256088256836e+00,-1.851948976516723633e+00,-5.187974870204925537e-02
-2.327661752700805664e+00,-1.854310512542724609e+00,5.194590613245964050e-02
-2.330557584762573242e+00,-1.856617450714111328e+00,1.561584770679473877e-01
-2.333789110183715820e+00,-1.859191775321960449e+00,2.610498070716857910e-01
-2.336506605148315430e+00,-1.861356735229492188e+00,3.667927682399749756e-01
-2.339624643325805664e+00,-1.863840818405151367e+00,4.737712442874908447e-01
-2.342563390731811523e+00,-1.866181731224060059e+00,5.821750164031982422e-01
-2.346092462539672852e+00,-1.868993163108825684e+00,6.924990415573120117e-01
-2.226339817047119141e+00,-1.826284646987915039e+00,-7.715764045715332031e-01
-2.229381799697875977e+00,-1.828779935836791992e+00,-6.657077074050903320e-01
-2.232748270034790039e+00,-1.831541299819946289e+00,-5.613413453102111816e-01
-2.235382318496704102e+00,-1.833702206611633301e+00,-4.579302668571472168e-01
-2.238355875015258789e+00,-1.836141467094421387e+00,-3.554740846157073975e-01
-2.241216182708740234e+00,-1.838487744331359863e+00,-2.536124587059020996e-01
-2.244024038314819336e+00,-1.840791106224060059e+00,-1.521101891994476318e-01
-2.246876001358032227e+00,-1.843130469322204590e+00,-5.072658136487007141e-02
-2.249768733978271484e+00,-1.845503449440002441e+00,5.079189315438270569e-02
-2.252629995346069336e+00,-1.847850561141967773e+00,1.526935398578643799e-01
-2.255408287048339844e+00,-1.850129604339599609e+00,2.552183866500854492e-01
-2.258591175079345703e+00,-1.852740645408630371e+00,3.586876690387725830e-01
-2.261082649230957031e+00,-1.854784369468688965e+00,4.631951153278350830e-01
-2.263988018035888672e+00,-1.857167601585388184e+00,5.691953897476196289e-01
-2.267497062683105469e+00,-1.860046148300170898e+00,6.770891547203063965e-01
-2.157319307327270508e+00,-1.821937322616577148e+00,-7.566164731979370117e-01
-2.160116910934448242e+00,-1.824300050735473633e+00,-6.527551412582397461e-01
-2.162724494934082031e+00,-1.826502203941345215e+00,-5.502529740333557129e-01
-2.165694475173950195e+00,-1.829010486602783203e+00,-4.489713609218597412e-01
-2.168497800827026367e+00,-1.831377983093261719e+00,-3.485071659088134766e-01
-2.171039581298828125e+00,-1.833524584770202637e+00,-2.486156523227691650e-01
-2.173850774765014648e+00,-1.835898756980895996e+00,-1.491194963455200195e-01
-2.176604032516479492e+00,-1.838224053382873535e+00,-4.972901195287704468e-02
-2.179308891296386719e+00,-1.840508460998535156e+00,4.979081079363822937e-02
-2.182317972183227539e+00,-1.843049645423889160e+00,1.497003287076950073e-01
-2.185087919235229492e+00,-1.845389008522033691e+00,2.502243816852569580e-01
-2.187730312347412109e+00,-1.847620606422424316e+00,3.515980839729309082e-01
-2.190813779830932617e+00,-1.850224614143371582e+00,4.541788399219512939e-01
-2.193781614303588867e+00,-1.852731108665466309e+00,5.581547021865844727e-01
-2.196481943130493164e+00,-1.855011582374572754e+00,6.637440323829650879e-01
-2.085342645645141602e+00,-1.812913775444030762e+00,-7.403978109359741211e-01
-2.087991476058959961e+00,-1.815216660499572754e+00,-6.387458443641662598e-01
-2.090997934341430664e+00,-1.817830324172973633e+00,-5.385687351226806641e-01
-2.093363046646118164e+00,-1.819886445999145508e+00,-4.393315017223358154e-01
-2.096103429794311523e+00,-1.822268724441528320e+00,-3.410293459892272949e-01
-2.098789215087890625e+00,-1.824603557586669922e+00,-2.433077096939086914e-01
-2.101479053497314453e+00,-1.826942205429077148e+00,-1.459338665008544922e-01
-2.104138135910034180e+00,-1.829253911972045898e+00,-4.866660013794898987e-02
-2.106781721115112305e+00,-1.831552028656005859e+00,4.872774332761764526e-02
-2.109445810317993164e+00,-1.833868145942687988e+00,1.464871168136596680e-01
-2.112085580825805664e+00,-1.836163043975830078e+00,2.448491305112838745e-01
-2.115160465240478516e+00,-1.838836193084716797e+00,3.441298604011535645e-01
-2.117636203765869141e+00,-1.840988516807556152e+00,4.444256722927093506e-01
-2.120557785034179688e+00,-1.843528270721435547e+00,5.461822748184204102e-01
-2.123245239257812500e+00,-1.845864772796630859e+00,6.495304107666015625e-01
-2.020118236541748047e+00,-1.807618379592895508e+00,-7.263518571853637695e-01
-2.023258209228515625e+00,-1.810428023338317871e+00,-6.268060803413391113e-01
-2.025561094284057617e+00,-1.812488794326782227e+00,-5.283423662185668945e-01
-2.028257846832275391e+00,-1.814901709556579590e+00,-4.310756623744964600e-01
-2.030844449996948242e+00,-1.817216157913208008e+00,-3.346094787120819092e-01
-2.033404111862182617e+00,-1.819506645202636719e+00,-2.387224733829498291e-01
-2.035983562469482422e+00,-1.821814775466918945e+00,-1.431818157434463501e-01
-2.038557767868041992e+00,-1.824118256568908691e+00,-4.774878546595573425e-02
-2.041140556335449219e+00,-1.826429247856140137e+00,4.780928045511245728e-02
-2.043763399124145508e+00,-1.828776240348815918e+00,1.437289416790008545e-01
-2.046390533447265625e+00,-1.831127047538757324e+00,2.402470856904983521e-01
-2.048946857452392578e+00,-1.833414435386657715e+00,3.375920951366424561e-01
-2.051970243453979492e+00,-1.836119890213012695e+00,4.361153841018676758e-01
-2.054204225540161133e+00,-1.838118910789489746e+00,5.358135700225830078e-01
-2.056860685348510742e+00,-1.840495705604553223e+00,6.372161507606506348e-01
-1.953648924827575684e+00,-1.799147605895996094e+00,-7.116386890411376953e-01
-1.955960750579833984e+00,-1.801276564598083496e+00,-6.138818860054016113e-01
-1.958660125732421875e+00,-1.803762555122375488e+00,-5.175734162330627441e-01
-1.961172223091125488e+00,-1.806075930595397949e+00,-4.222686588764190674e-01
-1.963603854179382324e+00,-1.808315277099609375e+00,-3.277617096900939941e-01
-1.966023802757263184e+00,-1.810543894767761230e+00,-2.338304966688156128e-01
-1.968495011329650879e+00,-1.812819600105285645e+00,-1.402460634708404541e-01
-1.970982789993286133e+00,-1.815110683441162109e+00,-4.676973447203636169e-02
-1.973501205444335938e+00,-1.817430019378662109e+00,4.682949557900428772e-02
-1.976086735725402832e+00,-1.819810986518859863e+00,1.407869309186935425e-01
-1.978695988655090332e+00,-1.822214007377624512e+00,2.353376746177673340e-01
-1.981260895729064941e+00,-1.824576020240783691e+00,3.307090103626251221e-01
-1.983695507049560547e+00,-1.826818108558654785e+00,4.271182417869567871e-01
-1.986594915390014648e+00,-1.829488158226013184e+00,5.249550938606262207e-01
-1.989321589469909668e+00,-1.831999301910400391e+00,6.243522763252258301e-01
-1.892581343650817871e+00,-1.793641686439514160e+00,-6.986743211746215820e-01
-1.894803285598754883e+00,-1.795747518539428711e+00,-6.026927828788757324e-01
-1.897420763969421387e+00,-1.798228263854980469e+00,-5.081403851509094238e-01
-1.899879336357116699e+00,-1.800558328628540039e+00,-4.145780801773071289e-01
-1.902277827262878418e+00,-1.802831411361694336e+00,-3.217996060848236084e-01
-1.904848456382751465e+00,-1.805267572402954102e+00,-2.296043038368225098e-01
-1.907222390174865723e+00,-1.807517409324645996e+00,-1.377098113298416138e-01
-1.909630179405212402e+00,-1.809799313545227051e+00,-4.592387750744819641e-02
-1.912089467048645020e+00,-1.812130093574523926e+00,4.598302021622657776e-02
-1.914357900619506836e+00,-1.814280033111572266e+00,1.382250338792800903e-01
-1.916836619377136230e+00,-1.816629052162170410e+00,2.310492992401123047e-01
-1.919295668601989746e+00,-1.818959593772888184e+00,3.246784210205078125e-01
-1.921647548675537109e+00,-1.821188449859619141e+00,4.193281531333923340e-01
-1.924473285675048828e+00,-1.823866486549377441e+00,5.153852105140686035e-01
-1.927152037620544434e+00,-1.826405167579650879e+00,6.129821538925170898e-01
-1.833372116088867188e+00,-1.788024663925170898e+00,-6.861940026283264160e-01
-1.836064696311950684e+00,-1.790650606155395508e+00,-5.921012163162231445e-01
-1.838511705398559570e+00,-1.793037056922912598e+00,-4.991861581802368164e-01
-1.840821385383605957e+00,-1.795289635658264160e+00,-4.072565138339996338e-01
-1.843089818954467773e+00,-1.797502040863037109e+00,-3.161070346832275391e-01
-1.845543622970581055e+00,-1.799895167350769043e+00,-2.255381345748901367e-01
-1.847821354866027832e+00,-1.802116513252258301e+00,-1.352694183588027954e-01
-1.850154995918273926e+00,-1.804392457008361816e+00,-4.511006921529769897e-02
-1.852555394172668457e+00,-1.806733489036560059e+00,4.516859352588653564e-02
-1.854786634445190430e+00,-1.808909535408020020e+00,1.357793211936950684e-01
-1.857243657112121582e+00,-1.811305761337280273e+00,2.269679605960845947e-01
-1.859696507453918457e+00,-1.813697934150695801e+00,3.189552426338195801e-01
-1.862065792083740234e+00,-1.816008567810058594e+00,4.119565486907958984e-01
-1.864242792129516602e+00,-1.818131804466247559e+00,5.061725974082946777e-01
-1.866867661476135254e+00,-1.820691704750061035e+00,6.020346879959106445e-01
-1.776574969291687012e+00,-1.782950282096862793e+00,-6.744186282157897949e-01
-1.778546094894409180e+00,-1.784928441047668457e+00,-5.817317962646484375e-01
-1.780928134918212891e+00,-1.787319064140319824e+00,-4.904471635818481445e-01
-1.783544778823852539e+00,-1.789945125579833984e+00,-4.002120196819305420e-01
-1.785688757896423340e+00,-1.792096734046936035e+00,-3.106297850608825684e-01
-1.788033843040466309e+00,-1.794450283050537109e+00,-2.216262072324752808e-01
-1.790223360061645508e+00,-1.796647667884826660e+00,-1.329219192266464233e-01
-1.792482852935791016e+00,-1.798915266990661621e+00,-4.432717710733413696e-02
-1.794822335243225098e+00,-1.801263213157653809e+00,4.438503086566925049e-02
-1.797020196914672852e+00,-1.803468823432922363e+00,1.334265619516372681e-01
-1.799448847770690918e+00,-1.805906176567077637e+00,2.230410873889923096e-01
-1.801434397697448730e+00,-1.807898998260498047e+00,3.133688271045684814e-01
-1.803713083267211914e+00,-1.810185790061950684e+00,4.047376215457916260e-01
-1.806474924087524414e+00,-1.812957525253295898e+00,4.974824786186218262e-01
-1.809134125709533691e+00,-1.815626263618469238e+00,5.917366147041320801e-01
-1.720839142799377441e+00,-1.777174353599548340e+00,-6.628489494323730469e-01
-1.723271131515502930e+00,-1.779685974121093750e+00,-5.719256401062011719e-01
-1.725500702857971191e+00,-1.781988501548767090e+00,-4.821578860282897949e-01
-1.727634191513061523e+00,-1.784191966056823730e+00,-3.933563828468322754e-01
-1.730006694793701172e+00,-1.786642074584960938e+00,-3.053608834743499756e-01
-1.732098937034606934e+00,-1.788802862167358398e+00,-2.178443819284439087e-01
-1.734348535537719727e+00,-1.791126132011413574e+00,-1.306634247303009033e-01
-1.736535549163818359e+00,-1.793384552001953125e+00,-4.357395693659782410e-02
-1.738667368888854980e+00,-1.795586228370666504e+00,4.362745210528373718e-02
-1.740975499153137207e+00,-1.797969937324523926e+00,1.311626881361007690e-01
-1.743028044700622559e+00,-1.800089716911315918e+00,2.192189246416091919e-01
-1.745360612869262695e+00,-1.802498579025268555e+00,3.080709874629974365e-01
-1.747643470764160156e+00,-1.804856181144714355e+00,3.979121744632720947e-01
-1.749780893325805664e+00,-1.807063579559326172e+00,4.889425039291381836e-01
-1.752371430397033691e+00,-1.809738874435424805e+00,5.815835595130920410e-01
-1.667341351509094238e+00,-1.771984219551086426e+00,-6.519450545310974121e-01
-1.669616699218750000e+00,-1.774402379989624023e+00,-5.624901652336120605e-01
-1.671705722808837891e+00,-1.776622533798217773e+00,-4.741831719875335693e-01
-1.673712730407714844e+00,-1.778755426406860352e+00,-3.868364989757537842e-01
-1.675968050956726074e+00,-1.781152248382568359e+00,-3.002918362617492676e-01
-1.677965521812438965e+00,-1.783275127410888672e+00,-2.142243534326553345e-01
-1.680128693580627441e+00,-1.785574078559875488e+00,-1.284908950328826904e-01
-1.682247877120971680e+00,-1.787826299667358398e+00,-4.284947365522384644e-02
-1.684325814247131348e+00,-1.790034651756286621e+00,4.290240257978439331e-02
-1.686591267585754395e+00,-1.792442202568054199e+00,1.289851218461990356e-01
-1.688618659973144531e+00,-1.794596910476684570e+00,2.155844420194625854e-01
-1.690934062004089355e+00,-1.797057509422302246e+00,3.029733598232269287e-01
-1.693219184875488281e+00,-1.799486160278320312e+00,3.913449645042419434e-01
-1.695371627807617188e+00,-1.801773667335510254e+00,4.808960556983947754e-01
-1.697278976440429688e+00,-1.803800702095031738e+00,5.718094706535339355e-01
-1.614802598953247070e+00,-1.766127467155456543e+00,-6.412206888198852539e-01
-1.617015242576599121e+00,-1.768547415733337402e+00,-5.532403588294982910e-01
-1.619058012962341309e+00,-1.770781636238098145e+00,-4.663911759853363037e-01
-1.621363878250122070e+00,-1.773303627967834473e+00,-3.805648684501647949e-01
-1.623278141021728516e+00,-1.775397181510925293e+00,-2.953740656375885010e-01
-1.625414252281188965e+00,-1.777733564376831055e+00,-2.107422053813934326e-01
-1.627498269081115723e+00,-1.780012845993041992e+00,-1.264014244079589844e-01
-1.629547715187072754e+00,-1.782254338264465332e+00,-4.215258732438087463e-02
-1.631573438644409180e+00,-1.784469842910766602e+00,4.220498725771903992e-02
-1.633556604385375977e+00,-1.786638975143432617e+00,1.268719583749771118e-01
-1.635796427726745605e+00,-1.789088726043701172e+00,2.120883017778396606e-01
-1.637670397758483887e+00,-1.791138172149658203e+00,2.979929149150848389e-01
-1.639856696128845215e+00,-1.793529391288757324e+00,3.849054574966430664e-01
-1.641932129859924316e+00,-1.795799255371093750e+00,4.729803800582885742e-01
-1.644463062286376953e+00,-1.798567414283752441e+00,5.626313090324401855e-01
-1.564340114593505859e+00,-1.760893702507019043e+00,-6.311264038085937500e-01
-1.566412687301635742e+00,-1.763226628303527832e+00,-5.445064306259155273e-01
-1.568336129188537598e+00,-1.765391707420349121e+00,-4.590120911598205566e-01
-1.570519328117370605e+00,-1.767849206924438477e+00,-3.745316565036773682e-01
-1.572338700294494629e+00,-1.769897222518920898e+00,-2.906849682331085205e-01
-1.574384808540344238e+00,-1.772200465202331543e+00,-2.073936313390731812e-01
-1.576387763023376465e+00,-1.774455070495605469e+00,-1.243917420506477356e-01
-1.578373432159423828e+00,-1.776690125465393066e+00,-4.148240759968757629e-02
-1.580346584320068359e+00,-1.778911232948303223e+00,4.153426736593246460e-02
-1.582289338111877441e+00,-1.781098127365112305e+00,1.248574331402778625e-01
-1.584494113922119141e+00,-1.783579945564270020e+00,2.087253332138061523e-01
-1.586355686187744141e+00,-1.785675287246704102e+00,2.932763397693634033e-01
-1.588531613349914551e+00,-1.788124799728393555e+00,3.788271546363830566e-01
-1.590609431266784668e+00,-1.790463566780090332e+00,4.655309319496154785e-01
-1.592483162879943848e+00,-1.792572736740112305e+00,5.535688996315002441e-01
-1.515294551849365234e+00,-1.755661845207214355e+00,-6.214139461517333984e-01
-1.517240285873413086e+00,-1.757916212081909180e+00,-5.361051559448242188e-01
-1.519047021865844727e+00,-1.760009527206420898e+00,-4.519131481647491455e-01
-1.520818591117858887e+00,-1.762062072753906250e+00,-3.686560988426208496e-01
-1.522847175598144531e+00,-1.764412403106689453e+00,-2.861749231815338135e-01
-1.524806380271911621e+00,-1.766682505607604980e+00,-2.041728496551513672e-01
-1.526737093925476074e+00,-1.768919467926025391e+00,-1.224592253565788269e-01
-1.528659343719482422e+00,-1.771146655082702637e+00,-4.083792865276336670e-02
-1.530577778816223145e+00,-1.773369431495666504e+00,4.088917747139930725e-02
-1.532483816146850586e+00,-1.775577783584594727e+00,1.229201704263687134e-01
-1.534340262413024902e+00,-1.777728676795959473e+00,2.054494321346282959e-01
-1.536495566368103027e+00,-1.780225872993469238e+00,2.887397408485412598e-01
-1.538655400276184082e+00,-1.782728314399719238e+00,3.729798495769500732e-01
-1.540732264518737793e+00,-1.785134673118591309e+00,4.583644568920135498e-01
-1.542615056037902832e+00,-1.787316083908081055e+00,5.450710654258728027e-01
-1.469523429870605469e+00,-1.752731323242187500e+00,-6.128689646720886230e-01
-1.471436142921447754e+00,-1.755012631416320801e+00,-5.287424921989440918e-01
-1.473603010177612305e+00,-1.757597208023071289e+00,-4.458322525024414062e-01
-1.475285172462463379e+00,-1.759603500366210938e+00,-3.636865317821502686e-01
-1.477226853370666504e+00,-1.761919379234313965e+00,-2.823122143745422363e-01
-1.479110121726989746e+00,-1.764165520668029785e+00,-2.014146149158477783e-01
-1.480973243713378906e+00,-1.766387820243835449e+00,-1.208041012287139893e-01
-1.482838034629821777e+00,-1.768611907958984375e+00,-4.028597474098205566e-02
-1.484708070755004883e+00,-1.770842313766479492e+00,4.033678025007247925e-02
-1.486572623252868652e+00,-1.773066163063049316e+00,1.212608441710472107e-01
-1.488396048545837402e+00,-1.775241136550903320e+00,2.026791125535964966e-01
-1.490521788597106934e+00,-1.777776479721069336e+00,2.848530113697052002e-01
-1.492192864418029785e+00,-1.779769659042358398e+00,3.678545951843261719e-01
-1.494177579879760742e+00,-1.782136797904968262e+00,4.520569443702697754e-01
-1.495986580848693848e+00,-1.784294486045837402e+00,5.375643372535705566e-01
-1.423022150993347168e+00,-1.747469425201416016e+00,-6.038451194763183594e-01
-1.424824833869934082e+00,-1.749683022499084473e+00,-5.209391713142395020e-01
-1.426513791084289551e+00,-1.751757025718688965e+00,-4.391265213489532471e-01
-1.428472042083740234e+00,-1.754161834716796875e+00,-3.582991063594818115e-01
-1.430327773094177246e+00,-1.756440639495849609e+00,-2.781254947185516357e-01
-1.432131290435791016e+00,-1.758655428886413574e+00,-1.984248608350753784e-01
-1.433924198150634766e+00,-1.760857105255126953e+00,-1.190099865198135376e-01
-1.435730814933776855e+00,-1.763075590133666992e+00,-3.968770429491996765e-02
-1.437550067901611328e+00,-1.765309691429138184e+00,3.973799198865890503e-02
-1.439368963241577148e+00,-1.767543315887451172e+00,1.194618865847587585e-01
-1.441162228584289551e+00,-1.769745469093322754e+00,1.996761262416839600e-01
-1.442880511283874512e+00,-1.771855473518371582e+00,2.805663645267486572e-01
-1.444916248321533203e+00,-1.774355411529541016e+00,3.624237477779388428e-01
-1.446886539459228516e+00,-1.776774764060974121e+00,4.453979134559631348e-01
-1.448698282241821289e+00,-1.778999567031860352e+00,5.296676754951477051e-01
-1.377778172492980957e+00,-1.742254018783569336e+00,-5.951673388481140137e-01
-1.379474401473999023e+00,-1.744399070739746094e+00,-5.134345889091491699e-01
-1.381073832511901855e+00,-1.746421456336975098e+00,-4.327893257141113281e-01
-1.382938504219055176e+00,-1.748779535293579102e+00,-3.531203567981719971e-01
-1.384709835052490234e+00,-1.751019358634948730e+00,-2.741005420684814453e-01
-1.386440634727478027e+00,-1.753208041191101074e+00,-1.955511718988418579e-01
-1.388168931007385254e+00,-1.755393624305725098e+00,-1.172858104109764099e-01
-1.389916658401489258e+00,-1.757603764533996582e+00,-3.911268711090087891e-02
-1.391683220863342285e+00,-1.759837627410888672e+00,3.916239738464355469e-02
-1.393461585044860840e+00,-1.762086272239685059e+00,1.177329793572425842e-01
-1.395219564437866211e+00,-1.764309406280517578e+00,1.967894136905670166e-01
-1.396911501884460449e+00,-1.766448855400085449e+00,2.765158414840698242e-01
-1.398920536041259766e+00,-1.768989443778991699e+00,3.572012186050415039e-01
-1.400876283645629883e+00,-1.771462440490722656e+00,4.389948248863220215e-01
-1.402679443359375000e+00,-1.773742675781250000e+00,5.220714211463928223e-01
-1.335318446159362793e+00,-1.739153742790222168e+00,-5.875189304351806641e-01
-1.337000966072082520e+00,-1.741345047950744629e+00,-5.068510770797729492e-01
-1.338936924934387207e+00,-1.743866443634033203e+00,-4.273630380630493164e-01
-1.340720653533935547e+00,-1.746189594268798828e+00,-3.486866950988769531e-01
-1.342418551445007324e+00,-1.748401045799255371e+00,-2.706551253795623779e-01
-1.344086527824401855e+00,-1.750573515892028809e+00,-1.930916905403137207e-01
-1.345752000808715820e+00,-1.752742648124694824e+00,-1.158098205924034119e-01
-1.347445845603942871e+00,-1.754948735237121582e+00,-3.862045332789421082e-02
-1.349164843559265137e+00,-1.757187604904174805e+00,3.866972401738166809e-02
-1.350901365280151367e+00,-1.759449243545532227e+00,1.162529438734054565e-01
-1.352622985839843750e+00,-1.761691570281982422e+00,1.943180412054061890e-01
-1.354287862777709961e+00,-1.763859987258911133e+00,2.730481922626495361e-01
-1.355834722518920898e+00,-1.765874624252319336e+00,3.526175022125244141e-01
-1.357693672180175781e+00,-1.768295764923095703e+00,4.333498179912567139e-01
-1.359410285949707031e+00,-1.770531535148620605e+00,5.153463482856750488e-01
-1.292327523231506348e+00,-1.733984231948852539e+00,-5.794643759727478027e-01
-1.293918251991271973e+00,-1.736118555068969727e+00,-4.998879134654998779e-01
-1.295762777328491211e+00,-1.738593459129333496e+00,-4.214824140071868896e-01
-1.297466278076171875e+00,-1.740879058837890625e+00,-3.438826501369476318e-01
-1.299093365669250488e+00,-1.743062257766723633e+00,-2.669228911399841309e-01
-1.300692081451416016e+00,-1.745207428932189941e+00,-1.904267668724060059e-01
-1.302299499511718750e+00,-1.747364163398742676e+00,-1.142111048102378845e-01
-1.303936600685119629e+00,-1.749560594558715820e+00,-3.808725252747535706e-02
-1.305606365203857422e+00,-1.751801133155822754e+00,3.813602775335311890e-02
-1.307297587394714355e+00,-1.754070281982421875e+00,1.146494299173355103e-01
-1.308980822563171387e+00,-1.756328821182250977e+00,1.916402578353881836e-01
-1.310613632202148438e+00,-1.758519649505615234e+00,2.692899405956268311e-01
-1.312140941619873047e+00,-1.760568976402282715e+00,3.477720618247985840e-01
-1.313972234725952148e+00,-1.763025999069213867e+00,4.274055063724517822e-01
-1.315675616264343262e+00,-1.765311479568481445e+00,5.082935690879821777e-01
-1.250444889068603516e+00,-1.728889703750610352e+00,-5.717220902442932129e-01
-1.251955866813659668e+00,-1.730978846549987793e+00,-4.931977391242980957e-01
-1.253715395927429199e+00,-1.733411550521850586e+00,-4.158332347869873047e-01
-1.255343198776245117e+00,-1.735662341117858887e+00,-3.392680585384368896e-01
-1.256899595260620117e+00,-1.737814188003540039e+00,-2.633372545242309570e-01
-1.258436918258666992e+00,-1.739939689636230469e+00,-1.878673136234283447e-01
-1.259986042976379395e+00,-1.742081522941589355e+00,-1.126754954457283020e-01
-1.261569261550903320e+00,-1.744270563125610352e+00,-3.757513687014579773e-02
-1.263189673423767090e+00,-1.746510982513427734e+00,3.762339800596237183e-02
-1.264835476875305176e+00,-1.748786449432373047e+00,1.131091639399528503e-01
-1.266478538513183594e+00,-1.751058220863342285e+00,1.890678256750106812e-01
-1.268079161643981934e+00,-1.753271341323852539e+00,2.656795382499694824e-01
-1.269580245018005371e+00,-1.755346655845642090e+00,3.431157469749450684e-01
-1.271381616592407227e+00,-1.757837295532226562e+00,4.216927886009216309e-01
-1.273063659667968750e+00,-1.760162949562072754e+00,5.015130043029785156e-01
-1.211366415023803711e+00,-1.726362824440002441e+00,-5.650948286056518555e-01
-1.212806940078735352e+00,-1.728415727615356445e+00,-4.874714016914367676e-01
-1.214491844177246094e+00,-1.730816841125488281e+00,-4.109984934329986572e-01
-1.215806603431701660e+00,-1.732690691947937012e+00,-3.352512419223785400e-01
-1.217374920845031738e+00,-1.734925746917724609e+00,-2.602324783802032471e-01
-1.219031095504760742e+00,-1.737286090850830078e+00,-1.856777966022491455e-01
-1.220527052879333496e+00,-1.739417910575866699e+00,-1.113618761301040649e-01
-1.222060799598693848e+00,-1.741603732109069824e+00,-3.713707253336906433e-02
-1.223634481430053711e+00,-1.743846416473388672e+00,3.718489408493041992e-02
-1.225053071975708008e+00,-1.745868086814880371e+00,1.117748320102691650e-01
-1.226585984230041504e+00,-1.748052835464477539e+00,1.868285238742828369e-01
-1.228403449058532715e+00,-1.750642895698547363e+00,2.625899910926818848e-01
-1.229875206947326660e+00,-1.752740263938903809e+00,3.391305506229400635e-01
-1.231644392013549805e+00,-1.755261659622192383e+00,4.168031215667724609e-01
-1.233297944068908691e+00,-1.757618188858032227e+00,4.957074522972106934e-01
-1.171031594276428223e+00,-1.720742464065551758e+00,-5.577114224433898926e-01
-1.172832846641540527e+00,-1.723389267921447754e+00,-4.812698960304260254e-01
-1.174141168594360352e+00,-1.725311756134033203e+00,-4.056589603424072266e-01
-1.175700664520263672e+00,-1.727603197097778320e+00,-3.309769332408905029e-01
-1.177205801010131836e+00,-1.729815006256103516e+00,-2.569121420383453369e-01
-1.178799629211425781e+00,-1.732156991958618164e+00,-1.833075135946273804e-01
-1.180244565010070801e+00,-1.734280228614807129e+00,-1.099401265382766724e-01
-1.181725740432739258e+00,-1.736456632614135742e+00,-3.666288405656814575e-02
-1.183250308036804199e+00,-1.738696932792663574e+00,3.671018779277801514e-02
-1.184629917144775391e+00,-1.740724205970764160e+00,1.103486269712448120e-01
-1.186121106147766113e+00,-1.742915391921997070e+00,1.844460219144821167e-01
-1.187581658363342285e+00,-1.745061516761779785e+00,2.591765522956848145e-01
-1.189333081245422363e+00,-1.747635126113891602e+00,3.348146677017211914e-01
-1.190621733665466309e+00,-1.749528646469116211e+00,4.113528728485107422e-01
-1.192180991172790527e+00,-1.751819968223571777e+00,4.892093539237976074e-01
-1.133662343025207520e+00,-1.718195915222167969e+00,-5.515702962875366211e-01
-1.135392427444458008e+00,-1.720817923545837402e+00,-4.759647250175476074e-01
-1.136646389961242676e+00,-1.722718477249145508e+00,-4.011828303337097168e-01
-1.138147592544555664e+00,-1.724993705749511719e+00,-3.273224532604217529e-01
-1.139595627784729004e+00,-1.727188348770141602e+00,-2.540734112262725830e-01
-1.141133904457092285e+00,-1.729519844055175781e+00,-1.812813431024551392e-01
-1.142529845237731934e+00,-1.731635570526123047e+00,-1.087246462702751160e-01
-1.143963217735290527e+00,-1.733807921409606934e+00,-3.625753149390220642e-02
-1.145441055297851562e+00,-1.736047744750976562e+00,3.630436956882476807e-02
-1.146779656410217285e+00,-1.738076686859130859e+00,1.091290712356567383e-01
-1.148230791091918945e+00,-1.740275979042053223e+00,1.824087500572204590e-01
-1.149653315544128418e+00,-1.742432117462158203e+00,2.563157975673675537e-01
-1.151361465454101562e+00,-1.745020866394042969e+00,3.311226665973663330e-01
-1.152621984481811523e+00,-1.746931314468383789e+00,4.068214595317840576e-01
-1.154149532318115234e+00,-1.749246597290039062e+00,4.838278889656066895e-01
-1.095589637756347656e+00,-1.713342666625976562e+00,-5.449224114418029785e-01
-1.097249984741210938e+00,-1.715939283370971680e+00,-4.702231585979461670e-01
-1.098449587821960449e+00,-1.717815279960632324e+00,-3.963389396667480469e-01
-1.099891066551208496e+00,-1.720069408416748047e+00,-3.233675956726074219e-01
-1.101283311843872070e+00,-1.722246646881103516e+00,-2.510019838809967041e-01
-1.102765798568725586e+00,-1.724565148353576660e+00,-1.790892034769058228e-01
-1.104111313819885254e+00,-1.726669430732727051e+00,-1.074095740914344788e-01
-1.105496764183044434e+00,-1.728835940361022949e+00,-3.581898659467697144e-02
-1.106925964355468750e+00,-1.731070995330810547e+00,3.586529195308685303e-02
-1.108223795890808105e+00,-1.733100652694702148e+00,1.078096330165863037e-01
-1.109632730484008789e+00,-1.735304117202758789e+00,1.802044063806533813e-01
-1.111015677452087402e+00,-1.737466692924499512e+00,2.532201707363128662e-01
-1.112676382064819336e+00,-1.740063786506652832e+00,3.271265029907226562e-01
-1.113907217979431152e+00,-1.741988778114318848e+00,4.019162952899932861e-01
-1.115396857261657715e+00,-1.744318246841430664e+00,4.779999256134033203e-01
-1.059783458709716797e+00,-1.710811257362365723e+00,-5.392375588417053223e-01
-1.061380743980407715e+00,-1.713389754295349121e+00,-4.653137624263763428e-01
-1.062534809112548828e+00,-1.715252876281738281e+00,-3.921985924243927002e-01
-1.063922643661499023e+00,-1.717493176460266113e+00,-3.199876248836517334e-01
-1.065264940261840820e+00,-1.719660162925720215e+00,-2.483773529529571533e-01
-1.066696166992187500e+00,-1.721970558166503906e+00,-1.772160828113555908e-01
-1.067996144294738770e+00,-1.724068999290466309e+00,-1.062859892845153809e-01
-1.069335818290710449e+00,-1.726231694221496582e+00,-3.544428199529647827e-02
-1.070719718933105469e+00,-1.728465676307678223e+00,3.549015149474143982e-02
-1.071976661682128906e+00,-1.730494856834411621e+00,1.066821366548538208e-01
-1.073342680931091309e+00,-1.732699990272521973e+00,1.783203035593032837e-01
-1.074685454368591309e+00,-1.734867572784423828e+00,2.505738437175750732e-01
-1.076300024986267090e+00,-1.737473964691162109e+00,3.237102627754211426e-01
-1.077496767044067383e+00,-1.739405870437622070e+00,3.977212607860565186e-01
-1.078946828842163086e+00,-1.741746664047241211e+00,4.730147719383239746e-01
-1.023379087448120117e+00,-1.706113576889038086e+00,-5.330852866172790527e-01
-1.024594306945800781e+00,-1.708139657974243164e+00,-4.598580598831176758e-01
-1.026027321815490723e+00,-1.710528492927551270e+00,-3.877206444740295410e-01
-1.027363061904907227e+00,-1.712755441665649414e+00,-3.163327872753143311e-01
-1.028657317161560059e+00,-1.714913129806518555e+00,-2.455399930477142334e-01
-1.030037403106689453e+00,-1.717213988304138184e+00,-1.751912981271743774e-01
-1.031290173530578613e+00,-1.719302535057067871e+00,-1.050713732838630676e-01
-1.032582759857177734e+00,-1.721457481384277344e+00,-3.503919392824172974e-02
-1.033921122550964355e+00,-1.723688602447509766e+00,3.508460521697998047e-02
-1.035136818885803223e+00,-1.725715279579162598e+00,1.054632738232612610e-01
-1.036455988883972168e+00,-1.727914690971374512e+00,1.762830018997192383e-01
-1.037756919860839844e+00,-1.730083465576171875e+00,2.477120608091354370e-01
-1.038987278938293457e+00,-1.732134580612182617e+00,3.199119865894317627e-01
-1.040478348731994629e+00,-1.734620451927185059e+00,3.931815028190612793e-01
-1.041886210441589355e+00,-1.736967563629150391e+00,4.676189720630645752e-01
-9.890061616897583008e-01,-1.703617930412292480e+00,-5.278282761573791504e-01
-9.901779294013977051e-01,-1.705636382102966309e+00,-4.553219079971313477e-01
-9.915601611137390137e-01,-1.708017349243164062e+00,-3.838950991630554199e-01
-9.928508996963500977e-01,-1.710240721702575684e+00,-3.132115602493286133e-01
-9.940987229347229004e-01,-1.712390184402465820e+00,-2.431165426969528198e-01
-9.954317212104797363e-01,-1.714686274528503418e+00,-1.734620630741119385e-01
-9.966422319412231445e-01,-1.716771483421325684e+00,-1.040342375636100769e-01
-9.978924989700317383e-01,-1.718925118446350098e+00,-3.469336777925491333e-02
-9.991837739944458008e-01,-1.721149444580078125e+00,3.473826125264167786e-02
-1.000358819961547852e+00,-1.723173499107360840e+00,1.044221967458724976e-01
-1.001637339591979980e+00,-1.725375771522521973e+00,1.745434403419494629e-01
-1.002893209457397461e+00,-1.727539181709289551e+00,2.452673316001892090e-01
-1.004083037376403809e+00,-1.729588627815246582e+00,3.167549073696136475e-01
-1.005527615547180176e+00,-1.732077002525329590e+00,3.893027603626251221e-01
-1.006889224052429199e+00,-1.734422445297241211e+00,4.630064368247985840e-01
-9.541345238685607910e-01,-1.699099063873291016e+00,-5.221434235572814941e-01
-9.552648663520812988e-01,-1.701111912727355957e+00,-4.504179358482360840e-01
-9.565994143486022949e-01,-1.703488469123840332e+00,-3.797608315944671631e-01
-9.578456282615661621e-01,-1.705707669258117676e+00,-3.098388016223907471e-01
-9.590494036674499512e-01,-1.707851409912109375e+00,-2.404985874891281128e-01
-9.603354334831237793e-01,-1.710141539573669434e+00,-1.715941727161407471e-01
-9.615017771720886230e-01,-1.712218403816223145e+00,-1.029138043522834778e-01
-9.627082347869873047e-01,-1.714366912841796875e+00,-3.431973606348037720e-02
-9.639538526535034180e-01,-1.716585159301757812e+00,3.436414152383804321e-02
-9.650868177413940430e-01,-1.718602657318115234e+00,1.032975316047668457e-01
-9.663186669349670410e-01,-1.720796346664428711e+00,1.726632714271545410e-01
-9.675299525260925293e-01,-1.722953319549560547e+00,2.426252365112304688e-01
-9.686776399612426758e-01,-1.724997162818908691e+00,3.133426904678344727e-01
-9.700688719749450684e-01,-1.727474570274353027e+00,3.851080536842346191e-01
-9.713789224624633789e-01,-1.729807376861572266e+00,4.580158889293670654e-01
-9.210746884346008301e-01,-1.696656942367553711e+00,-5.172885060310363770e-01
-9.224599599838256836e-01,-1.699208617210388184e+00,-4.463722109794616699e-01
-9.234602451324462891e-01,-1.701051235198974609e+00,-3.762322664260864258e-01
-9.246635437011718750e-01,-1.703267693519592285e+00,-3.069599866867065430e-01
-9.258283972740173340e-01,-1.705413341522216797e+00,-2.382647544145584106e-01
-9.270693659782409668e-01,-1.707699418067932129e+00,-1.700002551078796387e-01
-9.281979203224182129e-01,-1.709778189659118652e+00,-1.019581407308578491e-01
-9.293613433837890625e-01,-1.711921334266662598e+00,-3.400099650025367737e-02
-9.305621981620788574e-01,-1.714133262634277344e+00,3.404492884874343872e-02
-9.316548109054565430e-01,-1.716145873069763184e+00,1.023378670215606689e-01
-9.328421354293823242e-01,-1.718333005905151367e+00,1.710588335990905762e-01
-9.340085983276367188e-01,-1.720481634140014648e+00,2.403699457645416260e-01
-9.354118108749389648e-01,-1.723066449165344238e+00,3.105280995368957520e-01
-9.364523887634277344e-01,-1.724983215332031250e+00,3.815254569053649902e-01
-9.377143383026123047e-01,-1.727307796478271484e+00,4.537537097930908203e-01
-8.885952234268188477e-01,-1.694216966629028320e+00,-5.126143097877502441e-01
-8.899359107017517090e-01,-1.696773171424865723e+00,-4.423409104347229004e-01
-8.909052014350891113e-01,-1.698621273040771484e+00,-3.728361725807189941e-01
-8.920710086822509766e-01,-1.700843930244445801e+00,-3.041909039020538330e-01
-8.931979537010192871e-01,-1.702992558479309082e+00,-2.361161857843399048e-01
-8.943971395492553711e-01,-1.705278992652893066e+00,-1.684676259756088257e-01
-8.954853415489196777e-01,-1.707353830337524414e+00,-1.010388806462287903e-01
-8.966074585914611816e-01,-1.709493279457092285e+00,-3.369443118572235107e-02
-8.977656960487365723e-01,-1.711701631546020508e+00,3.373795747756958008e-02
-8.988175392150878906e-01,-1.713707089424133301e+00,1.014148592948913574e-01
-8.999585509300231934e-01,-1.715882539749145508e+00,1.695151776075363159e-01
-9.010797142982482910e-01,-1.718020200729370117e+00,2.381997257471084595e-01
-9.024282097816467285e-01,-1.720591187477111816e+00,3.077226579189300537e-01
-9.034273624420166016e-01,-1.722496271133422852e+00,3.780765831470489502e-01
-9.046369194984436035e-01,-1.724802374839782715e+00,4.496480226516723633e-01
-8.557434082031250000e-01,-1.689948916435241699e+00,-5.075649023056030273e-01
-8.570439815521240234e-01,-1.692517399787902832e+00,-4.379885494709014893e-01
-8.579838275909423828e-01,-1.694373369216918945e+00,-3.691704571247100830e-01
-8.591123819351196289e-01,-1.696601986885070801e+00,-3.012021481990814209e-01
-8.602001667022705078e-01,-1.698750257492065430e+00,-2.337969541549682617e-01
-8.613579869270324707e-01,-1.701036691665649414e+00,-1.668134331703186035e-01
-8.624089956283569336e-01,-1.703112363815307617e+00,-1.000471264123916626e-01
-8.634884357452392578e-01,-1.705244064331054688e+00,-3.336365148425102234e-02
-8.646029233932495117e-01,-1.707445025444030762e+00,3.340671211481094360e-02
-8.656121492385864258e-01,-1.709437966346740723e+00,1.004187166690826416e-01
-8.667070865631103516e-01,-1.711600303649902344e+00,1.678493618965148926e-01
-8.677799105644226074e-01,-1.713719010353088379e+00,2.358570843935012817e-01
-8.690702915191650391e-01,-1.716267347335815430e+00,3.046933710575103760e-01
-8.700227141380310059e-01,-1.718148112297058105e+00,3.743505179882049561e-01
-8.711774945259094238e-01,-1.720428705215454102e+00,4.452114403247833252e-01
-8.244128227233886719e-01,-1.687578797340393066e+00,-5.032573342323303223e-01
-8.256750106811523438e-01,-1.690162420272827148e+00,-4.342763423919677734e-01
-8.265894651412963867e-01,-1.692034244537353516e+00,-3.660455048084259033e-01
-8.276823163032531738e-01,-1.694271445274353027e+00,-2.986545562744140625e-01
-8.287367224693298340e-01,-1.696429729461669922e+00,-2.318212836980819702e-01
-8.298548460006713867e-01,-1.698718547821044922e+00,-1.654043197631835938e-01
-8.308677077293395996e-01,-1.700791954994201660e+00,-9.920203685760498047e-02
-8.319085240364074707e-01,-1.702922463417053223e+00,-3.308186680078506470e-02
-8.329787850379943848e-01,-1.705113291740417480e+00,3.312442824244499207e-02
-8.339475393295288086e-01,-1.707096457481384277e+00,9.956976026296615601e-02
-8.349968194961547852e-01,-1.709244251251220703e+00,1.664292067289352417e-01
-8.360251784324645996e-01,-1.711349368095397949e+00,2.338600754737854004e-01
-8.372585773468017578e-01,-1.713874101638793945e+00,3.021099865436553955e-01
-8.381665349006652832e-01,-1.715732693672180176e+00,3.711722791194915771e-01
-8.392670750617980957e-01,-1.717985510826110840e+00,4.414252936840057373e-01
-7.930764555931091309e-01,-1.684129118919372559e+00,-4.987923502922058105e-01
-7.940108180046081543e-01,-1.686113357543945312e+00,-4.302717149257659912e-01
-7.951075434684753418e-01,-1.688442230224609375e+00,-3.627692162990570068e-01
-7.959603667259216309e-01,-1.690253257751464844e+00,-2.959076762199401855e-01
-7.969803810119628906e-01,-1.692419290542602539e+00,-2.296908497810363770e-01
-7.980607151985168457e-01,-1.694713473320007324e+00,-1.638852953910827637e-01
-7.990357875823974609e-01,-1.696784019470214844e+00,-9.829111397266387939e-02
-8.000358939170837402e-01,-1.698907852172851562e+00,-3.277805820107460022e-02
-8.010635972023010254e-01,-1.701090216636657715e+00,3.282016515731811523e-02
-8.019912242889404297e-01,-1.703060030937194824e+00,9.865467250347137451e-02
-8.029932975769042969e-01,-1.705188035964965820e+00,1.648982316255569458e-01
-8.041831851005554199e-01,-1.707714676856994629e+00,2.317667007446289062e-01
-8.051464557647705078e-01,-1.709760308265686035e+00,2.993227243423461914e-01
-8.063065409660339355e-01,-1.712223887443542480e+00,3.678787946701049805e-01
-8.073912262916564941e-01,-1.714527130126953125e+00,4.375225007534027100e-01
-7.620336413383483887e-01,-1.680185437202453613e+00,-4.943432211875915527e-01
-7.629464268684387207e-01,-1.682198047637939453e+00,-4.264421761035919189e-01
-7.640116214752197266e-01,-1.684546709060668945e+00,-3.595458269119262695e-01
-7.648425698280334473e-01,-1.686378717422485352e+00,-2.932827770709991455e-01
-7.659410834312438965e-01,-1.688800811767578125e+00,-2.276885211467742920e-01
-7.668716311454772949e-01,-1.690852522850036621e+00,-1.624338179826736450e-01
-7.678124308586120605e-01,-1.692926883697509766e+00,-9.742107242345809937e-02
-7.687731981277465820e-01,-1.695045351982116699e+00,-3.248790651559829712e-02
-7.697563171386718750e-01,-1.697213053703308105e+00,3.252945467829704285e-02
-7.707577347755432129e-01,-1.699420928955078125e+00,9.779477864503860474e-02
-7.715986371040344238e-01,-1.701274991035461426e+00,1.634350717067718506e-01
-7.727305889129638672e-01,-1.703770756721496582e+00,2.297068089246749878e-01
-7.736448645591735840e-01,-1.705786705017089844e+00,2.966580688953399658e-01
-7.747431397438049316e-01,-1.708208203315734863e+00,3.645960986614227295e-01
-7.757669687271118164e-01,-1.710465669631958008e+00,4.336081147193908691e-01
-7.322520017623901367e-01,-1.677957057952880859e+00,-4.905536174774169922e-01
-7.331429719924926758e-01,-1.679998755455017090e+00,-4.231810867786407471e-01
-7.341795563697814941e-01,-1.682374000549316406e+00,-3.568026125431060791e-01
-7.351360917091369629e-01,-1.684565901756286621e+00,-2.911077439785003662e-01
-7.360492944717407227e-01,-1.686658501625061035e+00,-2.259561270475387573e-01
-7.369498610496520996e-01,-1.688722252845764160e+00,-1.611993163824081421e-01
-7.378558516502380371e-01,-1.690798282623291016e+00,-9.668091684579849243e-02
-7.387781143188476562e-01,-1.692911744117736816e+00,-3.224103525280952454e-02
-7.397220134735107422e-01,-1.695074558258056641e+00,3.228222578763961792e-02
-7.406774759292602539e-01,-1.697263956069946289e+00,9.705062955617904663e-02
-7.416299581527709961e-01,-1.699446558952331543e+00,1.622230410575866699e-01
-7.425559163093566895e-01,-1.701568484306335449e+00,2.279535681009292603e-01
-7.434211969375610352e-01,-1.703551292419433594e+00,2.943885624408721924e-01
-7.444611191749572754e-01,-1.705934286117553711e+00,3.617993295192718506e-01
-7.454281449317932129e-01,-1.708150148391723633e+00,4.302722513675689697e-01
-7.022651433944702148e-01,-1.674206733703613281e+00,-4.864687025547027588e-01
-7.031384110450744629e-01,-1.676288723945617676e+00,-4.196684360504150391e-01
-7.041461467742919922e-01,-1.678691148757934570e+00,-3.538477420806884766e-01
-7.050762772560119629e-01,-1.680908560752868652e+00,-2.887021303176879883e-01
-7.059614062309265137e-01,-1.683018684387207031e+00,-2.240918576717376709e-01
-7.068307399749755859e-01,-1.685091257095336914e+00,-1.598705947399139404e-01
-7.077027559280395508e-01,-1.687170147895812988e+00,-9.588441252708435059e-02
-7.085883021354675293e-01,-1.689281225204467773e+00,-3.197546303272247314e-02
-7.094891667366027832e-01,-1.691429018974304199e+00,3.201611340045928955e-02
-7.103987932205200195e-01,-1.693597435951232910e+00,9.624969214200973511e-02
-7.113029956817626953e-01,-1.695753216743469238e+00,1.608821302652359009e-01
-7.121783494949340820e-01,-1.697839975357055664e+00,2.260652929544448853e-01
-7.129929065704345703e-01,-1.699781894683837891e+00,2.919436991214752197e-01
-7.139717936515808105e-01,-1.702115535736083984e+00,3.587853312492370605e-01
-7.148779034614562988e-01,-1.704275727272033691e+00,4.266751110553741455e-01
-6.733856201171875000e-01,-1.672052383422851562e+00,-4.829926192760467529e-01
-6.744498610496520996e-01,-1.674695014953613281e+00,-4.168098568916320801e-01
-6.752205491065979004e-01,-1.676608562469482422e+00,-3.513355553150177002e-01
-6.761225461959838867e-01,-1.678848385810852051e+00,-2.866567373275756836e-01
-6.769807934761047363e-01,-1.680979371070861816e+00,-2.225073277950286865e-01
-6.778196692466735840e-01,-1.683062434196472168e+00,-1.587413996458053589e-01
-6.786583065986633301e-01,-1.685144782066345215e+00,-9.520749747753143311e-02
-6.795077919960021973e-01,-1.687254071235656738e+00,-3.174973651766777039e-02
-6.803680658340454102e-01,-1.689390063285827637e+00,3.178993239998817444e-02
-6.812345385551452637e-01,-1.691541671752929688e+00,9.556891024112701416e-02
-6.820931434631347656e-01,-1.693673610687255859e+00,1.597422063350677490e-01
-6.829200387001037598e-01,-1.695726871490478516e+00,2.244594246149063110e-01
-6.839030981063842773e-01,-1.698167800903320312e+00,2.899554669857025146e-01
-6.846076846122741699e-01,-1.699917435646057129e+00,3.562199771404266357e-01
-6.857450604438781738e-01,-1.702741503715515137e+00,4.237902760505676270e-01
-6.445887088775634766e-01,-1.669095873832702637e+00,-4.794243574142456055e-01
-6.453927755355834961e-01,-1.671177864074707031e+00,-4.135929644107818604e-01
-6.461469531059265137e-01,-1.673130869865417480e+00,-3.486330509185791016e-01
-6.470233798027038574e-01,-1.675400137901306152e+00,-2.844575345516204834e-01
-6.478543281555175781e-01,-1.677551865577697754e+00,-2.208035737276077271e-01
-6.486643552780151367e-01,-1.679649353027343750e+00,-1.575276553630828857e-01
-6.494709253311157227e-01,-1.681737899780273438e+00,-9.448012709617614746e-02
-6.502828001976013184e-01,-1.683840036392211914e+00,-3.150711953639984131e-02
-6.511029601097106934e-01,-1.685963869094848633e+00,3.154685720801353455e-02
-6.519249081611633301e-01,-1.688092231750488281e+00,9.483711421489715576e-02
-6.527350544929504395e-01,-1.690189957618713379e+00,1.585162132978439331e-01
-6.535129547119140625e-01,-1.692204356193542480e+00,2.227321714162826538e-01
-6.544347405433654785e-01,-1.694591164588928223e+00,2.877158820629119873e-01
-6.553304195404052734e-01,-1.696910381317138672e+00,3.535880446434020996e-01
-6.561530232429504395e-01,-1.699040532112121582e+00,4.204885661602020264e-01
-6.160105466842651367e-01,-1.665647268295288086e+00,-4.758524298667907715e-01
-6.167995929718017578e-01,-1.667780637741088867e+00,-4.105252325534820557e-01
-6.176962852478027344e-01,-1.670205354690551758e+00,-3.461457192897796631e-01
-6.183906197547912598e-01,-1.672082781791687012e+00,-2.823625504970550537e-01
-6.191956996917724609e-01,-1.674259543418884277e+00,-2.191812396049499512e-01
-6.199769377708435059e-01,-1.676372051239013672e+00,-1.563720107078552246e-01
-6.207511425018310547e-01,-1.678465485572814941e+00,-9.378750622272491455e-02
-6.215265989303588867e-01,-1.680562257766723633e+00,-3.127612173557281494e-02
-6.223066449165344238e-01,-1.682671308517456055e+00,3.131537511944770813e-02
-6.230850219726562500e-01,-1.684775948524475098e+00,9.414011985063552856e-02
-6.238483190536499023e-01,-1.686839938163757324e+00,1.573484539985656738e-01
-6.247391700744628906e-01,-1.689248681068420410e+00,2.211434990167617798e-01
-6.254394650459289551e-01,-1.691142201423645020e+00,2.855811119079589844e-01
-6.262733936309814453e-01,-1.693397164344787598e+00,3.509521484375000000e-01
