7.201956272125244141e+00,-2.578047215938568115e-01,6.304921507835388184e-01
7.210769653320312500e+00,-2.581202089786529541e-01,8.859369158744812012e-01
7.221406459808349609e+00,-2.585009634494781494e-01,1.144489288330078125e+00
4.009498119354248047e+00,-8.609203249216079712e-02,-1.074587702751159668e+00
4.745589256286621094e+00,-1.018974035978317261e-01,-1.095856428146362305e+00
5.868535041809082031e+00,-1.260093152523040771e-01,-1.140988826751708984e+00
6.761691093444824219e+00,-1.451871842145919800e-01,-1.071191906929016113e+00
6.770038127899169922e+00,-1.453664153814315796e-01,-8.314465284347534180e-01
6.778958320617675781e+00,-1.455579549074172974e-01,-5.932178497314453125e-01
6.787038326263427734e+00,-1.457314342260360718e-01,-3.557750582695007324e-01
6.795380115509033203e+00,-1.459105610847473145e-01,-1.186409667134284973e-01
6.804003715515136719e+00,-1.460957229137420654e-01,1.187915280461311340e-01
6.811839580535888672e+00,-1.462639868259429932e-01,3.570751547813415527e-01
6.820357799530029297e+00,-1.464468836784362793e-01,5.968406796455383301e-01
6.828729629516601562e+00,-1.466266512870788574e-01,8.386545777320861816e-01
6.838820934295654297e+00,-1.468433290719985962e-01,1.083410859107971191e+00
6.846299648284912109e+00,-1.470039039850234985e-01,1.331090569496154785e+00
4.009594917297363281e+00,-2.869411930441856384e-02,-1.074393630027770996e+00
4.785632133483886719e+00,-3.424772247672080994e-02,-1.104876756668090820e+00
5.868658542633056641e+00,-4.199825599789619446e-02,-1.140779137611389160e+00
6.457765102386474609e+00,-4.621411487460136414e-02,-1.022834181785583496e+00
6.465725898742675781e+00,-4.627108573913574219e-02,-7.939104437828063965e-01
6.474236488342285156e+00,-4.633199051022529602e-02,-5.664359927177429199e-01
6.481947422027587891e+00,-4.638717323541641235e-02,-3.397126793861389160e-01
6.489911556243896484e+00,-4.644416645169258118e-02,-1.132845655083656311e-01
6.498148441314697266e+00,-4.650311172008514404e-02,1.134283393621444702e-01
6.505635261535644531e+00,-4.655669257044792175e-02,3.409541249275207520e-01
6.513777732849121094e+00,-4.661495983600616455e-02,5.698954463005065918e-01
6.521781921386718750e+00,-4.667224362492561340e-02,8.007934689521789551e-01
6.529359817504882812e+00,-4.672647267580032349e-02,1.034173965454101562e+00
6.538568496704101562e+00,-4.679237306118011475e-02,1.270999550819396973e+00
4.009613990783691406e+00,2.869425527751445770e-02,-1.074398636817932129e+00
4.785659313201904297e+00,3.424791991710662842e-02,-1.104883193969726562e+00
5.868700027465820312e+00,4.199855029582977295e-02,-1.140787243843078613e+00
6.146852970123291016e+00,4.398911446332931519e-02,-9.735893011093139648e-01
6.154427528381347656e+00,4.404332116246223450e-02,-7.556868791580200195e-01
6.162525177001953125e+00,4.410127177834510803e-02,-5.391641259193420410e-01
6.169862270355224609e+00,4.415377974510192871e-02,-3.233565986156463623e-01
6.177440643310546875e+00,4.420801252126693726e-02,-1.078302264213562012e-01
6.185278892517089844e+00,4.426410421729087830e-02,1.079670488834381104e-01
6.192401885986328125e+00,4.431508108973503113e-02,3.245378732681274414e-01
6.200149536132812500e+00,4.437052458524703979e-02,5.424558520317077637e-01
6.207766532897949219e+00,4.442503303289413452e-02,7.622362375259399414e-01
6.214976310729980469e+00,4.447663202881813049e-02,9.843792915344238281e-01
6.223739624023437500e+00,4.453934356570243835e-02,1.209801554679870605e+00
4.009549140930175781e+00,8.609313517808914185e-02,-1.074601411819458008e+00
4.745663166046142578e+00,1.018989905714988708e-01,-1.095873594284057617e+00
5.868646621704101562e+00,1.260117143392562866e-01,-1.141010522842407227e+00
6.040742397308349609e+00,1.297069638967514038e-01,-9.569787383079528809e-01
6.048150062561035156e+00,1.298660188913345337e-01,-7.427895069122314453e-01
6.056070327758789062e+00,1.300360858440399170e-01,-5.299588441848754883e-01
6.063238143920898438e+00,1.301899850368499756e-01,-3.178336322307586670e-01
6.070640087127685547e+00,1.303489208221435547e-01,-1.059876829385757446e-01
6.078293800354003906e+00,1.305132657289505005e-01,1.061213091015815735e-01
6.085244655609130859e+00,1.306625157594680786e-01,3.189871907234191895e-01
6.092804431915283203e+00,1.308248341083526611e-01,5.331733822822570801e-01
6.100231647491455078e+00,1.309843212366104126e-01,7.491858005523681641e-01
6.109193325042724609e+00,1.311767399311065674e-01,9.678227305412292480e-01
6.115802288055419922e+00,1.313186436891555786e-01,1.189063787460327148e+00
6.123844623565673828e+00,1.314913332462310791e-01,1.414124608039855957e+00
4.009588718414306641e+00,1.435291767120361328e-01,-1.075052499771118164e+00
4.745744228363037109e+00,1.698809564113616943e-01,-1.096341371536254883e+00
5.868786334991455078e+00,2.100819200277328491e-01,-1.141505479812622070e+00
6.062398433685302734e+00,2.170125544071197510e-01,-9.608031511306762695e-01
6.069851398468017578e+00,2.172793596982955933e-01,-7.457603216171264648e-01
6.077813148498535156e+00,2.175643593072891235e-01,-5.320795178413391113e-01
6.085013866424560547e+00,2.178221046924591064e-01,-3.191058337688446045e-01
6.092441558837890625e+00,2.180880010128021240e-01,-1.064119189977645874e-01
6.100115776062011719e+00,2.183627039194107056e-01,1.065459623932838440e-01
6.107079982757568359e+00,2.186120003461837769e-01,3.202630281448364258e-01
6.114646434783935547e+00,2.188828587532043457e-01,5.353041291236877441e-01
6.122075557708740234e+00,2.191487848758697510e-01,7.521767020225524902e-01
6.131035327911376953e+00,2.194695025682449341e-01,9.716810584068298340e-01
6.137632369995117188e+00,2.197056561708450317e-01,1.193797111511230469e+00
6.145658493041992188e+00,2.199929654598236084e-01,1.419743657112121582e+00
4.009356498718261719e+00,2.010116428136825562e-01,-1.075651526451110840e+00
4.745512485504150391e+00,2.379192709922790527e-01,-1.096962213516235352e+00
5.868549346923828125e+00,2.942234277725219727e-01,-1.142161369323730469e+00
6.081415176391601562e+00,3.048956096172332764e-01,-9.644098877906799316e-01
6.088917732238769531e+00,3.052717447280883789e-01,-7.485629916191101074e-01
6.096920967102050781e+00,3.056730031967163086e-01,-5.340806245803833008e-01
6.104152679443359375e+00,3.060355484485626221e-01,-3.203063905239105225e-01
6.111603260040283203e+00,3.064090907573699951e-01,-1.068122610449790955e-01
6.119293689727783203e+00,3.067946732044219971e-01,1.069466695189476013e-01
6.126263141632080078e+00,3.071440756320953369e-01,3.214666247367858887e-01
6.133827209472656250e+00,3.075233101844787598e-01,5.373135805130004883e-01
6.141245365142822266e+00,3.078952133655548096e-01,7.549960613250732422e-01
6.150188922882080078e+00,3.083436191082000732e-01,9.753162264823913574e-01
6.156756877899169922e+00,3.086729049682617188e-01,1.198253631591796875e+00
6.164748668670654297e+00,3.090735971927642822e-01,1.425029873847961426e+00
4.009408473968505859e+00,2.585883140563964844e-01,-1.076548099517822266e+00
4.745635509490966797e+00,3.060715496540069580e-01,-1.097890973091125488e+00
5.868771076202392578e+00,3.785085976123809814e-01,-1.143141984939575195e+00
6.103475093841552734e+00,3.936459422111511230e-01,-9.687025547027587891e-01
6.111043453216552734e+00,3.941340446472167969e-01,-7.518996000289916992e-01
6.119101047515869141e+00,3.946537375450134277e-01,-5.364634990692138672e-01
6.126372337341308594e+00,3.951226770877838135e-01,-3.217361569404602051e-01
6.133851051330566406e+00,3.956050276756286621e-01,-1.072890609502792358e-01
6.141555309295654297e+00,3.961019217967987061e-01,1.074238196015357971e-01
6.148524761199951172e+00,3.965514302253723145e-01,3.228995501995086670e-01
6.156078338623046875e+00,3.970385789871215820e-01,5.397052764892578125e-01
6.163471221923828125e+00,3.975154161453247070e-01,7.583503127098083496e-01
6.172380924224853516e+00,3.980900347232818604e-01,9.796387553215026855e-01
6.178897857666015625e+00,3.985103368759155273e-01,1.203549623489379883e+00
6.186830520629882812e+00,3.990219831466674805e-01,1.431307792663574219e+00
4.008995532989501953e+00,3.162361979484558105e-01,-1.077542304992675781e+00
4.745214939117431641e+00,3.743104040622711182e-01,-1.098920464515686035e+00
5.868327617645263672e+00,4.629034101963043213e-01,-1.144228935241699219e+00
6.122559070587158203e+00,4.829576015472412109e-01,-9.727288484573364258e-01
6.130193710327148438e+00,4.835598170757293701e-01,-7.550300955772399902e-01
6.138304710388183594e+00,4.841996431350708008e-01,-5.386994481086730957e-01
6.145614147186279297e+00,4.847761988639831543e-01,-3.230779767036437988e-01
6.153115749359130859e+00,4.853679537773132324e-01,-1.077365055680274963e-01
6.160830020904541016e+00,4.859764873981475830e-01,1.078715771436691284e-01
6.167793273925781250e+00,4.865257441997528076e-01,3.242439627647399902e-01
6.175326347351074219e+00,4.871200025081634521e-01,5.419484972953796387e-01
6.182685852050781250e+00,4.877005219459533691e-01,7.614954113960266113e-01
6.191549777984619141e+00,4.883997142314910889e-01,9.836899042129516602e-01
6.198004245758056641e+00,4.889088273048400879e-01,1.208510518074035645e+00
3.981341600418090820e+00,3.714610040187835693e-01,-1.071428775787353516e+00
4.745353698730468750e+00,4.427436590194702148e-01,-1.100307583808898926e+00
5.807995796203613281e+00,5.418886542320251465e-01,-1.133861422538757324e+00
6.144997119903564453e+00,5.733310580253601074e-01,-9.774973988533020020e-01
6.152718067169189453e+00,5.740513801574707031e-01,-7.587386369705200195e-01
6.160895347595214844e+00,5.748143792152404785e-01,-5.413486361503601074e-01
6.168252468109130859e+00,5.755007863044738770e-01,-3.246678709983825684e-01
6.175781250000000000e+00,5.762032270431518555e-01,-1.082666814327239990e-01
6.183504104614257812e+00,5.769237875938415527e-01,1.084020659327507019e-01
6.190454959869384766e+00,5.775722861289978027e-01,3.258365392684936523e-01
6.197958469390869141e+00,5.782723426818847656e-01,5.446053147315979004e-01
6.206881523132324219e+00,5.791049003601074219e-01,7.654179930686950684e-01
6.214064121246337891e+00,5.797750353813171387e-01,9.884840846061706543e-01
6.222725868225097656e+00,5.805832147598266602e-01,1.214826822280883789e+00
3.980724573135375977e+00,4.289542138576507568e-01,-1.072805166244506836e+00
4.744714736938476562e+00,5.112801194190979004e-01,-1.101743340492248535e+00
5.807311058044433594e+00,6.257832050323486328e-01,-1.135360121726989746e+00
6.165364742279052734e+00,6.643663048744201660e-01,-9.821494817733764648e-01
6.172817230224609375e+00,6.651693582534790039e-01,-7.623132467269897461e-01
6.180158615112304688e+00,6.659604907035827637e-01,-5.438231825828552246e-01
6.187559604644775391e+00,6.667579412460327148e-01,-3.261530399322509766e-01
6.195112228393554688e+00,6.675717830657958984e-01,-1.087619364261627197e-01
6.202837944030761719e+00,6.684043407440185547e-01,1.088975742459297180e-01
6.210679054260253906e+00,6.692492961883544922e-01,3.273717164993286133e-01
6.218502998352050781e+00,6.700923442840576172e-01,5.471972823143005371e-01
6.226105213165283203e+00,6.709115505218505859e-01,7.688940763473510742e-01
6.233212471008300781e+00,6.716774106025695801e-01,9.929576516151428223e-01
6.241778850555419922e+00,6.726005077362060547e-01,1.220300912857055664e+00
3.980720043182373047e+00,4.866822659969329834e-01,-1.074571132659912109e+00
4.744831562042236328e+00,5.801024436950683594e-01,-1.103585600852966309e+00
5.807580947875976562e+00,7.100340127944946289e-01,-1.137283325195312500e+00
6.188137531280517578e+00,7.565608024597167969e-01,-9.874010682106018066e-01
6.195695400238037109e+00,7.574848532676696777e-01,-7.663990259170532227e-01
6.203116416931152344e+00,7.583921551704406738e-01,-5.467424988746643066e-01
6.210570812225341797e+00,7.593035101890563965e-01,-3.279052972793579102e-01
6.218152523040771484e+00,7.602304220199584961e-01,-1.093462705612182617e-01
6.225880622863769531e+00,7.611752748489379883e-01,1.094821691513061523e-01
6.233696937561035156e+00,7.621309161186218262e-01,3.291262984275817871e-01
6.241471767425537109e+00,7.630814313888549805e-01,5.501231551170349121e-01
6.248999118804931641e+00,7.640017271041870117e-01,7.729926109313964844e-01
6.256005287170410156e+00,7.648583054542541504e-01,9.982302784919738770e-01
6.264447689056396484e+00,7.658904790878295898e-01,1.226750373840332031e+00
3.979864597320556641e+00,5.444961786270141602e-01,-1.076333880424499512e+00
4.704680919647216797e+00,6.436602473258972168e-01,-1.096277594566345215e+00
5.806604385375976562e+00,7.944174408912658691e-01,-1.139202117919921875e+00
6.207230567932128906e+00,8.492282032966613770e-01,-9.922855496406555176e-01
6.214889526367187500e+00,8.502760529518127441e-01,-7.701998949050903320e-01
6.222386837005615234e+00,8.513017892837524414e-01,-5.494587421417236328e-01
6.229890346527099609e+00,8.523283600807189941e-01,-3.295356929302215576e-01
6.237495422363281250e+00,8.533688187599182129e-01,-1.098899617791175842e-01
6.245221138000488281e+00,8.544257879257202148e-01,1.100260615348815918e-01
6.253009796142578125e+00,8.554913401603698730e-01,3.307586014270782471e-01
6.260729312896728516e+00,8.565475344657897949e-01,5.528445243835449219e-01
6.268177509307861328e+00,8.575664758682250977e-01,7.768037915229797363e-01
6.277049541473388672e+00,8.587803244590759277e-01,1.003446817398071289e+00
6.283391952514648438e+00,8.596480488777160645e-01,1.232743382453918457e+00
3.952484607696533203e+00,5.984959602355957031e-01,-1.071136236190795898e+00
4.704720020294189453e+00,7.124015092849731445e-01,-1.098550200462341309e+00
5.806814670562744141e+00,8.792836666107177734e-01,-1.141595602035522461e+00
6.230272769927978516e+00,9.434049129486083984e-01,-9.980255365371704102e-01
6.238057613372802734e+00,9.445836544036865234e-01,-7.746672630310058594e-01
6.245648384094238281e+00,9.457331299781799316e-01,-5.526515245437622070e-01
6.253213882446289062e+00,9.468786716461181641e-01,-3.314523696899414062e-01
6.260847568511962891e+00,9.480345845222473145e-01,-1.105291098356246948e-01
6.268568038940429688e+00,9.492036104202270508e-01,1.106654033064842224e-01
6.276319503784179688e+00,9.503773450851440430e-01,3.326770663261413574e-01
6.283970832824707031e+00,9.515359401702880859e-01,5.560424923896789551e-01
6.291317939758300781e+00,9.526484608650207520e-01,7.812813520431518555e-01
6.300058364868164062e+00,9.539719820022583008e-01,1.009204387664794922e+00
6.308550834655761719e+00,9.552578926086425781e-01,1.240234851837158203e+00
3.952378034591674805e+00,6.564748883247375488e-01,-1.073543787002563477e+00
4.704755783081054688e+00,7.814419269561767578e-01,-1.101057529449462891e+00
5.807034492492675781e+00,9.645262360572814941e-01,-1.144235730171203613e+00
6.253508567810058594e+00,1.038683891296386719e+00,-1.004026412963867188e+00
6.261428833007812500e+00,1.039999365806579590e+00,-7.793383598327636719e-01
6.269120693206787109e+00,1.041276931762695312e+00,-5.559903383255004883e-01
6.276750087738037109e+00,1.042544245719909668e+00,-3.334566950798034668e-01
6.284412860870361328e+00,1.043816924095153809e+00,-1.111975014209747314e-01
6.292126655578613281e+00,1.045098185539245605e+00,1.113339886069297791e-01
6.299835205078125000e+00,1.046378493309020996e+00,3.346830904483795166e-01
6.307407379150390625e+00,1.047636270523071289e+00,5.593858957290649414e-01
6.314640998840332031e+00,1.048837661743164062e+00,7.859614491462707520e-01
6.323231220245361328e+00,1.050264596939086914e+00,1.015220642089843750e+00
6.331542015075683594e+00,1.051644921302795410e+00,1.247586250305175781e+00
3.951127529144287109e+00,7.145202159881591797e-01,-1.075871825218200684e+00
4.703423976898193359e+00,8.505651354789733887e-01,-1.103482007980346680e+00
5.746226787567138672e+00,1.039145112037658691e+00,-1.135068535804748535e+00
6.272510051727294922e+00,1.134317994117736816e+00,-1.009580492973327637e+00
6.280558109283447266e+00,1.135773420333862305e+00,-7.836624383926391602e-01
6.288341999053955078e+00,1.137181043624877930e+00,-5.590813755989074707e-01
6.296030044555664062e+00,1.138571381568908691e+00,-3.353123962879180908e-01
6.303716659545898438e+00,1.139961361885070801e+00,-1.118163242936134338e-01
6.311419010162353516e+00,1.141354322433471680e+00,1.119529530405998230e-01
6.319080829620361328e+00,1.142739772796630859e+00,3.365400433540344238e-01
6.326572895050048828e+00,1.144094705581665039e+00,5.624803304672241211e-01
6.335319519042968750e+00,1.145676493644714355e+00,7.904953956604003906e-01
6.342134475708007812e+00,1.146908879280090332e+00,1.020786762237548828e+00
6.350262641906738281e+00,1.148378729820251465e+00,1.254385471343994141e+00
3.923956871032714844e+00,7.677593827247619629e-01,-1.071355938911437988e+00
4.664702892303466797e+00,9.126933813095092773e-01,-1.097350120544433594e+00
5.746257781982421875e+00,1.124309778213500977e+00,-1.138136863708496094e+00
6.297156810760498047e+00,1.232098340988159180e+00,-1.016281843185424805e+00
6.304092884063720703e+00,1.233455538749694824e+00,-7.887212038040161133e-01
6.311990737915039062e+00,1.235000729560852051e+00,-5.626978874206542969e-01
6.319750785827636719e+00,1.236519217491149902e+00,-3.374837636947631836e-01
6.327466011047363281e+00,1.238028764724731445e+00,-1.125403940677642822e-01
6.335154533386230469e+00,1.239533066749572754e+00,1.126771420240402222e-01
6.342761039733886719e+00,1.241021275520324707e+00,3.387125134468078613e-01
6.351432323455810547e+00,1.242717981338500977e+00,5.662140250205993652e-01
6.358762264251708984e+00,1.244152069091796875e+00,7.955610156059265137e-01
6.367376804351806641e+00,1.245837569236755371e+00,1.027614474296569824e+00
6.375626564025878906e+00,1.247451782226562500e+00,1.262793302536010742e+00
3.923621177673339844e+00,8.261680006980895996e-01,-1.074383020401000977e+00
4.664504528045654297e+00,9.821703433990478516e-01,-1.100497841835021973e+00
5.746227264404296875e+00,1.209940671920776367e+00,-1.141444087028503418e+00
6.320652961730957031e+00,1.330893397331237793e+00,-1.023043394088745117e+00
6.327756881713867188e+00,1.332389116287231445e+00,-7.939865589141845703e-01
6.335774421691894531e+00,1.334077358245849609e+00,-5.664623975753784180e-01
6.343609809875488281e+00,1.335727095603942871e+00,-3.397440314292907715e-01
6.351353168487548828e+00,1.337357640266418457e+00,-1.132941171526908875e-01
6.359025478363037109e+00,1.338973164558410645e+00,1.134309694170951843e-01
6.366569995880126953e+00,1.340561747550964355e+00,3.409737050533294678e-01
6.375132083892822266e+00,1.342364549636840820e+00,5.699812769889831543e-01
6.382310867309570312e+00,1.343876123428344727e+00,8.008317947387695312e-01
6.390728473663330078e+00,1.345648527145385742e+00,1.034385561943054199e+00
6.398737430572509766e+00,1.347335100173950195e+00,1.271060347557067871e+00
3.923205614089965820e+00,8.849021196365356445e-01,-1.077627062797546387e+00
4.664222717285156250e+00,1.052042841911315918e+00,-1.103870987892150879e+00
5.687997341156005859e+00,1.282961249351501465e+00,-1.133408904075622559e+00
6.344238281250000000e+00,1.430980324745178223e+00,-1.030070543289184570e+00
6.352427959442138672e+00,1.432827591896057129e+00,-7.995736598968505859e-01
6.359663486480712891e+00,1.434459567070007324e+00,-5.703755617141723633e-01
6.367576122283935547e+00,1.436244249343872070e+00,-3.420935571193695068e-01
6.375349521636962891e+00,1.437997579574584961e+00,-1.140776202082633972e-01
6.383002281188964844e+00,1.439723849296569824e+00,1.142145544290542603e-01
6.391394615173339844e+00,1.441616654396057129e+00,3.433731794357299805e-01
6.398921489715576172e+00,1.443314433097839355e+00,5.738964676856994629e-01
6.407570362091064453e+00,1.445265173912048340e+00,8.065143823623657227e-01
6.414139747619628906e+00,1.446747064590454102e+00,1.041419982910156250e+00
6.421891689300537109e+00,1.448495507240295410e+00,1.279647111892700195e+00
3.896165370941162109e+00,9.375976920127868652e-01,-1.073775887489318848e+00
4.625890254974365234e+00,1.113203167915344238e+00,-1.098457455635070801e+00
5.687753677368164062e+00,1.368736743927001953e+00,-1.137147665023803711e+00
6.367881298065185547e+00,1.532406926155090332e+00,-1.037364363670349121e+00
6.376254558563232422e+00,1.534421801567077637e+00,-8.052546381950378418e-01
6.383624553680419922e+00,1.536195516586303711e+00,-5.744377374649047852e-01
6.391618728637695312e+00,1.538119196891784668e+00,-3.445327281951904297e-01
6.399421215057373047e+00,1.539996862411499023e+00,-1.148910000920295715e-01
6.407051563262939453e+00,1.541833162307739258e+00,1.150279939174652100e-01
6.415366649627685547e+00,1.543834090232849121e+00,3.458128273487091064e-01
6.422767162322998047e+00,1.545615077018737793e+00,5.779600739479064941e-01
6.431236267089843750e+00,1.547653079032897949e+00,8.121982812881469727e-01
6.439562320709228516e+00,1.549656629562377930e+00,1.049041509628295898e+00
6.447374343872070312e+00,1.551536560058593750e+00,1.289018034934997559e+00
3.895526409149169922e+00,9.966352581977844238e-01,-1.077420949935913086e+00
4.625368118286132812e+00,1.183358669281005859e+00,-1.102242588996887207e+00
5.687361717224121094e+00,1.455060124397277832e+00,-1.141116380691528320e+00
6.391545772552490234e+00,1.635219335556030273e+00,-1.044925332069396973e+00
6.400112152099609375e+00,1.637410879135131836e+00,-8.111443519592285156e-01
6.407623291015625000e+00,1.639332652091979980e+00,-5.786495208740234375e-01
6.415701866149902344e+00,1.641399383544921875e+00,-3.470617532730102539e-01
6.423533916473388672e+00,1.643403172492980957e+00,-1.157343611121177673e-01
6.431138515472412109e+00,1.645348787307739258e+00,1.158713772892951965e-01
6.439370632171630859e+00,1.647454857826232910e+00,3.483421206474304199e-01
6.446637153625488281e+00,1.649313926696777344e+00,5.821726918220520020e-01
6.454912662506103516e+00,1.651431202888488770e+00,8.180897831916809082e-01
6.462993144989013672e+00,1.653498530387878418e+00,1.056605935096740723e+00
6.470509529113769531e+00,1.655421495437622070e+00,1.298247694969177246e+00
3.868596553802490234e+00,1.048959732055664062e+00,-1.074015259742736816e+00
4.587379932403564453e+00,1.243855953216552734e+00,-1.097320199012756348e+00
5.629866600036621094e+00,1.526523470878601074e+00,-1.133848309516906738e+00
6.416459560394287109e+00,1.739806056022644043e+00,-1.052961707115173340e+00
6.423963546752929688e+00,1.741840839385986328e+00,-8.172434568405151367e-01
6.432169437408447266e+00,1.744065880775451660e+00,-5.830608606338500977e-01
6.439787864685058594e+00,1.746131539344787598e+00,-3.496809303760528564e-01
6.447650432586669922e+00,1.748263478279113770e+00,-1.166077852249145508e-01
6.455775737762451172e+00,1.750466585159301758e+00,1.167547404766082764e-01
6.463369369506835938e+00,1.752525568008422852e+00,3.509613871574401855e-01
6.471765518188476562e+00,1.754802227020263672e+00,5.866501331329345703e-01
6.480196475982666016e+00,1.757088303565979004e+00,8.243972659111022949e-01
6.488365650177001953e+00,1.759303212165832520e+00,1.064761757850646973e+00
6.495903968811035156e+00,1.761347293853759766e+00,1.308267235755920410e+00
3.841872215270996094e+00,1.100976943969726562e+00,-1.070861339569091797e+00
4.586514949798583984e+00,1.314371585845947266e+00,-1.101500749588012695e+00
5.629077911376953125e+00,1.613142013549804688e+00,-1.138223171234130859e+00
6.440051555633544922e+00,1.845545053482055664e+00,-1.061059474945068359e+00
6.447770595550537109e+00,1.847757220268249512e+00,-8.235523700714111328e-01
6.456128120422363281e+00,1.850152254104614258e+00,-5.875729918479919434e-01
6.463839054107666016e+00,1.852361917495727539e+00,-3.523904979228973389e-01
6.471730232238769531e+00,1.854623317718505859e+00,-1.175113320350646973e-01
6.479822158813476562e+00,1.856942296028137207e+00,1.176582649350166321e-01
6.487322330474853516e+00,1.859091639518737793e+00,3.536707460880279541e-01
6.495561599731445312e+00,1.861452817916870117e+00,5.911617875099182129e-01
6.503775119781494141e+00,1.863806605339050293e+00,8.307056427001953125e-01
6.511668205261230469e+00,1.866068482398986816e+00,1.072859048843383789e+00
6.521200656890869141e+00,1.868800163269042969e+00,1.318614006042480469e+00
3.840741157531738281e+00,1.160386800765991211e+00,-1.075065493583679199e+00
4.548756122589111328e+00,1.374296426773071289e+00,-1.097044348716735840e+00
5.628043651580810547e+00,1.700376987457275391e+00,-1.142818212509155273e+00
6.463550090789794922e+00,1.952805042266845703e+00,-1.069426774978637695e+00
6.472401618957519531e+00,1.955479383468627930e+00,-8.301883935928344727e-01
6.480006217956542969e+00,1.957776784896850586e+00,-5.922358036041259766e-01
6.487812519073486328e+00,1.960135340690612793e+00,-3.551906049251556396e-01
6.495732784271240234e+00,1.962528228759765625e+00,-1.184450909495353699e-01
6.503787994384765625e+00,1.964962005615234375e+00,1.185919716954231262e-01
6.512104988098144531e+00,1.967474699020385742e+00,3.565205931663513184e-01
6.519263267517089844e+00,1.969637393951416016e+00,5.958236455917358398e-01
6.527247428894042969e+00,1.972049593925476074e+00,8.372232317924499512e-01
6.536832332611083984e+00,1.974945545196533203e+00,1.081551790237426758e+00
6.544024467468261719e+00,1.977118492126464844e+00,1.328815340995788574e+00
3.813985347747802734e+00,1.212136387825012207e+00,-1.072322845458984375e+00
4.547444820404052734e+00,1.445239782333374023e+00,-1.101604223251342773e+00
5.570970058441162109e+00,1.770530104637145996e+00,-1.136258602142333984e+00
6.488173484802246094e+00,2.062029838562011719e+00,-1.078273773193359375e+00
6.495989799499511719e+00,2.064513921737670898e+00,-8.369185924530029297e-01
6.503760814666748047e+00,2.066983699798583984e+00,-5.970496535301208496e-01
6.511663913726806641e+00,2.069495439529418945e+00,-3.580814599990844727e-01
6.519613265991210938e+00,2.072021961212158203e+00,-1.194090992212295532e-01
6.527629375457763672e+00,2.074569463729858398e+00,1.195559129118919373e-01
6.535838127136230469e+00,2.077178239822387695e+00,3.594108223915100098e-01
6.544100761413574219e+00,2.079804182052612305e+00,6.007528305053710938e-01
6.552198886871337891e+00,2.082377910614013672e+00,8.441602587699890137e-01
6.559842109680175781e+00,2.084807157516479492e+00,1.090184450149536133e+00
6.568988800048828125e+00,2.087713956832885742e+00,1.339815139770507812e+00
3.814254045486450195e+00,1.272606134414672852e+00,-1.077409386634826660e+00
4.512004852294921875e+00,1.505407094955444336e+00,-1.098126411437988281e+00
5.572099685668945312e+00,1.859102249145507812e+00,-1.141799449920654297e+00
6.517375469207763672e+00,2.174488544464111328e+00,-1.088188052177429199e+00
6.525463104248046875e+00,2.177186965942382812e+00,-8.446441888809204102e-01
6.533428192138671875e+00,2.179844379425048828e+00,-6.025756597518920898e-01
6.541447639465332031e+00,2.182520151138305664e+00,-3.614001274108886719e-01
6.549433231353759766e+00,2.185184478759765625e+00,-1.205157712101936340e-01
6.557405948638916016e+00,2.187844514846801758e+00,1.206624805927276611e-01
6.565492153167724609e+00,2.190542459487915039e+00,3.627285659313201904e-01
6.573553562164306641e+00,2.193232059478759766e+00,6.062763929367065430e-01
6.581374645233154297e+00,2.195841550827026367e+00,8.518812656402587891e-01
6.590646266937255859e+00,2.198935031890869141e+00,1.100421905517578125e+00
6.597382545471191406e+00,2.201182603836059570e+00,1.351893901824951172e+00
3.787425041198730469e+00,1.324189662933349609e+00,-1.075074672698974609e+00
4.510216236114501953e+00,1.576897621154785156e+00,-1.103071331977844238e+00
5.515572547912597656e+00,1.928398489952087402e+00,-1.135756015777587891e+00
6.540469646453857422e+00,2.286731004714965820e+00,-1.097396612167358398e+00
6.548806190490722656e+00,2.289645671844482422e+00,-8.518204689025878906e-01
6.556948661804199219e+00,2.292492628097534180e+00,-6.077091097831726074e-01
6.565070152282714844e+00,2.295332193374633789e+00,-3.644830286502838135e-01
6.573085308074951172e+00,2.298134326934814453e+00,-1.215438246726989746e-01
6.581012248992919922e+00,2.300905942916870117e+00,1.216904073953628540e-01
6.588979244232177734e+00,2.303691387176513672e+00,3.658104240894317627e-01
6.596847534179687500e+00,2.306442260742187500e+00,6.114069819450378418e-01
6.606031417846679688e+00,2.309653520584106445e+00,8.592638969421386719e-01
6.613333225250244141e+00,2.312206268310546875e+00,1.109622001647949219e+00
6.621980667114257812e+00,2.315229654312133789e+00,1.363585352897644043e+00
3.762617349624633789e+00,1.376259684562683105e+00,-1.073514580726623535e+00
4.474967956542968750e+00,1.636817455291748047e+00,-1.100067853927612305e+00
5.516237735748291016e+00,2.017684698104858398e+00,-1.141722917556762695e+00
6.570885181427001953e+00,2.403445243835449219e+00,-1.108158469200134277e+00
6.579160213470458984e+00,2.406471967697143555e+00,-8.601609468460083008e-01
6.587149143218994141e+00,2.409394025802612305e+00,-6.136415600776672363e-01
6.594846248626708984e+00,2.412209510803222656e+00,-3.680153489112854004e-01
6.602897167205810547e+00,2.415154218673706055e+00,-1.227217391133308411e-01
6.611325740814208984e+00,2.418237209320068359e+00,1.228783875703811646e-01
6.619520187377929688e+00,2.421234369277954102e+00,3.693922162055969238e-01
6.627526283264160156e+00,2.424162864685058594e+00,6.174029707908630371e-01
6.635131835937500000e+00,2.426944732666015625e+00,8.674786686897277832e-01
6.644022941589355469e+00,2.430196762084960938e+00,1.120492935180664062e+00
6.652541160583496094e+00,2.433312416076660156e+00,1.376909136772155762e+00
3.735953330993652344e+00,1.427454471588134766e+00,-1.071626782417297363e+00
4.437659740447998047e+00,1.695566534996032715e+00,-1.096750259399414062e+00
5.460076808929443359e+00,2.086217403411865234e+00,-1.136163115501403809e+00
6.593504428863525391e+00,2.519284009933471680e+00,-1.117939949035644531e+00
6.602044105529785156e+00,2.522547006607055664e+00,-8.677844405174255371e-01
6.610221862792968750e+00,2.525671482086181641e+00,-6.190952658653259277e-01
6.618210792541503906e+00,2.528723955154418945e+00,-3.713009059429168701e-01
6.626290798187255859e+00,2.531811237335205078e+00,-1.238173916935920715e-01
6.634482383728027344e+00,2.534941196441650391e+00,1.239704564213752747e-01
6.642544269561767578e+00,2.538021564483642578e+00,3.726661205291748047e-01
6.650339603424072266e+00,2.541000127792358398e+00,6.228526234626770020e-01
6.659282684326171875e+00,2.544417142868041992e+00,8.753079771995544434e-01
6.668153762817382812e+00,2.547806501388549805e+00,1.130596876144409180e+00
6.676566600799560547e+00,2.551020860671997070e+00,1.389297008514404297e+00
3.711351156234741211e+00,1.479266643524169922e+00,-1.070533514022827148e+00
4.437368869781494141e+00,1.768642187118530273e+00,-1.102822065353393555e+00
5.460102558135986328e+00,2.176282405853271484e+00,-1.142533421516418457e+00
6.623641490936279297e+00,2.640044689178466797e+00,-1.129341125488281250e+00
6.631232261657714844e+00,2.643069982528686523e+00,-8.765038251876831055e-01
6.639629364013671875e+00,2.646417140960693359e+00,-6.253331303596496582e-01
6.647747039794921875e+00,2.649652481079101562e+00,-3.750473260879516602e-01
6.655863761901855469e+00,2.652887582778930664e+00,-1.250666975975036621e-01
6.663998603820800781e+00,2.656130075454711914e+00,1.252195686101913452e-01
6.671912193298339844e+00,2.659284114837646484e+00,3.764106333255767822e-01
6.680738449096679688e+00,2.662802219390869141e+00,6.292048692703247070e-01
6.688078403472900391e+00,2.665727853775024414e+00,8.840176463127136230e-01
6.696527004241943359e+00,2.669095277786254883e+00,1.141768217086791992e+00
3.710552692413330078e+00,1.540849924087524414e+00,-1.076554656028747559e+00
4.402436256408691406e+00,1.828162550926208496e+00,-1.100530862808227539e+00
5.407288074493408203e+00,2.245438814163208008e+00,-1.138090610504150391e+00
6.652367115020751953e+00,2.762472391128540039e+00,-1.140863776206970215e+00
6.661184310913085938e+00,2.766133785247802734e+00,-8.856054544448852539e-01
6.668902873992919922e+00,2.769339084625244141e+00,-6.317586898803710938e-01
6.677152156829833984e+00,2.772764682769775391e+00,-3.789065480232238770e-01
6.685304641723632812e+00,2.776149988174438477e+00,-1.263536363840103149e-01
6.693379402160644531e+00,2.779503107070922852e+00,1.265062540769577026e-01
6.702048778533935547e+00,2.783103466033935547e+00,3.803193569183349609e-01
6.709712028503417969e+00,2.786285638809204102e+00,6.356246471405029297e-01
6.718331336975097656e+00,2.789864778518676758e+00,8.932031393051147461e-01
6.726690292358398438e+00,2.793335914611816406e+00,1.153609991073608398e+00
3.685745477676391602e+00,1.592771410942077637e+00,-1.075861573219299316e+00
4.367728710174560547e+00,1.887486100196838379e+00,-1.098495721817016602e+00
5.355107784271240234e+00,2.314175605773925781e+00,-1.133963465690612793e+00
6.682133197784423828e+00,2.887641191482543945e+00,-1.152938842773437500e+00
6.690021514892578125e+00,2.891050100326538086e+00,-8.948493003845214844e-01
6.697975158691406250e+00,2.894487380981445312e+00,-6.383721828460693359e-01
6.706357955932617188e+00,2.898109674453735352e+00,-3.828786015510559082e-01
6.714545726776123047e+00,2.901648044586181641e+00,-1.276782006025314331e-01
6.722558498382568359e+00,2.905110836029052734e+00,1.278305649757385254e-01
6.731062889099121094e+00,2.908785820007324219e+00,3.842890858650207520e-01
6.739736080169677734e+00,2.912533998489379883e+00,6.423523426055908203e-01
6.748350620269775391e+00,2.916256666183471680e+00,9.026513099670410156e-01
6.756601333618164062e+00,2.919821977615356445e+00,1.165787577629089355e+00
3.660946369171142578e+00,1.644628167152404785e+00,-1.075384020805358887e+00
4.333195209503173828e+00,1.946626424789428711e+00,-1.096705675125122070e+00
5.353969573974609375e+00,2.405194759368896484e+00,-1.140895605087280273e+00
6.710353851318359375e+00,3.014531135559082031e+00,-1.165133476257324219e+00
6.718582630157470703e+00,3.018227815628051758e+00,-9.043555259704589844e-01
6.726776123046875000e+00,3.021908760070800781e+00,-6.451734900474548340e-01
6.735293865203857422e+00,3.025735378265380859e+00,-3.869635760784149170e-01
6.743518829345703125e+00,3.029430150985717773e+00,-1.290404349565505981e-01
6.751465797424316406e+00,3.033000230789184570e+00,1.291925013065338135e-01
6.759799957275390625e+00,3.036744117736816406e+00,3.883714973926544189e-01
6.768199443817138672e+00,3.040517568588256836e+00,6.491464972496032715e-01
6.776443958282470703e+00,3.044221162796020508e+00,9.121439456939697266e-01
6.786190032958984375e+00,3.048599720001220703e+00,1.178301215171813965e+00
3.636118650436401367e+00,1.696428298950195312e+00,-1.075113415718078613e+00
4.331539630889892578e+00,2.020876646041870117e+00,-1.103494644165039062e+00
5.301872253417968750e+00,2.473584413528442383e+00,-1.137222290039062500e+00
6.739469528198242188e+00,3.144294500350952148e+00,-1.177882790565490723e+00
6.747694015502929688e+00,3.148131608963012695e+00,-9.142458438873291016e-01
6.755773544311523438e+00,3.151901006698608398e+00,-6.522148847579956055e-01
6.763890266418457031e+00,3.155687808990478516e+00,-3.911615312099456787e-01
6.772149562835693359e+00,3.159541130065917969e+00,-1.304403096437454224e-01
6.780570030212402344e+00,3.163469791412353516e+00,1.306025087833404541e-01
6.789091110229492188e+00,3.167445182800292969e+00,3.926189243793487549e-01
6.797568321228027344e+00,3.171400308609008789e+00,6.562498211860656738e-01
6.805780410766601562e+00,3.175231695175170898e+00,9.221159219741821289e-01
6.813426017761230469e+00,3.178798913955688477e+00,1.190808415412902832e+00
3.613504171371459961e+00,1.749280929565429688e+00,-1.075719952583312988e+00
4.299448490142822266e+00,2.081343412399291992e+00,-1.102795600891113281e+00
5.253622531890869141e+00,2.543254852294921875e+00,-1.134564876556396484e+00
6.774320602416992188e+00,3.279417991638183594e+00,-1.192055583000183105e+00
6.782941341400146484e+00,3.283591270446777344e+00,-9.252946972846984863e-01
6.791302204132080078e+00,3.287638425827026367e+00,-6.601202487945556641e-01
6.799582481384277344e+00,3.291646957397460938e+00,-3.959097862243652344e-01
6.807885169982910156e+00,3.295666217803955078e+00,-1.320237070322036743e-01
6.816229343414306641e+00,3.299705743789672852e+00,1.321855336427688599e-01
6.824554920196533203e+00,3.303735971450805664e+00,3.973638117313385010e-01
6.832719802856445312e+00,3.307688474655151367e+00,6.641460657119750977e-01
6.842113494873046875e+00,3.312236070632934570e+00,9.333666563034057617e-01
6.849559783935546875e+00,3.315840721130371094e+00,1.205295085906982422e+00
1.609006285667419434e+00,8.075385689735412598e-01,-4.823836982250213623e-01
1.611158013343811035e+00,8.086185455322265625e-01,-4.161833226680755615e-01
1.613135814666748047e+00,8.096111416816711426e-01,-3.508372008800506592e-01
1.615340948104858398e+00,8.107178807258605957e-01,-2.862590253353118896e-01
1.617186307907104492e+00,8.116440176963806152e-01,-2.221704274415969849e-01
1.619236707687377930e+00,8.126730918884277344e-01,-1.585055887699127197e-01
1.621241569519042969e+00,8.136792778968811035e-01,-9.506615251302719116e-02
1.623225927352905273e+00,8.146752715110778809e-01,-3.170172497630119324e-02
1.625193834304809570e+00,8.156629204750061035e-01,3.174015879631042480e-02
1.627131104469299316e+00,8.166351914405822754e-01,9.541150927543640137e-02
1.629305005073547363e+00,8.177261948585510254e-01,1.594911664724349976e-01
1.631141901016235352e+00,8.186481595039367676e-01,2.240876704454421997e-01
1.633254885673522949e+00,8.197086453437805176e-01,2.894335985183715820e-01
1.635253667831420898e+00,8.207117915153503418e-01,3.556475639343261719e-01
1.637642502784729004e+00,8.219106793403625488e-01,4.230245947837829590e-01
1.571056365966796875e+00,8.168473243713378906e-01,-4.744628965854644775e-01
1.573247671127319336e+00,8.179866075515747070e-01,-4.093730449676513672e-01
1.575243234634399414e+00,8.190242052078247070e-01,-3.451102972030639648e-01
1.577143907546997070e+00,8.200123906135559082e-01,-2.815411388874053955e-01
1.579236745834350586e+00,8.211005330085754395e-01,-2.185491025447845459e-01
1.581091523170471191e+00,8.220649361610412598e-01,-1.559074372053146362e-01
1.583076953887939453e+00,8.230972290039062500e-01,-9.350952506065368652e-02
1.585017561912536621e+00,8.241061568260192871e-01,-3.118269145488739014e-02
1.586907744407653809e+00,8.250889778137207031e-01,3.121987730264663696e-02
1.588947772979736328e+00,8.261497020721435547e-01,9.385630488395690918e-02
1.590773463249206543e+00,8.270989060401916504e-01,1.568621546030044556e-01
1.592826247215270996e+00,8.281661868095397949e-01,2.204297482967376709e-01
1.594826817512512207e+00,8.292064070701599121e-01,2.846977710723876953e-01
1.596684575080871582e+00,8.301723003387451172e-01,3.498077392578125000e-01
1.598889470100402832e+00,8.313186764717102051e-01,4.160452485084533691e-01
1.535196661949157715e+00,8.263261318206787109e-01,-4.671572744846343994e-01
1.536927342414855957e+00,8.272576928138732910e-01,-4.029619991779327393e-01
1.538943886756896973e+00,8.283430933952331543e-01,-3.397204577922821045e-01
1.540837049484252930e+00,8.293620944023132324e-01,-2.771506309509277344e-01
1.542689085006713867e+00,8.303589820861816406e-01,-2.151140868663787842e-01
1.544677734375000000e+00,8.314293026924133301e-01,-1.534745395183563232e-01
1.546526551246643066e+00,8.324245214462280273e-01,-9.204491972923278809e-02
1.548419475555419922e+00,8.334434032440185547e-01,-3.069423139095306396e-02
1.550360202789306641e+00,8.344879746437072754e-01,3.073270246386528015e-02
1.552175521850585938e+00,8.354650735855102539e-01,9.238112717866897583e-02
1.554153203964233398e+00,8.365295529365539551e-01,1.544159948825836182e-01
1.556119084358215332e+00,8.375877141952514648e-01,2.169867753982543945e-01
1.558005332946777344e+00,8.386030197143554688e-01,2.802387177944183350e-01
1.560236692428588867e+00,8.398039937019348145e-01,3.444208204746246338e-01
1.562338232994079590e+00,8.409351706504821777e-01,4.096243679523468018e-01
1.500278234481811523e+00,8.354417681694030762e-01,-4.601233601570129395e-01
1.502067804336547852e+00,8.364383578300476074e-01,-3.969206213951110840e-01
1.504103541374206543e+00,8.375719189643859863e-01,-3.346416652202606201e-01
1.505992770195007324e+00,8.386240005493164062e-01,-2.730143368244171143e-01
1.507811069488525391e+00,8.396365046501159668e-01,-2.119047641754150391e-01
1.509619116783142090e+00,8.406433463096618652e-01,-1.511712521314620972e-01
1.511455416679382324e+00,8.416658639907836914e-01,-9.066531062126159668e-02
1.513305425643920898e+00,8.426960706710815430e-01,-3.023417294025421143e-02
1.515173316001892090e+00,8.437362313270568848e-01,3.027149289846420288e-02
1.517086148262023926e+00,8.448014259338378906e-01,9.100306779146194458e-02
1.519008159637451172e+00,8.458717465400695801e-01,1.521114557981491089e-01
1.520891666412353516e+00,8.469205498695373535e-01,2.137430906295776367e-01
1.522667884826660156e+00,8.479096293449401855e-01,2.760372757911682129e-01
1.524746537208557129e+00,8.490671515464782715e-01,3.392344415187835693e-01
1.526674866676330566e+00,8.501409888267517090e-01,4.034230113029479980e-01
1.466705083847045898e+00,8.444708585739135742e-01,-4.534873664379119873e-01
1.468553543090820312e+00,8.455350995063781738e-01,-3.912225067615509033e-01
1.470610857009887695e+00,8.467196226119995117e-01,-3.298526406288146973e-01
1.472237586975097656e+00,8.476562500000000000e-01,-2.690669596195220947e-01
1.474102735519409180e+00,8.487301468849182129e-01,-2.088533639907836914e-01
1.475925803184509277e+00,8.497797846794128418e-01,-1.490000039339065552e-01
1.477747797966003418e+00,8.508288264274597168e-01,-8.936470746994018555e-02
1.479560017585754395e+00,8.518722057342529297e-01,-2.980053238570690155e-02
1.481355428695678711e+00,8.529059290885925293e-01,2.983669377863407135e-02
1.483164310455322266e+00,8.539474606513977051e-01,8.969226479530334473e-02
1.484960675239562988e+00,8.549817204475402832e-01,1.499121040105819702e-01
1.487024188041687012e+00,8.561698198318481445e-01,2.106841057538986206e-01
1.488692045211791992e+00,8.571301102638244629e-01,2.720741927623748779e-01
1.490624547004699707e+00,8.582427501678466797e-01,3.343416452407836914e-01
1.492383837699890137e+00,8.592556715011596680e-01,3.975709080696105957e-01
1.434371590614318848e+00,8.534184694290161133e-01,-4.472212791442871094e-01
1.436277747154235840e+00,8.545525670051574707e-01,-3.858431875705718994e-01
1.438362360000610352e+00,8.557928800582885742e-01,-3.253335952758789062e-01
1.439992666244506836e+00,8.567628860473632812e-01,-2.653879225254058838e-01
1.441829085350036621e+00,8.578554987907409668e-01,-2.059993743896484375e-01
1.443596482276916504e+00,8.589070439338684082e-01,-1.469622999429702759e-01
1.445338129997253418e+00,8.599433302879333496e-01,-8.814010769128799438e-02
1.447107434272766113e+00,8.609960079193115234e-01,-2.939209900796413422e-02
1.448909401893615723e+00,8.620681166648864746e-01,2.942869812250137329e-02
1.450695276260375977e+00,8.631306886672973633e-01,8.846680074930191040e-02
1.452436685562133789e+00,8.641667366027832031e-01,1.478622555732727051e-01
1.454413294792175293e+00,8.653427958488464355e-01,2.077973186969757080e-01
1.455973744392395020e+00,8.662711977958679199e-01,2.683331966400146484e-01
1.457764029502868652e+00,8.673363924026489258e-01,3.297219276428222656e-01
1.459886789321899414e+00,8.685993552207946777e-01,3.921855688095092773e-01
1.401928663253784180e+00,8.615189194679260254e-01,-4.409055113792419434e-01
1.403461217880249023e+00,8.624607324600219727e-01,-3.803047239780426025e-01
1.405261278152465820e+00,8.635669350624084473e-01,-3.206095993518829346e-01
1.407228469848632812e+00,8.647757768630981445e-01,-2.616039514541625977e-01
1.408867239952087402e+00,8.657829165458679199e-01,-2.030397355556488037e-01
1.410655260086059570e+00,8.668816685676574707e-01,-1.448571383953094482e-01
1.412385225296020508e+00,8.679447770118713379e-01,-8.687926828861236572e-02
1.414114952087402344e+00,8.690077066421508789e-01,-2.897166088223457336e-02
1.415844440460205078e+00,8.700705170631408691e-01,2.900709398090839386e-02
1.417527437210083008e+00,8.711047768592834473e-01,8.719557523727416992e-02
1.419386863708496094e+00,8.722474575042724609e-01,1.457537561655044556e-01
1.420945405960083008e+00,8.732051849365234375e-01,2.047803848981857300e-01
1.422705292701721191e+00,8.742867112159729004e-01,2.644811272621154785e-01
1.424790859222412109e+00,8.755682706832885742e-01,3.250652551651000977e-01
1.426778674125671387e+00,8.767899274826049805e-01,3.866232037544250488e-01
1.370297789573669434e+00,8.693413734436035156e-01,-4.348264932632446289e-01
1.372280597686767578e+00,8.705993294715881348e-01,-3.751937747001647949e-01
1.373760581016540527e+00,8.715382814407348633e-01,-3.162364363670349121e-01
1.375734448432922363e+00,8.727905154228210449e-01,-2.580451667308807373e-01
1.377359032630920410e+00,8.738211989402770996e-01,-2.002809047698974609e-01
1.378997206687927246e+00,8.748605251312255859e-01,-1.428774893283843994e-01
1.380720734596252441e+00,8.759539127349853516e-01,-8.569396287202835083e-02
1.382410287857055664e+00,8.770258426666259766e-01,-2.857637032866477966e-02
1.384071230888366699e+00,8.780794739723205566e-01,2.861070260405540466e-02
1.385828971862792969e+00,8.791946172714233398e-01,8.601099997758865356e-02
1.387620329856872559e+00,8.803311586380004883e-01,1.437709331512451172e-01
1.389090180397033691e+00,8.812636137008666992e-01,2.019867300987243652e-01
1.391097784042358398e+00,8.825373053550720215e-01,2.609268426895141602e-01
1.392643928527832031e+00,8.835182189941406250e-01,3.205833435058593750e-01
1.394441008567810059e+00,8.846583366394042969e-01,3.812526464462280273e-01
1.340255737304687500e+00,8.774335980415344238e-01,-4.292348027229309082e-01
1.341891288757324219e+00,8.785043358802795410e-01,-3.702850937843322754e-01
1.343424677848815918e+00,8.795082569122314453e-01,-3.121191561222076416e-01
1.345177054405212402e+00,8.806554675102233887e-01,-2.546518146991729736e-01
1.346859097480773926e+00,8.817566633224487305e-01,-1.976608783006668091e-01
1.348620295524597168e+00,8.829096555709838867e-01,-1.410250514745712280e-01
1.350236892700195312e+00,8.839680552482604980e-01,-8.457861095666885376e-02
1.351886153221130371e+00,8.850477933883666992e-01,-2.820437029004096985e-02
1.353582024574279785e+00,8.861580491065979004e-01,2.823975123465061188e-02
1.355138182640075684e+00,8.871768116950988770e-01,8.488563448190689087e-02
1.356798887252807617e+00,8.882640004158020020e-01,1.418802887201309204e-01
1.358415246009826660e+00,8.893222212791442871e-01,1.993568390607833862e-01
1.360290288925170898e+00,8.905497789382934570e-01,2.575128674507141113e-01
1.362109541893005371e+00,8.917407989501953125e-01,3.164602220058441162e-01
1.363780617713928223e+00,8.928347826004028320e-01,3.763252794742584229e-01
1.310856938362121582e+00,8.852452039718627930e-01,-4.238340556621551514e-01
1.312573552131652832e+00,8.864044547080993652e-01,-3.656586706638336182e-01
1.314446091651916504e+00,8.876689672470092773e-01,-3.083068430423736572e-01
1.315931200981140137e+00,8.886718750000000000e-01,-2.514975965023040771e-01
1.317601323127746582e+00,8.897997736930847168e-01,-1.952162235975265503e-01
1.319223165512084961e+00,8.908950686454772949e-01,-1.392702013254165649e-01
1.320833802223205566e+00,8.919827342033386230e-01,-8.352799713611602783e-02
1.322450280189514160e+00,8.930743336677551270e-01,-2.785408869385719299e-02
1.324076056480407715e+00,8.941723108291625977e-01,2.788833342492580414e-02
1.325701951980590820e+00,8.952703475952148438e-01,8.383585512638092041e-02
1.327298641204833984e+00,8.963485956192016602e-01,1.401227265596389771e-01
1.329113125801086426e+00,8.975738883018493652e-01,1.969218254089355469e-01
1.330570340156555176e+00,8.985579609870910645e-01,2.542953789234161377e-01
1.332232952117919922e+00,8.996807932853698730e-01,3.124788105487823486e-01
1.334188342094421387e+00,9.010013341903686523e-01,3.716801702976226807e-01
1.282839059829711914e+00,8.933209776878356934e-01,-4.188664555549621582e-01
1.284574747085571289e+00,8.945297002792358398e-01,-3.613885939121246338e-01
1.286160111427307129e+00,8.956336379051208496e-01,-3.046479523181915283e-01
1.287669658660888672e+00,8.966849446296691895e-01,-2.485238015651702881e-01
1.289330959320068359e+00,8.978417515754699707e-01,-1.929119676351547241e-01
1.290824294090270996e+00,8.988816738128662109e-01,-1.376163214445114136e-01
1.292425990104675293e+00,8.999969959259033203e-01,-8.253771066665649414e-02
