2.290032625198364258e+00,-1.745298027992248535e+00,-6.647356152534484863e-01
2.292747497558593750e+00,-1.747367143630981445e+00,-5.603400468826293945e-01
2.295745134353637695e+00,-1.749651670455932617e+00,-4.571717381477355957e-01
2.298563718795776367e+00,-1.751799941062927246e+00,-3.548489511013031006e-01
2.301121950149536133e+00,-1.753749489784240723e+00,-2.531247437000274658e-01
2.303922176361083984e+00,-1.755883574485778809e+00,-1.518122255802154541e-01
2.306671142578125000e+00,-1.757978677749633789e+00,-5.062328651547431946e-02
2.309371709823608398e+00,-1.760036826133728027e+00,5.068255588412284851e-02
2.312331199645996094e+00,-1.762292504310607910e+00,1.523663252592086792e-01
2.315069913864135742e+00,-1.764379739761352539e+00,2.546590268611907959e-01
2.317674636840820312e+00,-1.766364812850952148e+00,3.577992618083953857e-01
2.320626735687255859e+00,-1.768614768981933594e+00,4.621266424655914307e-01
2.323415756225585938e+00,-1.770740270614624023e+00,5.678352713584899902e-01
2.326664209365844727e+00,-1.773216009140014648e+00,6.753687858581542969e-01
2.360264778137207031e+00,-1.745993852615356445e+00,-7.866632938385009766e-01
2.363763093948364258e+00,-1.748581886291503906e+00,-6.788030862808227539e-01
2.366366386413574219e+00,-1.750507473945617676e+00,-5.721501111984252930e-01
2.369328498840332031e+00,-1.752698779106140137e+00,-4.667814075946807861e-01
2.372161626815795898e+00,-1.754794478416442871e+00,-3.622961938381195068e-01
2.374959468841552734e+00,-1.756864309310913086e+00,-2.584542930126190186e-01
2.377784490585327148e+00,-1.758954048156738281e+00,-1.550043970346450806e-01
2.380617380142211914e+00,-1.761049628257751465e+00,-5.168765410780906677e-02
2.383465290069580078e+00,-1.763156294822692871e+00,5.174948647618293762e-02
2.386366128921508789e+00,-1.765302181243896484e+00,1.555638164281845093e-01
2.389261007308959961e+00,-1.767443776130676270e+00,2.600106596946716309e-01
2.392080307006835938e+00,-1.769529223442077637e+00,3.653383553028106689e-01
2.395322799682617188e+00,-1.771927833557128906e+00,4.719025194644927979e-01
2.397744417190551758e+00,-1.773719191551208496e+00,5.797368288040161133e-01
2.401315450668334961e+00,-1.776360988616943359e+00,6.895869970321655273e-01
2.438423395156860352e+00,-1.750375628471374512e+00,-8.042804598808288574e-01
2.441152334213256836e+00,-1.752334475517272949e+00,-6.937531232833862305e-01
2.444270372390747070e+00,-1.754572749137878418e+00,-5.848540067672729492e-01
2.447193861007690430e+00,-1.756671309471130371e+00,-4.771191477775573730e-01
2.450044870376586914e+00,-1.758717775344848633e+00,-3.703085482120513916e-01
2.453098773956298828e+00,-1.760910034179687500e+00,-2.641878128051757812e-01
2.455954313278198242e+00,-1.762959837913513184e+00,-1.584389656782150269e-01
2.458881139755249023e+00,-1.765060782432556152e+00,-5.283296480774879456e-02
2.461883544921875000e+00,-1.767215967178344727e+00,5.289747193455696106e-02
2.464709520339965820e+00,-1.769244551658630371e+00,1.590037941932678223e-01
2.467772006988525391e+00,-1.771442890167236328e+00,2.657680511474609375e-01
2.470818996429443359e+00,-1.773630142211914062e+00,3.734484612941741943e-01
2.473733901977539062e+00,-1.775722503662109375e+00,4.822935163974761963e-01
2.477121591567993164e+00,-1.778154373168945312e+00,5.927144885063171387e-01
2.480288743972778320e+00,-1.780427813529968262e+00,7.048752903938293457e-01
2.520591259002685547e+00,-1.755245208740234375e+00,-8.230113387107849121e-01
2.523918151855468750e+00,-1.757561922073364258e+00,-7.100522518157958984e-01
2.526941537857055664e+00,-1.759667396545410156e+00,-5.985472798347473145e-01
2.529823303222656250e+00,-1.761674046516418457e+00,-4.882628321647644043e-01
2.533004760742187500e+00,-1.763889551162719727e+00,-3.789926171302795410e-01
2.535847663879394531e+00,-1.765869259834289551e+00,-2.703497409820556641e-01
2.538917064666748047e+00,-1.768006563186645508e+00,-1.621418893337249756e-01
2.541940689086914062e+00,-1.770112156867980957e+00,-5.406769737601280212e-02
2.544925689697265625e+00,-1.772190809249877930e+00,5.413118749856948853e-02
2.548153400421142578e+00,-1.774438500404357910e+00,1.627317667007446289e-01
2.551087141036987305e+00,-1.776481389999389648e+00,2.719744145870208740e-01
2.554371118545532227e+00,-1.778768301010131836e+00,3.821895122528076172e-01
2.557581186294555664e+00,-1.781003594398498535e+00,4.936201870441436768e-01
2.560575723648071289e+00,-1.783088922500610352e+00,6.065140366554260254e-01
2.564065456390380859e+00,-1.785519003868103027e+00,7.213469147682189941e-01
2.602908849716186523e+00,-1.757791042327880859e+00,-8.415880203247070312e-01
2.606220483779907227e+00,-1.760027408599853516e+00,-7.260447144508361816e-01
2.609851598739624023e+00,-1.762479543685913086e+00,-6.121476888656616211e-01
2.612708330154418945e+00,-1.764408707618713379e+00,-4.993344843387603760e-01
2.615936756134033203e+00,-1.766588926315307617e+00,-3.875780105590820312e-01
2.619069576263427734e+00,-1.768704652786254883e+00,-2.764948010444641113e-01
2.622174024581909180e+00,-1.770801186561584473e+00,-1.658232510089874268e-01
2.625295162200927734e+00,-1.772908926010131836e+00,-5.529524013400077820e-02
2.628434658050537109e+00,-1.775029063224792480e+00,5.536136776208877563e-02
2.631574153900146484e+00,-1.777149081230163574e+00,1.664176881313323975e-01
2.634655714035034180e+00,-1.779230237007141113e+00,2.781402170658111572e-01
2.638164758682250977e+00,-1.781599879264831543e+00,3.908713161945343018e-01
2.640967130661010742e+00,-1.783492445945739746e+00,5.047352313995361328e-01
2.644176006317138672e+00,-1.785659432411193848e+00,6.201985478401184082e-01
2.647962093353271484e+00,-1.788216233253479004e+00,7.376731634140014648e-01
2.691028594970703125e+00,-1.761752486228942871e+00,-8.618378043174743652e-01
2.694214344024658203e+00,-1.763838171958923340e+00,-7.434487342834472656e-01
2.697197675704956055e+00,-1.765791296958923340e+00,-6.266425251960754395e-01
2.700619697570800781e+00,-1.768031716346740723e+00,-5.112470388412475586e-01
2.703901767730712891e+00,-1.770180225372314453e+00,-3.968162834644317627e-01
2.707349061965942383e+00,-1.772437214851379395e+00,-2.831071615219116211e-01
2.710496425628662109e+00,-1.774497628211975098e+00,-1.697850376367568970e-01
2.713717222213745117e+00,-1.776606321334838867e+00,-5.661622434854507446e-02
2.717024803161621094e+00,-1.778771758079528809e+00,5.668523162603378296e-02
2.720059394836425781e+00,-1.780758261680603027e+00,1.703840643167495728e-01
2.723296642303466797e+00,-1.782877683639526367e+00,2.847748100757598877e-01
2.726447105407714844e+00,-1.784940242767333984e+00,4.001249969005584717e-01
2.730109453201293945e+00,-1.787337779998779297e+00,5.168296098709106445e-01
2.733664751052856445e+00,-1.789665460586547852e+00,6.351149678230285645e-01
2.736921787261962891e+00,-1.791797757148742676e+00,7.552335858345031738e-01
2.783870935440063477e+00,-1.766137480735778809e+00,-8.833852410316467285e-01
2.787797451019287109e+00,-1.768628597259521484e+00,-7.622087597846984863e-01
2.790699243545532227e+00,-1.770469427108764648e+00,-6.424123644828796387e-01
2.794610977172851562e+00,-1.772951126098632812e+00,-5.241824388504028320e-01
2.797814369201660156e+00,-1.774983406066894531e+00,-4.068284332752227783e-01
2.801043510437011719e+00,-1.777032017707824707e+00,-2.902152538299560547e-01
2.804443597793579102e+00,-1.779189109802246094e+00,-1.740568429231643677e-01
2.807775020599365234e+00,-1.781302690505981445e+00,-5.804066732525825500e-02
2.811049461364746094e+00,-1.783380031585693359e+00,5.810835212469100952e-02
2.814516544342041016e+00,-1.785579681396484375e+00,1.746820211410522461e-01
2.818052053451538086e+00,-1.787822604179382324e+00,2.919775247573852539e-01
2.820942640304565430e+00,-1.789656519889831543e+00,4.101914763450622559e-01
2.824915647506713867e+00,-1.792176961898803711e+00,5.298666954040527344e-01
2.827954769134521484e+00,-1.794105052947998047e+00,6.509885191917419434e-01
2.831501245498657227e+00,-1.796355009078979492e+00,7.741577029228210449e-01
2.883792638778686523e+00,-1.772160053253173828e+00,-9.069506525993347168e-01
2.886835575103759766e+00,-1.774030089378356934e+00,-7.822639942169189453e-01
2.890435934066772461e+00,-1.776242494583129883e+00,-6.594514250755310059e-01
2.894374132156372070e+00,-1.778662681579589844e+00,-5.380645394325256348e-01
2.897636890411376953e+00,-1.780667662620544434e+00,-4.175946414470672607e-01
2.901211500167846680e+00,-1.782864451408386230e+00,-2.979191243648529053e-01
2.904666662216186523e+00,-1.784987568855285645e+00,-1.786731332540512085e-01
2.908115148544311523e+00,-1.787106871604919434e+00,-5.957996845245361328e-02
2.911568403244018555e+00,-1.789228916168212891e+00,5.965071916580200195e-02
2.914928197860717773e+00,-1.791293621063232422e+00,1.793043464422225952e-01
2.918639898300170898e+00,-1.793574571609497070e+00,2.997088134288787842e-01
2.921738147735595703e+00,-1.795478463172912598e+00,4.210680127143859863e-01
2.925250530242919922e+00,-1.797636866569519043e+00,5.438044667243957520e-01
2.929423332214355469e+00,-1.800201296806335449e+00,6.683464050292968750e-01
2.933404445648193359e+00,-1.802647709846496582e+00,7.948830127716064453e-01
2.989742517471313477e+00,-1.778828859329223633e+00,-9.321688413619995117e-01
2.993599653244018555e+00,-1.781123638153076172e+00,-8.042038679122924805e-01
2.997828006744384766e+00,-1.783639430999755859e+00,-6.780587434768676758e-01
3.001118183135986328e+00,-1.785596966743469238e+00,-5.531003475189208984e-01
3.004832506179809570e+00,-1.787806987762451172e+00,-4.293113648891448975e-01
3.008407115936279297e+00,-1.789933681488037109e+00,-3.062645494937896729e-01
3.011919498443603516e+00,-1.792023539543151855e+00,-1.836739033460617065e-01
3.015490293502807617e+00,-1.794148087501525879e+00,-6.124741584062576294e-02
3.019136428833007812e+00,-1.796317458152770996e+00,6.132146716117858887e-02
3.022747039794921875e+00,-1.798465609550476074e+00,1.843341886997222900e-01
3.026261806488037109e+00,-1.800556898117065430e+00,3.080822229385375977e-01
3.030262947082519531e+00,-1.802937507629394531e+00,4.329447150230407715e-01
3.033403396606445312e+00,-1.804805994033813477e+00,5.590505003929138184e-01
3.037016630172729492e+00,-1.806955814361572266e+00,6.869225502014160156e-01
3.041321277618408203e+00,-1.809517025947570801e+00,8.170238733291625977e-01
3.096605300903320312e+00,-1.782903075218200684e+00,-9.574326872825622559e-01
3.100384712219238281e+00,-1.785079002380371094e+00,-8.259421586990356445e-01
3.104612112045288086e+00,-1.787512898445129395e+00,-6.963531374931335449e-01
3.107922315597534180e+00,-1.789418935775756836e+00,-5.680056214332580566e-01
3.111736774444580078e+00,-1.791615128517150879e+00,-4.408761262893676758e-01
3.115467786788940430e+00,-1.793763279914855957e+00,-3.145176470279693604e-01
3.119199752807617188e+00,-1.795912027359008789e+00,-1.886291950941085815e-01
3.122904777526855469e+00,-1.798045277595520020e+00,-6.289993226528167725e-02
3.126577854156494141e+00,-1.800159931182861328e+00,6.297390908002853394e-02
3.130280256271362305e+00,-1.802291631698608398e+00,1.892992705106735229e-01
3.133944034576416016e+00,-1.804401159286499023e+00,3.163828849792480469e-01
3.138176679611206055e+00,-1.806838154792785645e+00,4.446221888065338135e-01
3.141577959060668945e+00,-1.808796525001525879e+00,5.741565227508544922e-01
3.145532608032226562e+00,-1.811073422431945801e+00,7.055315375328063965e-01
3.149117708206176758e+00,-1.813137650489807129e+00,8.389246463775634766e-01
3.210825204849243164e+00,-1.787973403930664062e+00,-9.847344756126403809e-01
3.214522838592529297e+00,-1.790032386779785156e+00,-8.494359254837036133e-01
3.218756198883056641e+00,-1.792389869689941406e+00,-7.161275148391723633e-01
3.222671270370483398e+00,-1.794569849967956543e+00,-5.842228531837463379e-01
3.226436376571655273e+00,-1.796666622161865234e+00,-4.534369409084320068e-01
3.230174541473388672e+00,-1.798748135566711426e+00,-3.234653770923614502e-01
3.233977794647216797e+00,-1.800866127014160156e+00,-1.939915567636489868e-01
3.237812995910644531e+00,-1.803001761436462402e+00,-6.468793004751205444e-02
3.241677761077880859e+00,-1.805153846740722656e+00,6.476514786481857300e-02
3.245640516281127930e+00,-1.807360649108886719e+00,1.946911513805389404e-01
3.249627590179443359e+00,-1.809580802917480469e+00,3.254134058952331543e-01
3.253527879714965820e+00,-1.811752796173095703e+00,4.572443366050720215e-01
3.257199287414550781e+00,-1.813797235488891602e+00,5.904822945594787598e-01
3.261513233184814453e+00,-1.816199421882629395e+00,7.256403565406799316e-01
3.265502452850341797e+00,-1.818420886993408203e+00,8.629072904586791992e-01
3.333275556564331055e+00,-1.794149756431579590e+00,-1.014309167861938477e+00
3.336896657943725586e+00,-1.796098828315734863e+00,-8.748900890350341797e-01
3.341135501861572266e+00,-1.798380374908447266e+00,-7.375526428222656250e-01
3.345107793807983398e+00,-1.800518512725830078e+00,-6.016851663589477539e-01
3.348990917205810547e+00,-1.802608609199523926e+00,-4.669865667819976807e-01
3.353178024291992188e+00,-1.804862380027770996e+00,-3.331617116928100586e-01
3.357057094573974609e+00,-1.806950211524963379e+00,-1.998026072978973389e-01
3.361031293869018555e+00,-1.809089422225952148e+00,-6.662553548812866211e-02
3.365106344223022461e+00,-1.811282873153686523e+00,6.670631468296051025e-02
3.368911504745483398e+00,-1.813330888748168945e+00,2.005081474781036377e-01
3.373066902160644531e+00,-1.815567612648010254e+00,3.351377844810485840e-01
3.377196550369262695e+00,-1.817790389060974121e+00,4.709196090698242188e-01
3.381156444549560547e+00,-1.819921851158142090e+00,6.081692576408386230e-01
3.385848760604858398e+00,-1.822447538375854492e+00,7.474230527877807617e-01
3.390268325805664062e+00,-1.824826359748840332e+00,8.888834714889526367e-01
3.463837385177612305e+00,-1.800970435142517090e+00,-1.046087384223937988e+00
3.468522548675537109e+00,-1.803406476974487305e+00,-9.025403857231140137e-01
3.472775936126708984e+00,-1.805617928504943848e+00,-7.608290314674377441e-01
3.476816654205322266e+00,-1.807718992233276367e+00,-6.206579804420471191e-01
3.481288671493530273e+00,-1.810044050216674805e+00,-4.817723333835601807e-01
3.485227823257446289e+00,-1.812092185020446777e+00,-3.436695039272308350e-01
3.489464044570922852e+00,-1.814294695854187012e+00,-2.061163932085037231e-01
3.493595361709594727e+00,-1.816442728042602539e+00,-6.873091310262680054e-02
3.497625112533569336e+00,-1.818537950515747070e+00,6.881019473075866699e-02
3.501972436904907227e+00,-1.820798277854919434e+00,2.068552523851394653e-01
3.505851745605468750e+00,-1.822815299034118652e+00,3.457031846046447754e-01
3.510226726531982422e+00,-1.825089931488037109e+00,4.857770204544067383e-01
3.514482259750366211e+00,-1.827302575111389160e+00,6.273818016052246094e-01
3.518425703048706055e+00,-1.829352974891662598e+00,7.708301544189453125e-01
3.523134708404541016e+00,-1.831801295280456543e+00,9.167509675025939941e-01
3.592911720275878906e+00,-1.803233981132507324e+00,-1.077162981033325195e+00
3.610590696334838867e+00,-1.812106728553771973e+00,-9.326630830764770508e-01
3.614864349365234375e+00,-1.814251780509948730e+00,-7.861885428428649902e-01
3.619652271270751953e+00,-1.816654682159423828e+00,-6.414485573768615723e-01
3.623624324798583984e+00,-1.818648219108581543e+00,-4.978165924549102783e-01
3.628067970275878906e+00,-1.820878386497497559e+00,-3.551482260227203369e-01
3.632406234741210938e+00,-1.823055744171142578e+00,-2.129965722560882568e-01
3.636699199676513672e+00,-1.825210332870483398e+00,-7.102500647306442261e-02
3.640954732894897461e+00,-1.827346086502075195e+00,7.110811769962310791e-02
3.645142555236816406e+00,-1.829447865486145020e+00,2.137434035539627075e-01
3.649844169616699219e+00,-1.831807613372802734e+00,3.572798669338226318e-01
3.653809785842895508e+00,-1.833797931671142578e+00,5.019634962081909180e-01
3.658385992050170898e+00,-1.836094617843627930e+00,6.483126282691955566e-01
3.662703275680541992e+00,-1.838261485099792480e+00,7.965929508209228516e-01
3.667881965637207031e+00,-1.840860605239868164e+00,9.474622011184692383e-01
3.618040561676025391e+00,-1.751477003097534180e+00,-1.077070474624633789e+00
3.752244234085083008e+00,-1.816444396972656250e+00,-9.624394774436950684e-01
3.757455587387084961e+00,-1.818967223167419434e+00,-8.114548325538635254e-01
3.761489868164062500e+00,-1.820920109748840332e+00,-6.618973612785339355e-01
3.766121864318847656e+00,-1.823162555694580078e+00,-5.137553811073303223e-01
3.770609378814697266e+00,-1.825334787368774414e+00,-3.665063977241516113e-01
3.775055170059204102e+00,-1.827487111091613770e+00,-2.198048681020736694e-01
3.779510259628295898e+00,-1.829643845558166504e+00,-7.329515367746353149e-02
3.783987760543823242e+00,-1.831811308860778809e+00,7.338198274374008179e-02
3.788456439971923828e+00,-1.833974480628967285e+00,2.205851525068283081e-01
3.792833328247070312e+00,-1.836093425750732422e+00,3.686665892601013184e-01
3.797888278961181641e+00,-1.838540434837341309e+00,5.180887579917907715e-01
3.801865816116333008e+00,-1.840465903282165527e+00,6.690021753311157227e-01
3.806523084640502930e+00,-1.842720508575439453e+00,8.220513463020324707e-01
3.812144041061401367e+00,-1.845441579818725586e+00,9.778035283088684082e-01
3.640829801559448242e+00,-1.698626399040222168e+00,-1.076506376266479492e+00
3.918341875076293945e+00,-1.828099489212036133e+00,-9.982291460037231445e-01
3.923640012741088867e+00,-1.830571293830871582e+00,-8.415990471839904785e-01
3.928502082824707031e+00,-1.832839608192443848e+00,-6.865992546081542969e-01
3.933130502700805664e+00,-1.834999084472656250e+00,-5.329002737998962402e-01
3.937671184539794922e+00,-1.837117433547973633e+00,-3.801500499248504639e-01
3.942233800888061523e+00,-1.839246273040771484e+00,-2.279827445745468140e-01
3.946882009506225586e+00,-1.841414809226989746e+00,-7.602202892303466797e-02
3.951622486114501953e+00,-1.843626499176025391e+00,7.611333578824996948e-02
3.956418752670288086e+00,-1.845864176750183105e+00,2.288030683994293213e-01
3.961188554763793945e+00,-1.848089456558227539e+00,3.824204802513122559e-01
3.965810060501098633e+00,-1.850245714187622070e+00,5.373280644416809082e-01
3.970097541809082031e+00,-1.852246046066284180e+00,6.938690543174743652e-01
3.975164651870727539e+00,-1.854609966278076172e+00,8.526508212089538574e-01
3.979801654815673828e+00,-1.856773376464843750e+00,1.013886451721191406e+00
3.665806055068969727e+00,-1.646811366081237793e+00,-1.076811552047729492e+00
4.085978507995605469e+00,-1.835567831993103027e+00,-1.034136652946472168e+00
4.090200901031494141e+00,-1.837464809417724609e+00,-8.715949058532714844e-01
4.095224857330322266e+00,-1.839721679687500000e+00,-7.110629081726074219e-01
4.100065231323242188e+00,-1.841896057128906250e+00,-5.518897175788879395e-01
4.104885578155517578e+00,-1.844061613082885742e+00,-3.937047123908996582e-01
4.109910964965820312e+00,-1.846319198608398438e+00,-2.361271679401397705e-01
4.114748477935791016e+00,-1.848492503166198730e+00,-7.873766869306564331e-02
4.119423866271972656e+00,-1.850592732429504395e+00,7.882712781429290771e-02
4.124324798583984375e+00,-1.852794289588928223e+00,2.369552701711654663e-01
4.129270076751708984e+00,-1.855016112327575684e+00,3.960434794425964355e-01
4.134114265441894531e+00,-1.857192277908325195e+00,5.564728975296020508e-01
4.139868259429931641e+00,-1.859777092933654785e+00,7.188144326210021973e-01
4.144131660461425781e+00,-1.861692428588867188e+00,8.830871582031250000e-01
4.149195671081542969e+00,-1.863967299461364746e+00,1.050136566162109375e+00
3.690790414810180664e+00,-1.594951510429382324e+00,-1.077334165573120117e+00
4.266811847686767578e+00,-1.843875527381896973e+00,-1.073114871978759766e+00
4.272140026092529297e+00,-1.846177935600280762e+00,-9.046411514282226562e-01
4.277122497558593750e+00,-1.848331093788146973e+00,-7.379769682884216309e-01
4.281972408294677734e+00,-1.850427031517028809e+00,-5.727515220642089844e-01
4.286866188049316406e+00,-1.852541923522949219e+00,-4.085736572742462158e-01
4.292043685913085938e+00,-1.854779243469238281e+00,-2.450408637523651123e-01
4.297088146209716797e+00,-1.856959342956542969e+00,-8.170984685420989990e-02
4.302026748657226562e+00,-1.859093427658081055e+00,8.180374652147293091e-02
4.307268619537353516e+00,-1.861358642578125000e+00,2.459100931882858276e-01
4.312620639801025391e+00,-1.863671541213989258e+00,4.110282659530639648e-01
4.317932605743408203e+00,-1.865966916084289551e+00,5.775614976882934570e-01
4.323014736175537109e+00,-1.868163108825683594e+00,7.458952665328979492e-01
4.327625751495361328e+00,-1.870155811309814453e+00,9.163904786109924316e-01
4.333137035369873047e+00,-1.872537493705749512e+00,1.089795827865600586e+00
3.715790271759033203e+00,-1.543024897575378418e+00,-1.078074336051940918e+00
4.409901618957519531e+00,-1.831262707710266113e+00,-1.102397084236145020e+00
4.469475269317626953e+00,-1.856001257896423340e+00,-9.407058358192443848e-01
4.474647998809814453e+00,-1.858149409294128418e+00,-7.673906087875366211e-01
4.480371475219726562e+00,-1.860525965690612793e+00,-5.956660509109497070e-01
4.485349178314208984e+00,-1.862593054771423340e+00,-4.249062240123748779e-01
4.490691661834716797e+00,-1.864811658859252930e+00,-2.548320591449737549e-01
4.495957374572753906e+00,-1.866998195648193359e+00,-8.497451990842819214e-02
4.501181602478027344e+00,-1.869167685508728027e+00,8.507325500249862671e-02
4.506794929504394531e+00,-1.871498823165893555e+00,2.557458877563476562e-01
4.511742115020751953e+00,-1.873553156852722168e+00,4.274064898490905762e-01
4.517319679260253906e+00,-1.875869274139404297e+00,6.005783081054687500e-01
4.522721290588378906e+00,-1.878112316131591797e+00,7.756350040435791016e-01
4.527697563171386719e+00,-1.880178809165954590e+00,9.529601335525512695e-01
4.533689022064208984e+00,-1.882666707038879395e+00,1.133341670036315918e+00
3.716701269149780273e+00,-1.481399178504943848e+00,-1.072076797485351562e+00
4.445127964019775391e+00,-1.771734833717346191e+00,-1.104750394821166992e+00
4.685622692108154297e+00,-1.867590904235839844e+00,-9.804724454879760742e-01
4.691915512084960938e+00,-1.870099067687988281e+00,-7.999788522720336914e-01
4.697056293487548828e+00,-1.872148156166076660e+00,-6.208481192588806152e-01
4.702778816223144531e+00,-1.874428987503051758e+00,-4.429167807102203369e-01
4.708300590515136719e+00,-1.876629710197448730e+00,-2.656291425228118896e-01
4.713815212249755859e+00,-1.878827810287475586e+00,-8.857472985982894897e-02
4.719347000122070312e+00,-1.881032824516296387e+00,8.867868036031723022e-02
4.724725246429443359e+00,-1.883176445960998535e+00,2.665558159351348877e-01
4.730735778808593750e+00,-1.885572075843811035e+00,4.455498456954956055e-01
4.735705375671386719e+00,-1.887552857398986816e+00,6.259566545486450195e-01
4.741450786590576172e+00,-1.889842867851257324e+00,8.084247112274169922e-01
4.748438358306884766e+00,-1.892627954483032227e+00,9.936167597770690918e-01
4.753320217132568359e+00,-1.894573688507080078e+00,1.181345582008361816e+00
3.741490602493286133e+00,-1.429570317268371582e+00,-1.073215126991271973e+00
4.445532321929931641e+00,-1.698574542999267578e+00,-1.098695993423461914e+00
4.924725055694580078e+00,-1.881667256355285645e+00,-1.024764180183410645e+00
4.930102825164794922e+00,-1.883722066879272461e+00,-8.359073996543884277e-01
4.936241149902343750e+00,-1.886067390441894531e+00,-6.488283276557922363e-01
4.942101955413818359e+00,-1.888306736946105957e+00,-4.628637433052062988e-01
4.947828292846679688e+00,-1.890494704246520996e+00,-2.775875926017761230e-01
4.953608512878417969e+00,-1.892703294754028320e+00,-9.256202727556228638e-02
4.959479808807373047e+00,-1.894946575164794922e+00,9.267172962427139282e-02
4.965254783630371094e+00,-1.897153019905090332e+00,2.785652577877044678e-01
4.970831871032714844e+00,-1.899284005165100098e+00,4.655545055866241455e-01
4.977255344390869141e+00,-1.901738286018371582e+00,6.542193293571472168e-01
4.983623027801513672e+00,-1.904171228408813477e+00,8.449817895889282227e-01
4.989645957946777344e+00,-1.906472563743591309e+00,1.038273215293884277e+00
4.994984626770019531e+00,-1.908512473106384277e+00,1.234490990638732910e+00
3.768352270126342773e+00,-1.378357291221618652e+00,-1.075150847434997559e+00
4.483125209808349609e+00,-1.639801263809204102e+00,-1.102073192596435547e+00
5.162980556488037109e+00,-1.888473033905029297e+00,-1.068607449531555176e+00
5.169635772705078125e+00,-1.890907406806945801e+00,-8.718423247337341309e-01
5.175873756408691406e+00,-1.893189191818237305e+00,-6.766949295997619629e-01
5.181881427764892578e+00,-1.895386576652526855e+00,-4.827305078506469727e-01
5.187652587890625000e+00,-1.897497534751892090e+00,-2.894890308380126953e-01
5.193722248077392578e+00,-1.899717569351196289e+00,-9.653075039386749268e-02
5.200065135955810547e+00,-1.902037620544433594e+00,9.664864093065261841e-02
5.206236839294433594e+00,-1.904295086860656738e+00,2.905260920524597168e-01
5.212255477905273438e+00,-1.906496524810791016e+00,4.855600595474243164e-01
5.217961311340332031e+00,-1.908583641052246094e+00,6.821975111961364746e-01
5.224668979644775391e+00,-1.911036968231201172e+00,8.811234831809997559e-01
5.231079101562500000e+00,-1.913381695747375488e+00,1.082702159881591797e+00
5.236829757690429688e+00,-1.915485024452209473e+00,1.287354111671447754e+00
3.793365955352783203e+00,-1.326266765594482422e+00,-1.076761007308959961e+00
4.518682479858398438e+00,-1.579857707023620605e+00,-1.105141997337341309e+00
5.454090595245361328e+00,-1.906902551651000977e+00,-1.123095631599426270e+00
5.459758281707763672e+00,-1.908884167671203613e+00,-9.160687923431396484e-01
5.466413974761962891e+00,-1.911211252212524414e+00,-7.110308408737182617e-01
5.472903251647949219e+00,-1.913479924201965332e+00,-5.072379112243652344e-01
5.479376316070556641e+00,-1.915743112564086914e+00,-3.042068779468536377e-01
5.485776424407958984e+00,-1.917980909347534180e+00,-1.014382541179656982e-01
5.492086410522460938e+00,-1.920187115669250488e+00,1.015549302101135254e-01
5.498427867889404297e+00,-1.922404170036315918e+00,3.052646219730377197e-01
5.504684925079345703e+00,-1.924591779708862305e+00,5.101835131645202637e-01
5.512028694152832031e+00,-1.927159309387207031e+00,7.169640660285949707e-01
5.517817497253417969e+00,-1.929183244705200195e+00,9.258102774620056152e-01
5.524711608886718750e+00,-1.931593656539916992e+00,1.137637853622436523e+00
5.530982494354248047e+00,-1.933786153793334961e+00,1.352721929550170898e+00
3.820392131805419922e+00,-1.274654030799865723e+00,-1.079143166542053223e+00
4.520629882812500000e+00,-1.508284807205200195e+00,-1.100225567817687988e+00
5.585468292236328125e+00,-1.863562583923339844e+00,-1.144538879394531250e+00
5.753996372222900391e+00,-1.919791102409362793e+00,-9.607287645339965820e-01
5.760800361633300781e+00,-1.922061204910278320e+00,-7.456675767898559570e-01
5.767493247985839844e+00,-1.924294233322143555e+00,-5.319337844848632812e-01
5.774230957031250000e+00,-1.926542282104492188e+00,-3.190131783485412598e-01
5.780963420867919922e+00,-1.928788542747497559e+00,-1.063752025365829468e-01
5.787659645080566406e+00,-1.931022644042968750e+00,1.064984202384948730e-01
5.794456958770751953e+00,-1.933290600776672363e+00,3.201306164264678955e-01
5.801228523254394531e+00,-1.935549855232238770e+00,5.350452065467834473e-01
5.807789325714111328e+00,-1.937738776206970215e+00,7.517497539520263672e-01
5.815619468688964844e+00,-1.940351247787475586e+00,9.710177779197692871e-01
5.821220874786376953e+00,-1.942220211029052734e+00,1.192847847938537598e+00
5.830285549163818359e+00,-1.945244550704956055e+00,1.418967962265014648e+00
3.820256233215332031e+00,-1.214129447937011719e+00,-1.074085950851440430e+00
4.556392669677734375e+00,-1.448083639144897461e+00,-1.103771924972534180e+00
5.584542274475097656e+00,-1.774843573570251465e+00,-1.139026880264282227e+00
6.116710662841796875e+00,-1.943973898887634277e+00,-1.016540169715881348e+00
6.123698711395263672e+00,-1.946194767951965332e+00,-7.889540195465087891e-01
6.130642414093017578e+00,-1.948401570320129395e+00,-5.627971291542053223e-01
6.137709140777587891e+00,-1.950647473335266113e+00,-3.375173807144165039e-01
6.144841670989990234e+00,-1.952914237976074219e+00,-1.125450134277343750e-01
6.152011871337890625e+00,-1.955193042755126953e+00,1.126763373613357544e-01
6.159368038177490234e+00,-1.957530975341796875e+00,3.387084305286407471e-01
6.166766166687011719e+00,-1.959882259368896484e+00,5.661132931709289551e-01
6.174014091491699219e+00,-1.962185740470886230e+00,7.954364418983459473e-01
6.180832386016845703e+00,-1.964352607727050781e+00,1.027196526527404785e+00
6.189047336578369141e+00,-1.966963410377502441e+00,1.262321949005126953e+00
3.847220659255981445e+00,-1.162344455718994141e+00,-1.076879143714904785e+00
4.557876586914062500e+00,-1.377052068710327148e+00,-1.099243998527526855e+00
5.642118930816650391e+00,-1.704629540443420410e+00,-1.145676374435424805e+00
6.486218929290771484e+00,-1.959653973579406738e+00,-1.073177456855773926e+00
6.494692802429199219e+00,-1.962214112281799316e+00,-8.330476284027099609e-01
6.501894474029541016e+00,-1.964389920234680176e+00,-5.942362546920776367e-01
6.509295463562011719e+00,-1.966625809669494629e+00,-3.563667535781860352e-01
6.516831398010253906e+00,-1.968902826309204102e+00,-1.188298165798187256e-01
6.524489402770996094e+00,-1.971216320991516113e+00,1.189694479107856750e-01
6.532399177551269531e+00,-1.973606109619140625e+00,3.576316237449645996e-01
6.539171695709228516e+00,-1.975652337074279785e+00,5.976431965827941895e-01
6.546745777130126953e+00,-1.977940559387207031e+00,8.397241830825805664e-01
6.555908679962158203e+00,-1.980709075927734375e+00,1.084708094596862793e+00
6.562689781188964844e+00,-1.982757687568664551e+00,1.332605361938476562e+00
3.848471403121948242e+00,-1.102868080139160156e+00,-1.072700738906860352e+00
4.595953941345214844e+00,-1.317076444625854492e+00,-1.103767633438110352e+00
5.643403053283691406e+00,-1.617247104644775391e+00,-1.141119718551635742e+00
6.904263973236083984e+00,-1.978575825691223145e+00,-1.137542843818664551e+00
6.912057399749755859e+00,-1.980809330940246582e+00,-8.828542232513427734e-01
6.920551300048828125e+00,-1.983243465423583984e+00,-6.298401951789855957e-01
6.928332805633544922e+00,-1.985473394393920898e+00,-3.777134120464324951e-01
6.936324596405029297e+00,-1.987763643264770508e+00,-1.259472668170928955e-01
6.944516181945800781e+00,-1.990110993385314941e+00,1.260960102081298828e-01
6.952087402343750000e+00,-1.992280721664428711e+00,3.790084421634674072e-01
6.960428714752197266e+00,-1.994671106338500977e+00,6.334694027900695801e-01
6.968740940093994141e+00,-1.997053265571594238e+00,8.900941610336303711e-01
6.976708412170410156e+00,-1.999336600303649902e+00,1.149478793144226074e+00
3.875409126281738281e+00,-1.050806999206542969e+00,-1.075906634330749512e+00
4.596986293792724609e+00,-1.246460795402526855e+00,-1.099618196487426758e+00
5.644435405731201172e+00,-1.530473828315734863e+00,-1.136782526969909668e+00
7.304378986358642578e+00,-1.980563163757324219e+00,-1.198672175407409668e+00
7.387522220611572266e+00,-2.003107070922851562e+00,-9.398253560066223145e-01
7.396428585052490234e+00,-2.005522251129150391e+00,-6.704686284065246582e-01
7.404637336730957031e+00,-2.007747888565063477e+00,-4.020723104476928711e-01
7.413145065307617188e+00,-2.010054826736450195e+00,-1.340690702199935913e-01
7.421939849853515625e+00,-2.012439489364624023e+00,1.342281252145767212e-01
7.430139064788818359e+00,-2.014662742614746094e+00,4.034570455551147461e-01
7.439232826232910156e+00,-2.017128467559814453e+00,6.743487119674682617e-01
7.448364257812500000e+00,-2.019604444503784180e+00,9.475656151771545410e-01
7.457200050354003906e+00,-2.022000074386596680e+00,1.223750591278076172e+00
3.902563810348510742e+00,-9.984357357025146484e-01,-1.079367280006408691e+00
4.635313510894775391e+00,-1.185903191566467285e+00,-1.104612708091735840e+00
5.702496528625488281e+00,-1.458932280540466309e+00,-1.144152998924255371e+00
7.402184963226318359e+00,-1.893782258033752441e+00,-1.210150241851806641e+00
7.932861328125000000e+00,-2.029551029205322266e+00,-1.005403637886047363e+00
7.941534042358398438e+00,-2.031769752502441406e+00,-7.171714901924133301e-01
7.950937747955322266e+00,-2.034175634384155273e+00,-4.301114082336425781e-01
7.960032463073730469e+00,-2.036502599716186523e+00,-1.434178352355957031e-01
7.968856334686279297e+00,-2.038759946823120117e+00,1.435768157243728638e-01
7.978413581848144531e+00,-2.041205167770385742e+00,4.315977096557617188e-01
7.986807346343994141e+00,-2.043352603912353516e+00,7.212599515914916992e-01
7.996411323547363281e+00,-2.045809745788574219e+00,1.013457894325256348e+00
8.005783081054687500e+00,-2.048207283020019531e+00,1.308829665184020996e+00
3.903317689895629883e+00,-9.393188357353210449e-01,-1.075747013092041016e+00
4.636010646820068359e+00,-1.115638732910156250e+00,-1.100860714912414551e+00
5.703146457672119141e+00,-1.372440934181213379e+00,-1.140225172042846680e+00
7.402735710144042969e+00,-1.781440734863281250e+00,-1.205947995185852051e+00
8.564826965332031250e+00,-2.061093568801879883e+00,-1.081648588180541992e+00
8.573984146118164062e+00,-2.063297271728515625e+00,-7.715397477149963379e-01
8.584012031555175781e+00,-2.065710544586181641e+00,-4.627111256122589111e-01
8.593776702880859375e+00,-2.068060398101806641e+00,-1.542870253324508667e-01
8.603309631347656250e+00,-2.070354461669921875e+00,1.544581651687622070e-01
8.613746643066406250e+00,-2.072865962982177734e+00,4.643139243125915527e-01
8.622970581054687500e+00,-2.075085639953613281e+00,7.759478092193603516e-01
8.633589744567871094e+00,-2.077641248703002930e+00,1.090332627296447754e+00
3.930590867996215820e+00,-8.865678906440734863e-01,-1.079655647277832031e+00
4.674692153930664062e+00,-1.054404377937316895e+00,-1.106348752975463867e+00
5.703653335571289062e+00,-1.286492586135864258e+00,-1.136528611183166504e+00
7.403221607208251953e+00,-1.669840335845947266e+00,-1.202010512351989746e+00
9.305959701538085938e+00,-2.099014043807983398e+00,-1.171331763267517090e+00
9.315682411193847656e+00,-2.101207256317138672e+00,-8.354904055595397949e-01
9.326432228088378906e+00,-2.103631734848022461e+00,-5.010560154914855957e-01
9.336980819702148438e+00,-2.106010913848876953e+00,-1.670717000961303711e-01
9.347349166870117188e+00,-2.108349561691284180e+00,1.672572344541549683e-01
9.358776092529296875e+00,-2.110927104949951172e+00,5.027936697006225586e-01
9.368952751159667969e+00,-2.113222599029541016e+00,8.402680158615112305e-01
9.380724906921386719e+00,-2.115877866744995117e+00,1.180742383003234863e+00
3.931126832962036133e+00,-8.277484178543090820e-01,-1.076438188552856445e+00
4.675143718719482422e+00,-9.844105243682861328e-01,-1.103007912635803223e+00
5.762485980987548828e+00,-1.213364243507385254e+00,-1.144673824310302734e+00
7.403565406799316406e+00,-1.558914184570312500e+00,-1.198320627212524414e+00
1.018582248687744141e+01,-2.144753456115722656e+00,-1.278084158897399902e+00
1.019772338867187500e+01,-2.147259473800659180e+00,-9.117475748062133789e-01
1.020933151245117188e+01,-2.149703741073608398e+00,-5.467800498008728027e-01
1.022079181671142578e+01,-2.152117013931274414e+00,-1.823163628578186035e-01
1.023213768005371094e+01,-2.154505729675292969e+00,1.825187355279922485e-01
1.024329471588134766e+01,-2.156855106353759766e+00,5.485990047454833984e-01
1.025601196289062500e+01,-2.159532785415649414e+00,9.169589877128601074e-01
3.931592702865600586e+00,-7.692533731460571289e-01,-1.073440790176391602e+00
4.675522804260253906e+00,-9.148103594779968262e-01,-1.099895477294921875e+00
5.762784957885742188e+00,-1.127543449401855469e+00,-1.141410350799560547e+00
7.403817653656005859e+00,-1.448627114295959473e+00,-1.194882988929748535e+00
1.053658580780029297e+01,-2.061583042144775391e+00,-1.318259239196777344e+00
1.126424026489257812e+01,-2.203955411911010742e+00,-1.004178285598754883e+00
1.127686595916748047e+01,-2.206425666809082031e+00,-6.022008061408996582e-01
1.128940963745117188e+01,-2.208879947662353516e+00,-2.007935792207717896e-01
1.130190658569335938e+01,-2.211325168609619141e+00,2.010158598423004150e-01
1.131427669525146484e+01,-2.213745355606079102e+00,6.041985750198364258e-01
1.132844066619873047e+01,-2.216516733169555664e+00,1.009901642799377441e+00
3.958995342254638672e+00,-7.159429788589477539e-01,-1.078014135360717773e+00
4.714600563049316406e+00,-8.525863289833068848e-01,-1.106104254722595215e+00
5.763017654418945312e+00,-1.042181611061096191e+00,-1.138385295867919922e+00
7.503661632537841797e+00,-1.356958866119384766e+00,-1.207738161087036133e+00
1.053663444519042969e+01,-1.905440449714660645e+00,-1.314718365669250488e+00
1.257996273040771484e+01,-2.274955034255981445e+00,-1.118454217910766602e+00
1.259382247924804688e+01,-2.277461290359497070e+00,-6.707186698913574219e-01
1.260767364501953125e+01,-2.279966354370117188e+00,-2.236369252204895020e-01
1.262155342102050781e+01,-2.282476186752319336e+00,2.238831222057342529e-01
1.263534641265869141e+01,-2.284970521926879883e+00,6.729301214218139648e-01
1.264880466461181641e+01,-2.287404298782348633e+00,1.124574780464172363e+00
3.960361242294311523e+00,-6.578008532524108887e-01,-1.075712084770202637e+00
4.716099739074707031e+00,-7.833260893821716309e-01,-1.103712320327758789e+00
5.824436664581298828e+00,-9.674166440963745117e-01,-1.147664666175842285e+00
7.505798816680908203e+00,-1.246684432029724121e+00,-1.205086588859558105e+00
1.053961753845214844e+01,-1.750590085983276367e+00,-1.311829686164855957e+00
1.404131507873535156e+01,-2.332208633422851562e+00,-1.245283961296081543e+00
1.405650711059570312e+01,-2.334732055664062500e+00,-7.467616796493530273e-01
1.407177066802978516e+01,-2.337267160415649414e+00,-2.489883750677108765e-01
1.408714485168457031e+01,-2.339820861816406250e+00,2.492603957653045654e-01
1.410250186920166016e+01,-2.342371702194213867e+00,7.492052316665649414e-01
3.960592269897460938e+00,-5.997236371040344238e-01,-1.073333382606506348e+00
4.716236114501953125e+00,-7.141453027725219727e-01,-1.101239204406738281e+00
5.824482917785644531e+00,-8.819590806961059570e-01,-1.145069122314453125e+00
7.505783081054687500e+00,-1.136546134948730469e+00,-1.202349066734313965e+00
1.053962898254394531e+01,-1.595939397811889648e+00,-1.308853864669799805e+00
1.766036415100097656e+01,-2.674180269241333008e+00,-1.562692403793334961e+00
3.014548492431640625e+01,-4.564711093902587891e+00,-1.597864985466003418e+00
3.018290710449218750e+01,-4.570377826690673828e+00,-5.328495502471923828e-01
3.022074508666992188e+01,-4.576107501983642578e+00,5.335175395011901855e-01
3.988214254379272461e+00,-5.456385016441345215e-01,-1.078592061996459961e+00
4.716376781463623047e+00,-6.452604532241821289e-01,-1.099002957344055176e+00
5.824543952941894531e+00,-7.968717813491821289e-01,-1.142721652984619141e+00
7.505794525146484375e+00,-1.026888251304626465e+00,-1.199873447418212891e+00
1.053969764709472656e+01,-1.441964864730834961e+00,-1.306165456771850586e+00
1.766091156005859375e+01,-2.416237831115722656e+00,-1.559520959854125977e+00
3.013651466369628906e+01,-4.123059272766113281e+00,-1.594098210334777832e+00
3.017393112182617188e+01,-4.128178119659423828e+00,-5.315934419631958008e-01
3.021191596984863281e+01,-4.133374691009521484e+00,5.322626829147338867e-01
3.989188909530639648e+00,-4.877176582813262939e-01,-1.076857328414916992e+00
4.756899833679199219e+00,-5.815778970718383789e-01,-1.106392502784729004e+00
5.825769424438476562e+00,-7.122577428817749023e-01,-1.140845179557800293e+00
7.507319450378417969e+00,-9.178438186645507812e-01,-1.197894454002380371e+00
1.054190635681152344e+01,-1.288851976394653320e+00,-1.304019451141357422e+00
1.766462898254394531e+01,-2.159674882888793945e+00,-1.556959867477416992e+00
3.013470649719238281e+01,-3.684264898300170898e+00,-1.591050148010253906e+00
3.017211723327636719e+01,-3.688838720321655273e+00,-5.305769443511962891e-01
3.021023559570312500e+01,-3.693499088287353516e+00,5.312472581863403320e-01
3.989314556121826172e+00,-4.298798441886901855e-01,-1.075120091438293457e+00
4.756960868835449219e+00,-5.125997662544250488e-01,-1.104587078094482422e+00
5.825769901275634766e+00,-6.277723312377929688e-01,-1.138968944549560547e+00
7.507284164428710938e+00,-8.089686036109924316e-01,-1.195918679237365723e+00
1.054193782806396484e+01,-1.135976314544677734e+00,-1.301878571510314941e+00
1.766538619995117188e+01,-1.903583526611328125e+00,-1.554465889930725098e+00
3.012572669982910156e+01,-3.246282815933227539e+00,-1.587960124015808105e+00
3.016312980651855469e+01,-3.250313282012939453e+00,-5.295465588569641113e-01
3.020136833190917969e+01,-3.254433870315551758e+00,5.302178859710693359e-01
3.990053653717041016e+00,-3.722738325595855713e-01,-1.073773264884948730e+00
4.757769107818603516e+00,-4.439020454883575439e-01,-1.103186368942260742e+00
5.826697349548339844e+00,-5.436335802078247070e-01,-1.137512445449829102e+00
7.610951900482177734e+00,-7.101052999496459961e-01,-1.210689902305603027e+00
1.074817371368408203e+01,-1.002809643745422363e+00,-1.325439453125000000e+00
1.766894531250000000e+01,-1.648520588874816895e+00,-1.552543640136718750e+00
3.053050041198730469e+01,-2.848509788513183594e+00,-1.606982469558715820e+00
3.055389976501464844e+01,-2.850692749023437500e+00,-5.356357097625732422e-01
3.057822799682617188e+01,-2.852962732315063477e+00,5.360622406005859375e-01
4.017954349517822266e+00,-3.169429004192352295e-01,-1.079950332641601562e+00
4.757804393768310547e+00,-3.753034770488739014e-01,-1.101836085319519043e+00
5.887712955474853516e+00,-4.644325375556945801e-01,-1.148008704185485840e+00
7.610946655273437500e+00,-6.003640890121459961e-01,-1.209198236465454102e+00
1.074829578399658203e+01,-8.478433489799499512e-01,-1.323822259902954102e+00
1.766986846923828125e+01,-1.393828511238098145e+00,-1.550713062286376953e+00
4.788554000854492188e+01,-3.777290821075439453e+00,-2.517366647720336914e+00
4.792730331420898438e+01,-3.780585050582885742e+00,-8.391715884208679199e-01
4.018479347229003906e+00,-2.591733336448669434e-01,-1.078983783721923828e+00
4.758383274078369141e+00,-3.068937361240386963e-01,-1.100840091705322266e+00
5.888387680053710938e+00,-3.797737956047058105e-01,-1.146963000297546387e+00
7.611845493316650391e+00,-4.909288287162780762e-01,-1.208100914955139160e+00
1.074968147277832031e+01,-6.933047175407409668e-01,-1.322635173797607422e+00
1.767277908325195312e+01,-1.139812588691711426e+00,-1.549378037452697754e+00
5.426922225952148438e+01,-3.500113964080810547e+00,-2.850034475326538086e+00
4.018557548522949219e+00,-2.014729231595993042e-01,-1.078119993209838867e+00
4.758439540863037109e+00,-2.385673820972442627e-01,-1.099950432777404785e+00
5.888444423675537109e+00,-2.952209115028381348e-01,-1.146033525466918945e+00
7.611935615539550781e+00,-3.816292285919189453e-01,-1.207124590873718262e+00
1.074996471405029297e+01,-5.389562845230102539e-01,-1.321585536003112793e+00
1.767398643493652344e+01,-8.860964775085449219e-01,-1.548213243484497070e+00
5.429004669189453125e+01,-2.721865892410278320e+00,-2.848790168762207031e+00
4.018902778625488281e+00,-1.438625901937484741e-01,-1.077549815177917480e+00
4.758831024169921875e+00,-1.703494191169738770e-01,-1.099364638328552246e+00
5.888928413391113281e+00,-2.108029425144195557e-01,-1.145423173904418945e+00
7.612594604492187500e+00,-2.725041210651397705e-01,-1.206486940383911133e+00
1.075105381011962891e+01,-3.848499357700347900e-01,-1.320906996726989746e+00
1.767646789550781250e+01,-6.327554583549499512e-01,-1.547478795051574707e+00
5.430554962158203125e+01,-1.943947792053222656e+00,-2.847851991653442383e+00
4.018991470336914062e+00,-8.629587292671203613e-02,-1.077131986618041992e+00
4.758932590484619141e+00,-1.021839156746864319e-01,-1.098937749862670898e+00
5.889064788818359375e+00,-1.264501363039016724e-01,-1.144980311393737793e+00
7.612827777862548828e+00,-1.634628176689147949e-01,-1.206029534339904785e+00
1.075158405303955078e+01,-2.308582663536071777e-01,-1.320430874824523926e+00
1.767857360839843750e+01,-3.795947432518005371e-01,-1.547028899192810059e+00
3.952363586425781250e+01,-8.486524224281311035e-01,-2.071820259094238281e+00
3.960800933837890625e+01,-8.504641056060791016e-01,-6.915186643600463867e-01
4.019167900085449219e+00,-2.876262739300727844e-02,-1.076958775520324707e+00
4.799323081970214844e+00,-3.434570133686065674e-02,-1.108037710189819336e+00
5.889364242553710938e+00,-4.214642941951751709e-02,-1.144804000854492188e+00
7.613276958465576172e+00,-5.448337644338607788e-02,-1.205853700637817383e+00
1.075245666503906250e+01,-7.694848626852035522e-02,-1.320267438888549805e+00
1.768123435974121094e+01,-1.265333443880081177e-01,-1.546944856643676758e+00
3.806384658813476562e+01,-2.723987102508544922e-01,-1.994889736175537109e+00
3.811134719848632812e+01,-2.727386653423309326e-01,-6.652520895004272461e-01
4.019286155700683594e+00,2.876347117125988007e-02,-1.076990365982055664e+00
4.799477577209472656e+00,3.434680774807929993e-02,-1.108073353767395020e+00
5.889600753784179688e+00,4.214812442660331726e-02,-1.144850015640258789e+00
7.613673686981201172e+00,5.448621511459350586e-02,-1.205916523933410645e+00
1.075348281860351562e+01,7.695583254098892212e-02,-1.320393443107604980e+00
1.768342971801757812e+01,1.265490502119064331e-01,-1.547137022018432617e+00
2.571854972839355469e+01,1.840512901544570923e-01,-1.347884535789489746e+00
2.575659751892089844e+01,1.843235790729522705e-01,-4.495939314365386963e-01
2.579575729370117188e+01,1.846038252115249634e-01,4.502775073051452637e-01
4.019299030303955078e+00,8.630248159170150757e-02,-1.077214479446411133e+00
4.759357452392578125e+00,1.021930351853370667e-01,-1.099035859107971191e+00
5.889725208282470703e+00,1.264643222093582153e-01,-1.145108819007873535e+00
7.614004611968994141e+00,1.634880751371383667e-01,-1.206215977668762207e+00
1.075420665740966797e+01,2.309145778417587280e-01,-1.320752978324890137e+00
1.768439865112304688e+01,3.797198235988616943e-01,-1.547538757324218750e+00
2.081752586364746094e+01,4.469943940639495850e-01,-1.091250061988830566e+00
2.084734535217285156e+01,4.476346969604492188e-01,-3.639751076698303223e-01
2.087799072265625000e+01,4.482927024364471436e-01,3.645101487636566162e-01
4.019431591033935547e+00,1.438815295696258545e-01,-1.077691555023193359e+00
4.759571075439453125e+00,1.703759133815765381e-01,-1.099535703659057617e+00
5.890072822570800781e+00,2.108439058065414429e-01,-1.145645737648010254e+00
7.614674568176269531e+00,2.725785970687866211e-01,-1.206816554069519043e+00
1.075526046752929688e+01,3.850005269050598145e-01,-1.321423768997192383e+00
1.711956214904785156e+01,6.128201484680175781e-01,-1.498724699020385742e+00
1.714304161071777344e+01,6.136606335639953613e-01,-8.990028500556945801e-01
1.716700744628906250e+01,6.145185828208923340e-01,-2.998427152633666992e-01
1.719158744812011719e+01,6.153984069824218750e-01,3.002720475196838379e-01
1.721403884887695312e+01,6.162021160125732422e-01,9.027260541915893555e-01
4.019279479980468750e+00,2.015091329813003540e-01,-1.078313708305358887e+00
4.759451389312744141e+00,2.386181056499481201e-01,-1.100184321403503418e+00
5.890070438385009766e+00,2.953024208545684814e-01,-1.146350026130676270e+00
7.614737510681152344e+00,3.817696869373321533e-01,-1.207569003105163574e+00
1.075526905059814453e+01,5.392222404479980469e-01,-1.322237730026245117e+00
1.479743194580078125e+01,7.418786287307739258e-01,-1.296231627464294434e+00
1.481729030609130859e+01,7.428742647171020508e-01,-7.775154709815979004e-01
1.483778762817382812e+01,7.439019083976745605e-01,-2.593194544315338135e-01
1.485865306854248047e+01,7.449479699134826660e-01,2.596841156482696533e-01
1.487767887115478516e+01,7.459018826484680176e-01,7.806842327117919922e-01
4.019422531127929688e+00,2.592341601848602295e-01,-1.079236984252929688e+00
4.759731292724609375e+00,3.069806694984436035e-01,-1.101151943206787109e+00
5.890536785125732422e+00,3.799124062061309814e-01,-1.147381544113159180e+00
7.615434169769287109e+00,4.911603033542633057e-01,-1.208670496940612793e+00
1.075654411315917969e+01,6.937474012374877930e-01,-1.323479652404785156e+00
