4.586130082607269287e-01,-8.305478692054748535e-01,-1.502677798271179199e-01
4.591997265815734863e-01,-8.316105008125305176e-01,-1.166413053870201111e-01
4.597665071487426758e-01,-8.326368927955627441e-01,-8.321394026279449463e-02
4.603185355663299561e-01,-8.336365818977355957e-01,-4.990696907043457031e-02
4.608834981918334961e-01,-8.346597552299499512e-01,-1.664254069328308105e-02
4.614631533622741699e-01,-8.357095122337341309e-01,1.666347123682498932e-02
4.620320498943328857e-01,-8.367397785186767578e-01,5.009274557232856750e-02
4.625876545906066895e-01,-8.377460241317749023e-01,8.372454345226287842e-02
4.631777107715606689e-01,-8.388146162033081055e-01,1.176517531275749207e-01
4.637461900711059570e-01,-8.398441076278686523e-01,1.519497036933898926e-01
4.643558263778686523e-01,-8.409481644630432129e-01,1.867282986640930176e-01
4.649117588996887207e-01,-8.419549465179443359e-01,2.220453172922134399e-01
4.696663022041320801e-01,-8.225217461585998535e-01,-2.537926733493804932e-01
4.703345298767089844e-01,-8.236919641494750977e-01,-2.189818918704986572e-01
4.708763659000396729e-01,-8.246408700942993164e-01,-1.845850050449371338e-01
4.715074300765991211e-01,-8.257461190223693848e-01,-1.506046354770660400e-01
4.720658659934997559e-01,-8.267241120338439941e-01,-1.168916895985603333e-01
4.726534485816955566e-01,-8.277531266212463379e-01,-8.339343965053558350e-02
4.732342064380645752e-01,-8.287701606750488281e-01,-5.001602321863174438e-02
4.738151431083679199e-01,-8.297875523567199707e-01,-1.667891070246696472e-02
4.743976294994354248e-01,-8.308076262474060059e-01,1.669941470026969910e-02
4.749774634838104248e-01,-8.318231105804443359e-01,5.020026862621307373e-02
4.755940437316894531e-01,-8.329029679298400879e-01,8.391226828098297119e-02
4.761472344398498535e-01,-8.338717222213745117e-01,1.179023012518882751e-01
4.768042266368865967e-01,-8.350222706794738770e-01,1.522964835166931152e-01
4.773492813110351562e-01,-8.359768390655517578e-01,1.871224045753479004e-01
4.780172705650329590e-01,-8.371466994285583496e-01,2.225588858127593994e-01
4.825856387615203857e-01,-8.177413940429687500e-01,-2.544229626655578613e-01
4.832431972026824951e-01,-8.188556432723999023e-01,-2.195125371217727661e-01
4.838437736034393311e-01,-8.198733329772949219e-01,-1.850490719079971313e-01
4.844181239604949951e-01,-8.208465576171875000e-01,-1.509601771831512451e-01
4.850274622440338135e-01,-8.218791484832763672e-01,-1.171762496232986450e-01
4.856264591217041016e-01,-8.228940963745117188e-01,-8.359563350677490234e-02
4.862352013587951660e-01,-8.239256143569946289e-01,-5.013853684067726135e-02
4.868320822715759277e-01,-8.249370455741882324e-01,-1.671976409852504730e-02
4.874183535575866699e-01,-8.259304761886596680e-01,1.673989929258823395e-02
4.880189597606658936e-01,-8.269481658935546875e-01,5.032246932387351990e-02
4.886163771152496338e-01,-8.279605507850646973e-01,8.411032706499099731e-02
4.892598092555999756e-01,-8.290508389472961426e-01,1.181987226009368896e-01
4.898903071880340576e-01,-8.301192522048950195e-01,1.526654809713363647e-01
4.904798865318298340e-01,-8.311182856559753418e-01,1.875870972871780396e-01
4.911007881164550781e-01,-8.321703672409057617e-01,2.230818420648574829e-01
4.955757856369018555e-01,-8.129426240921020508e-01,-2.551107406616210938e-01
4.961653053760528564e-01,-8.139096498489379883e-01,-2.200679033994674683e-01
4.967920482158660889e-01,-8.149377703666687012e-01,-1.855210214853286743e-01
4.974445998668670654e-01,-8.160082101821899414e-01,-1.513642966747283936e-01
4.980662167072296143e-01,-8.170279264450073242e-01,-1.174889728426933289e-01
4.986760020256042480e-01,-8.180282115936279297e-01,-8.381784707307815552e-02
4.992874860763549805e-01,-8.190312981605529785e-01,-5.027043819427490234e-02
4.999003112316131592e-01,-8.200365900993347168e-01,-1.676374860107898712e-02
5.005161762237548828e-01,-8.210468292236328125e-01,1.678439974784851074e-02
5.011382102966308594e-01,-8.220672607421875000e-01,5.045678094029426575e-02
5.017559528350830078e-01,-8.230805397033691406e-01,8.433552831411361694e-02
5.023529529571533203e-01,-8.240599036216735840e-01,1.185001730918884277e-01
5.029902458190917969e-01,-8.251052498817443848e-01,1.530517488718032837e-01
5.036827921867370605e-01,-8.262413144111633301e-01,1.880942732095718384e-01
5.043266415596008301e-01,-8.272975087165832520e-01,2.236877679824829102e-01
5.085690021514892578e-01,-8.080054521560668945e-01,-2.558195590972900391e-01
5.091804265975952148e-01,-8.089768290519714355e-01,-2.206821441650390625e-01
5.098298788070678711e-01,-8.100087642669677734e-01,-1.860411465167999268e-01
5.105047225952148438e-01,-8.110809326171875000e-01,-1.517902016639709473e-01
5.111446380615234375e-01,-8.120976090431213379e-01,-1.178200021386146545e-01
5.117691755294799805e-01,-8.130899071693420410e-01,-8.405380696058273315e-02
5.123921036720275879e-01,-8.140795826911926270e-01,-5.041150003671646118e-02
5.130211114883422852e-01,-8.150789737701416016e-01,-1.681079156696796417e-02
5.136577486991882324e-01,-8.160904049873352051e-01,1.683165319263935089e-02
5.142974853515625000e-01,-8.171067833900451660e-01,5.059896036982536316e-02
5.149294137954711914e-01,-8.181107640266418457e-01,8.457283675670623779e-02
5.155368447303771973e-01,-8.190758824348449707e-01,1.188324168324470520e-01
5.161844491958618164e-01,-8.201047778129577637e-01,1.534789651632308960e-01
5.168886184692382812e-01,-8.212236166000366211e-01,1.886169463396072388e-01
5.175412297248840332e-01,-8.222604393959045410e-01,2.243057936429977417e-01
5.216253399848937988e-01,-8.030213713645935059e-01,-2.565791606903076172e-01
5.223566889762878418e-01,-8.041473627090454102e-01,-2.213816046714782715e-01
5.229457616806030273e-01,-8.050541877746582031e-01,-1.866032481193542480e-01
5.236485004425048828e-01,-8.061359524726867676e-01,-1.522518694400787354e-01
5.243107080459594727e-01,-8.071554303169250488e-01,-1.181796714663505554e-01
5.249273180961608887e-01,-8.081046342849731445e-01,-8.430653065443038940e-02
5.255794525146484375e-01,-8.091086149215698242e-01,-5.056434869766235352e-02
5.262245535850524902e-01,-8.101016879081726074e-01,-1.686175726354122162e-02
5.268642902374267578e-01,-8.110865950584411621e-01,1.688225753605365753e-02
5.275448560714721680e-01,-8.121342658996582031e-01,5.075343325734138489e-02
5.281870961189270020e-01,-8.131229877471923828e-01,8.483007550239562988e-02
5.287997126579284668e-01,-8.140661120414733887e-01,1.191914901137351990e-01
5.295422673225402832e-01,-8.152092099189758301e-01,1.539655029773712158e-01
5.301586985588073730e-01,-8.161581158638000488e-01,1.891770362854003906e-01
5.308108329772949219e-01,-8.171620965003967285e-01,2.249645590782165527e-01
2.229811906814575195e+00,-3.327469348907470703e+00,-1.073271632194519043e+00
2.654395580291748047e+00,-3.961060523986816406e+00,-1.100826025009155273e+00
3.257563829421997070e+00,-4.861147403717041016e+00,-1.137454867362976074e+00
4.211956024169921875e+00,-6.285352706909179688e+00,-1.198354482650756836e+00
5.816465854644775391e+00,-8.679706573486328125e+00,-1.282897472381591797e+00
5.823484897613525391e+00,-8.690179824829101562e+00,-9.152162075042724609e-01
5.830352306365966797e+00,-8.700428962707519531e+00,-5.488827228546142578e-01
5.837167263031005859e+00,-8.710597991943359375e+00,-1.830259263515472412e-01
5.843945026397705078e+00,-8.720712661743164062e+00,1.832384467124938965e-01
5.850635528564453125e+00,-8.730696678161621094e+00,5.507922172546386719e-01
5.857774734497070312e+00,-8.741349220275878906e+00,9.206051826477050781e-01
2.275694370269775391e+00,-3.293027639389038086e+00,-1.072558999061584473e+00
2.706314563751220703e+00,-3.916153907775878906e+00,-1.098998785018920898e+00
3.335689067840576172e+00,-4.826885700225830078e+00,-1.140493154525756836e+00
4.309760093688964844e+00,-6.236408233642578125e+00,-1.200661182403564453e+00
5.717935562133789062e+00,-8.274098396301269531e+00,-1.234917283058166504e+00
5.724435329437255859e+00,-8.283504486083984375e+00,-8.809257149696350098e-01
5.731190681457519531e+00,-8.293279647827148438e+00,-5.283181071281433105e-01
5.737893581390380859e+00,-8.302978515625000000e+00,-1.761687248945236206e-01
5.744578361511230469e+00,-8.312652587890625000e+00,1.763739734888076782e-01
5.751566886901855469e+00,-8.322764396667480469e+00,5.301963686943054199e-01
5.757978439331054688e+00,-8.332042694091796875e+00,8.860875964164733887e-01
5.764766216278076172e+00,-8.341864585876464844e+00,1.245031356811523438e+00
2.323237657546997070e+00,-3.261028528213500977e+00,-1.072857737541198730e+00
2.760035991668701172e+00,-3.874143362045288086e+00,-1.098183393478393555e+00
3.396710634231567383e+00,-4.767816066741943359e+00,-1.137907147407531738e+00
4.377230167388916016e+00,-6.144128799438476562e+00,-1.194834947586059570e+00
5.625189304351806641e+00,-7.895835399627685547e+00,-1.190356254577636719e+00
5.631689071655273438e+00,-7.904958724975585938e+00,-8.491540551185607910e-01
5.638244628906250000e+00,-7.914160251617431641e+00,-5.092554688453674316e-01
5.644860267639160156e+00,-7.923446178436279297e+00,-1.698129028081893921e-01
5.651536464691162109e+00,-7.932817459106445312e+00,1.700137406587600708e-01
5.658326148986816406e+00,-7.942348003387451172e+00,5.110692381858825684e-01
5.665112972259521484e+00,-7.951874732971191406e+00,8.541937470436096191e-01
5.671703815460205078e+00,-7.961125850677490234e+00,1.200199246406555176e+00
2.374507665634155273e+00,-3.234030961990356445e+00,-1.075047135353088379e+00
2.818018436431884766e+00,-3.838083744049072266e+00,-1.099282860755920410e+00
3.462652683258056641e+00,-4.716062068939208984e+00,-1.137267708778381348e+00
4.486127853393554688e+00,-6.110014438629150391e+00,-1.200564980506896973e+00
5.546355247497558594e+00,-7.554022789001464844e+00,-1.150675773620605469e+00
5.552922725677490234e+00,-7.562967777252197266e+00,-8.208710551261901855e-01
5.559422969818115234e+00,-7.571820735931396484e+00,-4.922967851161956787e-01
5.565949916839599609e+00,-7.580710411071777344e+00,-1.641580909490585327e-01
5.572516918182373047e+00,-7.589654445648193359e+00,1.643517762422561646e-01
5.579075813293457031e+00,-7.598587512969970703e+00,4.940370917320251465e-01
5.585508346557617188e+00,-7.607348442077636719e+00,8.256881237030029297e-01
5.592495918273925781e+00,-7.616864681243896484e+00,1.160248279571533203e+00
2.416004896163940430e+00,-3.193707704544067383e+00,-1.073028564453125000e+00
2.876223325729370117e+00,-3.802068710327148438e+00,-1.100646138191223145e+00
3.528442859649658203e+00,-4.664235115051269531e+00,-1.136832237243652344e+00
4.559364318847656250e+00,-6.027006149291992188e+00,-1.196955084800720215e+00
5.465619564056396484e+00,-7.224981307983398438e+00,-1.112357020378112793e+00
5.472256660461425781e+00,-7.233755111694335938e+00,-7.935591340065002441e-01
5.478705883026123047e+00,-7.242280483245849609e+00,-4.759209156036376953e-01
5.485138893127441406e+00,-7.250784397125244141e+00,-1.586975306272506714e-01
5.491592407226562500e+00,-7.259315490722656250e+00,1.588842421770095825e-01
5.497909069061279297e+00,-7.267664909362792969e+00,4.775890409946441650e-01
5.504651546478271484e+00,-7.276577949523925781e+00,7.982568740844726562e-01
5.511349678039550781e+00,-7.285431861877441406e+00,1.121663928031921387e+00
2.459100246429443359e+00,-3.155766963958740234e+00,-1.071997404098510742e+00
2.921990633010864258e+00,-3.749794960021972656e+00,-1.097508668899536133e+00
3.597069978713989258e+00,-4.616125106811523438e+00,-1.137538790702819824e+00
4.635450363159179688e+00,-5.948680877685546875e+00,-1.194454312324523926e+00
5.391273498535156250e+00,-6.918629169464111328e+00,-1.076961517333984375e+00
5.397525310516357422e+00,-6.926652908325195312e+00,-7.682659029960632324e-01
5.403834819793701172e+00,-6.934749603271484375e+00,-4.607473909854888916e-01
5.410196781158447266e+00,-6.942914009094238281e+00,-1.536383479833602905e-01
5.416618824005126953e+00,-6.951155185699462891e+00,1.538207083940505981e-01
5.423155307769775391e+00,-6.959543704986572266e+00,4.623947143554687500e-01
5.429693698883056641e+00,-6.967934131622314453e+00,7.728446125984191895e-01
5.436052322387695312e+00,-6.976094245910644531e+00,1.085906505584716797e+00
2.504012823104858398e+00,-3.120248079299926758e+00,-1.071997046470642090e+00
2.985166549682617188e+00,-3.719813585281372070e+00,-1.101126670837402344e+00
3.668883562088012695e+00,-4.571792602539062500e+00,-1.139438271522521973e+00
4.714766025543212891e+00,-5.875065803527832031e+00,-1.193101167678833008e+00
5.322232246398925781e+00,-6.632029056549072266e+00,-1.044100284576416016e+00
5.328622817993164062e+00,-6.639992237091064453e+00,-7.448543310165405273e-01
5.334917068481445312e+00,-6.647835254669189453e+00,-4.467124342918395996e-01
5.341202259063720703e+00,-6.655667304992675781e+00,-1.489584296941757202e-01
5.347495555877685547e+00,-6.663509368896484375e+00,1.491339355707168579e-01
5.353747367858886719e+00,-6.671299934387207031e+00,4.482891857624053955e-01
5.360528469085693359e+00,-6.679749488830566406e+00,7.493142485618591309e-01
5.366497516632080078e+00,-6.687187671661376953e+00,1.052783966064453125e+00
2.550941705703735352e+00,-3.087151050567626953e+00,-1.073060631752014160e+00
3.035312175750732422e+00,-3.673336267471313477e+00,-1.100116610527038574e+00
3.719485282897949219e+00,-4.501323223114013672e+00,-1.135027527809143066e+00
4.797698497772216797e+00,-5.806177616119384766e+00,-1.192934989929199219e+00
5.259390354156494141e+00,-6.364916801452636719e+00,-1.013795614242553711e+00
5.265456199645996094e+00,-6.372258186340332031e+00,-7.232010960578918457e-01
5.271754741668701172e+00,-6.379880428314208984e+00,-4.337327778339385986e-01
5.277970314025878906e+00,-6.387402534484863281e+00,-1.446304321289062500e-01
5.284127235412597656e+00,-6.394853591918945312e+00,1.447991579771041870e-01
5.290560722351074219e+00,-6.402639389038085938e+00,4.352800250053405762e-01
5.297068119049072266e+00,-6.410514831542968750e+00,7.275429368019104004e-01
5.303473472595214844e+00,-6.418266296386718750e+00,1.022293090820312500e+00
5.309537887573242188e+00,-6.425605773925781250e+00,1.320202350616455078e+00
2.598064184188842773e+00,-3.054087877273559570e+00,-1.074384093284606934e+00
3.085278034210205078e+00,-3.626819610595703125e+00,-1.099298477172851562e+00
3.794643163681030273e+00,-4.460695743560791016e+00,-1.138362169265747070e+00
4.880616664886474609e+00,-5.737284660339355469e+00,-1.193011045455932617e+00
5.194416046142578125e+00,-6.106163024902343750e+00,-9.843232631683349609e-01
5.200657367706298828e+00,-6.113500118255615234e+00,-7.022104859352111816e-01
5.206861972808837891e+00,-6.120793819427490234e+00,-4.211425185203552246e-01
5.213014125823974609e+00,-6.128025531768798828e+00,-1.404324918985366821e-01
5.219119548797607422e+00,-6.135202407836914062e+00,1.405969709157943726e-01
5.225238800048828125e+00,-6.142395973205566406e+00,4.226288795471191406e-01
5.231950283050537109e+00,-6.150285243988037109e+00,7.064356803894042969e-01
5.237902164459228516e+00,-6.157281875610351562e+00,9.925637245178222656e-01
5.244427680969238281e+00,-6.164952754974365234e+00,1.281940460205078125e+00
2.637557029724121094e+00,-3.012079238891601562e+00,-1.072777032852172852e+00
3.140219449996948242e+00,-3.586117744445800781e+00,-1.100472569465637207e+00
3.850542306900024414e+00,-4.397303581237792969e+00,-1.136133432388305664e+00
4.971906661987304688e+00,-5.677896976470947266e+00,-1.195337772369384766e+00
5.142809391021728516e+00,-5.873067378997802734e+00,-9.585160017013549805e-01
5.149098396301269531e+00,-5.880249977111816406e+00,-6.838142871856689453e-01
5.155040740966796875e+00,-5.887035846710205078e+00,-4.100936651229858398e-01
5.161133766174316406e+00,-5.893993854522705078e+00,-1.367482542991638184e-01
5.167381763458251953e+00,-5.901129245758056641e+00,1.369137912988662720e-01
5.173349857330322266e+00,-5.907944679260253906e+00,4.115501642227172852e-01
5.179718017578125000e+00,-5.915216922760009766e+00,6.878806352615356445e-01
5.186021327972412109e+00,-5.922415256500244141e+00,9.665698409080505371e-01
5.192022323608398438e+00,-5.929268836975097656e+00,1.248257756233215332e+00
2.687096357345581055e+00,-2.981456756591796875e+00,-1.075458765029907227e+00
3.192760944366455078e+00,-3.542515039443969727e+00,-1.101003289222717285e+00
3.930016040802001953e+00,-4.360533237457275391e+00,-1.141050100326538086e+00
5.059630870819091797e+00,-5.613892555236816406e+00,-1.196987032890319824e+00
5.082522869110107422e+00,-5.639292716979980469e+00,-9.321401119232177734e-01
5.088521957397460938e+00,-5.645949363708496094e+00,-6.649692654609680176e-01
5.094490528106689453e+00,-5.652571678161621094e+00,-3.987995386123657227e-01
5.100514888763427734e+00,-5.659255504608154297e+00,-1.329822242259979248e-01
5.106609344482421875e+00,-5.666018009185791016e+00,1.331411302089691162e-01
5.112729549407958984e+00,-5.672808170318603516e+00,4.002272784709930420e-01
5.118763446807861328e+00,-5.679502964019775391e+00,6.689211726188659668e-01
5.124549388885498047e+00,-5.685923099517822266e+00,9.398478865623474121e-01
5.130944252014160156e+00,-5.693018436431884766e+00,1.213858127593994141e+00
2.728593587875366211e+00,-2.941725492477416992e+00,-1.075104951858520508e+00
3.232297658920288086e+00,-3.484774112701416016e+00,-1.097324252128601074e+00
3.989014625549316406e+00,-4.300598621368408203e+00,-1.140190601348876953e+00
5.028477668762207031e+00,-5.421254634857177734e+00,-1.171139478683471680e+00
5.034922122955322266e+00,-5.428202629089355469e+00,-9.090674519538879395e-01
5.040690422058105469e+00,-5.434421539306640625e+00,-6.484871506690979004e-01
5.046727180480957031e+00,-5.440929889678955078e+00,-3.889243602752685547e-01
5.052697658538818359e+00,-5.447366714477539062e+00,-1.296893656253814697e-01
5.058626174926757812e+00,-5.453758239746093750e+00,1.298415213823318481e-01
5.064864635467529297e+00,-5.460484027862548828e+00,3.903221189975738525e-01
5.070507526397705078e+00,-5.466567993164062500e+00,6.523231863975524902e-01
5.076590061187744141e+00,-5.473124980926513672e+00,9.165906310081481934e-01
5.083474159240722656e+00,-5.480546951293945312e+00,1.183948159217834473e+00
2.770004987716674805e+00,-2.901941776275634766e+00,-1.074945330619812012e+00
3.290135622024536133e+00,-3.446846723556518555e+00,-1.100097894668579102e+00
4.047807693481445312e+00,-4.240606784820556641e+00,-1.139529466629028320e+00
4.979843139648437500e+00,-5.217036247253417969e+00,-1.142303705215454102e+00
4.985364437103271484e+00,-5.222820281982421875e+00,-8.865313529968261719e-01
4.991417407989501953e+00,-5.229161739349365234e+00,-6.324542760848999023e-01
4.997415542602539062e+00,-5.235445499420166016e+00,-3.793103098869323730e-01
5.003339767456054688e+00,-5.241651535034179688e+00,-1.264837980270385742e-01
5.009195804595947266e+00,-5.247786521911621094e+00,1.266318410634994507e-01
5.015044689178466797e+00,-5.253914356231689453e+00,3.806484043598175049e-01
5.021490573883056641e+00,-5.260667324066162109e+00,6.362647414207458496e-01
5.027157306671142578e+00,-5.266603946685791016e+00,8.939632773399353027e-01
5.033424377441406250e+00,-5.273169040679931641e+00,1.154594421386718750e+00
2.811393737792968750e+00,-2.862143039703369141e+00,-1.074998974800109863e+00
3.328933477401733398e+00,-3.389024734497070312e+00,-1.096738576889038086e+00
4.106485366821289062e+00,-4.180612564086914062e+00,-1.139085888862609863e+00
4.929214000701904297e+00,-5.018192291259765625e+00,-1.114099740982055664e+00
4.935038089752197266e+00,-5.024121284484863281e+00,-8.647053837776184082e-01
4.941179275512695312e+00,-5.030373573303222656e+00,-6.169021725654602051e-01
4.946936130523681641e+00,-5.036234378814697266e+00,-3.699695467948913574e-01
4.952799797058105469e+00,-5.042203426361083984e+00,-1.233690232038497925e-01
4.958783626556396484e+00,-5.048295497894287109e+00,1.235180795192718506e-01
4.964439392089843750e+00,-5.054053783416748047e+00,3.712785840034484863e-01
4.970472812652587891e+00,-5.060195922851562500e+00,6.205594539642333984e-01
4.976416110992431641e+00,-5.066246509552001953e+00,8.719555735588073730e-01
4.983150005340576172e+00,-5.073101997375488281e+00,1.126290440559387207e+00
4.988383293151855469e+00,-5.078429698944091797e+00,1.383712887763977051e+00
2.841049194335937500e+00,-2.810711145401000977e+00,-1.070845365524291992e+00
3.390087127685546875e+00,-3.353886127471923828e+00,-1.100957512855529785e+00
4.168602943420410156e+00,-4.124088764190673828e+00,-1.139825582504272461e+00
4.884841918945312500e+00,-4.832679271697998047e+00,-1.088325023651123047e+00
4.890297412872314453e+00,-4.838076591491699219e+00,-8.446457982063293457e-01
4.896250247955322266e+00,-4.843966007232666016e+00,-6.025748252868652344e-01
4.902091979980468750e+00,-4.849745273590087891e+00,-3.613872528076171875e-01
4.907907009124755859e+00,-4.855497837066650391e+00,-1.205073073506355286e-01
4.913709640502929688e+00,-4.861238956451416016e+00,1.206497922539710999e-01
4.919453144073486328e+00,-4.866920948028564453e+00,3.626671135425567627e-01
4.925751686096191406e+00,-4.873152256011962891e+00,6.062055230140686035e-01
4.931217670440673828e+00,-4.878559589385986328e+00,8.517134785652160645e-01
4.937259674072265625e+00,-4.884537220001220703e+00,1.100003480911254883e+00
4.944180965423583984e+00,-4.891384601593017578e+00,1.351892709732055664e+00
2.886853456497192383e+00,-2.775403976440429688e+00,-1.073026657104492188e+00
3.434072971343994141e+00,-3.301497459411621094e+00,-1.099782824516296387e+00
4.234412193298339844e+00,-4.070939064025878906e+00,-1.141770243644714355e+00
4.845188140869140625e+00,-4.658135414123535156e+00,-1.064526557922363281e+00
4.851040840148925781e+00,-4.663762092590332031e+00,-8.262510299682617188e-01
4.857146739959716797e+00,-4.669631958007812500e+00,-5.894762873649597168e-01
4.862780570983886719e+00,-4.675048351287841797e+00,-3.535197973251342773e-01
4.868553161621093750e+00,-4.680598735809326172e+00,-1.178839653730392456e-01
4.874469280242919922e+00,-4.686286449432373047e+00,1.180272102355957031e-01
4.879977703094482422e+00,-4.691581726074218750e+00,3.547700345516204834e-01
4.885798454284667969e+00,-4.697177886962890625e+00,5.929535627365112305e-01
4.891458511352539062e+00,-4.702619552612304688e+00,8.331351876258850098e-01
4.897856235504150391e+00,-4.708770275115966797e+00,1.076098203659057617e+00
4.903994560241699219e+00,-4.714671611785888672e+00,1.322317004203796387e+00
2.932977676391601562e+00,-2.740060806274414062e+00,-1.075482845306396484e+00
3.477833986282348633e+00,-3.249079227447509766e+00,-1.098791360855102539e+00
4.267977237701416016e+00,-3.987250804901123047e+00,-1.135315775871276855e+00
4.805076599121093750e+00,-4.489022254943847656e+00,-1.041490077972412109e+00
4.810610294342041016e+00,-4.494192123413085938e+00,-8.083254098892211914e-01
4.816555500030517578e+00,-4.499745845794677734e+00,-5.766743421554565430e-01
4.822302818298339844e+00,-4.505115509033203125e+00,-3.458538055419921875e-01
4.828026294708251953e+00,-4.510462760925292969e+00,-1.153276413679122925e-01
4.833751201629638672e+00,-4.515810966491699219e+00,1.154643893241882324e-01
4.839325428009033203e+00,-4.521018505096435547e+00,3.470746576786041260e-01
4.845370769500732422e+00,-4.526665687561035156e+00,5.801243185997009277e-01
4.851415634155273438e+00,-4.532313346862792969e+00,8.151819109916687012e-01
4.857241630554199219e+00,-4.537755966186523438e+00,1.052796721458435059e+00
4.862576961517333984e+00,-4.542740345001220703e+00,1.293483853340148926e+00
2.964168071746826172e+00,-2.690790891647338867e+00,-1.072687268257141113e+00
3.521431922912597656e+00,-3.196659803390502930e+00,-1.097997307777404785e+00
4.333673000335693359e+00,-3.933990001678466797e+00,-1.137696027755737305e+00
4.763919830322265625e+00,-4.324556350708007812e+00,-1.019048452377319336e+00
4.769138336181640625e+00,-4.329293727874755859e+00,-7.908635735511779785e-01
4.774930000305175781e+00,-4.334551334381103516e+00,-5.642046928405761719e-01
4.780677795410156250e+00,-4.339769363403320312e+00,-3.383787870407104492e-01
4.786365032196044922e+00,-4.344931602478027344e+00,-1.128353402018547058e-01
4.791991710662841797e+00,-4.350039005279541016e+00,1.129679903388023376e-01
4.797622680664062500e+00,-4.355151176452636719e+00,3.395781219005584717e-01
4.803887844085693359e+00,-4.360838413238525391e+00,5.676262974739074707e-01
4.809387683868408203e+00,-4.365830898284912109e+00,7.975381016731262207e-01
4.815549373626708984e+00,-4.371424674987792969e+00,1.030092477798461914e+00
4.821374416351318359e+00,-4.376712322235107422e+00,1.265729784965515137e+00
2.997409105300903320e+00,-2.643712282180786133e+00,-1.070913076400756836e+00
3.567836523056030273e+00,-3.146828651428222656e+00,-1.098309636116027832e+00
4.403585910797119141e+00,-3.883959054946899414e+00,-1.141338586807250977e+00
4.727462291717529297e+00,-4.169617652893066406e+00,-9.983811378479003906e-01
4.733665466308593750e+00,-4.175088882446289062e+00,-7.749917507171630859e-01
4.739111423492431641e+00,-4.179892063140869141e+00,-5.528463721275329590e-01
4.744682312011718750e+00,-4.184805870056152344e+00,-3.315573632717132568e-01
4.750326156616210938e+00,-4.189783573150634766e+00,-1.105606630444526672e-01
4.756057262420654297e+00,-4.194838523864746094e+00,1.106940582394599915e-01
4.761941909790039062e+00,-4.200028419494628906e+00,3.327634334564208984e-01
4.767155647277832031e+00,-4.204627037048339844e+00,5.561178922653198242e-01
4.772783756256103516e+00,-4.209590911865234375e+00,7.813961505889892578e-01
4.779231071472167969e+00,-4.215277671813964844e+00,1.009314060211181641e+00
4.785486698150634766e+00,-4.220795154571533203e+00,1.240321040153503418e+00
3.046411514282226562e+00,-2.610373020172119141e+00,-1.074961304664611816e+00
3.614279985427856445e+00,-3.096961498260498047e+00,-1.098848223686218262e+00
4.438980102539062500e+00,-3.803620576858520508e+00,-1.136284947395324707e+00
4.690774440765380859e+00,-4.019375324249267578e+00,-9.783830046653747559e-01
4.696712493896484375e+00,-4.024463653564453125e+00,-7.594331502914428711e-01
4.702033519744873047e+00,-4.029022693634033203e+00,-5.417380332946777344e-01
4.707737922668457031e+00,-4.033910751342773438e+00,-3.249076008796691895e-01
4.713337898254394531e+00,-4.038709163665771484e+00,-1.083432585000991821e-01
4.718861103057861328e+00,-4.043441772460937500e+00,1.084702089428901672e-01
4.724783420562744141e+00,-4.048516273498535156e+00,3.260839879512786865e-01
4.730176448822021484e+00,-4.053137779235839844e+00,5.449805259704589844e-01
4.736135482788085938e+00,-4.058243751525878906e+00,7.658076286315917969e-01
4.741919994354248047e+00,-4.063200473785400391e+00,9.890506863594055176e-01
4.747264862060546875e+00,-4.067780017852783203e+00,1.215199351310729980e+00
3.081982612609863281e+00,-2.565276384353637695e+00,-1.074446558952331543e+00
3.663784265518188477e+00,-3.049536943435668945e+00,-1.100515484809875488e+00
4.513175010681152344e+00,-3.756523847579956055e+00,-1.141396641731262207e+00
4.659425258636474609e+00,-3.878255128860473633e+00,-9.601677060127258301e-01
4.665134906768798828e+00,-3.883007287979125977e+00,-7.452639937400817871e-01
4.670685768127441406e+00,-3.887627601623535156e+00,-5.316607952117919922e-01
4.676219463348388672e+00,-3.892233610153198242e+00,-3.188547194004058838e-01
4.681782245635986328e+00,-3.896863698959350586e+00,-1.063248813152313232e-01
4.687403202056884766e+00,-3.901542186737060547e+00,1.064525321125984192e-01
4.693033218383789062e+00,-3.906228542327880859e+00,3.200011849403381348e-01
4.698581695556640625e+00,-3.910846471786499023e+00,5.348361730575561523e-01
4.703890323638916016e+00,-3.915265321731567383e+00,7.514553070068359375e-01
4.709897041320800781e+00,-3.920264959335327148e+00,9.705683588981628418e-01
4.715593338012695312e+00,-3.925006389617919922e+00,1.192589044570922852e+00
4.722191810607910156e+00,-3.930498123168945312e+00,1.418436527252197266e+00
3.114984750747680664e+00,-2.518158912658691406e+00,-1.073276281356811523e+00
3.710564136505126953e+00,-2.999626159667968750e+00,-1.101557612419128418e+00
4.547672271728515625e+00,-3.676345586776733398e+00,-1.136696696281433105e+00
4.621081352233886719e+00,-3.735689640045166016e+00,-9.411510229110717773e-01
4.626533508300781250e+00,-3.740097284317016602e+00,-7.304704785346984863e-01
4.631969451904296875e+00,-3.744491577148437500e+00,-5.210994482040405273e-01
4.637638092041015625e+00,-3.749073982238769531e+00,-3.125329315662384033e-01
4.643158435821533203e+00,-3.753536939620971680e+00,-1.042169034481048584e-01
4.648561000823974609e+00,-3.757904291152954102e+00,1.043381616473197937e-01
4.654218673706054688e+00,-3.762478113174438477e+00,3.136503100395202637e-01
4.659932613372802734e+00,-3.767097234725952148e+00,5.242453813552856445e-01
4.665549755096435547e+00,-3.771638154983520508e+00,7.366306781768798828e-01
4.670863628387451172e+00,-3.775933980941772461e+00,9.512898921966552734e-01
4.676950931549072266e+00,-3.780854940414428711e+00,1.169010043144226074e+00
4.682548046112060547e+00,-3.785379648208618164e+00,1.390111088752746582e+00
3.152832269668579102e+00,-2.474988698959350586e+00,-1.074000716209411621e+00
3.738849401473999023e+00,-2.935014963150024414e+00,-1.097370624542236328e+00
4.588798522949218750e+00,-3.602229118347167969e+00,-1.133972525596618652e+00
4.594140529632568359e+00,-3.606422901153564453e+00,-9.250561594963073730e-01
4.599411010742187500e+00,-3.610559940338134766e+00,-7.179550528526306152e-01
4.605106830596923828e+00,-3.615031480789184570e+00,-5.122038125991821289e-01
4.610628128051757812e+00,-3.619365692138671875e+00,-3.071900606155395508e-01
4.616117477416992188e+00,-3.623674631118774414e+00,-1.024352908134460449e-01
4.621606826782226562e+00,-3.627983808517456055e+00,1.025571003556251526e-01
4.626947402954101562e+00,-3.632176160812377930e+00,3.082773387432098389e-01
4.632782936096191406e+00,-3.636757373809814453e+00,5.152820944786071777e-01
4.638641834259033203e+00,-3.641356468200683594e+00,7.240788936614990234e-01
4.644315719604492188e+00,-3.645810604095458984e+00,9.351592063903808594e-01
4.649538993835449219e+00,-3.649910688400268555e+00,1.148982524871826172e+00
4.655539035797119141e+00,-3.654620885848999023e+00,1.366423606872558594e+00
3.188220739364624023e+00,-2.429832458496093750e+00,-1.074098229408264160e+00
3.788640022277832031e+00,-2.887428760528564453e+00,-1.099741458892822266e+00
4.554460525512695312e+00,-3.471082210540771484e+00,-1.113095402717590332e+00
4.560414314270019531e+00,-3.475619792938232422e+00,-9.081550836563110352e-01
4.566009998321533203e+00,-3.479884147644042969e+00,-7.048939466476440430e-01
4.571087360382080078e+00,-3.483753919601440430e+00,-5.028222799301147461e-01
4.576653480529785156e+00,-3.487995862960815430e+00,-3.015691936016082764e-01
4.582112312316894531e+00,-3.492156028747558594e+00,-1.005611866712570190e-01
4.587477207183837891e+00,-3.496245145797729492e+00,1.006789281964302063e-01
4.593351840972900391e+00,-3.500722169876098633e+00,3.026694953441619873e-01
4.598790168762207031e+00,-3.504866838455200195e+00,5.058695673942565918e-01
4.603959083557128906e+00,-3.508806228637695312e+00,7.107524871826171875e-01
4.609817981719970703e+00,-3.513271570205688477e+00,9.179932475090026855e-01
4.615358829498291016e+00,-3.517494201660156250e+00,1.127978682518005371e+00
4.621808528900146484e+00,-3.522409915924072266e+00,1.341588139533996582e+00
3.226148128509521484e+00,-2.386526584625244141e+00,-1.075257420539855957e+00
3.816119194030761719e+00,-2.822954893112182617e+00,-1.095876812934875488e+00
4.526280879974365234e+00,-3.348293542861938477e+00,-1.094383478164672852e+00
4.531945705413818359e+00,-3.352483749389648438e+00,-8.928385376930236816e-01
4.537367820739746094e+00,-3.356494665145874023e+00,-6.929844021797180176e-01
4.542716979980468750e+00,-3.360451698303222656e+00,-4.943598508834838867e-01
4.548131942749023438e+00,-3.364457368850708008e+00,-2.964862585067749023e-01
4.553559780120849609e+00,-3.368472814559936523e+00,-9.886629879474639893e-02
4.559005737304687500e+00,-3.372501611709594727e+00,9.898453950881958008e-02
4.564550876617431641e+00,-3.376603126525878906e+00,2.975565791130065918e-01
4.570095539093017578e+00,-3.380705118179321289e+00,4.973393380641937256e-01
4.575487613677978516e+00,-3.384693622589111328e+00,6.988064050674438477e-01
4.581690788269042969e+00,-3.389282464981079102e+00,9.026389122009277344e-01
4.586326122283935547e+00,-3.392711639404296875e+00,1.108901381492614746e+00
4.593156814575195312e+00,-3.397764682769775391e+00,1.319019198417663574e+00
3.245816946029663086e+00,-2.329947471618652344e+00,-1.070588111877441406e+00
3.869245290756225586e+00,-2.777463674545288086e+00,-1.099604010581970215e+00
4.497423648834228516e+00,-3.228389501571655273e+00,-1.076123237609863281e+00
4.502811431884765625e+00,-3.232256889343261719e+00,-8.778942823410034180e-01
4.508062839508056641e+00,-3.236026763916015625e+00,-6.813648343086242676e-01
4.513691425323486328e+00,-3.240066766738891602e+00,-4.861044287681579590e-01
4.518955707550048828e+00,-3.243845939636230469e+00,-2.915276885032653809e-01
4.524348258972167969e+00,-3.247716665267944336e+00,-9.721279889345169067e-02
4.529880046844482422e+00,-3.251687765121459961e+00,9.733166545629501343e-02
4.535087585449218750e+00,-3.255425691604614258e+00,2.925683856010437012e-01
4.540729522705078125e+00,-3.259475708007812500e+00,4.890163540840148926e-01
4.546339035034179688e+00,-3.263502359390258789e+00,6.871499419212341309e-01
4.551707744598388672e+00,-3.267356395721435547e+00,8.874274492263793945e-01
4.557952404022216797e+00,-3.271838903427124023e+00,1.090606331825256348e+00
4.563784599304199219e+00,-3.276025533676147461e+00,1.296985745429992676e+00
3.283617734909057617e+00,-2.286588191986083984e+00,-1.072151184082031250e+00
3.896137952804565430e+00,-2.713124513626098633e+00,-1.096098065376281738e+00
4.467988014221191406e+00,-3.111339330673217773e+00,-1.058315634727478027e+00
4.473095417022705078e+00,-3.114895820617675781e+00,-8.633196949958801270e-01
4.478733062744140625e+00,-3.118821620941162109e+00,-6.701158881187438965e-01
4.483769416809082031e+00,-3.122328758239746094e+00,-4.780199527740478516e-01
4.489215850830078125e+00,-3.126121759414672852e+00,-2.866930961608886719e-01
4.494571208953857422e+00,-3.129850864410400391e+00,-9.560061991214752197e-02
4.499862670898437500e+00,-3.133535861968994141e+00,9.571317583322525024e-02
4.505585193634033203e+00,-3.137520551681518555e+00,2.877384722232818604e-01
4.510779857635498047e+00,-3.141138076782226562e+00,4.808995723724365234e-01
4.516597747802734375e+00,-3.145189523696899414e+00,6.757813096046447754e-01
4.522287845611572266e+00,-3.149151802062988281e+00,8.728140592575073242e-01
4.527591705322265625e+00,-3.152845144271850586e+00,1.072433829307556152e+00
4.533774375915527344e+00,-3.157150745391845703e+00,1.275483965873718262e+00
3.324142217636108398e+00,-2.244852781295776367e+00,-1.074781417846679688e+00
3.952907085418701172e+00,-2.669468879699707031e+00,-1.101206660270690918e+00
4.443602561950683594e+00,-3.000844478607177734e+00,-1.042258858680725098e+00
4.448484420776367188e+00,-3.004141092300415039e+00,-8.501836061477661133e-01
4.453997135162353516e+00,-3.007864236831665039e+00,-6.599056720733642578e-01
4.459343433380126953e+00,-3.011474609375000000e+00,-4.707722365856170654e-01
4.464657783508300781e+00,-3.015063524246215820e+00,-2.823397815227508545e-01
4.469987392425537109e+00,-3.018662691116333008e+00,-9.414904564619064331e-02
4.475352287292480469e+00,-3.022285461425781250e+00,9.426204115152359009e-02
4.480713367462158203e+00,-3.025905847549438477e+00,2.833551168441772461e-01
4.485974311828613281e+00,-3.029458761215209961e+00,4.735836684703826904e-01
4.491963386535644531e+00,-3.033503293991088867e+00,6.655306816101074219e-01
4.496753215789794922e+00,-3.036737918853759766e+00,8.594085574150085449e-01
4.502232551574707031e+00,-3.040438175201416016e+00,1.056010723114013672e+00
4.508696079254150391e+00,-3.044803380966186523e+00,1.256039142608642578e+00
3.345442056655883789e+00,-2.190181493759155273e+00,-1.071422457695007324e+00
3.982426166534423828e+00,-2.607199907302856445e+00,-1.098921418190002441e+00
4.417660713195800781e+00,-2.892137527465820312e+00,-1.026359319686889648e+00
4.423287868499755859e+00,-2.895821571350097656e+00,-8.373606204986572266e-01
4.428682327270507812e+00,-2.899353265762329102e+00,-6.499397754669189453e-01
4.434349060058593750e+00,-2.903063058853149414e+00,-4.636993408203125000e-01
4.439531326293945312e+00,-2.906455755233764648e+00,-2.780914902687072754e-01
4.444830417633056641e+00,-2.909924983978271484e+00,-9.273239970207214355e-02
4.450270175933837891e+00,-2.913486242294311523e+00,9.284588694572448730e-02
4.455259323120117188e+00,-2.916752576828002930e+00,2.790766954421997070e-01
4.460581779479980469e+00,-2.920237064361572266e+00,4.664425253868103027e-01
4.465762138366699219e+00,-2.923628330230712891e+00,6.553815007209777832e-01
4.471783638000488281e+00,-2.927570581436157227e+00,8.465412259101867676e-01
4.477628707885742188e+00,-2.931397199630737305e+00,1.040291786193847656e+00
4.482981681823730469e+00,-2.934901714324951172e+00,1.237046122550964355e+00
3.386147737503051758e+00,-2.148232698440551758e+00,-1.074501276016235352e+00
4.011641979217529297e+00,-2.545057296752929688e+00,-1.096818804740905762e+00
4.392168998718261719e+00,-2.786470413208007812e+00,-1.011066913604736328e+00
4.398348808288574219e+00,-2.790391206741333008e+00,-8.249940276145935059e-01
4.403418540954589844e+00,-2.793607473373413086e+00,-6.402983069419860840e-01
4.408521175384521484e+00,-2.796844720840454102e+00,-4.567655622959136963e-01
4.413908481597900391e+00,-2.800262451171875000e+00,-2.739477455615997314e-01
4.419178962707519531e+00,-2.803606033325195312e+00,-9.135065972805023193e-02
4.424360275268554688e+00,-2.806893348693847656e+00,9.145776927471160889e-02
4.429845333099365234e+00,-2.810373067855834961e+00,2.749368548393249512e-01
4.435437679290771484e+00,-2.813920974731445312e+00,4.595543742179870605e-01
4.440008163452148438e+00,-2.816820383071899414e+00,6.456187367439270020e-01
4.446286678314208984e+00,-2.820803880691528320e+00,8.339857459068298340e-01
4.451098918914794922e+00,-2.823856830596923828e+00,1.024632453918457031e+00
4.456703662872314453e+00,-2.827412366867065430e+00,1.218502640724182129e+00
3.407007455825805664e+00,-2.093688249588012695e+00,-1.071501374244689941e+00
4.069520950317382812e+00,-2.500818729400634766e+00,-1.102743625640869141e+00
4.366236686706542969e+00,-2.683157682418823242e+00,-9.961545467376708984e-01
4.372215270996093750e+00,-2.686831474304199219e+00,-8.127954006195068359e-01
4.377177715301513672e+00,-2.689881324768066406e+00,-6.308195590972900391e-01
4.382606506347656250e+00,-2.693217277526855469e+00,-4.500403404235839844e-01
4.387865543365478516e+00,-2.696449041366577148e+00,-2.699083089828491211e-01
4.393105506896972656e+00,-2.699669361114501953e+00,-9.000369161367416382e-02
4.398353576660156250e+00,-2.702894449234008789e+00,9.011121094226837158e-02
4.403459548950195312e+00,-2.706032037734985352e+00,2.708675563335418701e-01
4.409096240997314453e+00,-2.709496021270751953e+00,4.527605473995208740e-01
4.413811683654785156e+00,-2.712393760681152344e+00,6.360991001129150391e-01
4.419147968292236328e+00,-2.715672969818115234e+00,8.215202093124389648e-01
4.425483226776123047e+00,-2.719566106796264648e+00,1.009671568870544434e+00
4.431526660919189453e+00,-2.723279953002929688e+00,1.200838685035705566e+00
3.448103904724121094e+00,-2.051543474197387695e+00,-1.075080871582031250e+00
4.098705768585205078e+00,-2.438636541366577148e+00,-1.101080656051635742e+00
4.340919017791748047e+00,-2.582748174667358398e+00,-9.818435907363891602e-01
4.345723628997802734e+00,-2.585606575012207031e+00,-8.009085655212402344e-01
4.351137161254882812e+00,-2.588827610015869141e+00,-6.216628551483154297e-01
4.356345176696777344e+00,-2.591926336288452148e+00,-4.434885680675506592e-01
4.361480236053466797e+00,-2.594981670379638672e+00,-2.659732997417449951e-01
4.366686344146728516e+00,-2.598078966140747070e+00,-8.869146555662155151e-02
4.372000217437744141e+00,-2.601240634918212891e+00,8.879938721656799316e-02
4.377267360687255859e+00,-2.604374408721923828e+00,2.669360041618347168e-01
4.382393360137939453e+00,-2.607424259185791016e+00,4.461403191089630127e-01
4.388223171234130859e+00,-2.610892772674560547e+00,6.269614100456237793e-01
4.392808914184570312e+00,-2.613621473312377930e+00,8.095863461494445801e-01
4.398079395294189453e+00,-2.616757154464721680e+00,9.947722554206848145e-01
4.404346466064453125e+00,-2.620486021041870117e+00,1.183188438415527344e+00
3.471126079559326172e+00,-1.998537182807922363e+00,-1.073229908943176270e+00
4.130670547485351562e+00,-2.378277063369750977e+00,-1.100410223007202148e+00
4.319443225860595703e+00,-2.486964702606201172e+00,-9.688353538513183594e-01
4.324092864990234375e+00,-2.489641904830932617e+00,-7.902736067771911621e-01
4.329440116882324219e+00,-2.492720603942871094e+00,-6.134023666381835938e-01
4.334671020507812500e+00,-2.495732307434082031e+00,-4.376005530357360840e-01
4.339915752410888672e+00,-2.498752117156982422e+00,-2.624502778053283691e-01
4.345106601715087891e+00,-2.501740694046020508e+00,-8.751688897609710693e-02
4.350260257720947266e+00,-2.504707813262939453e+00,8.762069046497344971e-02
4.355451583862304688e+00,-2.507697105407714844e+00,2.633897960186004639e-01
4.360592842102050781e+00,-2.510657072067260742e+00,4.402174949645996094e-01
4.366524219512939453e+00,-2.514072179794311523e+00,6.186565160751342773e-01
4.371298789978027344e+00,-2.516821146011352539e+00,7.989009618759155273e-01
4.376844882965087891e+00,-2.520014524459838867e+00,9.817103743553161621e-01
4.381872653961181641e+00,-2.522909164428710938e+00,1.167330384254455566e+00
3.493916034698486328e+00,-1.945614814758300781e+00,-1.071556210517883301e+00
4.162504196166992188e+00,-2.317923307418823242e+00,-1.099939465522766113e+00
4.297553062438964844e+00,-2.393126249313354492e+00,-9.561445116996765137e-01
4.302828311920166016e+00,-2.396064043045043945e+00,-7.800394296646118164e-01
4.307902336120605469e+00,-2.398889541625976562e+00,-6.054240465164184570e-01
4.312942028045654297e+00,-2.401695728302001953e+00,-4.318922460079193115e-01
4.318074703216552734e+00,-2.404554128646850586e+00,-2.590215802192687988e-01
4.323238372802734375e+00,-2.407429456710815430e+00,-8.637353777885437012e-02
4.328451633453369141e+00,-2.410332679748535156e+00,8.647768944501876831e-02
4.333788394927978516e+00,-2.413304328918457031e+00,2.599641680717468262e-01
4.339153766632080078e+00,-2.416291952133178711e+00,4.345170855522155762e-01
4.344410896301269531e+00,-2.419219732284545898e+00,6.105548739433288574e-01
4.349361896514892578e+00,-2.421976566314697266e+00,7.884753346443176270e-01
4.355170249938964844e+00,-2.425210952758789062e+00,9.689635038375854492e-01
4.360543251037597656e+00,-2.428203105926513672e+00,1.152271270751953125e+00
3.516511917114257812e+00,-1.892777442932128906e+00,-1.070067524909973145e+00
4.194245338439941406e+00,-2.257570505142211914e+00,-1.099675655364990234e+00
4.275310993194580078e+00,-2.301204442977905273e+00,-9.437710642814636230e-01
4.280448436737060547e+00,-2.303969621658325195e+00,-7.699250578880310059e-01
4.285470485687255859e+00,-2.306672811508178711e+00,-5.975702404975891113e-01
4.290874958038330078e+00,-2.309581756591796875e+00,-4.263284504413604736e-01
4.295900821685791016e+00,-2.312286853790283203e+00,-2.556799352169036865e-01
4.301039218902587891e+00,-2.315052747726440430e+00,-8.525925874710083008e-02
4.306309223175048828e+00,-2.317889213562011719e+00,8.536372333765029907e-02
4.311232089996337891e+00,-2.320538997650146484e+00,2.565924227237701416e-01
4.316599845886230469e+00,-2.323428153991699219e+00,4.288843870162963867e-01
4.321939945220947266e+00,-2.326302528381347656e+00,6.026555299758911133e-01
4.327057361602783203e+00,-2.329056978225708008e+00,7.783085703849792480e-01
4.333118438720703125e+00,-2.332319498062133789e+00,9.565320014953613281e-01
4.338826179504394531e+00,-2.335391521453857422e+00,1.137582778930664062e+00
3.560814380645751953e+00,-1.851392269134521484e+00,-1.075374722480773926e+00
4.225951671600341797e+00,-2.197220325469970703e+00,-1.099630117416381836e+00
4.252775669097900391e+00,-2.211167097091674805e+00,-9.317142963409423828e-01
4.257786273956298828e+00,-2.213772535324096680e+00,-7.600714564323425293e-01
4.263317584991455078e+00,-2.216648340225219727e+00,-5.899965763092041016e-01
4.268198966979980469e+00,-2.219186305999755859e+00,-4.208763241767883301e-01
4.273454189300537109e+00,-2.221918821334838867e+00,-2.524253129959106445e-01
4.278566360473632812e+00,-2.224576711654663086e+00,-8.417396992444992065e-02
4.283561229705810547e+00,-2.227173805236816406e+00,8.427223563194274902e-02
4.288947105407714844e+00,-2.229974031448364258e+00,2.533404231071472168e-01
4.293756961822509766e+00,-2.232474803924560547e+00,4.233964979648590088e-01
4.299171924591064453e+00,-2.235290288925170898e+00,5.949584841728210449e-01
4.304446697235107422e+00,-2.238032817840576172e+00,7.684009671211242676e-01
4.309336662292480469e+00,-2.240575313568115234e+00,9.441059827804565430e-01
4.315159797668457031e+00,-2.243602752685546875e+00,1.122842907905578613e+00
3.583419799804687500e+00,-1.798470139503479004e+00,-1.074317336082458496e+00
4.224937438964843750e+00,-2.120439052581787109e+00,-1.091356873512268066e+00
4.230005264282226562e+00,-2.122982740402221680e+00,-9.199742078781127930e-01
4.235675334930419922e+00,-2.125828504562377930e+00,-7.506156563758850098e-01
4.240386486053466797e+00,-2.128192901611328125e+00,-5.825479626655578613e-01
4.245644569396972656e+00,-2.130831956863403320e+00,-4.156022369861602783e-01
4.250796794891357422e+00,-2.133417606353759766e+00,-2.492576688528060913e-01
4.255882740020751953e+00,-2.135970354080200195e+00,-8.311771601438522339e-02
4.260927200317382812e+00,-2.138501882553100586e+00,8.321623504161834717e-02
4.265890598297119141e+00,-2.140993118286132812e+00,2.501427531242370605e-01
4.271461486816406250e+00,-2.143789052963256836e+00,4.181294441223144531e-01
4.276167392730712891e+00,-2.146150827407836914e+00,5.874635577201843262e-01
4.281589031219482422e+00,-2.148871898651123047e+00,7.587522268295288086e-01
4.286702156066894531e+00,-2.151437997817993164e+00,9.323049783706665039e-01
4.292832374572753906e+00,-2.154514551162719727e+00,1.108895063400268555e+00
3.608234167098999023e+00,-1.746729731559753418e+00,-1.074151039123535156e+00
4.206797122955322266e+00,-2.036491394042968750e+00,-1.079030871391296387e+00
4.212711811065673828e+00,-2.039354801177978516e+00,-9.097713232040405273e-01
4.217303752899169922e+00,-2.041577577590942383e+00,-7.421054244041442871e-01
4.222568988800048828e+00,-2.044126510620117188e+00,-5.760215520858764648e-01
4.227669239044189453e+00,-2.046595573425292969e+00,-4.109329879283905029e-01
4.232731819152832031e+00,-2.049046277999877930e+00,-2.464533597230911255e-01
4.237797260284423828e+00,-2.051498413085937500e+00,-8.218260109424591064e-02
4.242886543273925781e+00,-2.053961992263793945e+00,8.228129148483276367e-02
4.247968196868896484e+00,-2.056421995162963867e+00,2.473405003547668457e-01
4.252947330474853516e+00,-2.058832406997680664e+00,4.133900403976440430e-01
4.258687973022460938e+00,-2.061611652374267578e+00,5.809487700462341309e-01
4.263218879699707031e+00,-2.063804864883422852e+00,7.501849532127380371e-01
4.268512248992919922e+00,-2.066367387771606445e+00,9.218218922615051270e-01
4.274892330169677734e+00,-2.069455862045288086e+00,1.096497058868408203e+00
3.630704879760742188e+00,-1.693902611732482910e+00,-1.073512792587280273e+00
4.183805942535400391e+00,-1.951951503753662109e+00,-1.065858244895935059e+00
4.189537048339843750e+00,-1.954625368118286133e+00,-8.986325263977050781e-01
4.194811344146728516e+00,-1.957086086273193359e+00,-7.331431508064270020e-01
4.199830055236816406e+00,-1.959427595138549805e+00,-5.690354704856872559e-01
4.204753398895263672e+00,-1.961724638938903809e+00,-4.059346914291381836e-01
4.209704875946044922e+00,-1.964034676551818848e+00,-2.434508353471755981e-01
4.214752197265625000e+00,-1.966389417648315430e+00,-8.118154853582382202e-02
4.219892501831054688e+00,-1.968787670135498047e+00,8.128056675195693970e-02
4.225093841552734375e+00,-1.971214294433593750e+00,2.443407773971557617e-01
