3.875543355941772461e+00,3.418225765228271484e+00,-2.708221077919006348e-01
3.880281448364257812e+00,3.422405004501342773e+00,-9.031096100807189941e-02
3.885096073150634766e+00,3.426651477813720703e+00,9.042301774024963379e-02
3.890037775039672852e+00,3.431010007858276367e+00,2.718349993228912354e-01
3.894424438476562500e+00,3.434878826141357422e+00,4.543084502220153809e-01
3.899158000946044922e+00,3.439054012298583984e+00,6.383668780326843262e-01
3.904563188552856445e+00,3.443821430206298828e+00,8.245950341224670410e-01
3.909814119338989258e+00,3.448452711105346680e+00,1.013360857963562012e+00
3.914634943008422852e+00,3.452704668045043945e+00,1.205066800117492676e+00
2.962779760360717773e+00,2.689530611038208008e+00,-1.072184801101684570e+00
3.519599676132202148e+00,3.194996595382690430e+00,-1.097425937652587891e+00
3.814692974090576172e+00,3.462874412536621094e+00,-1.001451015472412109e+00
3.819710493087768555e+00,3.467428922653198242e+00,-8.170729279518127441e-01
3.824032783508300781e+00,3.471352577209472656e+00,-6.341372132301330566e-01
3.828804016113281250e+00,3.475683689117431641e+00,-4.524106085300445557e-01
3.833547353744506836e+00,3.479989767074584961e+00,-2.713404297828674316e-01
3.838234424591064453e+00,3.484244585037231445e+00,-9.048379957675933838e-02
3.842878103256225586e+00,3.488460063934326172e+00,9.059327840805053711e-02
3.847528934478759766e+00,3.492681980133056641e+00,2.723300457000732422e-01
3.852691650390625000e+00,3.497368335723876953e+00,4.552331864833831787e-01
3.857234001159667969e+00,3.501491785049438477e+00,6.396429538726806641e-01
3.862314462661743164e+00,3.506103754043579102e+00,8.261863589286804199e-01
3.867125034332275391e+00,3.510470628738403320e+00,1.015215754508972168e+00
3.872614383697509766e+00,3.515453815460205078e+00,1.207497477531433105e+00
2.931223869323730469e+00,2.738422393798828125e+00,-1.074839711189270020e+00
3.475492477416992188e+00,3.246891736984252930e+00,-1.098051548004150391e+00
3.773256778717041016e+00,3.525070428848266602e+00,-1.003716111183166504e+00
3.777824878692626953e+00,3.529338359832763672e+00,-8.188354372978210449e-01
3.782313346862792969e+00,3.533531427383422852e+00,-6.355409622192382812e-01
3.787116289138793945e+00,3.538018226623535156e+00,-4.534221291542053223e-01
3.791768550872802734e+00,3.542364597320556641e+00,-2.719442546367645264e-01
3.796405076980590820e+00,3.546696186065673828e+00,-9.068517386913299561e-02
3.801038265228271484e+00,3.551024675369262695e+00,9.079585224390029907e-02
3.805554389953613281e+00,3.555243730545043945e+00,2.729329764842987061e-01
3.810444593429565430e+00,3.559812307357788086e+00,4.562151730060577393e-01
3.815336465835571289e+00,3.564382314682006836e+00,6.410897970199584961e-01
3.820056915283203125e+00,3.568792343139648438e+00,8.279891610145568848e-01
3.824390649795532227e+00,3.572840929031372070e+00,1.017318129539489746e+00
3.829262733459472656e+00,3.577392578125000000e+00,1.209822177886962891e+00
2.884769201278686523e+00,2.773400306701660156e+00,-1.072251915931701660e+00
3.431252479553222656e+00,3.298785924911499023e+00,-1.098879575729370117e+00
3.730680465698242188e+00,3.586654186248779297e+00,-1.005943655967712402e+00
3.735528469085693359e+00,3.591315031051635742e+00,-8.207254409790039062e-01
3.740177631378173828e+00,3.595784902572631836e+00,-6.370438337326049805e-01
3.745011568069458008e+00,3.600432157516479492e+00,-4.545046091079711914e-01
3.749495029449462891e+00,3.604742527008056641e+00,-2.725849449634552002e-01
3.754080057144165039e+00,3.609150648117065430e+00,-9.089884161949157715e-02
3.758779764175415039e+00,3.613668918609619141e+00,9.101263433694839478e-02
3.763159990310668945e+00,3.617880105972290039e+00,2.735784053802490234e-01
3.767782926559448242e+00,3.622324466705322266e+00,4.572682082653045654e-01
3.772285223007202148e+00,3.626652956008911133e+00,6.425125598907470703e-01
3.777361869812011719e+00,3.631533622741699219e+00,8.299165368080139160e-01
3.782238245010375977e+00,3.636221647262573242e+00,1.019845724105834961e+00
3.786651611328125000e+00,3.640464544296264648e+00,1.212698221206665039e+00
2.838656663894653320e+00,2.808344125747680664e+00,-1.069943666458129883e+00
3.386811733245849609e+00,3.350645780563354492e+00,-1.099893689155578613e+00
3.688320159912109375e+00,3.648934364318847656e+00,-1.008501291275024414e+00
3.693290710449218750e+00,3.653851985931396484e+00,-8.228517174720764160e-01
3.697557687759399414e+00,3.658073425292968750e+00,-6.386373639106750488e-01
3.702188253402709961e+00,3.662654638290405273e+00,-4.556232690811157227e-01
3.706743955612182617e+00,3.667161464691162109e+00,-2.732649445533752441e-01
3.711277008056640625e+00,3.671646118164062500e+00,-9.112560749053955078e-02
3.715799331665039062e+00,3.676120281219482422e+00,9.123664349317550659e-02
3.720278978347778320e+00,3.680552244186401367e+00,2.742627859115600586e-01
3.725182056427001953e+00,3.685402631759643555e+00,4.584530591964721680e-01
3.729453802108764648e+00,3.689628839492797852e+00,6.441463828086853027e-01
3.734163999557495117e+00,3.694288969039916992e+00,8.319581747055053711e-01
3.739543914794921875e+00,3.699611186981201172e+00,1.022507429122924805e+00
3.743504762649536133e+00,3.703529834747314453e+00,1.215732574462890625e+00
2.808665513992309570e+00,2.859365463256835938e+00,-1.073955655097961426e+00
3.325234174728393555e+00,3.385258674621582031e+00,-1.095519781112670898e+00
3.645932674407958984e+00,3.711746215820312500e+00,-1.011334419250488281e+00
3.650528192520141602e+00,3.716424703598022461e+00,-8.250915408134460449e-01
3.654981613159179688e+00,3.720958471298217773e+00,-6.404169797897338867e-01
3.659661769866943359e+00,3.725723028182983398e+00,-4.569057822227478027e-01
3.664064645767211914e+00,3.730205535888671875e+00,-2.740266323089599609e-01
3.668546199798583984e+00,3.734767913818359375e+00,-9.137962758541107178e-02
3.673116922378540039e+00,3.739421129226684570e+00,9.149347990751266479e-02
3.677441835403442383e+00,3.743824005126953125e+00,2.750270962715148926e-01
3.682050466537475586e+00,3.748516082763671875e+00,4.597010016441345215e-01
3.686594486236572266e+00,3.753142118453979492e+00,6.459561586380004883e-01
3.691728830337524414e+00,3.758368968963623047e+00,8.344036936759948730e-01
3.695746183395385742e+00,3.762459039688110352e+00,1.025152087211608887e+00
3.701273441314697266e+00,3.768085956573486328e+00,1.219408392906188965e+00
2.766958475112915039e+00,2.898750305175781250e+00,-1.073763132095336914e+00
3.285969257354736328e+00,3.442481994628906250e+00,-1.098704814910888672e+00
3.603519201278686523e+00,3.775156974792480469e+00,-1.014454364776611328e+00
3.608302593231201172e+00,3.780168294906616211e+00,-8.276922702789306641e-01
3.612447261810302734e+00,3.784510374069213867e+00,-6.423898935317993164e-01
3.616969108581542969e+00,3.789247512817382812e+00,-4.583001434803009033e-01
3.621455192565917969e+00,3.793947219848632812e+00,-2.748731374740600586e-01
3.625884771347045898e+00,3.798587560653686523e+00,-9.166190773248672485e-02
3.630267620086669922e+00,3.803179264068603516e+00,9.177270531654357910e-02
3.634646654129028320e+00,3.807766914367675781e+00,2.758743762969970703e-01
3.639461755752563477e+00,3.812811374664306641e+00,4.611501395702362061e-01
3.643708944320678711e+00,3.817260742187500000e+00,6.479490399360656738e-01
3.648396730422973633e+00,3.822172164916992188e+00,8.368892669677734375e-01
3.652802467346191406e+00,3.826787471771240234e+00,1.028328537940979004e+00
3.657742500305175781e+00,3.831963062286376953e+00,1.223011732101440430e+00
2.725250482559204102e+00,2.938121318817138672e+00,-1.073787689208984375e+00
3.227738618850708008e+00,3.479859113693237305e+00,-1.095776557922363281e+00
3.560496330261230469e+00,3.838608741760253906e+00,-1.017706155776977539e+00
3.564964532852172852e+00,3.843425989151000977e+00,-8.302851915359497070e-01
3.569670677185058594e+00,3.848499774932861328e+00,-6.445127129554748535e-01
3.573900699615478516e+00,3.853060007095336914e+00,-4.597839713096618652e-01
3.578320741653442383e+00,3.857825279235839844e+00,-2.757621109485626221e-01
3.582698345184326172e+00,3.862544775009155273e+00,-9.195837378501892090e-02
3.587041616439819336e+00,3.867227315902709961e+00,9.206985682249069214e-02
3.591608762741088867e+00,3.872151136398315430e+00,2.767861485481262207e-01
3.595749616622924805e+00,3.876615762710571289e+00,4.625948667526245117e-01
3.600206851959228516e+00,3.881420850753784180e+00,6.500260829925537109e-01
3.605237483978271484e+00,3.886844635009765625e+00,8.396648168563842773e-01
3.609217882156372070e+00,3.891135931015014648e+00,1.031632304191589355e+00
3.614627122879028320e+00,3.896967649459838867e+00,1.227120399475097656e+00
2.683479309082031250e+00,2.977443456649780273e+00,-1.074011087417602539e+00
3.187787532806396484e+00,3.536996841430664062e+00,-1.099288225173950195e+00
3.516799211502075195e+00,3.902050495147705078e+00,-1.021075725555419922e+00
3.521454095840454102e+00,3.907215118408203125e+00,-8.330914378166198730e-01
3.525864601135253906e+00,3.912108659744262695e+00,-6.466473340988159180e-01
3.530164957046508789e+00,3.916880369186401367e+00,-4.613227844238281250e-01
3.534450531005859375e+00,3.921635389328002930e+00,-2.766787409782409668e-01
3.538774490356445312e+00,3.926432847976684570e+00,-9.226404130458831787e-02
3.543146133422851562e+00,3.931283235549926758e+00,9.237802028656005859e-02
3.547533750534057617e+00,3.936151742935180664e+00,2.777028977870941162e-01
3.551864624023437500e+00,3.940957069396972656e+00,4.641584753990173340e-01
3.556023120880126953e+00,3.945571184158325195e+00,6.521784663200378418e-01
3.560608863830566406e+00,3.950659036636352539e+00,8.423544764518737793e-01
3.564930438995361328e+00,3.955454111099243164e+00,1.035050272941589355e+00
3.569755315780639648e+00,3.960807561874389648e+00,1.231007337570190430e+00
2.633671760559082031e+00,3.007642507553100586e+00,-1.071196794509887695e+00
3.134847402572631836e+00,3.579982995986938477e+00,-1.098590016365051270e+00
3.474163293838500977e+00,3.967480421066284180e+00,-1.025079727172851562e+00
3.478456735610961914e+00,3.972383737564086914e+00,-8.362849950790405273e-01
3.482631683349609375e+00,3.977151393890380859e+00,-6.490923166275024414e-01
3.487028360366821289e+00,3.982172250747680664e+00,-4.630868434906005859e-01
3.491200685501098633e+00,3.986937046051025391e+00,-2.777318954467773438e-01
3.495471239089965820e+00,3.991814136505126953e+00,-9.261522442102432251e-02
3.499851465225219727e+00,3.996816396713256836e+00,9.273128211498260498e-02
3.504035949707031250e+00,4.001595020294189453e+00,2.787529528141021729e-01
3.508496522903442383e+00,4.006689071655273438e+00,4.659378826618194580e-01
3.512912988662719727e+00,4.011732578277587891e+00,6.547361612319946289e-01
3.517126798629760742e+00,4.016544818878173828e+00,8.455819487571716309e-01
3.521801948547363281e+00,4.021883487701416016e+00,1.039135932922363281e+00
3.526086091995239258e+00,4.026775836944580078e+00,1.235697507858276367e+00
2.593924522399902344e+00,3.049221754074096680e+00,-1.072672247886657715e+00
3.079569816589355469e+00,3.620109558105468750e+00,-1.097264647483825684e+00
3.429553270339965820e+00,4.031523704528808594e+00,-1.028838157653808594e+00
3.434061288833618164e+00,4.036823272705078125e+00,-8.394170999526977539e-01
3.437994003295898438e+00,4.041446208953857422e+00,-6.514875888824462891e-01
3.442268610000610352e+00,4.046471118927001953e+00,-4.647868275642395020e-01
3.446521282196044922e+00,4.051469802856445312e+00,-2.787622511386871338e-01
3.450737237930297852e+00,4.056426048278808594e+00,-9.295882284641265869e-02
3.454926967620849609e+00,4.061351299285888672e+00,9.307169169187545776e-02
3.459124088287353516e+00,4.066284656524658203e+00,2.797816097736358643e-01
3.463718652725219727e+00,4.071685791015625000e+00,4.676830768585205078e-01
3.467805862426757812e+00,4.076490402221679688e+00,6.571367979049682617e-01
3.472278356552124023e+00,4.081748008728027344e+00,8.487588167190551758e-01
3.476476192474365234e+00,4.086682796478271484e+00,1.042914748191833496e+00
3.481117248535156250e+00,4.092138290405273438e+00,1.240337848663330078e+00
2.546559572219848633e+00,3.081847906112670898e+00,-1.071217298507690430e+00
3.029238224029541016e+00,3.665985822677612305e+00,-1.097915172576904297e+00
3.385905742645263672e+00,4.097624778747558594e+00,-1.033233284950256348e+00
3.390108823776245117e+00,4.102711677551269531e+00,-8.429415225982666016e-01
3.394173622131347656e+00,4.107630729675292969e+00,-6.542580723762512207e-01
3.398234844207763672e+00,4.112545490264892578e+00,-4.667415320873260498e-01
3.402448654174804688e+00,4.117644786834716797e+00,-2.799358963966369629e-01
3.406611204147338867e+00,4.122682571411132812e+00,-9.335020929574966431e-02
3.410731792449951172e+00,4.127669334411621094e+00,9.346313029527664185e-02
3.415035724639892578e+00,4.132877826690673828e+00,2.809715270996093750e-01
3.419387102127075195e+00,4.138144016265869141e+00,4.696467816829681396e-01
3.423672676086425781e+00,4.143330574035644531e+00,6.599442958831787109e-01
3.427739858627319336e+00,4.148252487182617188e+00,8.522983193397521973e-01
3.432207345962524414e+00,4.153658866882324219e+00,1.047362565994262695e+00
3.436265945434570312e+00,4.158570766448974609e+00,1.245438098907470703e+00
2.499403238296508789e+00,3.114504098892211914e+00,-1.070023655891418457e+00
2.978752613067626953e+00,3.711820840835571289e+00,-1.098760724067687988e+00
3.340815305709838867e+00,4.162986755371093750e+00,-1.037550687789916992e+00
3.345279932022094727e+00,4.168550491333007812e+00,-8.465440869331359863e-01
3.349162817001342773e+00,4.173388957977294922e+00,-6.570290923118591309e-01
3.353330135345458984e+00,4.178581714630126953e+00,-4.687407314777374268e-01
3.357442855834960938e+00,4.183706283569335938e+00,-2.811311483383178711e-01
3.361550331115722656e+00,4.188824653625488281e+00,-9.374879300594329834e-02
3.365662574768066406e+00,4.193949222564697266e+00,9.386347979307174683e-02
3.369748353958129883e+00,4.199040412902832031e+00,2.821615636348724365e-01
3.374172210693359375e+00,4.204553127288818359e+00,4.716541171073913574e-01
3.378079652786254883e+00,4.209422111511230469e+00,6.627019047737121582e-01
3.382306098937988281e+00,4.214688777923583984e+00,8.559138178825378418e-01
3.387013196945190430e+00,4.220553874969482422e+00,1.051898241043090820e+00
3.391407251358032227e+00,4.226029396057128906e+00,1.250975012779235840e+00
2.454273462295532227e+00,3.149572849273681641e+00,-1.069893240928649902e+00
2.915304422378540039e+00,3.741214513778686523e+00,-1.094997286796569824e+00
3.295952558517456055e+00,4.229701042175292969e+00,-1.042313337326049805e+00
3.300161838531494141e+00,4.235102653503417969e+00,-8.503795266151428223e-01
3.304192781448364258e+00,4.240275382995605469e+00,-6.600459814071655273e-01
3.308174371719360352e+00,4.245385169982910156e+00,-4.708745777606964111e-01
3.312196731567382812e+00,4.250546932220458984e+00,-2.824079692363739014e-01
3.316248416900634766e+00,4.255746841430664062e+00,-9.417455643415451050e-02
3.320340871810913086e+00,4.260998249053955078e+00,9.429077804088592529e-02
3.324503183364868164e+00,4.266339778900146484e+00,2.834572494029998779e-01
3.328664779663085938e+00,4.271680831909179688e+00,4.737911224365234375e-01
3.332717657089233398e+00,4.276881694793701172e+00,6.657441258430480957e-01
3.337165117263793945e+00,4.282588958740234375e+00,8.599144816398620605e-01
3.341393232345581055e+00,4.288015365600585938e+00,1.056683540344238281e+00
3.345172643661499023e+00,4.292865276336669922e+00,1.256457209587097168e+00
2.410956382751464844e+00,3.187034130096435547e+00,-1.070786476135253906e+00
2.869202136993408203e+00,3.792787313461303711e+00,-1.097959399223327637e+00
3.250701427459716797e+00,4.297090053558349609e+00,-1.047346591949462891e+00
3.254698276519775391e+00,4.302373409271240234e+00,-8.544453382492065430e-01
3.258599758148193359e+00,4.307530879974365234e+00,-6.631867289543151855e-01
3.262707710266113281e+00,4.312961101531982422e+00,-4.731414616107940674e-01
3.266707181930541992e+00,4.318247795104980469e+00,-2.837703526020050049e-01
3.270704030990600586e+00,4.323531150817871094e+00,-9.462889283895492554e-02
3.274707078933715820e+00,4.328822612762451172e+00,9.474471211433410645e-02
3.278630018234252930e+00,4.334008693695068359e+00,2.848060727119445801e-01
3.282809257507324219e+00,4.339533329010009766e+00,4.760565161705017090e-01
3.286962747573852539e+00,4.345023632049560547e+00,6.689592003822326660e-01
3.290942430496215820e+00,4.350284576416015625e+00,8.639604449272155762e-01
3.295300483703613281e+00,4.356045246124267578e+00,1.061715960502624512e+00
3.299288272857666016e+00,4.361316680908203125e+00,1.262540698051452637e+00
2.369246482849121094e+00,3.226865053176879883e+00,-1.072665214538574219e+00
2.810731410980224609e+00,3.828158855438232422e+00,-1.096440196037292480e+00
3.205002546310424805e+00,4.365147590637207031e+00,-1.052645564079284668e+00
3.208827733993530273e+00,4.370357990264892578e+00,-8.587375283241271973e-01
3.212905883789062500e+00,4.375912189483642578e+00,-6.665661931037902832e-01
3.216865062713623047e+00,4.381304264068603516e+00,-4.755389988422393799e-01
3.220791101455688477e+00,4.386651515960693359e+00,-2.852067649364471436e-01
3.224731206893920898e+00,4.392017841339111328e+00,-9.510788321495056152e-02
3.228696107864379883e+00,4.397418022155761719e+00,9.522482007741928101e-02
3.232656240463256836e+00,4.402811527252197266e+00,2.862574458122253418e-01
3.236542940139770508e+00,4.408105373382568359e+00,4.784479439258575439e-01
3.240755081176757812e+00,4.413842201232910156e+00,6.723439693450927734e-01
3.244863510131835938e+00,4.419437885284423828e+00,8.683813214302062988e-01
3.248683214187622070e+00,4.424640178680419922e+00,1.066991925239562988e+00
3.252808332443237305e+00,4.430258274078369141e+00,1.268890261650085449e+00
2.317822456359863281e+00,3.253427267074584961e+00,-1.070356965065002441e+00
2.752516984939575195e+00,3.863589286804199219e+00,-1.095191597938537598e+00
3.158183336257934570e+00,4.433005332946777344e+00,-1.057999849319458008e+00
3.162224292755126953e+00,4.438677310943603516e+00,-8.631796836853027344e-01
3.166092157363891602e+00,4.444107055664062500e+00,-6.699823737144470215e-01
3.169909715652465820e+00,4.449465274810791016e+00,-4.779634773731231689e-01
3.173763275146484375e+00,4.454874515533447266e+00,-2.866594791412353516e-01
3.177646398544311523e+00,4.460324764251708984e+00,-9.559233486652374268e-02
3.181568145751953125e+00,4.465829849243164062e+00,9.571031481027603149e-02
3.185555458068847656e+00,4.471426486968994141e+00,2.877245843410491943e-01
3.189538717269897461e+00,4.477017402648925781e+00,4.809231460094451904e-01
3.193414211273193359e+00,4.482457637786865234e+00,6.757640242576599121e-01
3.197630167007446289e+00,4.488375663757324219e+00,8.728443384170532227e-01
3.201622247695922852e+00,4.493978977203369141e+00,1.072552084922790527e+00
3.205957651138305664e+00,4.500064373016357422e+00,1.275609970092773438e+00
2.270110845565795898e+00,3.284948110580444336e+00,-1.069927453994750977e+00
2.698544979095458984e+00,3.904910802841186523e+00,-1.095843553543090820e+00
3.111400127410888672e+00,4.502329826354980469e+00,-1.063807368278503418e+00
3.115329504013061523e+00,4.508016109466552734e+00,-8.679032921791076660e-01
3.119399785995483398e+00,4.513906002044677734e+00,-6.737048029899597168e-01
3.123108386993408203e+00,4.519272327423095703e+00,-4.806109964847564697e-01
3.126957178115844727e+00,4.524841785430908203e+00,-2.882521450519561768e-01
3.130782842636108398e+00,4.530377864837646484e+00,-9.612343460321426392e-02
3.134594917297363281e+00,4.535893917083740234e+00,9.624047577381134033e-02
3.138576030731201172e+00,4.541655063629150391e+00,2.893232107162475586e-01
3.142238616943359375e+00,4.546954631805419922e+00,4.835549294948577881e-01
3.146110296249389648e+00,4.552556991577148438e+00,6.794735789299011230e-01
3.150355577468872070e+00,4.558700084686279297e+00,8.776612877845764160e-01
3.154425382614135742e+00,4.564589500427246094e+00,1.078517913818359375e+00
3.158100843429565430e+00,4.569908142089843750e+00,1.282463192939758301e+00
2.224066495895385742e+00,3.318895578384399414e+00,-1.070506095886230469e+00
2.646375894546508789e+00,3.949093103408813477e+00,-1.097500205039978027e+00
3.064414501190185547e+00,4.572917461395263672e+00,-1.070012331008911133e+00
3.068167209625244141e+00,4.578517436981201172e+00,-8.729321956634521484e-01
3.071841955184936523e+00,4.584001064300537109e+00,-6.775348186492919922e-01
3.075711250305175781e+00,4.589775085449218750e+00,-4.833773672580718994e-01
3.079506874084472656e+00,4.595438957214355469e+00,-2.899118065834045410e-01
3.083274364471435547e+00,4.601061344146728516e+00,-9.667688608169555664e-02
3.087023258209228516e+00,4.606655597686767578e+00,9.679443389177322388e-02
3.090725898742675781e+00,4.612181186676025391e+00,2.909680306911468506e-01
3.094670295715332031e+00,4.618067264556884766e+00,4.863570034503936768e-01
3.098601579666137695e+00,4.623933792114257812e+00,6.834369897842407227e-01
3.102381229400634766e+00,4.629573822021484375e+00,8.826665282249450684e-01
3.106474876403808594e+00,4.635682582855224609e+00,1.084698557853698730e+00
3.110215187072753906e+00,4.641263961791992188e+00,1.289862751960754395e+00
2.179461717605590820e+00,3.355194568634033203e+00,-1.072042465209960938e+00
2.583956241607666016e+00,3.977897405624389648e+00,-1.095114469528198242e+00
3.016246557235717773e+00,4.643391132354736328e+00,-1.076290130615234375e+00
3.020287036895751953e+00,4.649611473083496094e+00,-8.781546354293823242e-01
3.024094581604003906e+00,4.655473232269287109e+00,-6.816311478614807129e-01
3.027638196945190430e+00,4.660928249359130859e+00,-4.862571656703948975e-01
3.031387329101562500e+00,4.666699886322021484e+00,-2.916402518749237061e-01
3.035095930099487305e+00,4.672409057617187500e+00,-9.725326299667358398e-02
3.038773536682128906e+00,4.678070545196533203e+00,9.737110137939453125e-02
3.042685747146606445e+00,4.684093475341796875e+00,2.927272319793701172e-01
3.046377658843994141e+00,4.689776897430419922e+00,4.892668724060058594e-01
3.049896955490112305e+00,4.695194721221923828e+00,6.874469518661499023e-01
3.054165363311767578e+00,4.701765537261962891e+00,8.880047798156738281e-01
3.057705879211425781e+00,4.707216262817382812e+00,1.091084122657775879e+00
3.061452865600585938e+00,4.712984561920166016e+00,1.297483801841735840e+00
2.128191232681274414e+00,3.381232738494873047e+00,-1.070519328117370605e+00
2.535073280334472656e+00,4.027679920196533203e+00,-1.098717570304870605e+00
2.967696905136108398e+00,4.715024471282958984e+00,-1.082937121391296387e+00
2.971613168716430664e+00,4.721246719360351562e+00,-8.835603594779968262e-01
2.975325822830200195e+00,4.727145195007324219e+00,-6.858193874359130859e-01
2.978949308395385742e+00,4.732902050018310547e+00,-4.892674684524536133e-01
2.982563018798828125e+00,4.738643646240234375e+00,-2.934383451938629150e-01
2.986212253570556641e+00,4.744441509246826172e+00,-9.785287082195281982e-02
2.989906311035156250e+00,4.750310420989990234e+00,9.797392785549163818e-02
2.993617534637451172e+00,4.756206989288330078e+00,2.945259213447570801e-01
2.997283697128295898e+00,4.762031555175781250e+00,4.922787547111511230e-01
3.000806331634521484e+00,4.767628192901611328e+00,6.916926503181457520e-01
3.004561662673950195e+00,4.773594856262207031e+00,8.933570384979248047e-01
3.008646488189697266e+00,4.780084609985351562e+00,1.097880005836486816e+00
3.012431144714355469e+00,4.786097526550292969e+00,1.305607557296752930e+00
2.078607082366943359e+00,3.409747362136840820e+00,-1.070017933845520020e+00
2.476397514343261719e+00,4.062282562255859375e+00,-1.098375082015991211e+00
2.918247222900390625e+00,4.787093162536621094e+00,-1.089784383773803711e+00
2.922068834304809570e+00,4.793362140655517578e+00,-8.891380429267883301e-01
2.925708293914794922e+00,4.799332618713378906e+00,-6.901460886001586914e-01
2.929279088973999023e+00,4.805189609527587891e+00,-4.923554658889770508e-01
2.932858943939208984e+00,4.811062335968017578e+00,-2.952930033206939697e-01
2.936447143554687500e+00,4.816948413848876953e+00,-9.847135096788406372e-02
2.940053224563598633e+00,4.822863578796386719e+00,9.859228134155273438e-02
2.943695306777954102e+00,4.828838348388671875e+00,2.963840663433074951e-01
2.947312116622924805e+00,4.834771156311035156e+00,4.953864812850952148e-01
2.950806379318237305e+00,4.840503215789794922e+00,6.960664391517639160e-01
2.954535484313964844e+00,4.846620559692382812e+00,8.990171551704406738e-01
2.958589792251586914e+00,4.853271007537841797e+00,1.104849815368652344e+00
2.962357759475708008e+00,4.859452247619628906e+00,1.313916683197021484e+00
2.031879425048828125e+00,3.443020105361938477e+00,-1.071222901344299316e+00
2.410873413085937500e+00,4.085225105285644531e+00,-1.095135807991027832e+00
2.868749618530273438e+00,4.861096858978271484e+00,-1.097171187400817871e+00
2.872143268585205078e+00,4.866847515106201172e+00,-8.950516581535339355e-01
2.875744819641113281e+00,4.872950077056884766e+00,-6.947420835494995117e-01
2.879284620285034180e+00,4.878948211669921875e+00,-4.956394433975219727e-01
2.882882833480834961e+00,4.885045528411865234e+00,-2.972708046436309814e-01
2.886410713195800781e+00,4.891023159027099609e+00,-9.913090616464614868e-02
2.889875173568725586e+00,4.896893978118896484e+00,9.924989193677902222e-02
2.893424987792968750e+00,4.902908802032470703e+00,2.983578443527221680e-01
2.896955490112304688e+00,4.908891677856445312e+00,4.986813366413116455e-01
2.900757551193237305e+00,4.915334224700927734e+00,7.007848024368286133e-01
2.904482841491699219e+00,4.921646595001220703e+00,9.051297307014465332e-01
2.907965183258056641e+00,4.927547454833984375e+00,1.112169384956359863e+00
2.911632776260375977e+00,4.933762073516845703e+00,1.322605013847351074e+00
1.983563780784606934e+00,3.473794698715209961e+00,-1.071854591369628906e+00
2.350438833236694336e+00,4.116299152374267578e+00,-1.094335079193115234e+00
2.818479061126708984e+00,4.935973167419433594e+00,-1.104852557182312012e+00
2.822244882583618164e+00,4.942568302154541016e+00,-9.014558196067810059e-01
2.825575351715087891e+00,4.948400974273681641e+00,-6.996614336967468262e-01
2.829081058502197266e+00,4.954540252685546875e+00,-4.991538524627685547e-01
2.832545280456542969e+00,4.960607528686523438e+00,-2.993711233139038086e-01
2.836011171340942383e+00,4.966677188873291016e+00,-9.983129054307937622e-02
2.839486598968505859e+00,4.972763538360595703e+00,9.995362162590026855e-02
2.842945814132690430e+00,4.978821754455566406e+00,3.004703521728515625e-01
2.846624851226806641e+00,4.985264778137207031e+00,5.022492408752441406e-01
2.849923610687255859e+00,4.991041660308837891e+00,7.056904435157775879e-01
2.853842258453369141e+00,4.997904777526855469e+00,9.115484356880187988e-01
2.857091426849365234e+00,5.003594398498535156e+00,1.119988679885864258e+00
2.861076116561889648e+00,5.010572910308837891e+00,1.332081437110900879e+00
1.931067705154418945e+00,3.497162580490112305e+00,-1.070426702499389648e+00
2.297360181808471680e+00,4.160517692565917969e+00,-1.097236275672912598e+00
2.767144441604614258e+00,5.011297225952148438e+00,-1.112733244895935059e+00
2.770530939102172852e+00,5.017430305480957031e+00,-9.077839851379394531e-01
2.774064540863037109e+00,5.023829460144042969e+00,-7.046400308609008789e-01
2.777477264404296875e+00,5.030009746551513672e+00,-5.027004480361938477e-01
2.780800580978393555e+00,5.036028385162353516e+00,-3.014898002147674561e-01
2.784202575683593750e+00,5.042189598083496094e+00,-1.005377843976020813e-01
2.787693262100219727e+00,5.048511028289794922e+00,1.006638258695602417e-01
2.791119098663330078e+00,5.054715156555175781e+00,3.026084899902343750e-01
2.794464588165283203e+00,5.060773849487304688e+00,5.057750344276428223e-01
2.798017740249633789e+00,5.067208766937255859e+00,7.107243537902832031e-01
2.801438570022583008e+00,5.073403835296630859e+00,9.179110527038574219e-01
2.805108547210693359e+00,5.080049991607666016e+00,1.127999424934387207e+00
2.808453559875488281e+00,5.086107730865478516e+00,1.341338276863098145e+00
1.879930615425109863e+00,3.522778034210205078e+00,-1.069921255111694336e+00
2.236008405685424805e+00,4.190027713775634766e+00,-1.096465826034545898e+00
2.715296745300292969e+00,5.088160037994384766e+00,-1.121055603027343750e+00
2.718620300292968750e+00,5.094388008117675781e+00,-9.145735502243041992e-01
2.721872568130493164e+00,5.100481986999511719e+00,-7.098541259765625000e-01
2.725287914276123047e+00,5.106882095336914062e+00,-5.064327120780944824e-01
2.728644609451293945e+00,5.113172531127929688e+00,-3.037388324737548828e-01
2.731982946395874023e+00,5.119428157806396484e+00,-1.012877821922302246e-01
2.735311746597290039e+00,5.125666141510009766e+00,1.014111936092376709e-01
2.738606214523315430e+00,5.131838798522949219e+00,3.048476874828338623e-01
2.742106199264526367e+00,5.138397693634033203e+00,5.095580220222473145e-01
2.745593070983886719e+00,5.144931793212890625e+00,7.160403728485107422e-01
2.748940706253051758e+00,5.151204586029052734e+00,9.247736334800720215e-01
2.752535820007324219e+00,5.157941818237304688e+00,1.136430382728576660e+00
2.755807638168334961e+00,5.164072990417480469e+00,1.351358532905578613e+00
1.830134510993957520e+00,3.550903081893920898e+00,-1.070397615432739258e+00
2.176287174224853516e+00,4.222522258758544922e+00,-1.096705317497253418e+00
2.662877321243286133e+00,5.166625022888183594e+00,-1.129830121994018555e+00
2.666162729263305664e+00,5.172999382019042969e+00,-9.217408895492553711e-01
2.669361829757690430e+00,5.179206848144531250e+00,-7.154197692871093750e-01
2.672708749771118164e+00,5.185700416564941406e+00,-5.104028582572937012e-01
2.675977945327758789e+00,5.192043781280517578e+00,-3.061173856258392334e-01
2.679252862930297852e+00,5.198397159576416016e+00,-1.020809859037399292e-01
2.682539701461791992e+00,5.204774856567382812e+00,1.022062227129936218e-01
2.685773372650146484e+00,5.211049079895019531e+00,3.072379231452941895e-01
2.689196109771728516e+00,5.217689514160156250e+00,5.135514140129089355e-01
2.692589759826660156e+00,5.224274158477783203e+00,7.216450572013854980e-01
2.695831537246704102e+00,5.230564117431640625e+00,9.319979548454284668e-01
2.699313640594482422e+00,5.237320423126220703e+00,1.145289540290832520e+00
2.703086614608764648e+00,5.244640827178955078e+00,1.362177610397338867e+00
1.776157617568969727e+00,3.570763349533081055e+00,-1.068611383438110352e+00
2.109998226165771484e+00,4.241911888122558594e+00,-1.093785166740417480e+00
2.596603870391845703e+00,5.220177650451660156e+00,-1.133297204971313477e+00
2.612295389175415039e+00,5.251723289489746094e+00,-9.290105700492858887e-01
2.615474462509155273e+00,5.258114814758300781e+00,-7.210744619369506836e-01
2.618773460388183594e+00,5.264746665954589844e+00,-5.144410133361816406e-01
2.621922016143798828e+00,5.271077156066894531e+00,-3.085328638553619385e-01
2.625130176544189453e+00,5.277526378631591797e+00,-1.028864532709121704e-01
2.628406524658203125e+00,5.284112930297851562e+00,1.030148565769195557e-01
2.631555080413818359e+00,5.290442466735839844e+00,3.096663951873779297e-01
2.634863615036010742e+00,5.297094345092773438e+00,5.176018476486206055e-01
2.638117074966430664e+00,5.303634643554687500e+00,7.273169159889221191e-01
2.641658544540405273e+00,5.310754776000976562e+00,9.394530057907104492e-01
2.645037651062011719e+00,5.317548274993896484e+00,1.154436349868774414e+00
2.648072004318237305e+00,5.323648452758789062e+00,1.372712969779968262e+00
1.730263471603393555e+00,3.607059478759765625e+00,-1.071952223777770996e+00
2.055013179779052734e+00,4.284061431884765625e+00,-1.096956610679626465e+00
2.528010606765747070e+00,5.270113945007324219e+00,-1.136166334152221680e+00
2.557646989822387695e+00,5.331896305084228516e+00,-9.366210103034973145e-01
2.560823917388916016e+00,5.338519096374511719e+00,-7.269997596740722656e-01
2.563958644866943359e+00,5.345054149627685547e+00,-5.186490416526794434e-01
2.567162513732910156e+00,5.351733207702636719e+00,-3.110712468624114990e-01
2.570304155349731445e+00,5.358282089233398438e+00,-1.037329509854316711e-01
2.573389530181884766e+00,5.364714622497558594e+00,1.038574799895286560e-01
2.576568603515625000e+00,5.371342182159423828e+00,3.122110366821289062e-01
2.579743623733520508e+00,5.377961158752441406e+00,5.218421220779418945e-01
2.582831144332885742e+00,5.384397029876708984e+00,7.332473993301391602e-01
2.586176872253417969e+00,5.391372203826904297e+00,9.470687508583068848e-01
2.589335680007934570e+00,5.397957324981689453e+00,1.163727760314941406e+00
2.592749357223510742e+00,5.405073642730712891e+00,1.383997678756713867e+00
1.678833961486816406e+00,3.632258415222167969e+00,-1.072189807891845703e+00
1.991862654685974121e+00,4.309514999389648438e+00,-1.096061587333679199e+00
2.446544885635375977e+00,5.293247222900390625e+00,-1.133487939834594727e+00
2.502422571182250977e+00,5.414142131805419922e+00,-9.446797966957092285e-01
2.505318880081176758e+00,5.420408725738525391e+00,-7.331929206848144531e-01
2.508428096771240234e+00,5.427135467529296875e+00,-5.230761766433715820e-01
2.511522293090820312e+00,5.433829784393310547e+00,-3.137215077877044678e-01
2.514595508575439453e+00,5.440478801727294922e+00,-1.046167165040969849e-01
2.517655611038208008e+00,5.447099685668945312e+00,1.047440245747566223e-01
2.520722866058349609e+00,5.453735828399658203e+00,3.148707449436187744e-01
2.524043083190917969e+00,5.460919380187988281e+00,5.263323187828063965e-01
2.527020692825317383e+00,5.467361450195312500e+00,7.395440340042114258e-01
2.530221223831176758e+00,5.474286079406738281e+00,9.551740288734436035e-01
2.533201694488525391e+00,5.480734348297119141e+00,1.173636198043823242e+00
2.537027597427368164e+00,5.489012241363525391e+00,1.396049380302429199e+00
1.622004032135009766e+00,3.645411252975463867e+00,-1.069109559059143066e+00
1.930243968963623047e+00,4.338172435760498047e+00,-1.096210956573486328e+00
2.367089033126831055e+00,5.319970130920410156e+00,-1.131839156150817871e+00
2.445929765701293945e+00,5.497162818908691406e+00,-9.529592990875244141e-01
2.449070215225219727e+00,5.504220485687255859e+00,-7.397122979164123535e-01
2.451953649520874023e+00,5.510701179504394531e+00,-5.276936888694763184e-01
2.454985141754150391e+00,5.517514228820800781e+00,-3.164918124675750732e-01
2.457989215850830078e+00,5.524265766143798828e+00,-1.055405363440513611e-01
2.460973501205444336e+00,5.530972957611083984e+00,1.056686788797378540e-01
2.464129209518432617e+00,5.538065433502197266e+00,3.176706433296203613e-01
2.467062711715698242e+00,5.544658184051513672e+00,5.309453606605529785e-01
2.470204114913940430e+00,5.551718235015869141e+00,7.460955381393432617e-01
2.473228216171264648e+00,5.558515071868896484e+00,9.635950326919555664e-01
2.476532936096191406e+00,5.565942287445068359e+00,1.184170484542846680e+00
2.479568719863891602e+00,5.572764873504638672e+00,1.408179640769958496e+00
1.573031783103942871e+00,3.676120519638061523e+00,-1.071402907371520996e+00
1.870080113410949707e+00,4.370312213897705078e+00,-1.097456097602844238e+00
2.289544105529785156e+00,5.350584983825683594e+00,-1.131264448165893555e+00
2.388649702072143555e+00,5.582190990447998047e+00,-9.616739749908447266e-01
2.391544342041015625e+00,5.588955402374267578e+00,-7.464230656623840332e-01
2.394424438476562500e+00,5.595686435699462891e+00,-5.324953198432922363e-01
2.397397994995117188e+00,5.602635860443115234e+00,-3.193734288215637207e-01
2.400331974029541016e+00,5.609492301940917969e+00,-1.065014898777008057e-01
2.403232812881469727e+00,5.616271495819091797e+00,1.066301912069320679e-01
2.406249523162841797e+00,5.623321056365966797e+00,3.205525875091552734e-01
2.409288406372070312e+00,5.630423069000244141e+00,5.358008742332458496e-01
2.412270069122314453e+00,5.637391090393066406e+00,7.528917789459228516e-01
2.415086746215820312e+00,5.643973827362060547e+00,9.723175764083862305e-01
2.418139696121215820e+00,5.651107788085937500e+00,1.194803476333618164e+00
2.421499490737915039e+00,5.658959865570068359e+00,1.421056389808654785e+00
1.518698692321777344e+00,3.694463729858398438e+00,-1.070303916931152344e+00
1.802060961723327637e+00,4.383785247802734375e+00,-1.094250202178955078e+00
2.213802099227905273e+00,5.385407924652099609e+00,-1.131811499595642090e+00
2.329877376556396484e+00,5.667778491973876953e+00,-9.705739617347717285e-01
2.332834959030151367e+00,5.674973487854003906e+00,-7.533743977546691895e-01
2.335721492767333984e+00,5.681994915008544922e+00,-5.374720692634582520e-01
2.338599681854248047e+00,5.688996791839599609e+00,-3.223552107810974121e-01
2.341461420059204102e+00,5.695958137512207031e+00,-1.074958071112632751e-01
2.344314336776733398e+00,5.702898502349853516e+00,1.076267883181571960e-01
2.347179412841796875e+00,5.709868431091308594e+00,3.235378563404083252e-01
2.350008487701416016e+00,5.716750144958496094e+00,5.407596230506896973e-01
2.353100061416625977e+00,5.724271297454833984e+00,7.599188685417175293e-01
2.356137037277221680e+00,5.731658935546875000e+00,9.815130829811096191e-01
2.358981370925903320e+00,5.738578319549560547e+00,1.206034779548645020e+00
1.464406847953796387e+00,3.712623834609985352e+00,-1.069382905960083008e+00
1.743255734443664551e+00,4.419572830200195312e+00,-1.096842408180236816e+00
2.138020992279052734e+00,5.420397281646728516e+00,-1.132617473602294922e+00
2.271116256713867188e+00,5.757825851440429688e+00,-9.803268909454345703e-01
2.274057388305664062e+00,5.765282630920410156e+00,-7.609642744064331055e-01
2.276743888854980469e+00,5.772093296051025391e+00,-5.428564548492431641e-01
2.279568910598754883e+00,5.779255867004394531e+00,-3.255873620510101318e-01
2.282358646392822266e+00,5.786327838897705078e+00,-1.085736453533172607e-01
2.285119771957397461e+00,5.793328285217285156e+00,1.087049990892410278e-01
2.288041591644287109e+00,5.800735473632812500e+00,3.267975151538848877e-01
2.290740489959716797e+00,5.807578086853027344e+00,5.461937785148620605e-01
2.293642997741699219e+00,5.814936637878417969e+00,7.675181627273559570e-01
2.296436309814453125e+00,5.822018623352050781e+00,9.912563562393188477e-01
2.299520492553710938e+00,5.829837322235107422e+00,1.218171954154968262e+00
1.412396550178527832e+00,3.736574172973632812e+00,-1.070348978042602539e+00
1.678121209144592285e+00,4.439563751220703125e+00,-1.095730423927307129e+00
2.065560579299926758e+00,5.464556694030761719e+00,-1.135550618171691895e+00
2.209890127182006836e+00,5.846388339996337891e+00,-9.899185895919799805e-01
2.212634801864624023e+00,5.853649616241455078e+00,-7.683689594268798828e-01
2.215346574783325195e+00,5.860823631286621094e+00,-5.481630563735961914e-01
2.218125581741333008e+00,5.868175506591796875e+00,-3.287745416164398193e-01
2.220840215682983398e+00,5.875357627868652344e+00,-1.096364855766296387e-01
2.223496913909912109e+00,5.882385730743408203e+00,1.097676306962966919e-01
2.226241350173950195e+00,5.889646053314208984e+00,3.299774825572967529e-01
2.228985786437988281e+00,5.896906852722167969e+00,5.515379309654235840e-01
2.231657266616821289e+00,5.903975009918212891e+00,7.749748229980468750e-01
2.234605312347412109e+00,5.911773681640625000e+00,1.000989794731140137e+00
2.237411260604858398e+00,5.919197082519531250e+00,1.230026245117187500e+00
1.360312938690185547e+00,3.760660409927368164e+00,-1.071561217308044434e+00
1.613038063049316406e+00,4.459332942962646484e+00,-1.094799041748046875e+00
1.979589939117431641e+00,5.472685813903808594e+00,-1.131235957145690918e+00
2.148190259933471680e+00,5.938790321350097656e+00,-1.000255465507507324e+00
2.150947093963623047e+00,5.946412086486816406e+00,-7.764244675636291504e-01
2.153602361679077148e+00,5.953752517700195312e+00,-5.539148449897766113e-01
2.156213045120239258e+00,5.960969924926757812e+00,-3.322103321552276611e-01
2.158852338790893555e+00,5.968266487121582031e+00,-1.107822358608245850e-01
2.161526679992675781e+00,5.975659370422363281e+00,1.109194681048393250e-01
2.164175033569335938e+00,5.982981204986572266e+00,3.334370255470275879e-01
2.166753530502319336e+00,5.990109920501708984e+00,5.572974085807800293e-01
2.169557809829711914e+00,5.997862339019775391e+00,7.831423878669738770e-01
2.172284364700317383e+00,6.005400180816650391e+00,1.011474490165710449e+00
2.174809455871582031e+00,6.012381076812744141e+00,1.242794156074523926e+00
1.303261756896972656e+00,3.770805597305297852e+00,-1.069027185440063477e+00
1.549269795417785645e+00,4.482594966888427734e+00,-1.094953775405883789e+00
1.908479094505310059e+00,5.521916866302490234e+00,-1.135649442672729492e+00
2.084824562072753906e+00,6.032147884368896484e+00,-1.010849833488464355e+00
2.087404727935791016e+00,6.039613246917724609e+00,-7.846122384071350098e-01
2.090091466903686523e+00,6.047386646270751953e+00,-5.597856044769287109e-01
2.092619657516479492e+00,6.054702281951904297e+00,-3.357304334640502930e-01
2.095180749893188477e+00,6.062112331390380859e+00,-1.119560673832893372e-01
2.097781896591186523e+00,6.069638252258300781e+00,1.120950579643249512e-01
2.100241899490356445e+00,6.076755523681640625e+00,3.369532823562622070e-01
2.102840900421142578e+00,6.084275245666503906e+00,5.632002353668212891e-01
2.105388402938842773e+00,6.091646671295166016e+00,7.913719415664672852e-01
2.108228445053100586e+00,6.099864006042480469e+00,1.022197484970092773e+00
2.110956668853759766e+00,6.107757568359375000e+00,1.256134748458862305e+00
1.247363567352294922e+00,3.783620834350585938e+00,-1.067489266395568848e+00
1.486685991287231445e+00,4.509556293487548828e+00,-1.096229195594787598e+00
1.825860023498535156e+00,5.538370609283447266e+00,-1.133542418479919434e+00
2.019918680191040039e+00,6.127007961273193359e+00,-1.021796584129333496e+00
2.022260189056396484e+00,6.134109973907470703e+00,-7.930468320846557617e-01
2.024785995483398438e+00,6.141771793365478516e+00,-5.657817721366882324e-01
2.027274847030639648e+00,6.149320602416992188e+00,-3.393332362174987793e-01
2.029756307601928711e+00,6.156847476959228516e+00,-1.131575107574462891e-01
2.032236337661743164e+00,6.164371013641357422e+00,1.132957786321640015e-01
2.034697294235229492e+00,6.171835422515869141e+00,3.405756652355194092e-01
2.037375211715698242e+00,6.179958343505859375e+00,5.692995190620422363e-01
2.039725303649902344e+00,6.187087059020996094e+00,7.998959422111511230e-01
2.042289972305297852e+00,6.194866180419921875e+00,1.033113241195678711e+00
2.045180082321166992e+00,6.203632831573486328e+00,1.269702076911926270e+00
1.197139620780944824e+00,3.814004421234130859e+00,-1.071117401123046875e+00
1.423988223075866699e+00,4.536728382110595703e+00,-1.097767353057861328e+00
1.743418812751770020e+00,5.554411888122558594e+00,-1.131602287292480469e+00
2.245615959167480469e+00,7.154377460479736328e+00,-1.187648177146911621e+00
3.150845527648925781e+00,1.003837585449218750e+01,-1.291845798492431641e+00
4.575234889984130859e+00,1.457638263702392578e+01,-1.336610913276672363e+00
4.580930709838867188e+00,1.459452915191650391e+01,-8.016583323478698730e-01
4.586516380310058594e+00,1.461232471466064453e+01,-2.673278748989105225e-01
4.592004776000976562e+00,1.462981128692626953e+01,2.676477730274200439e-01
4.597721099853515625e+00,1.464802169799804688e+01,8.045966029167175293e-01
1.142148852348327637e+00,3.829800844192504883e+00,-1.070852875709533691e+00
1.354480981826782227e+00,4.541783332824707031e+00,-1.094187259674072266e+00
1.662537932395935059e+00,5.574745655059814453e+00,-1.130780935287475586e+00
2.150244474411010742e+00,7.210100650787353516e+00,-1.191667199134826660e+00
3.000295877456665039e+00,1.006045436859130859e+01,-1.289028525352478027e+00
4.409457206726074219e+00,1.478558921813964844e+01,-1.349868893623352051e+00
4.414783954620361328e+00,1.480345058441162109e+01,-8.095802068710327148e-01
4.420166969299316406e+00,1.482150077819824219e+01,-2.699695825576782227e-01
4.425619602203369141e+00,1.483978366851806641e+01,2.703025937080383301e-01
4.431012153625488281e+00,1.485786533355712891e+01,8.125560879707336426e-01
1.087158560752868652e+00,3.845538854598999023e+00,-1.070792555809020996e+00
1.292772412300109863e+00,4.572843551635742188e+00,-1.097099900245666504e+00
1.581722378730773926e+00,5.594928741455078125e+00,-1.130166769027709961e+00
2.035195589065551758e+00,7.198971271514892578e+00,-1.184891819953918457e+00
2.850188255310058594e+00,1.008179378509521484e+01,-1.286403775215148926e+00
4.241386413574218750e+00,1.500279331207275391e+01,-1.364016532897949219e+00
4.246525287628173828e+00,1.502097129821777344e+01,-8.180682063102722168e-01
4.251703262329101562e+00,1.503928565979003906e+01,-2.728000283241271973e-01
4.256932735443115234e+00,1.505778408050537109e+01,2.731355726718902588e-01
4.262263298034667969e+00,1.507664108276367188e+01,8.211000561714172363e-01
1.027950525283813477e+00,3.845518112182617188e+00,-1.066580533981323242e+00
1.224569320678710938e+00,4.581060409545898438e+00,-1.094753861427307129e+00
1.502211809158325195e+00,5.619709014892578125e+00,-1.130713224411010742e+00
1.941063046455383301e+00,7.261432647705078125e+00,-1.190477490425109863e+00
2.702808856964111328e+00,1.011109066009521484e+01,-1.285074114799499512e+00
4.068530559539794922e+00,1.522019577026367188e+01,-1.378346562385559082e+00
4.073569774627685547e+00,1.523904800415039062e+01,-8.266848921775817871e-01
4.078536987304687500e+00,1.525762939453125000e+01,-2.756734490394592285e-01
4.083442687988281250e+00,1.527598190307617188e+01,2.760050296783447266e-01
4.088676929473876953e+00,1.529556274414062500e+01,8.297506570816040039e-01
9.738878607749938965e-01,3.864120244979858398e+00,-1.067764401435852051e+00
1.156569242477416992e+00,4.588950157165527344e+00,-1.092571258544921875e+00
1.422629117965698242e+00,5.644602298736572266e+00,-1.131508946418762207e+00
1.828493952751159668e+00,7.254963397979736328e+00,-1.185004711151123047e+00
2.555636405944824219e+00,1.014006519317626953e+01,-1.283975839614868164e+00
3.893441200256347656e+00,1.544810867309570312e+01,-1.393796801567077637e+00
3.898127317428588867e+00,1.546670150756835938e+01,-8.359221220016479492e-01
3.902880191802978516e+00,1.548555946350097656e+01,-2.787537574768066406e-01
3.907711982727050781e+00,1.550473117828369141e+01,2.790988683700561523e-01
3.912586688995361328e+00,1.552407169342041016e+01,8.390228152275085449e-01
9.204681515693664551e-01,3.886035919189453125e+00,-1.070070028305053711e+00
1.089661002159118652e+00,4.600335121154785156e+00,-1.091456651687622070e+00
1.344070672988891602e+00,5.674402236938476562e+00,-1.133509993553161621e+00
1.735039353370666504e+00,7.324995517730712891e+00,-1.192265033721923828e+00
2.410689592361450195e+00,1.017745780944824219e+01,-1.284209966659545898e+00
3.712738513946533203e+00,1.567445278167724609e+01,-1.409279465675354004e+00
3.717322587966918945e+00,1.569380664825439453e+01,-8.452340960502624512e-01
3.721855401992797852e+00,1.571294307708740234e+01,-2.818590402603149414e-01
3.726346731185913086e+00,1.573190402984619141e+01,2.821991741657257080e-01
3.731084585189819336e+00,1.575190639495849609e+01,8.483632206916809082e-01
8.624336123466491699e-01,3.888336658477783203e+00,-1.067195057868957520e+00
1.029148221015930176e+00,4.639979839324951172e+00,-1.097255349159240723e+00
1.255652785301208496e+00,5.661190032958984375e+00,-1.127165079116821289e+00
1.624408125877380371e+00,7.323747158050537109e+00,-1.188155770301818848e+00
2.265674829483032227e+00,1.021493911743164062e+01,-1.284715771675109863e+00
3.529266357421875000e+00,1.591192150115966797e+01,-1.425942182540893555e+00
3.533507108688354492e+00,1.593104171752929688e+01,-8.551995158195495605e-01
3.537815093994140625e+00,1.595046329498291016e+01,-2.851821184158325195e-01
3.542201280593872070e+00,1.597023963928222656e+01,2.855356931686401367e-01
3.546556711196899414e+00,1.598987579345703125e+01,8.583577871322631836e-01
8.094557523727416992e-01,3.913627386093139648e+00,-1.070846796035766602e+00
9.628584384918212891e-01,4.655312061309814453e+00,-1.097509503364562988e+00
1.178024649620056152e+00,5.695616722106933594e+00,-1.130546450614929199e+00
1.515646934509277344e+00,7.327982425689697266e+00,-1.185201883316040039e+00
2.122340917587280273e+00,1.026127910614013672e+01,-1.286591529846191406e+00
3.339611530303955078e+00,1.614664649963378906e+01,-1.442545533180236816e+00
3.343667268753051758e+00,1.616625404357910156e+01,-8.651683330535888672e-01
