6.213396787643432617e-01,5.966338157653808594e+00,-9.500842094421386719e-01
6.221141815185546875e-01,5.973775386810302734e+00,-7.374529838562011719e-01
6.229349374771118164e-01,5.981656074523925781e+00,-5.261564850807189941e-01
6.237003803253173828e-01,5.989006042480468750e+00,-3.155674636363983154e-01
6.244781017303466797e-01,5.996474266052246094e+00,-1.052347496151924133e-01
6.252720355987548828e-01,6.004097938537597656e+00,1.053685396909713745e-01
6.260150671005249023e-01,6.011232852935791016e+00,3.167386054992675781e-01
6.268147826194763184e-01,6.018911838531494141e+00,5.294335484504699707e-01
6.276050806045532227e-01,6.026500701904296875e+00,7.439618706703186035e-01
6.285200119018554688e-01,6.035285949707031250e+00,9.610634446144104004e-01
6.292275786399841309e-01,6.042080879211425781e+00,1.180811285972595215e+00
6.300366520881652832e-01,6.049849987030029297e+00,1.404269218444824219e+00
3.591147363185882568e-01,4.003788948059082031e+00,-1.077117085456848145e+00
4.262566268444061279e-01,4.752357482910156250e+00,-1.101570963859558105e+00
5.238860845565795898e-01,5.840833663940429688e+00,-1.139899134635925293e+00
5.300064086914062500e-01,5.909069538116455078e+00,-9.396603703498840332e-01
5.307152271270751953e-01,5.916972160339355469e+00,-7.294282913208007812e-01
5.313507914543151855e-01,5.924057960510253906e+00,-5.203677415847778320e-01
5.320277810096740723e-01,5.931605815887451172e+00,-3.121097683906555176e-01
5.326912403106689453e-01,5.939002990722656250e+00,-1.040816828608512878e-01
5.333433151245117188e-01,5.946272850036621094e+00,1.042090952396392822e-01
5.340429544448852539e-01,5.954073429107666016e+00,3.132919669151306152e-01
5.346756577491760254e-01,5.961126804351806641e+00,5.236238837242126465e-01
5.353787541389465332e-01,5.968965530395507812e+00,7.358378767967224121e-01
5.360630154609680176e-01,5.976594924926757812e+00,9.503982663154602051e-01
5.366983413696289062e-01,5.983678340911865234e+00,1.167776703834533691e+00
5.374341011047363281e-01,5.991881370544433594e+00,1.388885974884033203e+00
3.007920682430267334e-01,3.995452165603637695e+00,-1.073606014251708984e+00
3.574003875255584717e-01,4.747386932373046875e+00,-1.099120497703552246e+00
4.399508833885192871e-01,5.843913555145263672e+00,-1.139154434204101562e+00
4.409054219722747803e-01,5.856592655181884766e+00,-9.302166700363159180e-01
4.414855539798736572e-01,5.864298820495605469e+00,-7.220818400382995605e-01
4.420465230941772461e-01,5.871750354766845703e+00,-5.151644945144653320e-01
4.425997436046600342e-01,5.879098415374755859e+00,-3.089819252490997314e-01
4.431519210338592529e-01,5.886433124542236328e+00,-1.030386760830879211e-01
4.437040388584136963e-01,5.893766880035400391e+00,1.031670495867729187e-01
4.442527592182159424e-01,5.901055812835693359e+00,3.101359009742736816e-01
4.447885751724243164e-01,5.908173084259033203e+00,5.183601379394531250e-01
4.453935325145721436e-01,5.916208744049072266e+00,7.284736037254333496e-01
4.459933042526245117e-01,5.924175739288330078e+00,9.409509897232055664e-01
4.465618431568145752e-01,5.931727409362792969e+00,1.156272053718566895e+00
4.470681250095367432e-01,5.938452720642089844e+00,1.374877333641052246e+00
2.442279905080795288e-01,4.010014533996582031e+00,-1.076469421386718750e+00
2.908454835414886475e-01,4.775433540344238281e+00,-1.104536890983581543e+00
3.530843853950500488e-01,5.797343254089355469e+00,-1.128975749015808105e+00
3.535470068454742432e-01,5.804938793182373047e+00,-9.211142659187316895e-01
3.539885878562927246e-01,5.812189102172851562e+00,-7.149683833122253418e-01
3.544217944145202637e-01,5.819302082061767578e+00,-5.100656151771545410e-01
3.548572957515716553e-01,5.826452732086181641e+00,-3.059168159961700439e-01
3.552999198436737061e-01,5.833720207214355469e+00,-1.020165011286735535e-01
3.557508885860443115e-01,5.841124534606933594e+00,1.021459847688674927e-01
3.562070429325103760e-01,5.848614692687988281e+00,3.070804178714752197e-01
3.566609621047973633e-01,5.856067180633544922e+00,5.132880806922912598e-01
3.571006357669830322e-01,5.863286495208740234e+00,7.212539911270141602e-01
3.575104773044586182e-01,5.870015621185302734e+00,9.314404726028442383e-01
3.579817712306976318e-01,5.877753734588623047e+00,1.144634962081909180e+00
3.585385382175445557e-01,5.886895656585693359e+00,1.361613273620605469e+00
1.862606704235076904e-01,4.001262187957763672e+00,-1.073294281959533691e+00
2.220540791749954224e-01,4.770178318023681641e+00,-1.102473378181457520e+00
2.674294710159301758e-01,5.744935035705566406e+00,-1.117909789085388184e+00
2.677686512470245361e-01,5.752221584320068359e+00,-9.120476245880126953e-01
2.680977284908294678e-01,5.759290695190429688e+00,-7.079166769981384277e-01
2.684270143508911133e-01,5.766364574432373047e+00,-5.050370693206787109e-01
2.687702178955078125e-01,5.773737430572509766e+00,-3.029159903526306152e-01
2.691055238246917725e-01,5.780940532684326172e+00,-1.010158136487007141e-01
2.694329023361206055e-01,5.787972927093505859e+00,1.011386960744857788e-01
2.697774469852447510e-01,5.795374393463134766e+00,3.040511310100555420e-01
2.701261937618255615e-01,5.802866458892822266e+00,5.082340240478515625e-01
2.704706192016601562e-01,5.810265541076660156e+00,7.141823768615722656e-01
2.707982063293457031e-01,5.817302703857421875e+00,9.223666191101074219e-01
2.711789906024932861e-01,5.825482368469238281e+00,1.133583545684814453e+00
2.715339064598083496e-01,5.833106994628906250e+00,1.348135113716125488e+00
1.293762624263763428e-01,4.015956878662109375e+00,-1.076628923416137695e+00
1.534995287656784058e-01,4.764764785766601562e+00,-1.100601673126220703e+00
1.833869665861129761e-01,5.692498207092285156e+00,-1.107081890106201172e+00
1.836119890213012695e-01,5.699483394622802734e+00,-9.031764268875122070e-01
1.838343888521194458e-01,5.706386566162109375e+00,-7.010186314582824707e-01
1.840745657682418823e-01,5.713841915130615234e+00,-5.001549720764160156e-01
1.843059808015823364e-01,5.721024990081787109e+00,-2.999813258647918701e-01
1.845358759164810181e-01,5.728161334991455078e+00,-1.000371500849723816e-01
1.847643703222274780e-01,5.735253810882568359e+00,1.001610159873962402e-01
1.849857717752456665e-01,5.742126464843750000e+00,3.010877668857574463e-01
1.852282881736755371e-01,5.749654769897460938e+00,5.032898187637329102e-01
1.854719072580337524e-01,5.757216930389404297e+00,7.072629928588867188e-01
1.857081353664398193e-01,5.764549255371093750e+00,9.134871959686279297e-01
1.859263926744461060e-01,5.771324634552001953e+00,1.122412085533142090e+00
1.861813813447952271e-01,5.779239654541015625e+00,1.334932684898376465e+00
7.169972360134124756e-02,4.006949901580810547e+00,-1.073829174041748047e+00
8.516113460063934326e-02,4.759243011474609375e+00,-1.098932027816772461e+00
1.009229049086570740e-01,5.640091896057128906e+00,-1.096496701240539551e+00
1.010428816080093384e-01,5.646797180175781250e+00,-8.945066332817077637e-01
1.011761501431465149e-01,5.654244899749755859e+00,-6.943640708923339844e-01
1.013039350509643555e-01,5.661386013031005859e+00,-4.953856468200683594e-01
1.014290526509284973e-01,5.668378353118896484e+00,-2.971142232418060303e-01
1.015555486083030701e-01,5.675447463989257812e+00,-9.908101707696914673e-02
1.016835570335388184e-01,5.682601451873779297e+00,9.920590370893478394e-02
1.018098071217536926e-01,5.689656734466552734e+00,2.982295751571655273e-01
1.019320413470268250e-01,5.696487903594970703e+00,4.984571635723114014e-01
1.020701229572296143e-01,5.704204559326171875e+00,7.004992961883544922e-01
1.022063568234443665e-01,5.711818218231201172e+00,9.048065543174743652e-01
1.023348122835159302e-01,5.718996524810791016e+00,1.111836552619934082e+00
1.024486199021339417e-01,5.725356578826904297e+00,1.322012305259704590e+00
1.432006713002920151e-02,4.000618934631347656e+00,-1.071967840194702148e+00
1.702753454446792603e-02,4.757008552551269531e+00,-1.098247289657592773e+00
2.001659013330936432e-02,5.592065334320068359e+00,-1.086992621421813965e+00
2.004330419003963470e-02,5.599528789520263672e+00,-8.868825435638427734e-01
2.006602101027965546e-02,5.605875015258789062e+00,-6.883183121681213379e-01
2.009159326553344727e-02,5.613019466400146484e+00,-4.910779893398284912e-01
2.011700905859470367e-02,5.620119571685791016e+00,-2.945394217967987061e-01
2.014205977320671082e-02,5.627118110656738281e+00,-9.822219610214233398e-02
2.016683481633663177e-02,5.634039402008056641e+00,9.834301471710205078e-02
2.019165456295013428e-02,5.640973091125488281e+00,2.956323325634002686e-01
2.021969296038150787e-02,5.648806571960449219e+00,4.942089617252349854e-01
2.024408429861068726e-02,5.655620574951171875e+00,6.944262981414794922e-01
2.027212269604206085e-02,5.663454055786132812e+00,8.970073461532592773e-01
2.029901184141635895e-02,5.670966148376464844e+00,1.102329492568969727e+00
2.032335288822650909e-02,5.677766323089599609e+00,1.310822010040283203e+00
-4.310147464275360107e-02,4.015622615814208984e+00,-1.076043128967285156e+00
-5.137266591191291809e-02,4.786222457885742188e+00,-1.105048418045043945e+00
-5.946135148406028748e-02,5.539818286895751953e+00,-1.076892018318176270e+00
-5.953861773014068604e-02,5.547017097473144531e+00,-8.786104917526245117e-01
-5.961281061172485352e-02,5.553929328918457031e+00,-6.819750666618347168e-01
-5.968621745705604553e-02,5.560768604278564453e+00,-4.865314960479736328e-01
-5.976048856973648071e-02,5.567688465118408203e+00,-2.918065488338470459e-01
-5.983489379286766052e-02,5.574620246887207031e+00,-9.731081873178482056e-02
-5.990975350141525269e-02,5.581594944000244141e+00,9.743256866931915283e-02
-5.998602136969566345e-02,5.588700294494628906e+00,2.929078042507171631e-01
-6.006243824958801270e-02,5.595819950103759766e+00,4.895982742309570312e-01
-6.013698503375053406e-02,5.602765083312988281e+00,6.879716515541076660e-01
-6.020704284310340881e-02,5.609292030334472656e+00,8.884744644165039062e-01
-6.028877943754196167e-02,5.616907119750976562e+00,1.091877341270446777e+00
-6.036424264311790466e-02,5.623937606811523438e+00,1.298461198806762695e+00
-1.004322096705436707e-01,4.009148597717285156e+00,-1.074583530426025391e+00
-1.198448911309242249e-01,4.784082889556884766e+00,-1.104837298393249512e+00
-1.375751197338104248e-01,5.491854667663574219e+00,-1.067841649055480957e+00
-1.377503275871276855e-01,5.498848915100097656e+00,-8.712040185928344727e-01
-1.379210948944091797e-01,5.505665779113769531e+00,-6.762217879295349121e-01
-1.381031870841979980e-01,5.512934684753417969e+00,-4.824698865413665771e-01
-1.382724046707153320e-01,5.519690036773681641e+00,-2.893650233745574951e-01
-1.384444981813430786e-01,5.526559352874755859e+00,-9.649657458066940308e-02
-1.386204510927200317e-01,5.533583164215087891e+00,9.661921113729476929e-02
-1.387841999530792236e-01,5.540120124816894531e+00,2.904360294342041016e-01
-1.389618664979934692e-01,5.547212600708007812e+00,4.854697585105895996e-01
-1.391380131244659424e-01,5.554244041442871094e+00,6.821883916854858398e-01
-1.393063217401504517e-01,5.560963153839111328e+00,8.810449838638305664e-01
-1.395046114921569824e-01,5.568878173828125000e+00,1.082818269729614258e+00
-1.396908611059188843e-01,5.576313018798828125e+00,1.287795186042785645e+00
-1.576148122549057007e-01,4.002576828002929688e+00,-1.073316812515258789e+00
-1.883038878440856934e-01,4.781915664672851562e+00,-1.104846119880676270e+00
-2.143738120794296265e-01,5.443953037261962891e+00,-1.059015750885009766e+00
-2.146802842617034912e-01,5.451735973358154297e+00,-8.641380667686462402e-01
-2.149342000484466553e-01,5.458183765411376953e+00,-6.706991195678710938e-01
-2.152100652456283569e-01,5.465189456939697266e+00,-4.785119891166687012e-01
-2.154694795608520508e-01,5.471776962280273438e+00,-2.869855165481567383e-01
-2.157377749681472778e-01,5.478590488433837891e+00,-9.570312500000000000e-02
-2.160159945487976074e-01,5.485655784606933594e+00,9.582655131816864014e-02
-2.162792086601257324e-01,5.492340087890625000e+00,2.880640029907226562e-01
-2.165685147047042847e-01,5.499686717987060547e+00,4.815324544906616211e-01
-2.168086618185043335e-01,5.505784988403320312e+00,6.765483617782592773e-01
-2.170803248882293701e-01,5.512683868408203125e+00,8.737987279891967773e-01
-2.174030840396881104e-01,5.520880222320556641e+00,1.073980450630187988e+00
-2.177111059427261353e-01,5.528702735900878906e+00,1.277388811111450195e+00
-2.148088663816452026e-01,3.998521327972412109e+00,-1.072943806648254395e+00
-2.569469809532165527e-01,4.782893657684326172e+00,-1.105808615684509277e+00
-2.901674211025238037e-01,5.401269912719726562e+00,-1.051412820816040039e+00
-2.905102968215942383e-01,5.407652378082275391e+00,-8.577217459678649902e-01
-2.908919155597686768e-01,5.414755344390869141e+00,-6.658061146736145020e-01
-2.912328243255615234e-01,5.421101093292236328e+00,-4.749681055545806885e-01
-2.916015684604644775e-01,5.427965164184570312e+00,-2.848773896694183350e-01
-2.919645905494689941e-01,5.434722423553466797e+00,-9.500008821487426758e-02
-2.923229634761810303e-01,5.441393375396728516e+00,9.511669725179672241e-02
-2.927123010158538818e-01,5.448640823364257812e+00,2.859624922275543213e-01
-2.930647134780883789e-01,5.455200672149658203e+00,4.779556989669799805e-01
-2.934630811214447021e-01,5.462615966796875000e+00,6.716910600662231445e-01
-2.937715649604797363e-01,5.468358516693115234e+00,8.673505187034606934e-01
-2.942235469818115234e-01,5.476771831512451172e+00,1.066110014915466309e+00
-2.945486307144165039e-01,5.482822895050048828e+00,1.267632842063903809e+00
-2.717927098274230957e-01,3.991792201995849609e+00,-1.072072267532348633e+00
-3.230625092983245850e-01,4.744786262512207031e+00,-1.097954750061035156e+00
-3.645099997520446777e-01,5.353521823883056641e+00,-1.043026924133300781e+00
-3.649331629276275635e-01,5.359736442565917969e+00,-8.508630394935607910e-01
-3.654115796089172363e-01,5.366763114929199219e+00,-6.604803204536437988e-01
-3.658743798732757568e-01,5.373560428619384766e+00,-4.712133705615997314e-01
-3.663309812545776367e-01,5.380266189575195312e+00,-2.826202213764190674e-01
-3.667871057987213135e-01,5.386965274810791016e+00,-9.424739331007003784e-02
-3.672438859939575195e-01,5.393673896789550781e+00,9.436476230621337891e-02
-3.676975667476654053e-01,5.400336742401123047e+00,2.836745083332061768e-01
-3.681412637233734131e-01,5.406853675842285156e+00,4.741328954696655273e-01
-3.686493933200836182e-01,5.414316177368164062e+00,6.663326621055603027e-01
-3.691563606262207031e-01,5.421761989593505859e+00,8.607096672058105469e-01
-3.696405589580535889e-01,5.428873538970947266e+00,1.057707786560058594e+00
-3.700763583183288574e-01,5.435274124145507812e+00,1.257735252380371094e+00
-3.288980424404144287e-01,3.987525701522827148e+00,-1.072080969810485840e+00
-3.914088010787963867e-01,4.745399475097656250e+00,-1.099280476570129395e+00
-4.379464685916900635e-01,5.309617519378662109e+00,-1.035588383674621582e+00
-4.385294914245605469e-01,5.316685676574707031e+00,-8.449385762214660645e-01
-4.390836656093597412e-01,5.323404788970947266e+00,-6.558505296707153320e-01
-4.396254420280456543e-01,5.329973220825195312e+00,-4.678950607776641846e-01
-4.401673972606658936e-01,5.336543560028076172e+00,-2.806257307529449463e-01
-4.407151341438293457e-01,5.343184471130371094e+00,-9.358221292495727539e-02
-4.412710666656494141e-01,5.349924564361572266e+00,9.370025992393493652e-02
-4.418306946754455566e-01,5.356709480285644531e+00,2.816861569881439209e-01
-4.423844814300537109e-01,5.363423347473144531e+00,4.708314836025238037e-01
-4.429186284542083740e-01,5.369899272918701172e+00,6.615787744522094727e-01
-4.435408711433410645e-01,5.377443313598632812e+00,8.545942902565002441e-01
-4.441428780555725098e-01,5.384741783142089844e+00,1.050240635871887207e+00
-4.446936547756195068e-01,5.391419887542724609e+00,1.248932242393493652e+00
-3.857754170894622803e-01,3.980775594711303711e+00,-1.071640968322753906e+00
-4.596517384052276611e-01,4.743097782135009766e+00,-1.100158691406250000e+00
-5.099593400955200195e-01,5.262216091156005859e+00,-1.027661561965942383e+00
-5.106296539306640625e-01,5.269133567810058594e+00,-8.384571671485900879e-01
-5.112752318382263184e-01,5.275794982910156250e+00,-6.508199572563171387e-01
-5.119566321372985840e-01,5.282826423645019531e+00,-4.643519818782806396e-01
-5.125780701637268066e-01,5.289238452911376953e+00,-2.784954309463500977e-01
-5.132164955139160156e-01,5.295826911926269531e+00,-9.287191927433013916e-02
-5.138728618621826172e-01,5.302599430084228516e+00,9.299068897962570190e-02
-5.144727826118469238e-01,5.308790206909179688e+00,2.795248925685882568e-01
-5.151172280311584473e-01,5.315439701080322266e+00,4.672186374664306641e-01
-5.157476067543029785e-01,5.321945190429687500e+00,6.565129756927490234e-01
-5.164903998374938965e-01,5.329609870910644531e+00,8.480805754661560059e-01
-5.172187089920043945e-01,5.337124824523925781e+00,1.042290568351745605e+00
-5.178959369659423828e-01,5.344113349914550781e+00,1.239563822746276855e+00
-4.428840279579162598e-01,3.976420402526855469e+00,-1.072065234184265137e+00
-5.283517241477966309e-01,4.743789672851562500e+00,-1.101960420608520508e+00
-5.813637375831604004e-01,5.219756126403808594e+00,-1.020889997482299805e+00
-5.820928812026977539e-01,5.226303100585937500e+00,-8.328821659088134766e-01
-5.828021764755249023e-01,5.232671260833740234e+00,-6.464630365371704102e-01
-5.835142731666564941e-01,5.239064693450927734e+00,-4.611922800540924072e-01
-5.842605233192443848e-01,5.245765209197998047e+00,-2.766184210777282715e-01
-5.849881172180175781e-01,5.252297878265380859e+00,-9.224595129489898682e-02
-5.856970548629760742e-01,5.258662700653076172e+00,9.235773980617523193e-02
-5.864466428756713867e-01,5.265393257141113281e+00,2.776534259319305420e-01
-5.872086882591247559e-01,5.272234916687011719e+00,4.641122221946716309e-01
-5.879628658294677734e-01,5.279006481170654297e+00,6.521874070167541504e-01
-5.886828303337097168e-01,5.285470485687255859e+00,8.423113226890563965e-01
-5.895369648933410645e-01,5.293139457702636719e+00,1.035242557525634766e+00
-5.903416872024536133e-01,5.300364494323730469e+00,1.231250166893005371e+00
-5.000464320182800293e-01,3.972035884857177734e+00,-1.072702884674072266e+00
-5.972981452941894531e-01,4.744538784027099609e+00,-1.104007363319396973e+00
-6.516348719596862793e-01,5.176153659820556641e+00,-1.014082431793212891e+00
-6.524478197097778320e-01,5.182610988616943359e+00,-8.273227810859680176e-01
-6.533357501029968262e-01,5.189664363861083984e+00,-6.422393321990966797e-01
-6.541146636009216309e-01,5.195851325988769531e+00,-4.581654965877532959e-01
-6.549417972564697266e-01,5.202421665191650391e+00,-2.747990190982818604e-01
-6.557568907737731934e-01,5.208896160125732422e+00,-9.163914620876312256e-02
-6.565613746643066406e-01,5.215286731719970703e+00,9.175157546997070312e-02
-6.574218869209289551e-01,5.222121715545654297e+00,2.758395969867706299e-01
-6.581799983978271484e-01,5.228143692016601562e+00,4.610130190849304199e-01
-6.590297222137451172e-01,5.234893321990966797e+00,6.478366255760192871e-01
-6.598517894744873047e-01,5.241423130035400391e+00,8.367112278938293457e-01
-6.608344912528991699e-01,5.249229431152343750e+00,1.028399109840393066e+00
-6.615126132965087891e-01,5.254615783691406250e+00,1.222697138786315918e+00
-5.572881102561950684e-01,3.967641592025756836e+00,-1.073560357093811035e+00
-6.613562703132629395e-01,4.708560466766357422e+00,-1.097725749015808105e+00
-7.211030125617980957e-01,5.133930683135986328e+00,-1.007729291915893555e+00
-7.219607234001159668e-01,5.140036582946777344e+00,-8.220919370651245117e-01
-7.228150367736816406e-01,5.146119117736816406e+00,-6.380654573440551758e-01
-7.237529754638671875e-01,5.152796745300292969e+00,-4.552358388900756836e-01
-7.246573567390441895e-01,5.159235954284667969e+00,-2.730377912521362305e-01
-7.255597114562988281e-01,5.165659904479980469e+00,-9.105188399553298950e-02
-7.264603376388549805e-01,5.172071933746337891e+00,9.116490185260772705e-02
-7.273335456848144531e-01,5.178288936614990234e+00,2.740461230278015137e-01
-7.283037900924682617e-01,5.185196399688720703e+00,4.580982625484466553e-01
-7.292864918708801270e-01,5.192193031311035156e+00,6.437781453132629395e-01
-7.302473783493041992e-01,5.199034214019775391e+00,8.315278887748718262e-01
-7.311455011367797852e-01,5.205428600311279297e+00,1.021763443946838379e+00
-7.319310307502746582e-01,5.211020946502685547e+00,1.214866399765014648e+00
-6.149682402610778809e-01,3.965399980545043945e+00,-1.075225472450256348e+00
-7.307194471359252930e-01,4.711780071258544922e+00,-1.100802063941955566e+00
-7.899500131607055664e-01,5.093707084655761719e+00,-1.001950621604919434e+00
-7.908913493156433105e-01,5.099776744842529297e+00,-8.173795938491821289e-01
-7.919467687606811523e-01,5.106582164764404297e+00,-6.345037817955017090e-01
-7.929549813270568848e-01,5.113083362579345703e+00,-4.526836276054382324e-01
-7.939361333847045898e-01,5.119410037994384766e+00,-2.715037167072296143e-01
-7.949244379997253418e-01,5.125782489776611328e+00,-9.054026752710342407e-02
-7.959208488464355469e-01,5.132207870483398438e+00,9.065376222133636475e-02
-7.968977093696594238e-01,5.138506412506103516e+00,2.725164890289306641e-01
-7.978385686874389648e-01,5.144573211669921875e+00,4.554715752601623535e-01
-7.989125251770019531e-01,5.151498317718505859e+00,6.400847434997558594e-01
-7.999742031097412109e-01,5.158343791961669922e+00,8.267666101455688477e-01
-8.009774088859558105e-01,5.164813041687011719e+00,1.015937447547912598e+00
-8.018665313720703125e-01,5.170546054840087891e+00,1.207982540130615234e+00
-6.724734306335449219e-01,3.960995435714721680e+00,-1.076530814170837402e+00
-8.000585436820983887e-01,4.712495803833007812e+00,-1.103531599044799805e+00
-8.574427962303161621e-01,5.050499916076660156e+00,-9.957637786865234375e-01
-8.586270809173583984e-01,5.057475566864013672e+00,-8.124862909317016602e-01
-8.597382903099060059e-01,5.064020633697509766e+00,-6.306798458099365234e-01
-8.608093261718750000e-01,5.070329189300537109e+00,-4.499431848526000977e-01
-8.618621826171875000e-01,5.076530933380126953e+00,-2.698562741279602051e-01
-8.629352450370788574e-01,5.082851409912109375e+00,-8.999089896678924561e-02
-8.640288710594177246e-01,5.089293479919433594e+00,9.010495245456695557e-02
-8.651129603385925293e-01,5.095678806304931641e+00,2.708741128444671631e-01
-8.661688566207885742e-01,5.101897716522216797e+00,4.527445733547210693e-01
-8.671693205833435059e-01,5.107790946960449219e+00,6.361310482025146484e-01
-8.683350682258605957e-01,5.114657402038574219e+00,8.216725587844848633e-01
-8.694489598274230957e-01,5.121218681335449219e+00,1.009706854820251465e+00
-8.707972764968872070e-01,5.129160404205322266e+00,1.201102495193481445e+00
-7.301452755928039551e-01,3.956660509109497070e+00,-1.078082680702209473e+00
-8.629297614097595215e-01,4.676220417022705078e+00,-1.097816824913024902e+00
-9.242939352989196777e-01,5.008752822875976562e+00,-9.900399446487426758e-01
-9.255231022834777832e-01,5.015413761138916016e+00,-8.077744841575622559e-01
-9.265567064285278320e-01,5.021014690399169922e+00,-6.269113421440124512e-01
-9.277375340461730957e-01,5.027413845062255859e+00,-4.472674429416656494e-01
-9.289117455482482910e-01,5.033777236938476562e+00,-2.682628929615020752e-01
-9.300658106803894043e-01,5.040030956268310547e+00,-8.945930749177932739e-02
-9.312053918838500977e-01,5.046205997467041016e+00,8.956891298294067383e-02
-9.323468208312988281e-01,5.052391529083251953e+00,2.692548930644989014e-01
-9.336524009704589844e-01,5.059466361999511719e+00,4.501190185546875000e-01
-9.347786903381347656e-01,5.065569877624511719e+00,6.324743628501892090e-01
-9.360967278480529785e-01,5.072712421417236328e+00,8.170028924942016602e-01
-9.370410442352294922e-01,5.077829360961914062e+00,1.003693699836730957e+00
-9.385325312614440918e-01,5.085912227630615234e+00,1.193998456001281738e+00
-7.832062244415283203e-01,3.928290843963623047e+00,-1.073297262191772461e+00
-9.329399466514587402e-01,4.679303169250488281e+00,-1.101562738418579102e+00
-9.906508326530456543e-01,4.968761444091796875e+00,-9.848369956016540527e-01
-9.919763207435607910e-01,4.975409507751464844e+00,-8.035359382629394531e-01
-9.932415485382080078e-01,4.981755256652832031e+00,-6.237206459045410156e-01
-9.944840669631958008e-01,4.987987518310546875e+00,-4.449806213378906250e-01
-9.957310557365417480e-01,4.994241714477539062e+00,-2.668881416320800781e-01
-9.969690442085266113e-01,5.000451087951660156e+00,-8.900094777345657349e-02
-9.982014894485473633e-01,5.006632804870605469e+00,8.911097049713134766e-02
-9.994478821754455566e-01,5.012884140014648438e+00,2.678843736648559570e-01
-1.000687003135681152e+00,5.019099235534667969e+00,4.477561414241790771e-01
-1.001885890960693359e+00,5.025112628936767578e+00,6.291490197181701660e-01
-1.003302812576293945e+00,5.032219409942626953e+00,8.127107620239257812e-01
-1.004683732986450195e+00,5.039144992828369141e+00,9.987874627113342285e-01
-1.005957961082458496e+00,5.045536518096923828e+00,1.187778353691101074e+00
-8.412924408912658691e-01,3.925754070281982422e+00,-1.075784087181091309e+00
-1.003453612327575684e+00,4.682453155517578125e+00,-1.105572223663330078e+00
-1.056512594223022461e+00,4.930043697357177734e+00,-9.800599217414855957e-01
-1.057879686355590820e+00,4.936423778533935547e+00,-7.996031641960144043e-01
-1.059194087982177734e+00,4.942556858062744141e+00,-6.206474900245666504e-01
-1.060495495796203613e+00,4.948629856109619141e+00,-4.427783191204071045e-01
-1.061814069747924805e+00,4.954782485961914062e+00,-2.655644416809082031e-01
-1.063133358955383301e+00,4.960938453674316406e+00,-8.855944871902465820e-02
-1.064460039138793945e+00,4.967129707336425781e+00,8.866997063159942627e-02
-1.065812826156616211e+00,4.973442077636718750e+00,2.665645778179168701e-01
-1.067169189453125000e+00,4.979771614074707031e+00,4.455647170543670654e-01
-1.068494439125061035e+00,4.985955238342285156e+00,6.260971426963806152e-01
-1.069740772247314453e+00,4.991771221160888672e+00,8.085683584213256836e-01
-1.071227550506591797e+00,4.998708724975585938e+00,9.937101006507873535e-01
-1.072613239288330078e+00,5.005175113677978516e+00,1.181769967079162598e+00
-8.992555141448974609e-01,3.921439409255981445e+00,-1.078018546104431152e+00
-1.065407991409301758e+00,4.645990848541259766e+00,-1.100450992584228516e+00
-1.121110558509826660e+00,4.888896465301513672e+00,-9.749702215194702148e-01
-1.122290492057800293e+00,4.894042015075683594e+00,-7.952587604522705078e-01
-1.123863339424133301e+00,4.900900840759277344e+00,-6.173734068870544434e-01
-1.125217556953430176e+00,4.906805992126464844e+00,-4.404321014881134033e-01
-1.126602411270141602e+00,4.912845134735107422e+00,-2.641539573669433594e-01
-1.128002882003784180e+00,4.918952465057373047e+00,-8.808913826942443848e-02
-1.129423379898071289e+00,4.925146579742431641e+00,8.820006996393203735e-02
-1.130886077880859375e+00,4.931525230407714844e+00,2.651583552360534668e-01
-1.132142782211303711e+00,4.937005519866943359e+00,4.431428015232086182e-01
-1.133824467658996582e+00,4.944338798522949219e+00,6.228454113006591797e-01
-1.135212182998657227e+00,4.950390338897705078e+00,8.044151663780212402e-01
-1.136465072631835938e+00,4.955853939056396484e+00,9.883232712745666504e-01
-1.137968778610229492e+00,4.962411403656005859e+00,1.175398468971252441e+00
-9.515252709388732910e-01,3.892777919769287109e+00,-1.073773384094238281e+00
-1.136386632919311523e+00,4.649062633514404297e+00,-1.104918122291564941e+00
-1.185314536094665527e+00,4.849231719970703125e+00,-9.703441262245178223e-01
-1.186810016632080078e+00,4.855350017547607422e+00,-7.916507720947265625e-01
-1.188271999359130859e+00,4.861330986022949219e+00,-6.144683957099914551e-01
-1.189845800399780273e+00,4.867769718170166016e+00,-4.384119510650634766e-01
-1.191298365592956543e+00,4.873712062835693359e+00,-2.629397213459014893e-01
-1.192778825759887695e+00,4.879768848419189453e+00,-8.768419176340103149e-02
-1.194293379783630371e+00,4.885964870452880859e+00,8.779553323984146118e-02
-1.195694327354431152e+00,4.891695976257324219e+00,2.639099955558776855e-01
-1.197229027748107910e+00,4.897974967956542969e+00,4.411323666572570801e-01
-1.198754668235778809e+00,4.904216289520263672e+00,6.198890805244445801e-01
-1.200217723846435547e+00,4.910202026367187500e+00,8.005942702293395996e-01
-1.201979875564575195e+00,4.917410850524902344e+00,9.839870333671569824e-01
-1.203652858734130859e+00,4.924255371093750000e+00,1.170321702957153320e+00
-1.010092616081237793e+00,3.890127658843994141e+00,-1.076920151710510254e+00
-1.198213458061218262e+00,4.614629745483398438e+00,-1.100697875022888184e+00
-1.249174118041992188e+00,4.810892105102539062e+00,-9.661511778831481934e-01
-1.250702023506164551e+00,4.816776752471923828e+00,-7.881996035575866699e-01
-1.252205371856689453e+00,4.822566509246826172e+00,-6.117714047431945801e-01
-1.253840208053588867e+00,4.828862667083740234e+00,-4.364795088768005371e-01
-1.255358338356018066e+00,4.834709167480468750e+00,-2.617781162261962891e-01
-1.256918907165527344e+00,4.840719699859619141e+00,-8.729685842990875244e-02
-1.258526921272277832e+00,4.846912384033203125e+00,8.740853518247604370e-02
-1.260027408599853516e+00,4.852690696716308594e+00,2.627517282962799072e-01
-1.261681079864501953e+00,4.859059810638427734e+00,4.392090141773223877e-01
-1.263338088989257812e+00,4.865441322326660156e+00,6.172103881835937500e-01
-1.264940619468688965e+00,4.871613025665283203e+00,7.971728444099426270e-01
-1.266416311264038086e+00,4.877295970916748047e+00,9.794868230819702148e-01
-1.268198847770690918e+00,4.884161472320556641e+00,1.164987564086914062e+00
-1.061836719512939453e+00,3.861352443695068359e+00,-1.073051691055297852e+00
-1.269799470901489258e+00,4.617606163024902344e+00,-1.105629801750183105e+00
-1.312111496925354004e+00,4.771472930908203125e+00,-9.619079232215881348e-01
-1.313998818397521973e+00,4.778336048126220703e+00,-7.849066257476806641e-01
-1.315541148185729980e+00,4.783944606781005859e+00,-6.091983318328857422e-01
-1.317234635353088379e+00,4.790102958679199219e+00,-4.346357285976409912e-01
-1.318816781044006348e+00,4.795856475830078125e+00,-2.606697976589202881e-01
-1.320455670356750488e+00,4.801815986633300781e+00,-8.692722022533416748e-02
-1.322158932685852051e+00,4.808010101318359375e+00,8.703935146331787109e-02
-1.323758721351623535e+00,4.813827991485595703e+00,2.616465985774993896e-01
-1.325533747673034668e+00,4.820282459259033203e+00,4.373741149902343750e-01
-1.326986432075500488e+00,4.825565338134765625e+00,6.144983768463134766e-01
-1.328658103942871094e+00,4.831644535064697266e+00,7.936632037162780762e-01
-1.330689907073974609e+00,4.839032649993896484e+00,9.755277037620544434e-01
-1.332100391387939453e+00,4.844161987304687500e+00,1.159875869750976562e+00
-1.120715379714965820e+00,3.858580589294433594e+00,-1.076628923416137695e+00
-1.331134319305419922e+00,4.583045482635498047e+00,-1.101803898811340332e+00
-1.374803543090820312e+00,4.733397006988525391e+00,-9.581008553504943848e-01
-1.376461267471313477e+00,4.739104270935058594e+00,-7.816185355186462402e-01
-1.378313183784484863e+00,4.745480537414550781e+00,-6.067503094673156738e-01
-1.379945993423461914e+00,4.751101970672607422e+00,-4.328447878360748291e-01
-1.381708025932312012e+00,4.757168769836425781e+00,-2.596153616905212402e-01
-1.383425593376159668e+00,4.763082027435302734e+00,-8.657561987638473511e-02
-1.385101437568664551e+00,4.768851757049560547e+00,8.668048679828643799e-02
-1.386922478675842285e+00,4.775121688842773438e+00,2.605951130390167236e-01
-1.388541340827941895e+00,4.780695915222167969e+00,4.355408847332000732e-01
-1.390388488769531250e+00,4.787055015563964844e+00,6.120659708976745605e-01
-1.392201423645019531e+00,4.793296813964843750e+00,7.905564904212951660e-01
-1.393899559974670410e+00,4.799143314361572266e+00,9.714088439941406250e-01
-1.395962715148925781e+00,4.806246757507324219e+00,1.155463457107543945e+00
-1.172026753425598145e+00,3.829735994338989258e+00,-1.073151588439941406e+00
-1.403463125228881836e+00,4.585981845855712891e+00,-1.107225775718688965e+00
-1.436970472335815430e+00,4.695471286773681641e+00,-9.544897079467773438e-01
-1.438655018806457520e+00,4.700975418090820312e+00,-7.786464095115661621e-01
-1.440554857254028320e+00,4.707183837890625000e+00,-6.044281721115112305e-01
-1.442236900329589844e+00,4.712679862976074219e+00,-4.311808943748474121e-01
-1.444066882133483887e+00,4.718659400939941406e+00,-2.586152851581573486e-01
-1.445861458778381348e+00,4.724523544311523438e+00,-8.624208718538284302e-02
-1.447624921798706055e+00,4.730286121368408203e+00,8.634728193283081055e-02
-1.449553608894348145e+00,4.736588001251220703e+00,2.595978975296020508e-01
-1.451280832290649414e+00,4.742231845855712891e+00,4.338847100734710693e-01
-1.453260064125061035e+00,4.748699188232421875e+00,6.097589731216430664e-01
-1.454763889312744141e+00,4.753612995147705078e+00,7.873650789260864258e-01
-1.457060217857360840e+00,4.761116981506347656e+00,9.678340554237365723e-01
-1.458697676658630371e+00,4.766467571258544922e+00,1.150801777839660645e+00
-1.231325268745422363e+00,3.826889514923095703e+00,-1.077182292938232422e+00
-1.464422821998596191e+00,4.551343441009521484e+00,-1.103810548782348633e+00
-1.498264193534851074e+00,4.656520366668701172e+00,-9.508337974548339844e-01
-1.500355243682861328e+00,4.663019180297851562e+00,-7.758371233940124512e-01
-1.502087473869323730e+00,4.668403148651123047e+00,-6.021475791931152344e-01
-1.504031181335449219e+00,4.674443721771240234e+00,-4.296082258224487305e-01
-1.505927801132202148e+00,4.680338859558105469e+00,-2.576700150966644287e-01
-1.507799148559570312e+00,4.686154365539550781e+00,-8.592685312032699585e-02
-1.509649634361267090e+00,4.691905498504638672e+00,8.603230863809585571e-02
-1.511466503143310547e+00,4.697552680969238281e+00,2.586176991462707520e-01
-1.513522148132324219e+00,4.703941345214843750e+00,4.323191940784454346e-01
-1.515245199203491211e+00,4.709296226501464844e+00,6.074221730232238770e-01
-1.517259359359741211e+00,4.715556621551513672e+00,7.845783233642578125e-01
-1.519173741340637207e+00,4.721506118774414062e+00,9.641034603118896484e-01
-1.521514058113098145e+00,4.728779792785644531e+00,1.146843075752258301e+00
-1.282301902770996094e+00,3.798011302947998047e+00,-1.074110031127929688e+00
-1.524991273880004883e+00,4.516825675964355469e+00,-1.100620269775390625e+00
-1.559464335441589355e+00,4.618930339813232422e+00,-9.476189613342285156e-01
-1.561595797538757324e+00,4.625243663787841797e+00,-7.731917500495910645e-01
-1.563364028930664062e+00,4.630480766296386719e+00,-6.000810861587524414e-01
-1.565364003181457520e+00,4.636404514312744141e+00,-4.281275570392608643e-01
-1.567326068878173828e+00,4.642216205596923828e+00,-2.567799985408782959e-01
-1.569273948669433594e+00,4.647985458374023438e+00,-8.563006669282913208e-02
-1.571211457252502441e+00,4.653724193572998047e+00,8.573579043149948120e-02
-1.573125362396240234e+00,4.659392833709716797e+00,2.577300965785980225e-01
-1.575300574302673340e+00,4.665835380554199219e+00,4.308452308177947998e-01
-1.577138781547546387e+00,4.671279907226562500e+00,6.053683757781982422e-01
-1.579293489456176758e+00,4.677661895751953125e+00,7.819543480873107910e-01
-1.581353783607482910e+00,4.683764457702636719e+00,9.609202742576599121e-01
-1.583211421966552734e+00,4.689266204833984375e+00,1.142638921737670898e+00
-1.342133522033691406e+00,3.795121908187866211e+00,-1.078615188598632812e+00
-1.598347902297973633e+00,4.519613265991210938e+00,-1.106760859489440918e+00
-1.620240807533264160e+00,4.581519603729248047e+00,-9.446049332618713379e-01
-1.622086524963378906e+00,4.586738586425781250e+00,-7.705572247505187988e-01
-1.624213814735412598e+00,4.592753887176513672e+00,-5.981434583663940430e-01
-1.626269698143005371e+00,4.598567485809326172e+00,-4.267393946647644043e-01
-1.628297567367553711e+00,4.604301452636718750e+00,-2.559457421302795410e-01
-1.630320668220520020e+00,4.610022544860839844e+00,-8.535183966159820557e-02
-1.632345199584960938e+00,4.615746974945068359e+00,8.545783162117004395e-02
-1.634355545043945312e+00,4.621431827545166016e+00,2.568979859352111816e-01
-1.636318802833557129e+00,4.626983165740966797e+00,4.293763041496276855e-01
-1.638604283332824707e+00,4.633445262908935547e+00,6.034429669380187988e-01
-1.640385985374450684e+00,4.638483524322509766e+00,7.792502641677856445e-01
-1.642504692077636719e+00,4.644474506378173828e+00,9.575847983360290527e-01
-1.645111441612243652e+00,4.651845932006835938e+00,1.139141798019409180e+00
-1.393244981765747070e+00,3.767231941223144531e+00,-1.076246142387390137e+00
-1.659167647361755371e+00,4.486267089843750000e+00,-1.104297399520874023e+00
-1.681167721748352051e+00,4.545753955841064453e+00,-9.420956373214721680e-01
-1.683044314384460449e+00,4.550827980041503906e+00,-7.684926986694335938e-01
-1.685222744941711426e+00,4.556718349456787109e+00,-5.965306758880615234e-01
-1.687336802482604980e+00,4.562434673309326172e+00,-4.255839586257934570e-01
-1.689430713653564453e+00,4.568096637725830078e+00,-2.552512288093566895e-01
-1.691530585289001465e+00,4.573774337768554688e+00,-8.512027561664581299e-02
-1.693639993667602539e+00,4.579477787017822266e+00,8.522642403841018677e-02
-1.695745348930358887e+00,4.585170745849609375e+00,2.562052905559539795e-01
-1.697810649871826172e+00,4.590754985809326172e+00,4.282257258892059326e-01
-1.700221300125122070e+00,4.597273349761962891e+00,6.018398404121398926e-01
-1.702116012573242188e+00,4.602396488189697266e+00,7.772009968757629395e-01
-1.704371929168701172e+00,4.608496189117431641e+00,9.550988078117370605e-01
-1.706430196762084961e+00,4.614061832427978516e+00,1.135754108428955078e+00
-1.443719148635864258e+00,3.738361835479736328e+00,-1.073791980743408203e+00
-1.719225168228149414e+00,4.451756000518798828e+00,-1.101746797561645508e+00
-1.740729570388793945e+00,4.507439613342285156e+00,-9.392226338386535645e-01
-1.743079066276550293e+00,4.513523101806640625e+00,-7.663277983665466309e-01
-1.745305299758911133e+00,4.519287586212158203e+00,-5.948399901390075684e-01
-1.747474074363708496e+00,4.524903774261474609e+00,-4.243727624416351318e-01
-1.749632239341735840e+00,4.530491828918457031e+00,-2.545232772827148438e-01
-1.751806259155273438e+00,4.536121368408203125e+00,-8.487749099731445312e-02
-1.754002213478088379e+00,4.541807651519775391e+00,8.498388528823852539e-02
-1.756202936172485352e+00,4.547505855560302734e+00,2.554791271686553955e-01
-1.758372426033020020e+00,4.553123950958251953e+00,4.270194172859191895e-01
-1.760454416275024414e+00,4.558515071868896484e+00,6.000031232833862305e-01
-1.762923955917358398e+00,4.564909458160400391e+00,7.750524282455444336e-01
-1.765321731567382812e+00,4.571118354797363281e+00,9.524914622306823730e-01
-1.767523527145385742e+00,4.576819419860839844e+00,1.132698297500610352e+00
-1.504306077957153320e+00,3.735272169113159180e+00,-1.078978657722473145e+00
-1.779014110565185547e+00,4.417387008666992188e+00,-1.099430322647094727e+00
-1.800397515296936035e+00,4.470482826232910156e+00,-9.367957115173339844e-01
-1.802790045738220215e+00,4.476423740386962891e+00,-7.643317580223083496e-01
-1.805063366889953613e+00,4.482068538665771484e+00,-5.932810306549072266e-01
-1.807286620140075684e+00,4.487588882446289062e+00,-4.232559204101562500e-01
-1.809508919715881348e+00,4.493106842041015625e+00,-2.538520693778991699e-01
-1.811757326126098633e+00,4.498690128326416016e+00,-8.465365320444107056e-02
-1.814038157463073730e+00,4.504353523254394531e+00,8.476022630929946899e-02
-1.816333889961242676e+00,4.510054111480712891e+00,2.548095285892486572e-01
-1.818607211112976074e+00,4.515698432922363281e+00,4.259071350097656250e-01
-1.820798397064208984e+00,4.521139144897460938e+00,5.984526872634887695e-01
-1.823402285575866699e+00,4.527605056762695312e+00,7.730707526206970215e-01
-1.825267791748046875e+00,4.532237052917480469e+00,9.497363567352294922e-01
-1.828283786773681641e+00,4.539726257324218750e+00,1.129878997802734375e+00
-1.555005788803100586e+00,3.707148551940917969e+00,-1.077173829078674316e+00
-1.854319691658020020e+00,4.420715808868408203e+00,-1.106751322746276855e+00
-1.860245823860168457e+00,4.434843540191650391e+00,-9.348113536834716797e-01
-1.862686157226562500e+00,4.440661430358886719e+00,-7.626997232437133789e-01
-1.865010499954223633e+00,4.446202754974365234e+00,-5.920064449310302734e-01
-1.867291212081909180e+00,4.451640129089355469e+00,-4.223428964614868164e-01
-1.869578599929809570e+00,4.457093238830566406e+00,-2.533033192157745361e-01
-1.871901988983154297e+00,4.462632179260253906e+00,-8.447067439556121826e-02
-1.874266624450683594e+00,4.468269348144531250e+00,8.457737416028976440e-02
-1.876655101776123047e+00,4.473963737487792969e+00,2.542620897293090820e-01
-1.879028201103210449e+00,4.479620933532714844e+00,4.249975681304931641e-01
-1.881324768066406250e+00,4.485095977783203125e+00,5.971850156784057617e-01
-1.883461356163024902e+00,4.490190029144287109e+00,7.712063789367675781e-01
-1.886029601097106934e+00,4.496312618255615234e+00,9.477682113647460938e-01
-1.888408064842224121e+00,4.501982688903808594e+00,1.127097010612487793e+00
-1.605196475982666016e+00,3.678311109542846680e+00,-1.075360536575317383e+00
-1.914131402969360352e+00,4.386236190795898438e+00,-1.104865193367004395e+00
-1.919334173202514648e+00,4.398158550262451172e+00,-9.327738285064697266e-01
-1.921818494796752930e+00,4.403851509094238281e+00,-7.610239982604980469e-01
-1.924191355705261230e+00,4.409288406372070312e+00,-5.906980037689208984e-01
-1.926527619361877441e+00,4.414642333984375000e+00,-4.214057922363281250e-01
-1.928879380226135254e+00,4.420031070709228516e+00,-2.527402043342590332e-01
-1.931276321411132812e+00,4.425523757934570312e+00,-8.428288251161575317e-02
-1.933724164962768555e+00,4.431133270263671875e+00,8.438970893621444702e-02
-1.936205744743347168e+00,4.436819553375244141e+00,2.537001669406890869e-01
-1.938679575920104980e+00,4.442488670349121094e+00,4.240639209747314453e-01
-1.941082239151000977e+00,4.447994232177734375e+00,5.958832502365112305e-01
-1.943327903747558594e+00,4.453140258789062500e+00,7.695415616035461426e-01
-1.946027874946594238e+00,4.459327220916748047e+00,9.457466006278991699e-01
-1.948539257049560547e+00,4.465081691741943359e+00,1.124725937843322754e+00
-1.655489683151245117e+00,3.650140285491943359e+00,-1.073942303657531738e+00
-1.974073171615600586e+00,4.352575778961181641e+00,-1.103390812873840332e+00
-1.978604912757873535e+00,4.362567424774169922e+00,-9.311365485191345215e-01
-1.980737805366516113e+00,4.367269992828369141e+00,-7.595240473747253418e-01
-1.983564972877502441e+00,4.373503684997558594e+00,-5.896471738815307617e-01
-1.985959172248840332e+00,4.378782749176025391e+00,-4.206531047821044922e-01
-1.988376140594482422e+00,4.384111881256103516e+00,-2.522878348827362061e-01
-1.990847110748291016e+00,4.389559745788574219e+00,-8.413203805685043335e-02
-1.993378043174743652e+00,4.395140171051025391e+00,8.423899114131927490e-02
-1.995949745178222656e+00,4.400810718536376953e+00,2.532487809658050537e-01
-1.998111367225646973e+00,4.405576705932617188e+00,4.232271313667297363e-01
-2.001024723052978516e+00,4.412000179290771484e+00,5.948373675346374512e-01
-2.003372669219970703e+00,4.417177200317382812e+00,7.682034969329833984e-01
-2.006197452545166016e+00,4.423405170440673828e+00,9.441215991973876953e-01
-2.008832454681396484e+00,4.429215431213378906e+00,1.122819185256958008e+00
-1.705372571945190430e+00,3.621426105499267578e+00,-1.072565913200378418e+00
-2.033524513244628906e+00,4.318269729614257812e+00,-1.101959943771362305e+00
-2.037233114242553711e+00,4.326145172119140625e+00,-9.294911623001098633e-01
-2.039400815963745117e+00,4.330748558044433594e+00,-7.581714391708374023e-01
-2.041995286941528320e+00,4.336257457733154297e+00,-5.885058641433715820e-01
-2.044743299484252930e+00,4.342093467712402344e+00,-4.198971092700958252e-01
-2.047224760055541992e+00,4.347362518310546875e+00,-2.518335580825805664e-01
-2.049768686294555664e+00,4.352765083312988281e+00,-8.398053795099258423e-02
-2.052381277084350586e+00,4.358312606811523438e+00,8.408757299184799194e-02
-2.054740428924560547e+00,4.363322257995605469e+00,2.527580559253692627e-01
-2.057288885116577148e+00,4.368734359741210938e+00,4.224734008312225342e-01
-2.060316562652587891e+00,4.375163555145263672e+00,5.937860608100891113e-01
-2.062767982482910156e+00,4.380369186401367188e+00,7.668583393096923828e-01
-2.065717458724975586e+00,4.386632919311523438e+00,9.424872398376464844e-01
-2.068477869033813477e+00,4.392494678497314453e+00,1.120900988578796387e+00
-1.767390251159667969e+00,3.617860078811645508e+00,-1.078891634941101074e+00
-2.092853546142578125e+00,4.284085273742675781e+00,-1.100768089294433594e+00
-2.095150470733642578e+00,4.288787364959716797e+00,-9.278129935264587402e-01
-2.097900867462158203e+00,4.294417858123779297e+00,-7.569904923439025879e-01
-2.100551843643188477e+00,4.299843788146972656e+00,-5.875841975212097168e-01
-2.103368043899536133e+00,4.305608749389648438e+00,-4.192373752593994141e-01
-2.105914831161499023e+00,4.310822010040283203e+00,-2.514371871948242188e-01
-2.108531236648559570e+00,4.316177845001220703e+00,-8.384834229946136475e-02
-2.111224889755249023e+00,4.321691513061523438e+00,8.395545184612274170e-02
-2.113662719726562500e+00,4.326682090759277344e+00,2.523622512817382812e-01
-2.116302013397216797e+00,4.332084655761718750e+00,4.218153655529022217e-01
-2.118885517120361328e+00,4.337373256683349609e+00,5.927126407623291016e-01
-2.121991395950317383e+00,4.343730926513671875e+00,7.656831145286560059e-01
-2.124271869659423828e+00,4.348399162292480469e+00,9.407090544700622559e-01
-2.127040386199951172e+00,4.354066371917724609e+00,1.118749260902404785e+00
-1.817593574523925781e+00,3.589440584182739258e+00,-1.078064560890197754e+00
-2.151416063308715820e+00,4.248683929443359375e+00,-1.099471688270568848e+00
-2.153755903244018555e+00,4.253304481506347656e+00,-9.267109632492065430e-01
-2.156566143035888672e+00,4.258854389190673828e+00,-7.560853958129882812e-01
-2.159278154373168945e+00,4.264210224151611328e+00,-5.868781208992004395e-01
-2.162163972854614258e+00,4.269909381866455078e+00,-4.187318384647369385e-01
-2.164777755737304688e+00,4.275070667266845703e+00,-2.511335015296936035e-01
-2.167467594146728516e+00,4.280383110046386719e+00,-8.374708145856857300e-02
-2.170240879058837891e+00,4.285860061645507812e+00,8.385423570871353149e-02
-2.172755241394042969e+00,4.290824890136718750e+00,2.520589530467987061e-01
-2.175481557846069336e+00,4.296209335327148438e+00,4.213109612464904785e-01
-2.178154706954956055e+00,4.301488399505615234e+00,5.920086503028869629e-01
-2.181369781494140625e+00,4.307837009429931641e+00,7.647814750671386719e-01
-2.183739185333251953e+00,4.312516212463378906e+00,9.396120309829711914e-01
-2.186614513397216797e+00,4.318194866180419922e+00,1.117459774017333984e+00
-1.867552757263183594e+00,3.560720682144165039e+00,-1.077356934547424316e+00
-2.209535121917724609e+00,4.212752819061279297e+00,-1.098245143890380859e+00
-2.211918354034423828e+00,4.217296600341796875e+00,-9.256688356399536133e-01
-2.214789152145385742e+00,4.222770214080810547e+00,-7.552299499511718750e-01
-2.217562675476074219e+00,4.228058338165283203e+00,-5.862110257148742676e-01
-2.220519304275512695e+00,4.233695030212402344e+00,-4.182544946670532227e-01
-2.223199129104614258e+00,4.238804817199707031e+00,-2.508467137813568115e-01
-2.225961923599243164e+00,4.244072437286376953e+00,-8.365145325660705566e-02
-2.228814125061035156e+00,4.249510288238525391e+00,8.375863730907440186e-02
-2.231403589248657227e+00,4.254447460174560547e+00,2.517724335193634033e-01
-2.234215259552001953e+00,4.259808540344238281e+00,4.208342730998992920e-01
-2.236975908279418945e+00,4.265071868896484375e+00,5.913428664207458496e-01
-2.240297794342041016e+00,4.271405220031738281e+00,7.639281749725341797e-01
-2.242753028869628906e+00,4.276086807250976562e+00,9.385728836059570312e-01
-2.245733022689819336e+00,4.281768321990966797e+00,1.116237282752990723e+00
-1.917555332183837891e+00,3.532214641571044922e+00,-1.076925992965698242e+00
