4.894645512104034424e-01,-1.416197180747985840e+00,1.310924440622329712e-01
4.900876581668853760e-01,-1.417999982833862305e+00,1.842138022184371948e-01
4.907799363136291504e-01,-1.420002937316894531e+00,2.379599958658218384e-01
4.914463758468627930e-01,-1.421931266784667969e+00,2.924374639987945557e-01
4.920527935028076172e-01,-1.423685789108276367e+00,3.477606177330017090e-01
5.049302577972412109e-01,-1.395907640457153320e+00,-3.977494239807128906e-01
5.056670308113098145e-01,-1.397944450378417969e+00,-3.432056605815887451e-01
5.063400268554687500e-01,-1.399804830551147461e+00,-2.893478274345397949e-01
5.069806575775146484e-01,-1.401575922966003418e+00,-2.360639125108718872e-01
5.076621770858764648e-01,-1.403460025787353516e+00,-1.832501143217086792e-01
5.083197951316833496e-01,-1.405278086662292480e+00,-1.307418197393417358e-01
5.089669823646545410e-01,-1.407067418098449707e+00,-7.841715961694717407e-02
5.096217393875122070e-01,-1.408877372741699219e+00,-2.615140937268733978e-02
5.102841258049011230e-01,-1.410708546638488770e+00,2.618540078401565552e-02
5.109404325485229492e-01,-1.412523031234741211e+00,7.872121036052703857e-02
5.115807652473449707e-01,-1.414293289184570312e+00,1.315805464982986450e-01
5.122747421264648438e-01,-1.416211843490600586e+00,1.849151253700256348e-01
5.129510760307312012e-01,-1.418081521987915039e+00,2.388439029455184937e-01
5.135799050331115723e-01,-1.419819951057434082e+00,2.934850454330444336e-01
5.144085884094238281e-01,-1.422110915184020996e+00,3.491387069225311279e-01
5.269805788993835449e-01,-1.394156813621520996e+00,-3.993588984012603760e-01
5.277006030082702637e-01,-1.396061539649963379e+00,-3.445624709129333496e-01
5.283693075180053711e-01,-1.397830605506896973e+00,-2.904732525348663330e-01
5.290879011154174805e-01,-1.399731755256652832e+00,-2.370045334100723267e-01
5.297778844833374023e-01,-1.401557087898254395e+00,-1.839729100465774536e-01
5.304597616195678711e-01,-1.403360962867736816e+00,-1.312564164400100708e-01
5.311571955680847168e-01,-1.405206203460693359e+00,-7.872907817363739014e-02
5.318403244018554688e-01,-1.407013535499572754e+00,-2.625542692840099335e-02
5.325086712837219238e-01,-1.408781528472900391e+00,2.628841809928417206e-02
5.331992506980895996e-01,-1.410608530044555664e+00,7.903175055980682373e-02
5.338897109031677246e-01,-1.412435173988342285e+00,1.321051120758056641e-01
5.345625877380371094e-01,-1.414215326309204102e+00,1.856344640254974365e-01
5.353031754493713379e-01,-1.416174650192260742e+00,2.397886812686920166e-01
5.360098481178283691e-01,-1.418044090270996094e+00,2.946736812591552734e-01
5.367904901504516602e-01,-1.420109391212463379e+00,3.504977226257324219e-01
5.491291880607604980e-01,-1.392174601554870605e+00,-4.010015130043029785e-01
5.498321056365966797e-01,-1.393956661224365234e+00,-3.459499180316925049e-01
5.505849123001098633e-01,-1.395865201950073242e+00,-2.916725873947143555e-01
5.512963533401489258e-01,-1.397668838500976562e+00,-2.379669696092605591e-01
5.520442724227905273e-01,-1.399564981460571289e+00,-1.847296953201293945e-01
5.527310967445373535e-01,-1.401306271553039551e+00,-1.317906975746154785e-01
5.534509420394897461e-01,-1.403131365776062012e+00,-7.904856652021408081e-02
5.541622638702392578e-01,-1.404934644699096680e+00,-2.636194787919521332e-02
5.548665523529052734e-01,-1.406720161437988281e+00,2.639545127749443054e-02
5.556113123893737793e-01,-1.408608317375183105e+00,7.935712486505508423e-02
5.563008785247802734e-01,-1.410356640815734863e+00,1.326418668031692505e-01
5.570407509803771973e-01,-1.412232279777526855e+00,1.864016652107238770e-01
5.577545166015625000e-01,-1.414041876792907715e+00,2.407546490430831909e-01
5.585400462150573730e-01,-1.416033387184143066e+00,2.958868443965911865e-01
5.592669248580932617e-01,-1.417876243591308594e+00,3.518862426280975342e-01
5.715474486351013184e-01,-1.390375375747680664e+00,-4.027984142303466797e-01
5.723558068275451660e-01,-1.392341852188110352e+00,-3.475467562675476074e-01
5.730983614921569824e-01,-1.394148349761962891e+00,-2.929978966712951660e-01
5.738119482994079590e-01,-1.395884156227111816e+00,-2.390370070934295654e-01
5.745760202407836914e-01,-1.397742867469787598e+00,-1.855556964874267578e-01
5.753229260444641113e-01,-1.399559855461120605e+00,-1.323873549699783325e-01
5.760676264762878418e-01,-1.401371479034423828e+00,-7.940580695867538452e-02
5.768074989318847656e-01,-1.403171300888061523e+00,-2.648106403648853302e-02
5.775464773178100586e-01,-1.404968976974487305e+00,2.651499025523662567e-02
5.782879590988159180e-01,-1.406772732734680176e+00,7.971186935901641846e-02
5.790212750434875488e-01,-1.408556580543518066e+00,1.332383751869201660e-01
5.798203945159912109e-01,-1.410500526428222656e+00,1.872493326663970947e-01
5.806059837341308594e-01,-1.412411689758300781e+00,2.418672442436218262e-01
5.813447237014770508e-01,-1.414208769798278809e+00,2.972138524055480957e-01
5.821484327316284180e-01,-1.416163802146911621e+00,3.534930348396301270e-01
5.940681695938110352e-01,-1.388316631317138672e+00,-4.046239554882049561e-01
5.948756933212280273e-01,-1.390203714370727539e+00,-3.491026759147644043e-01
5.957199931144714355e-01,-1.392176866531372070e+00,-2.943454384803771973e-01
5.965071916580200195e-01,-1.394016504287719727e+00,-2.401546835899353027e-01
5.972676277160644531e-01,-1.395793676376342773e+00,-1.864127516746520996e-01
5.980249643325805664e-01,-1.397563457489013672e+00,-1.329945921897888184e-01
5.988043546676635742e-01,-1.399384856224060059e+00,-7.977072894573211670e-02
5.995751023292541504e-01,-1.401186108589172363e+00,-2.660283632576465607e-02
6.003369092941284180e-01,-1.402966380119323730e+00,2.663663588464260101e-02
6.011284589767456055e-01,-1.404816269874572754e+00,8.008034527301788330e-02
6.019258499145507812e-01,-1.406679749488830566e+00,1.338621079921722412e-01
6.027088165283203125e-01,-1.408509492874145508e+00,1.881109923124313354e-01
6.034508943557739258e-01,-1.410243749618530273e+00,2.429502308368682861e-01
6.042532324790954590e-01,-1.412118792533874512e+00,2.985617220401763916e-01
6.051338911056518555e-01,-1.414176821708679199e+00,3.551227152347564697e-01
6.169154644012451172e-01,-1.386501193046569824e+00,-4.066267311573028564e-01
6.177093386650085449e-01,-1.388285398483276367e+00,-3.508052527904510498e-01
6.185519099235534668e-01,-1.390179038047790527e+00,-2.957646548748016357e-01
6.193481087684631348e-01,-1.391968488693237305e+00,-2.413043677806854248e-01
6.201818585395812988e-01,-1.393842339515686035e+00,-1.873185038566589355e-01
6.209514141082763672e-01,-1.395571947097778320e+00,-1.336371749639511108e-01
6.217580437660217285e-01,-1.397384762763977051e+00,-8.015581965446472168e-02
6.225580573081970215e-01,-1.399182796478271484e+00,-2.673124521970748901e-02
6.233527064323425293e-01,-1.400968670845031738e+00,2.676536515355110168e-02
6.241922974586486816e-01,-1.402855634689331055e+00,8.046963065862655640e-02
6.249741911888122559e-01,-1.404612898826599121e+00,1.345029175281524658e-01
6.258106231689453125e-01,-1.406492829322814941e+00,1.890186071395874023e-01
6.266165375709533691e-01,-1.408304095268249512e+00,2.441362142562866211e-01
6.274961829185485840e-01,-1.410281181335449219e+00,3.000414371490478516e-01
6.283072829246520996e-01,-1.412104010581970215e+00,3.568239808082580566e-01
6.398280858993530273e-01,-1.384306550025939941e+00,-4.086271226406097412e-01
6.407521963119506836e-01,-1.386306047439575195e+00,-3.525865077972412109e-01
6.415990591049194336e-01,-1.388138294219970703e+00,-2.972538471221923828e-01
6.424841284751892090e-01,-1.390053153038024902e+00,-2.425416857004165649e-01
6.432694792747497559e-01,-1.391752243041992188e+00,-1.882557123899459839e-01
6.441088318824768066e-01,-1.393568277359008789e+00,-1.343143880367279053e-01
6.449443101882934570e-01,-1.395375847816467285e+00,-8.056185394525527954e-02
6.457732319831848145e-01,-1.397169232368469238e+00,-2.686661668121814728e-02
6.465997695922851562e-01,-1.398957610130310059e+00,2.690100483596324921e-02
6.474284529685974121e-01,-1.400750517845153809e+00,8.087215572595596313e-02
6.483232378959655762e-01,-1.402686476707458496e+00,1.351931989192962646e-01
6.491295099258422852e-01,-1.404430747032165527e+00,1.899706870317459106e-01
6.499942541122436523e-01,-1.406301736831665039e+00,2.453767955303192139e-01
6.508031487464904785e-01,-1.408051848411560059e+00,3.015181124210357666e-01
6.518311500549316406e-01,-1.410275936126708984e+00,3.586829006671905518e-01
6.630769968032836914e-01,-1.382308840751647949e+00,-4.107969105243682861e-01
6.640062332153320312e-01,-1.384245872497558594e+00,-3.544434607028961182e-01
6.648651361465454102e-01,-1.386036396026611328e+00,-2.988109886646270752e-01
6.657713651657104492e-01,-1.387925624847412109e+00,-2.438082396984100342e-01
6.666409969329833984e-01,-1.389738559722900391e+00,-1.892546415328979492e-01
6.675001382827758789e-01,-1.391529560089111328e+00,-1.350249052047729492e-01
6.683757305145263672e-01,-1.393355011940002441e+00,-8.098921924829483032e-02
6.692370772361755371e-01,-1.395150542259216309e+00,-2.700923196971416473e-02
6.700822114944458008e-01,-1.396912455558776855e+00,2.704333886504173279e-02
6.709529757499694824e-01,-1.398727655410766602e+00,8.130151033401489258e-02
6.718228459358215332e-01,-1.400541186332702637e+00,1.358993351459503174e-01
6.726696491241455078e-01,-1.402306437492370605e+00,1.909661293029785156e-01
6.735859513282775879e-01,-1.404216647148132324e+00,2.466699779033660889e-01
6.744536161422729492e-01,-1.406025528907775879e+00,3.031203746795654297e-01
6.753892302513122559e-01,-1.407975912094116211e+00,3.605196774005889893e-01
6.866688132286071777e-01,-1.380469799041748047e+00,-4.131289422512054443e-01
6.875920891761779785e-01,-1.382325768470764160e+00,-3.564353883266448975e-01
6.884493231773376465e-01,-1.384049296379089355e+00,-3.004762232303619385e-01
6.893621087074279785e-01,-1.385884284973144531e+00,-2.451578378677368164e-01
6.902460455894470215e-01,-1.387661337852478027e+00,-1.902977079153060913e-01
6.911606192588806152e-01,-1.389500021934509277e+00,-1.357740163803100586e-01
6.920365691184997559e-01,-1.391260981559753418e+00,-8.143492043018341064e-02
6.929267644882202148e-01,-1.393050670623779297e+00,-2.715780586004257202e-02
6.938367486000061035e-01,-1.394880056381225586e+00,2.719347178936004639e-02
6.947112679481506348e-01,-1.396638154983520508e+00,8.174966275691986084e-02
6.956298947334289551e-01,-1.398484945297241211e+00,1.366519629955291748e-01
6.965341567993164062e-01,-1.400302886962890625e+00,1.920313090085983276e-01
6.975162625312805176e-01,-1.402277231216430664e+00,2.480576932430267334e-01
6.984559297561645508e-01,-1.404166460037231445e+00,3.048436343669891357e-01
6.993037462234497070e-01,-1.405870795249938965e+00,3.625064790248870850e-01
7.103241682052612305e-01,-1.378200411796569824e+00,-4.154499769210815430e-01
7.112711668014526367e-01,-1.380037903785705566e+00,-3.584338426589965820e-01
7.122557759284973145e-01,-1.381948232650756836e+00,-3.022024333477020264e-01
7.131810784339904785e-01,-1.383743405342102051e+00,-2.465596497058868408e-01
7.140840291976928711e-01,-1.385495543479919434e+00,-1.913827508687973022e-01
7.150250673294067383e-01,-1.387321352958679199e+00,-1.365471929311752319e-01
7.159451842308044434e-01,-1.389106512069702148e+00,-8.190025389194488525e-02
7.168682813644409180e-01,-1.390897631645202637e+00,-2.731307223439216614e-02
7.177935242652893066e-01,-1.392692804336547852e+00,2.734832465648651123e-02
7.187047600746154785e-01,-1.394460797309875488e+00,8.221593499183654785e-02
7.196680903434753418e-01,-1.396329879760742188e+00,1.374338567256927490e-01
7.206240296363830566e-01,-1.398184657096862793e+00,1.931355446577072144e-01
7.215392589569091797e-01,-1.399960398674011230e+00,2.494492381811141968e-01
7.225207090377807617e-01,-1.401864647865295410e+00,3.065577149391174316e-01
7.235809564590454102e-01,-1.403921723365783691e+00,3.646371364593505859e-01
7.344419360160827637e-01,-1.376261353492736816e+00,-4.179915487766265869e-01
7.354091405868530273e-01,-1.378073811531066895e+00,-3.606207370758056641e-01
7.364166378974914551e-01,-1.379961729049682617e+00,-3.040418922901153564e-01
7.373669743537902832e-01,-1.381742596626281738e+00,-2.480583190917968750e-01
7.382975816726684570e-01,-1.383486390113830566e+00,-1.925452351570129395e-01
7.392721772193908691e-01,-1.385312676429748535e+00,-1.373769044876098633e-01
7.402304410934448242e-01,-1.387108325958251953e+00,-8.239868283271789551e-02
7.411836385726928711e-01,-1.388894557952880859e+00,-2.747925184667110443e-02
7.421346902847290039e-01,-1.390676736831665039e+00,2.751451171934604645e-02
7.430768013000488281e-01,-1.392442107200622559e+00,8.271552622318267822e-02
7.440755963325500488e-01,-1.394313812255859375e+00,1.382695138454437256e-01
7.450707554817199707e-01,-1.396178603172302246e+00,1.943116635084152222e-01
7.460292577743530273e-01,-1.397974610328674316e+00,2.509723901748657227e-01
7.470564246177673340e-01,-1.399899482727050781e+00,3.084347248077392578e-01
7.479957938194274902e-01,-1.401659727096557617e+00,3.667928278446197510e-01
7.587625980377197266e-01,-1.374118685722351074e+00,-4.205962121486663818e-01
7.597610950469970703e-01,-1.375926971435546875e+00,-3.628675341606140137e-01
7.607992887496948242e-01,-1.377807140350341797e+00,-3.059351146221160889e-01
7.617815136909484863e-01,-1.379585981369018555e+00,-2.496030777692794800e-01
7.628029584884643555e-01,-1.381435751914978027e+00,-1.937595456838607788e-01
7.637912034988403320e-01,-1.383225560188293457e+00,-1.382399052381515503e-01
7.647560238838195801e-01,-1.384972691535949707e+00,-8.291357755661010742e-02
7.657400965690612793e-01,-1.386754989624023438e+00,-2.765093743801116943e-02
7.667512893676757812e-01,-1.388586163520812988e+00,2.768745087087154388e-02
7.677434682846069336e-01,-1.390383005142211914e+00,8.323746919631958008e-02
7.687140703201293945e-01,-1.392140746116638184e+00,1.391309052705764771e-01
7.697435021400451660e-01,-1.394005060195922852e+00,1.955225169658660889e-01
7.707361578941345215e-01,-1.395802736282348633e+00,2.525371313095092773e-01
7.717998623847961426e-01,-1.397729158401489258e+00,3.103587031364440918e-01
7.727734446525573730e-01,-1.399492383003234863e+00,3.690823316574096680e-01
7.832801342010498047e-01,-1.371750354766845703e+00,-4.232595860958099365e-01
7.844435572624206543e-01,-1.373787999153137207e+00,-3.652271628379821777e-01
7.853975892066955566e-01,-1.375458717346191406e+00,-3.078783154487609863e-01
7.864985466003417969e-01,-1.377386808395385742e+00,-2.512162327766418457e-01
7.874802947044372559e-01,-1.379106044769287109e+00,-1.949937641620635986e-01
7.885087132453918457e-01,-1.380907177925109863e+00,-1.391219198703765869e-01
7.895264625549316406e-01,-1.382689476013183594e+00,-8.344488590955734253e-02
7.905440926551818848e-01,-1.384471654891967773e+00,-2.782818116247653961e-02
7.915647029876708984e-01,-1.386259078979492188e+00,2.786410972476005554e-02
7.925811409950256348e-01,-1.388039231300354004e+00,8.376773446798324585e-02
7.936604022979736328e-01,-1.389929294586181641e+00,1.400308609008789062e-01
7.946322560310363770e-01,-1.391631245613098145e+00,1.967647075653076172e-01
7.957807183265686035e-01,-1.393642544746398926e+00,2.541810572147369385e-01
7.967411875724792480e-01,-1.395324707031250000e+00,3.123250305652618408e-01
7.979089617729187012e-01,-1.397369742393493652e+00,3.714964687824249268e-01
8.083866834640502930e-01,-1.369811415672302246e+00,-4.261878430843353271e-01
8.095400929450988770e-01,-1.371765851974487305e+00,-3.677324354648590088e-01
8.105986118316650391e-01,-1.373559474945068359e+00,-3.100184798240661621e-01
8.116129040718078613e-01,-1.375278234481811523e+00,-2.529245316982269287e-01
8.126851320266723633e-01,-1.377095103263854980e+00,-1.963340193033218384e-01
8.137392997741699219e-01,-1.378881335258483887e+00,-1.400769054889678955e-01
8.148095011711120605e-01,-1.380694866180419922e+00,-8.401974290609359741e-02
8.158609271049499512e-01,-1.382476449012756348e+00,-2.801993489265441895e-02
8.168926239013671875e-01,-1.384224772453308105e+00,2.805536612868309021e-02
8.179510235786437988e-01,-1.386018157005310059e+00,8.434367924928665161e-02
8.190041780471801758e-01,-1.387802720069885254e+00,1.409832090139389038e-01
8.201348185539245605e-01,-1.389718532562255859e+00,1.981337666511535645e-01
8.212447762489318848e-01,-1.391599297523498535e+00,2.559261023998260498e-01
8.222851157188415527e-01,-1.393362283706665039e+00,3.144880533218383789e-01
8.233803510665893555e-01,-1.395218133926391602e+00,3.740193247795104980e-01
8.337662816047668457e-01,-1.367710351943969727e+00,-4.292032420635223389e-01
8.348134756088256836e-01,-1.369428157806396484e+00,-3.702710866928100586e-01
8.359220623970031738e-01,-1.371246695518493652e+00,-3.121650516986846924e-01
8.370733261108398438e-01,-1.373135209083557129e+00,-2.547077834606170654e-01
8.381716609001159668e-01,-1.374936938285827637e+00,-1.977165341377258301e-01
8.392512798309326172e-01,-1.376707911491394043e+00,-1.410619914531707764e-01
8.403337001800537109e-01,-1.378483533859252930e+00,-8.460845798254013062e-02
8.414167165756225586e-01,-1.380260109901428223e+00,-2.821622230112552643e-02
8.425062894821166992e-01,-1.382047414779663086e+00,2.825275994837284088e-02
8.436068892478942871e-01,-1.383852958679199219e+00,8.493801951408386230e-02
8.446997404098510742e-01,-1.385645627975463867e+00,1.419777721166610718e-01
8.457581996917724609e-01,-1.387381911277770996e+00,1.995061188936233521e-01
8.468855619430541992e-01,-1.389231204986572266e+00,2.576934993267059326e-01
8.481072187423706055e-01,-1.391235232353210449e+00,3.167154490947723389e-01
8.492479324340820312e-01,-1.393106460571289062e+00,3.766732811927795410e-01
8.593271970748901367e-01,-1.365283966064453125e+00,-4.322574138641357422e-01
8.604174852371215820e-01,-1.367016196250915527e+00,-3.729106187820434570e-01
8.615705966949462891e-01,-1.368848204612731934e+00,-3.143942356109619141e-01
8.627657294273376465e-01,-1.370747089385986328e+00,-2.565292119979858398e-01
8.639019131660461426e-01,-1.372552156448364258e+00,-1.991313397884368896e-01
8.650135993957519531e-01,-1.374318361282348633e+00,-1.420712321996688843e-01
8.661212325096130371e-01,-1.376078128814697266e+00,-8.521300554275512695e-02
8.672395944595336914e-01,-1.377854943275451660e+00,-2.841790206730365753e-02
8.683706521987915039e-01,-1.379652023315429688e+00,2.845496498048305511e-02
8.695075511932373047e-01,-1.381458282470703125e+00,8.554617315530776978e-02
8.706306815147399902e-01,-1.383242726325988770e+00,1.429937928915023804e-01
8.717129230499267578e-01,-1.384962201118469238e+00,2.009318023920059204e-01
8.728649020195007324e-01,-1.386792421340942383e+00,2.595320343971252441e-01
8.741141557693481445e-01,-1.388777136802673340e+00,3.189714848995208740e-01
8.752758502960205078e-01,-1.390622973442077637e+00,3.793503344058990479e-01
8.852818012237548828e-01,-1.362856030464172363e+00,-4.354559779167175293e-01
8.865824341773986816e-01,-1.364858269691467285e+00,-3.757452368736267090e-01
8.876413702964782715e-01,-1.366488456726074219e+00,-3.167379200458526611e-01
8.888909220695495605e-01,-1.368412137031555176e+00,-2.584468722343444824e-01
8.900717496871948242e-01,-1.370229959487915039e+00,-2.006222307682037354e-01
8.911764621734619141e-01,-1.371930599212646484e+00,-1.431283801794052124e-01
8.923415541648864746e-01,-1.373724222183227539e+00,-8.584937453269958496e-02
8.934913277626037598e-01,-1.375494241714477539e+00,-2.863004989922046661e-02
8.946346044540405273e-01,-1.377254247665405273e+00,2.866668254137039185e-02
8.958485722541809082e-01,-1.379123210906982422e+00,8.618677407503128052e-02
8.969964981079101562e-01,-1.380890369415283203e+00,1.440631151199340820e-01
8.980942368507385254e-01,-1.382580280303955078e+00,2.024304866790771484e-01
8.994161486625671387e-01,-1.384615302085876465e+00,2.615070939064025879e-01
9.005213975906372070e-01,-1.386316776275634766e+00,3.213339149951934814e-01
9.016886949539184570e-01,-1.388113856315612793e+00,3.821474611759185791e-01
9.118316173553466797e-01,-1.360694050788879395e+00,-4.388903677463531494e-01
9.130253791809082031e-01,-1.362475514411926270e+00,-3.786482214927673340e-01
9.142795205116271973e-01,-1.364346981048583984e+00,-3.192421495914459229e-01
9.154627323150634766e-01,-1.366112709045410156e+00,-2.604606747627258301e-01
9.166236519813537598e-01,-1.367845058441162109e+00,-2.021733075380325317e-01
9.178400039672851562e-01,-1.369660139083862305e+00,-1.442473232746124268e-01
9.190354347229003906e-01,-1.371443986892700195e+00,-8.652009814977645874e-02
9.202224016189575195e-01,-1.373215317726135254e+00,-2.885381504893302917e-02
9.214041829109191895e-01,-1.374978899955749512e+00,2.889087051153182983e-02
9.225720167160034180e-01,-1.376721501350402832e+00,8.685303479433059692e-02
9.238137006759643555e-01,-1.378574490547180176e+00,1.451861411333084106e-01
9.250526428222656250e-01,-1.380423307418823242e+00,2.040324360132217407e-01
9.262459874153137207e-01,-1.382204055786132812e+00,2.635286450386047363e-01
9.275346994400024414e-01,-1.384127259254455566e+00,3.238705098628997803e-01
9.287188649177551270e-01,-1.385894298553466797e+00,3.851566016674041748e-01
9.388146996498107910e-01,-1.358505368232727051e+00,-4.424734115600585938e-01
9.400705695152282715e-01,-1.360322594642639160e+00,-3.817502856254577637e-01
9.412409663200378418e-01,-1.362016201019287109e+00,-3.218162357807159424e-01
9.424961209297180176e-01,-1.363832473754882812e+00,-2.625710964202880859e-01
9.437916874885559082e-01,-1.365707278251647949e+00,-2.038331180810928345e-01
9.449797868728637695e-01,-1.367426514625549316e+00,-1.454216837882995605e-01
9.462088346481323242e-01,-1.369204878807067871e+00,-8.722431957721710205e-02
9.474333524703979492e-01,-1.370976924896240234e+00,-2.908874675631523132e-02
9.486516714096069336e-01,-1.372739791870117188e+00,2.912615053355693817e-02
9.499227404594421387e-01,-1.374579191207885742e+00,8.756668120622634888e-02
9.510975480079650879e-01,-1.376279115676879883e+00,1.463631242513656616e-01
9.523363113403320312e-01,-1.378071665763854980e+00,2.056785374879837036e-01
9.536896347999572754e-01,-1.380029916763305664e+00,2.656895220279693604e-01
9.549906253814697266e-01,-1.381912589073181152e+00,3.265173137187957764e-01
9.561733007431030273e-01,-1.383623957633972168e+00,3.882893919944763184e-01
9.662377834320068359e-01,-1.356266260147094727e+00,-4.462029933929443359e-01
9.675716161727905273e-01,-1.358138442039489746e+00,-3.849844932556152344e-01
9.688058495521545410e-01,-1.359870910644531250e+00,-3.245525658130645752e-01
9.701139330863952637e-01,-1.361707091331481934e+00,-2.648081183433532715e-01
9.713686108589172363e-01,-1.363468170166015625e+00,-2.055530101060867310e-01
9.726079702377319336e-01,-1.365207791328430176e+00,-1.466512084007263184e-01
9.738587141036987305e-01,-1.366963386535644531e+00,-8.796051144599914551e-02
9.751168489456176758e-01,-1.368729352951049805e+00,-2.933419309556484222e-02
9.763887524604797363e-01,-1.370514631271362305e+00,2.937245555222034454e-02
9.776817560195922852e-01,-1.372329592704772949e+00,8.830581605434417725e-02
9.789731502532958984e-01,-1.374142408370971680e+00,1.476109623908996582e-01
9.802317023277282715e-01,-1.375908970832824707e+00,2.074285596609115601e-01
9.815974831581115723e-01,-1.377825975418090820e+00,2.679427266120910645e-01
9.828943014144897461e-01,-1.379646301269531250e+00,3.292722404003143311e-01
9.842985272407531738e-01,-1.381617307662963867e+00,3.916399180889129639e-01
9.937011003494262695e-01,-1.353400588035583496e+00,-4.498935043811798096e-01
9.951438903808593750e-01,-1.355365633964538574e+00,-3.881963789463043213e-01
9.964648485183715820e-01,-1.357164740562438965e+00,-3.272772133350372314e-01
9.977258443832397461e-01,-1.358882188796997070e+00,-2.670086026191711426e-01
9.990645051002502441e-01,-1.360705494880676270e+00,-2.072711288928985596e-01
1.000365138053894043e+00,-1.362476825714111328e+00,-1.478808075189590454e-01
1.001657366752624512e+00,-1.364236831665039062e+00,-8.869853615760803223e-02
1.002952456474304199e+00,-1.366000652313232422e+00,-2.958035096526145935e-02
1.004257082939147949e+00,-1.367777705192565918e+00,2.961883135139942169e-02
1.005559444427490234e+00,-1.369551420211791992e+00,8.904407918453216553e-02
1.006839275360107422e+00,-1.371294617652893066e+00,1.488378793001174927e-01
1.008223176002502441e+00,-1.373179316520690918e+00,2.091712206602096558e-01
1.009575605392456055e+00,-1.375021338462829590e+00,2.701798081398010254e-01
1.010836005210876465e+00,-1.376737952232360840e+00,3.319972455501556396e-01
1.012196063995361328e+00,-1.378590345382690430e+00,3.948482573032379150e-01
1.022183179855346680e+00,-1.351220130920410156e+00,-4.539857804775238037e-01
1.023519635200500488e+00,-1.352986812591552734e+00,-3.916709125041961670e-01
1.024937272071838379e+00,-1.354860782623291016e+00,-3.302254974842071533e-01
1.026270508766174316e+00,-1.356623053550720215e+00,-2.694234549999237061e-01
1.027576684951782227e+00,-1.358349680900573730e+00,-2.091313004493713379e-01
1.028944015502929688e+00,-1.360157251358032227e+00,-1.492122858762741089e-01
1.030277490615844727e+00,-1.361919879913330078e+00,-8.949752151966094971e-02
1.031612157821655273e+00,-1.363684177398681641e+00,-2.984688431024551392e-02
1.032948613166809082e+00,-1.365450859069824219e+00,2.988554909825325012e-02
1.034257173538208008e+00,-1.367180585861206055e+00,8.984322845935821533e-02
1.035652160644531250e+00,-1.369024634361267090e+00,1.501850634813308716e-01
1.037038445472717285e+00,-1.370857238769531250e+00,2.110569626092910767e-01
1.038368463516235352e+00,-1.372615456581115723e+00,2.725995182991027832e-01
1.039821028709411621e+00,-1.374535441398620605e+00,3.350208997726440430e-01
1.041157245635986328e+00,-1.376301884651184082e+00,3.984203338623046875e-01
1.051104664802551270e+00,-1.348884224891662598e+00,-4.582088291645050049e-01
1.052538990974426270e+00,-1.350724935531616211e+00,-3.953368961811065674e-01
1.053868174552917480e+00,-1.352430582046508789e+00,-3.332756459712982178e-01
1.055290460586547852e+00,-1.354255795478820801e+00,-2.719252705574035645e-01
1.056656360626220703e+00,-1.356008768081665039e+00,-2.110778242349624634e-01
1.058005809783935547e+00,-1.357740402221679688e+00,-1.505930423736572266e-01
1.059368968009948730e+00,-1.359489798545837402e+00,-9.032502025365829468e-02
1.060739398002624512e+00,-1.361248493194580078e+00,-3.012279421091079712e-02
1.062125325202941895e+00,-1.363026976585388184e+00,3.016215004026889801e-02
1.063534021377563477e+00,-1.364834785461425781e+00,9.068014472723007202e-02
1.064942955970764160e+00,-1.366642951965332031e+00,1.515804529190063477e-01
1.066317558288574219e+00,-1.368407011032104492e+00,2.130077481269836426e-01
1.067819714546203613e+00,-1.370334625244140625e+00,2.751537859439849854e-01
1.069252490997314453e+00,-1.372173309326171875e+00,3.381408154964447021e-01
1.070541977882385254e+00,-1.373828172683715820e+00,4.020988643169403076e-01
1.080445170402526855e+00,-1.346341848373413086e+00,-4.625511467456817627e-01
1.081787347793579102e+00,-1.348014235496520996e+00,-3.990345895290374756e-01
1.083242774009704590e+00,-1.349827885627746582e+00,-3.364206552505493164e-01
1.084769487380981445e+00,-1.351730346679687500e+00,-2.745077311992645264e-01
1.086109399795532227e+00,-1.353399872779846191e+00,-2.130698114633560181e-01
1.087538838386535645e+00,-1.355181097984313965e+00,-1.520201414823532104e-01
1.088950514793395996e+00,-1.356940269470214844e+00,-9.118187427520751953e-02
1.090362548828125000e+00,-1.358699798583984375e+00,-3.040863946080207825e-02
1.091775417327880859e+00,-1.360460281372070312e+00,3.044804185628890991e-02
1.093179464340209961e+00,-1.362210035324096680e+00,9.153597801923751831e-02
1.094697833061218262e+00,-1.364102005958557129e+00,1.530208587646484375e-01
1.096044421195983887e+00,-1.365779995918273926e+00,2.150188535451889038e-01
1.097498059272766113e+00,-1.367591261863708496e+00,2.777287662029266357e-01
1.099110722541809082e+00,-1.369600892066955566e+00,3.413487374782562256e-01
1.100620746612548828e+00,-1.371482491493225098e+00,4.059816002845764160e-01
1.110173821449279785e+00,-1.343532919883728027e+00,-4.669976234436035156e-01
1.111651659011840820e+00,-1.345321297645568848e+00,-4.029062986373901367e-01
1.113217830657958984e+00,-1.347216844558715820e+00,-3.397063910961151123e-01
1.114682316780090332e+00,-1.348989009857177734e+00,-2.771627604961395264e-01
1.116102337837219238e+00,-1.350707650184631348e+00,-2.151389718055725098e-01
1.117520093917846680e+00,-1.352423429489135742e+00,-1.534893959760665894e-01
1.118985891342163086e+00,-1.354197382926940918e+00,-9.206438809633255005e-02
1.120438694953918457e+00,-1.355955481529235840e+00,-3.070300072431564331e-02
1.121874213218688965e+00,-1.357692718505859375e+00,3.074233978986740112e-02
1.123373508453369141e+00,-1.359507083892822266e+00,9.242536872625350952e-02
1.124889016151428223e+00,-1.361341238021850586e+00,1.545015126466751099e-01
1.126382708549499512e+00,-1.363148927688598633e+00,2.171205878257751465e-01
1.127805590629577637e+00,-1.364870905876159668e+00,2.804258465766906738e-01
1.129362344741821289e+00,-1.366755008697509766e+00,3.446330130100250244e-01
1.130785584449768066e+00,-1.368477344512939453e+00,4.098412096500396729e-01
1.140876770019531250e+00,-1.341128587722778320e+00,-4.717896878719329834e-01
1.142501950263977051e+00,-1.343039035797119141e+00,-4.070786237716674805e-01
1.143997073173522949e+00,-1.344796538352966309e+00,-3.431898355484008789e-01
1.145586371421813965e+00,-1.346664786338806152e+00,-2.800255119800567627e-01
1.146986007690429688e+00,-1.348309993743896484e+00,-2.173497378826141357e-01
1.148497343063354492e+00,-1.350086688995361328e+00,-1.550740152597427368e-01
1.150001406669616699e+00,-1.351854801177978516e+00,-9.301465749740600586e-02
1.151490330696105957e+00,-1.353605031967163086e+00,-3.101980313658714294e-02
1.152974247932434082e+00,-1.355349421501159668e+00,3.105977736413478851e-02
1.154460787773132324e+00,-1.357096791267395020e+00,9.337534010410308838e-02
1.156082987785339355e+00,-1.359003782272338867e+00,1.560982465744018555e-01
1.157533168792724609e+00,-1.360708594322204590e+00,2.193484008312225342e-01
1.159115433692932129e+00,-1.362568497657775879e+00,2.833325266838073730e-01
1.160605549812316895e+00,-1.364320158958435059e+00,3.481722474098205566e-01
1.162247896194458008e+00,-1.366250872611999512e+00,4.141142070293426514e-01
1.171590566635131836e+00,-1.337951660156250000e+00,-4.765225648880004883e-01
1.173122525215148926e+00,-1.339701175689697266e+00,-4.111143350601196289e-01
1.174763917922973633e+00,-1.341575622558593750e+00,-3.466235101222991943e-01
1.176305055618286133e+00,-1.343335628509521484e+00,-2.828053534030914307e-01
1.177806138992309570e+00,-1.345049858093261719e+00,-2.195193320512771606e-01
1.179379224777221680e+00,-1.346846342086791992e+00,-1.566247642040252686e-01
1.180880784988403320e+00,-1.348561048507690430e+00,-9.394139051437377930e-02
1.182412505149841309e+00,-1.350310325622558594e+00,-3.132893517613410950e-02
1.183985233306884766e+00,-1.352106332778930664e+00,3.137060627341270447e-02
1.185487151145935059e+00,-1.353821516036987305e+00,9.430783987045288086e-02
1.187087535858154297e+00,-1.355649113655090332e+00,1.576484441757202148e-01
1.188672542572021484e+00,-1.357459306716918945e+00,2.215446084737777710e-01
1.190190553665161133e+00,-1.359192728996276855e+00,2.861436903476715088e-01
1.191866040229797363e+00,-1.361106157302856445e+00,3.516696393489837646e-01
1.193410515785217285e+00,-1.362869977951049805e+00,4.182241559028625488e-01
1.203752160072326660e+00,-1.335618376731872559e+00,-4.817787408828735352e-01
1.205462098121643066e+00,-1.337515592575073242e+00,-4.156959056854248047e-01
1.207042336463928223e+00,-1.339268922805786133e+00,-3.504554927349090576e-01
1.208732485771179199e+00,-1.341144204139709473e+00,-2.859570682048797607e-01
1.210338354110717773e+00,-1.342926025390625000e+00,-2.219773530960083008e-01
1.211906313896179199e+00,-1.344665765762329102e+00,-1.583722084760665894e-01
1.213469862937927246e+00,-1.346400618553161621e+00,-9.499108791351318359e-02
1.215046763420104980e+00,-1.348150134086608887e+00,-3.167907893657684326e-02
1.216639161109924316e+00,-1.349917173385620117e+00,3.172060102224349976e-02
1.218239068984985352e+00,-1.351692199707031250e+00,9.536442905664443970e-02
1.219820499420166016e+00,-1.353446960449218750e+00,1.594064384698867798e-01
1.221340656280517578e+00,-1.355133533477783203e+00,2.239951789379119873e-01
1.223012685775756836e+00,-1.356988787651062012e+00,2.893354296684265137e-01
1.224592804908752441e+00,-1.358741998672485352e+00,3.555511534214019775e-01
1.226350188255310059e+00,-1.360691905021667480e+00,4.228990375995635986e-01
1.235828995704650879e+00,-1.332360267639160156e+00,-4.869343042373657227e-01
1.237720847129821777e+00,-1.334399819374084473e+00,-4.201906025409698486e-01
1.239213585853576660e+00,-1.336009263992309570e+00,-3.542076945304870605e-01
1.240863919258117676e+00,-1.337788462638854980e+00,-2.889989316463470459e-01
1.242597341537475586e+00,-1.339657306671142578e+00,-2.243539690971374512e-01
1.244165658950805664e+00,-1.341348052024841309e+00,-1.600624769926071167e-01
1.245798349380493164e+00,-1.343108296394348145e+00,-9.600704163312911987e-02
1.247420549392700195e+00,-1.344857215881347656e+00,-3.201797977089881897e-02
1.249025940895080566e+00,-1.346588015556335449e+00,3.205918520689010620e-02
1.250715255737304688e+00,-1.348409295082092285e+00,9.638596326112747192e-02
1.252251148223876953e+00,-1.350065112113952637e+00,1.611026823520660400e-01
1.253901958465576172e+00,-1.351845026016235352e+00,2.263950556516647339e-01
1.255756258964538574e+00,-1.353844046592712402e+00,2.924673557281494141e-01
1.257239699363708496e+00,-1.355443358421325684e+00,3.593601584434509277e-01
1.259228110313415527e+00,-1.357587099075317383e+00,4.274920523166656494e-01
1.269012451171875000e+00,-1.329456210136413574e+00,-4.924608767032623291e-01
1.270827889442443848e+00,-1.331358194351196289e+00,-4.249171316623687744e-01
1.272498726844787598e+00,-1.333108544349670410e+00,-3.582308888435363770e-01
1.274287462234497070e+00,-1.334982514381408691e+00,-2.923030555248260498e-01
1.275852322578430176e+00,-1.336621880531311035e+00,-2.268807142972946167e-01
1.277549028396606445e+00,-1.338399410247802734e+00,-1.618761271238327026e-01
1.279232263565063477e+00,-1.340162873268127441e+00,-9.709538519382476807e-02
1.280892729759216309e+00,-1.341902375221252441e+00,-3.238080814480781555e-02
1.282541155815124512e+00,-1.343629240989685059e+00,3.242247551679611206e-02
1.284187555313110352e+00,-1.345354199409484863e+00,9.747149795293807983e-02
1.285992622375488281e+00,-1.347245216369628906e+00,1.629460006952285767e-01
1.287593960762023926e+00,-1.348922729492187500e+00,2.289686948060989380e-01
1.289353251457214355e+00,-1.350765943527221680e+00,2.957589328289031982e-01
1.291014552116394043e+00,-1.352506279945373535e+00,3.634434342384338379e-01
1.292868494987487793e+00,-1.354448556900024414e+00,4.322866797447204590e-01
1.303426027297973633e+00,-1.326954483985900879e+00,-4.983939230442047119e-01
1.305444121360778809e+00,-1.329008936882019043e+00,-4.300869405269622803e-01
1.307026028633117676e+00,-1.330619454383850098e+00,-3.625521063804626465e-01
1.308777451515197754e+00,-1.332402467727661133e+00,-2.958095669746398926e-01
1.310478568077087402e+00,-1.334134340286254883e+00,-2.296188920736312866e-01
1.312258005142211914e+00,-1.335945844650268555e+00,-1.638343334197998047e-01
1.313939452171325684e+00,-1.337657570838928223e+00,-9.826639294624328613e-02
1.315648913383483887e+00,-1.339397907257080078e+00,-3.277142718434333801e-02
1.317393779754638672e+00,-1.341174364089965820e+00,3.281489387154579163e-02
1.319047451019287109e+00,-1.342857956886291504e+00,9.864841401576995850e-02
1.320805430412292480e+00,-1.344647526741027832e+00,1.649014800786972046e-01
1.322542071342468262e+00,-1.346415519714355469e+00,2.317326217889785767e-01
1.324493050575256348e+00,-1.348401784896850586e+00,2.993616163730621338e-01
1.326040148735046387e+00,-1.349976778030395508e+00,3.678263723850250244e-01
1.328137040138244629e+00,-1.352111577987670898e+00,4.375633001327514648e-01
1.338522315025329590e+00,-1.324228882789611816e+00,-5.045144557952880859e-01
1.340129971504211426e+00,-1.325819492340087891e+00,-4.352177381515502930e-01
1.341926932334899902e+00,-1.327597260475158691e+00,-3.669245243072509766e-01
1.343841791152954102e+00,-1.329491615295410156e+00,-2.994030714035034180e-01
1.345504522323608398e+00,-1.331136584281921387e+00,-2.323938012123107910e-01
1.347295999526977539e+00,-1.332908987998962402e+00,-1.658098846673965454e-01
1.349059700965881348e+00,-1.334653735160827637e+00,-9.945406019687652588e-02
1.350816488265991211e+00,-1.336391925811767578e+00,-3.316755220293998718e-02
1.352572321891784668e+00,-1.338128924369812012e+00,3.321066498756408691e-02
1.354309916496276855e+00,-1.339847922325134277e+00,9.984111040830612183e-02
1.356206297874450684e+00,-1.341724157333374023e+00,1.669064611196517944e-01
1.357869505882263184e+00,-1.343369483947753906e+00,2.345294505357742310e-01
1.359694719314575195e+00,-1.345175266265869141e+00,3.029350340366363525e-01
1.361770033836364746e+00,-1.347228407859802246e+00,3.723502457141876221e-01
1.363323569297790527e+00,-1.348765373229980469e+00,4.427500367164611816e-01
1.373511791229248047e+00,-1.320486187934875488e+00,-5.105262994766235352e-01
1.375363707542419434e+00,-1.322266578674316406e+00,-4.404686093330383301e-01
1.377099275588989258e+00,-1.323935151100158691e+00,-3.713221251964569092e-01
1.378999710083007812e+00,-1.325762271881103516e+00,-3.029772639274597168e-01
1.380828142166137695e+00,-1.327520012855529785e+00,-2.351888418197631836e-01
1.382720708847045898e+00,-1.329339623451232910e+00,-1.678106784820556641e-01
1.384488224983215332e+00,-1.331038832664489746e+00,-1.006510555744171143e-01
1.386295795440673828e+00,-1.332776665687561035e+00,-3.356685861945152283e-02
1.388144373893737793e+00,-1.334553837776184082e+00,3.361162170767784119e-02
1.389870047569274902e+00,-1.336212992668151855e+00,1.010423228144645691e-01
1.391691327095031738e+00,-1.337963819503784180e+00,1.688993722200393677e-01
1.393468260765075684e+00,-1.339672207832336426e+00,2.373417764902114868e-01
1.395461320877075195e+00,-1.341588377952575684e+00,3.065940141677856445e-01
1.397381067276000977e+00,-1.343433856964111328e+00,3.767909109592437744e-01
1.399129509925842285e+00,-1.345114946365356445e+00,4.480797648429870605e-01
1.409800410270690918e+00,-1.317070722579956055e+00,-5.169545412063598633e-01
1.411922693252563477e+00,-1.319053411483764648e+00,-4.460846781730651855e-01
1.413853526115417480e+00,-1.320857286453247070e+00,-3.760962188243865967e-01
1.415683269500732422e+00,-1.322566628456115723e+00,-3.068463206291198730e-01
1.417484164237976074e+00,-1.324249029159545898e+00,-2.381794303655624390e-01
1.419398903846740723e+00,-1.326037883758544922e+00,-1.699411571025848389e-01
1.421257019042968750e+00,-1.327773690223693848e+00,-1.019320264458656311e-01
1.423112511634826660e+00,-1.329507231712341309e+00,-3.399405628442764282e-02
1.424964666366577148e+00,-1.331237554550170898e+00,3.403830155730247498e-02
1.426773905754089355e+00,-1.332927703857421875e+00,1.023276969790458679e-01
1.428728699684143066e+00,-1.334753990173339844e+00,1.710581779479980469e-01
1.430682063102722168e+00,-1.336578845977783203e+00,2.403970807790756226e-01
1.432571291923522949e+00,-1.338343858718872070e+00,3.105067610740661621e-01
1.434317588806152344e+00,-1.339975237846374512e+00,3.815398216247558594e-01
1.436269044876098633e+00,-1.341798305511474609e+00,4.537766575813293457e-01
1.447918176651000977e+00,-1.314380645751953125e+00,-5.239795446395874023e-01
1.449943423271179199e+00,-1.316219091415405273e+00,-4.520984590053558350e-01
1.451813817024230957e+00,-1.317916989326477051e+00,-3.811369538307189941e-01
1.453843593597412109e+00,-1.319759488105773926e+00,-3.109911680221557617e-01
1.455612182617187500e+00,-1.321364998817443848e+00,-2.413833439350128174e-01
1.457548975944519043e+00,-1.323123216629028320e+00,-1.722236722707748413e-01
1.459475874900817871e+00,-1.324872493743896484e+00,-1.033024415373802185e-01
1.461378455162048340e+00,-1.326599478721618652e+00,-3.445101901888847351e-02
1.463269114494323730e+00,-1.328315854072570801e+00,3.449558839201927185e-02
1.465160369873046875e+00,-1.330032587051391602e+00,1.037047877907752991e-01
1.467252612113952637e+00,-1.331931829452514648e+00,1.733702421188354492e-01
1.469104528427124023e+00,-1.333613038063049316e+00,2.436207830905914307e-01
1.471164584159851074e+00,-1.335483074188232422e+00,3.146963119506835938e-01
1.473125576972961426e+00,-1.337263226509094238e+00,3.867318034172058105e-01
1.475347757339477539e+00,-1.339280486106872559e+00,4.600196480751037598e-01
1.486249804496765137e+00,-1.310871005058288574e+00,-5.310066938400268555e-01
1.488181591033935547e+00,-1.312574863433837891e+00,-4.581163227558135986e-01
1.490004181861877441e+00,-1.314182400703430176e+00,-3.861850798130035400e-01
1.492036104202270508e+00,-1.315974593162536621e+00,-3.150994181632995605e-01
1.494164943695068359e+00,-1.317852139472961426e+00,-2.446234226226806641e-01
1.496063828468322754e+00,-1.319527029991149902e+00,-1.745250076055526733e-01
1.498000144958496094e+00,-1.321234822273254395e+00,-1.046799197793006897e-01
1.499953269958496094e+00,-1.322957515716552734e+00,-3.491041064262390137e-02
1.501944899559020996e+00,-1.324714064598083496e+00,3.495676442980766296e-02
1.503984093666076660e+00,-1.326512694358825684e+00,1.050980761647224426e-01
1.505803227424621582e+00,-1.328117132186889648e+00,1.756611764430999756e-01
1.507762074470520020e+00,-1.329844832420349121e+00,2.468495368957519531e-01
1.509985566139221191e+00,-1.331805944442749023e+00,3.188901245594024658e-01
1.512149214744567871e+00,-1.333714246749877930e+00,3.919247090816497803e-01
1.514148235321044922e+00,-1.335477471351623535e+00,4.661098122596740723e-01
1.525717020034790039e+00,-1.307338356971740723e+00,-5.383667349815368652e-01
1.527978301048278809e+00,-1.309275984764099121e+00,-4.645506739616394043e-01
1.530049562454223633e+00,-1.311050772666931152e+00,-3.916603326797485352e-01
1.532018423080444336e+00,-1.312737822532653809e+00,-3.195422887802124023e-01
1.534137606620788574e+00,-1.314553737640380859e+00,-2.480618059635162354e-01
1.536064505577087402e+00,-1.316204786300659180e+00,-1.769754737615585327e-01
1.538105130195617676e+00,-1.317953348159790039e+00,-1.061533242464065552e-01
1.540116548538208008e+00,-1.319676876068115234e+00,-3.540192544460296631e-02
1.542101383209228516e+00,-1.321377635002136230e+00,3.544755280017852783e-02
1.544226169586181641e+00,-1.323198318481445312e+00,1.065757796168327332e-01
1.546168804168701172e+00,-1.324862837791442871e+00,1.781396269798278809e-01
1.548306107521057129e+00,-1.326694250106811523e+00,2.503527700901031494e-01
1.550385594367980957e+00,-1.328476071357727051e+00,3.233732283115386963e-01
1.552322030067443848e+00,-1.330135345458984375e+00,3.973616063594818115e-01
1.554513692855834961e+00,-1.332013249397277832e+00,4.726182222366333008e-01
1.565667629241943359e+00,-1.303177475929260254e+00,-5.458259582519531250e-01
1.567865133285522461e+00,-1.305006623268127441e+00,-4.709501862525939941e-01
1.569905161857604980e+00,-1.306704521179199219e+00,-3.970341384410858154e-01
1.572130560874938965e+00,-1.308556914329528809e+00,-3.239688873291015625e-01
1.574246525764465332e+00,-1.310318112373352051e+00,-2.514888346195220947e-01
1.576306939125061035e+00,-1.312033176422119141e+00,-1.794298887252807617e-01
1.578360438346862793e+00,-1.313742280006408691e+00,-1.076227650046348572e-01
1.580428004264831543e+00,-1.315463185310363770e+00,-3.589205816388130188e-02
1.582513213157653809e+00,-1.317198872566223145e+00,3.593941777944564819e-02
1.584603548049926758e+00,-1.318938732147216797e+00,1.080484613776206970e-01
1.586666464805603027e+00,-1.320655822753906250e+00,1.806091070175170898e-01
1.588650465011596680e+00,-1.322307109832763672e+00,2.537899017333984375e-01
1.590875864028930664e+00,-1.324159383773803711e+00,3.278317451477050781e-01
1.592996597290039062e+00,-1.325924634933471680e+00,4.028740525245666504e-01
1.595429062843322754e+00,-1.327949285507202148e+00,4.792297482490539551e-01
1.609030842781066895e+00,-1.300743222236633301e+00,-5.543958544731140137e-01
1.611141085624694824e+00,-1.302449107170104980e+00,-4.783005118370056152e-01
1.613460302352905273e+00,-1.304323911666870117e+00,-4.032865166664123535e-01
1.615630626678466797e+00,-1.306078433990478516e+00,-3.290468752384185791e-01
1.617733836174011230e+00,-1.307778716087341309e+00,-2.554194927215576172e-01
1.619832158088684082e+00,-1.309475064277648926e+00,-1.822321563959121704e-01
1.622001409530639648e+00,-1.311228632926940918e+00,-1.093075498938560486e-01
1.624130249023437500e+00,-1.312949538230895996e+00,-3.645402938127517700e-02
1.626210331916809082e+00,-1.314631104469299316e+00,3.650071471929550171e-02
1.628388404846191406e+00,-1.316391825675964355e+00,1.097379773855209351e-01
1.630586862564086914e+00,-1.318169116973876953e+00,1.834420561790466309e-01
1.632752180099487305e+00,-1.319919466972351074e+00,2.577906847000122070e-01
1.634808659553527832e+00,-1.321582078933715820e+00,3.329527676105499268e-01
1.637147784233093262e+00,-1.323472976684570312e+00,4.092072546482086182e-01
1.639312982559204102e+00,-1.325223326683044434e+00,4.866639077663421631e-01
1.650642395019531250e+00,-1.295762300491333008e+00,-5.622852444648742676e-01
1.653101682662963867e+00,-1.297692894935607910e+00,-4.851934611797332764e-01
1.655344963073730469e+00,-1.299453854560852051e+00,-4.090647399425506592e-01
1.657479286193847656e+00,-1.301129341125488281e+00,-3.337427973747253418e-01
1.659585475921630859e+00,-1.302782654762268066e+00,-2.590565979480743408e-01
1.661841154098510742e+00,-1.304553389549255371e+00,-1.848385632038116455e-01
1.664027929306030273e+00,-1.306270003318786621e+00,-1.108683645725250244e-01
1.666215419769287109e+00,-1.307987213134765625e+00,-3.697463497519493103e-02
1.668395638465881348e+00,-1.309698700904846191e+00,3.702301532030105591e-02
1.670523881912231445e+00,-1.311369419097900391e+00,1.113011762499809265e-01
1.672837257385253906e+00,-1.313185453414916992e+00,1.860616058111190796e-01
1.675161838531494141e+00,-1.315010190010070801e+00,2.614880502223968506e-01
1.677417039871215820e+00,-1.316780567169189453e+00,3.377573788166046143e-01
1.679512500762939453e+00,-1.318425536155700684e+00,4.150369763374328613e-01
1.681896328926086426e+00,-1.320296764373779297e+00,4.936448037624359131e-01
1.696006178855895996e+00,-1.292573809623718262e+00,-5.713773965835571289e-01
1.698407888412475586e+00,-1.294404268264770508e+00,-4.930026829242706299e-01
1.700635194778442383e+00,-1.296101808547973633e+00,-4.156297445297241211e-01
1.703065156936645508e+00,-1.297953724861145020e+00,-3.391462266445159912e-01
1.705360889434814453e+00,-1.299703359603881836e+00,-2.632711529731750488e-01
1.707474946975708008e+00,-1.301314473152160645e+00,-1.878232359886169434e-01
1.709757566452026367e+00,-1.303054213523864746e+00,-1.126609742641448975e-01
1.711997032165527344e+00,-1.304760932922363281e+00,-3.757229074835777283e-02
1.714210867881774902e+00,-1.306448221206665039e+00,3.762087598443031311e-02
1.716623067855834961e+00,-1.308286547660827637e+00,1.131133586168289185e-01
1.718864560127258301e+00,-1.309994816780090332e+00,1.890760958194732666e-01
1.721006393432617188e+00,-1.311627149581909180e+00,2.656864523887634277e-01
1.723414301872253418e+00,-1.313462376594543457e+00,3.431985080242156982e-01
1.725702166557312012e+00,-1.315205931663513184e+00,4.217559993267059326e-01
1.728340744972229004e+00,-1.317216992378234863e+00,5.016914010047912598e-01
1.741321325302124023e+00,-1.288133621215820312e+00,-5.803728699684143066e-01
1.744119644165039062e+00,-1.290203690528869629e+00,-5.008597373962402344e-01
1.746267795562744141e+00,-1.291792750358581543e+00,-4.222200214862823486e-01
1.748670220375061035e+00,-1.293569922447204590e+00,-3.445055186748504639e-01
1.750978469848632812e+00,-1.295277357101440430e+00,-2.674239575862884521e-01
1.753261685371398926e+00,-1.296966433525085449e+00,-1.907981932163238525e-01
1.755566835403442383e+00,-1.298671722412109375e+00,-1.144429072737693787e-01
