-2.452091455459594727e+00,2.258171796798706055e+00,-7.695934176445007324e-01
-2.455419778823852539e+00,2.261236667633056641e+00,-6.488414406776428223e-01
-2.458517313003540039e+00,2.264089345932006836e+00,-5.293542146682739258e-01
-2.461509704589843750e+00,2.266844987869262695e+00,-4.108713865280151367e-01
-2.464494705200195312e+00,2.269593954086303711e+00,-2.931165099143981934e-01
-2.467537403106689453e+00,2.272396087646484375e+00,-1.758005023002624512e-01
-2.470604896545410156e+00,2.275220870971679688e+00,-5.862533673644065857e-02
-2.473691225051879883e+00,2.278063297271728516e+00,5.869857594370841980e-02
-2.476876497268676758e+00,2.280996561050415039e+00,1.764658689498901367e-01
-2.480092048645019531e+00,2.283957719802856445e+00,2.949715554714202881e-01
-2.483252048492431641e+00,2.286867856979370117e+00,4.145005941390991211e-01
-2.486248731613159180e+00,2.289627552032470703e+00,5.353251695632934570e-01
-2.489827394485473633e+00,2.292923212051391602e+00,6.579336524009704590e-01
-2.493200540542602539e+00,2.296029806137084961e+00,7.824955582618713379e-01
-2.518995285034179688e+00,2.254017591476440430e+00,-9.057276248931884766e-01
-2.522856712341308594e+00,2.257472753524780273e+00,-7.815818786621093750e-01
-2.525669813156127930e+00,2.259989976882934570e+00,-6.587895154953002930e-01
-2.528976678848266602e+00,2.262949228286743164e+00,-5.374959111213684082e-01
-2.532145738601684570e+00,2.265784740447998047e+00,-4.172057509422302246e-01
-2.535276412963867188e+00,2.268586158752441406e+00,-2.976424992084503174e-01
-2.538439512252807617e+00,2.271416425704956055e+00,-1.785173267126083374e-01
-2.541594982147216797e+00,2.274240016937255859e+00,-5.953133478760719299e-02
-2.544740915298461914e+00,2.277055025100708008e+00,5.960502102971076965e-02
-2.547957658767700195e+00,2.279933452606201172e+00,1.791867017745971680e-01
-2.551173448562622070e+00,2.282810926437377930e+00,2.995088100433349609e-01
-2.554304361343383789e+00,2.285612344741821289e+00,4.208566844463348389e-01
-2.558012008666992188e+00,2.288929939270019531e+00,5.436668992042541504e-01
-2.560738563537597656e+00,2.291369915008544922e+00,6.679367423057556152e-01
-2.564002752304077148e+00,2.294290542602539062e+00,7.943289279937744141e-01
-2.587456703186035156e+00,2.249431848526000977e+00,-9.186726808547973633e-01
-2.590683221817016602e+00,2.252236843109130859e+00,-7.925263047218322754e-01
-2.594356298446655273e+00,2.255429983139038086e+00,-6.682164072990417480e-01
-2.597229242324829102e+00,2.257927656173706055e+00,-5.450772643089294434e-01
-2.600571155548095703e+00,2.260832786560058594e+00,-4.231046140193939209e-01
-2.603845596313476562e+00,2.263679504394531250e+00,-3.018577098846435547e-01
-2.607122898101806641e+00,2.266528844833374023e+00,-1.810474991798400879e-01
-2.610364437103271484e+00,2.269346952438354492e+00,-6.037510558962821960e-02
-2.613568305969238281e+00,2.272132158279418945e+00,6.044920906424522400e-02
-2.616813182830810547e+00,2.274953126907348633e+00,1.817204356193542480e-01
-2.620027303695678711e+00,2.277747392654418945e+00,3.037336170673370361e-01
-2.623781204223632812e+00,2.281010866165161133e+00,4.268808364868164062e-01
-2.626790046691894531e+00,2.283626556396484375e+00,5.512811541557312012e-01
-2.630347728729248047e+00,2.286719560623168945e+00,6.774865984916687012e-01
-2.633633852005004883e+00,2.289576292037963867e+00,8.056654334068298340e-01
-2.661671876907348633e+00,2.247882127761840820e+00,-9.335033893585205078e-01
-2.665057659149169922e+00,2.250741481781005859e+00,-8.053406476974487305e-01
-2.668210744857788086e+00,2.253404378890991211e+00,-6.788617372512817383e-01
-2.671815395355224609e+00,2.256448507308959961e+00,-5.538955926895141602e-01
-2.675212621688842773e+00,2.259317636489868164e+00,-4.299431145191192627e-01
-2.678283691406250000e+00,2.261911392211914062e+00,-3.067024946212768555e-01
-2.681689500808715820e+00,2.264787673950195312e+00,-1.839556843042373657e-01
-2.685025215148925781e+00,2.267604827880859375e+00,-6.134494394063949585e-02
-2.688285112380981445e+00,2.270358085632324219e+00,6.141942739486694336e-02
-2.691929101943969727e+00,2.273435354232788086e+00,1.846580803394317627e-01
-2.695280790328979492e+00,2.276266098022460938e+00,3.086488842964172363e-01
-2.698478460311889648e+00,2.278966665267944336e+00,4.336822628974914551e-01
-2.702215433120727539e+00,2.282122611999511719e+00,5.601978302001953125e-01
-2.705809831619262695e+00,2.285158157348632812e+00,6.884278655052185059e-01
-2.709088325500488281e+00,2.287926912307739258e+00,8.186460137367248535e-01
-2.732517957687377930e+00,2.241506576538085938e+00,-9.470010995864868164e-01
-2.736186265945434570e+00,2.244515657424926758e+00,-8.170427680015563965e-01
-2.740254878997802734e+00,2.247853279113769531e+00,-6.889349818229675293e-01
-2.743418455123901367e+00,2.250448465347290039e+00,-5.620042681694030762e-01
-2.747004270553588867e+00,2.253389835357666016e+00,-4.362526834011077881e-01
-2.750450134277343750e+00,2.256216526031494141e+00,-3.112365603446960449e-01
-2.753829479217529297e+00,2.258988618850708008e+00,-1.866671293973922729e-01
-2.757262229919433594e+00,2.261804580688476562e+00,-6.224931403994560242e-02
-2.760729551315307617e+00,2.264648675918579102e+00,6.232759729027748108e-02
-2.764172792434692383e+00,2.267473220825195312e+00,1.873682439327239990e-01
-2.767516613006591797e+00,2.270216226577758789e+00,3.131677508354187012e-01
-2.771352529525756836e+00,2.273362874984741211e+00,4.401194751262664795e-01
-2.774342775344848633e+00,2.275815725326538086e+00,5.683392286300659180e-01
-2.777839422225952148e+00,2.278683900833129883e+00,6.983842253684997559e-01
-2.782086133956909180e+00,2.282167673110961914e+00,8.307487368583679199e-01
-2.810522794723510742e+00,2.238977432250976562e+00,-9.628297686576843262e-01
-2.814381361007690430e+00,2.242051124572753906e+00,-8.307244181632995605e-01
-2.817926168441772461e+00,2.244875192642211914e+00,-7.003124356269836426e-01
-2.821870326995849609e+00,2.248017311096191406e+00,-5.714253783226013184e-01
-2.825139999389648438e+00,2.250622034072875977e+00,-4.435001015663146973e-01
-2.828762769699096680e+00,2.253508090972900391e+00,-3.164158761501312256e-01
-2.832277297973632812e+00,2.256307840347290039e+00,-1.897760927677154541e-01
-2.835809230804443359e+00,2.259121656417846680e+00,-6.328611820936203003e-02
-2.839336395263671875e+00,2.261931419372558594e+00,6.336483359336853027e-02
-2.842801332473754883e+00,2.264691829681396484e+00,1.904812604188919067e-01
-2.846670150756835938e+00,2.267773866653442383e+00,3.184189498424530029e-01
-2.849911928176879883e+00,2.270356416702270508e+00,4.473888874053955078e-01
-2.853643894195556641e+00,2.273329496383666992e+00,5.778595209121704102e-01
-2.857155561447143555e+00,2.276127099990844727e+00,7.100617885589599609e-01
-2.861396074295043945e+00,2.279505014419555664e+00,8.446018099784851074e-01
-2.890622854232788086e+00,2.235918045043945312e+00,-9.792063236236572266e-01
-2.894685506820678711e+00,2.239060640335083008e+00,-8.448815345764160156e-01
-2.898386478424072266e+00,2.241923332214355469e+00,-7.122605443000793457e-01
-2.901905298233032227e+00,2.244645118713378906e+00,-5.810668468475341797e-01
-2.905393123626708984e+00,2.247343063354492188e+00,-4.510025978088378906e-01
-2.909201622009277344e+00,2.250288963317871094e+00,-3.217777013778686523e-01
-2.912859916687011719e+00,2.253118753433227539e+00,-1.929948478937149048e-01
-2.916491746902465820e+00,2.255927801132202148e+00,-6.435948610305786133e-02
-2.920078277587890625e+00,2.258702039718627930e+00,6.443863362073898315e-02
-2.923560380935668945e+00,2.261395454406738281e+00,1.937038153409957886e-01
-2.927413940429687500e+00,2.264376163482666016e+00,3.237921297550201416e-01
-2.931299924850463867e+00,2.267382144927978516e+00,4.550240635871887207e-01
-2.935083866119384766e+00,2.270308971405029297e+00,5.877103805541992188e-01
-2.938601255416870117e+00,2.273029565811157227e+00,7.221431136131286621e-01
-2.942821264266967773e+00,2.276293992996215820e+00,8.589310646057128906e-01
-2.972878932952880859e+00,2.232276916503906250e+00,-9.961451292037963867e-01
-2.977164745330810547e+00,2.235494852066040039e+00,-8.595277667045593262e-01
-2.980319261550903320e+00,2.237863540649414062e+00,-7.244492769241333008e-01
-2.984112977981567383e+00,2.240712165832519531e+00,-5.910452008247375488e-01
-2.988231658935546875e+00,2.243804931640625000e+00,-4.588291049003601074e-01
-2.991834163665771484e+00,2.246510028839111328e+00,-3.273273110389709473e-01
-2.995640277862548828e+00,2.249367952346801758e+00,-1.963262557983398438e-01
-2.999376535415649414e+00,2.252173185348510742e+00,-6.547046452760696411e-02
-3.003022193908691406e+00,2.254910707473754883e+00,6.555003672838211060e-02
-3.006926536560058594e+00,2.257842302322387695e+00,1.970659196376800537e-01
-3.010349035263061523e+00,2.260412454605102539e+00,3.293529748916625977e-01
-3.014169692993164062e+00,2.263281345367431641e+00,4.628117978572845459e-01
-3.018729209899902344e+00,2.266704797744750977e+00,5.979014635086059570e-01
-3.022256135940551758e+00,2.269353151321411133e+00,7.346432209014892578e-01
-3.026426792144775391e+00,2.272484779357910156e+00,8.737499713897705078e-01
-3.057354211807250977e+00,2.228000402450561523e+00,-1.013661265373229980e+00
-3.060993432998657227e+00,2.230652332305908203e+00,-8.744221329689025879e-01
-3.065197706222534180e+00,2.233716249465942383e+00,-7.372341156005859375e-01
-3.069122791290283203e+00,2.236576557159423828e+00,-6.014803647994995117e-01
-3.072925806045532227e+00,2.239347934722900391e+00,-4.668641388416290283e-01
-3.076725959777832031e+00,2.242117404937744141e+00,-3.330698311328887939e-01
-3.080684661865234375e+00,2.245002269744873047e+00,-1.997734010219573975e-01
-3.084528446197509766e+00,2.247803211212158203e+00,-6.662004441022872925e-02
-3.088233709335327148e+00,2.250503301620483398e+00,6.670007109642028809e-02
-3.092154741287231445e+00,2.253360748291015625e+00,2.005172073841094971e-01
-3.096120595932006836e+00,2.256250858306884766e+00,3.351693451404571533e-01
-3.100027561187744141e+00,2.259098052978515625e+00,4.709816277027130127e-01
-3.103739976882934570e+00,2.261803388595581055e+00,6.082645654678344727e-01
-3.108155012130737305e+00,2.265020608901977539e+00,7.475660443305969238e-01
-3.112276554107666016e+00,2.268024444580078125e+00,8.890720009803771973e-01
-3.144115447998046875e+00,2.223035335540771484e+00,-1.031771540641784668e+00
-3.147990465164184570e+00,2.225775003433227539e+00,-8.900821208953857422e-01
-3.152390956878662109e+00,2.228886365890502930e+00,-7.504554986953735352e-01
-3.155878067016601562e+00,2.231352090835571289e+00,-6.121605634689331055e-01
-3.159933567047119141e+00,2.234219312667846680e+00,-4.751757979393005371e-01
-3.164189815521240234e+00,2.237228870391845703e+00,-3.390368521213531494e-01
-3.168061017990112305e+00,2.239965915679931641e+00,-2.033395767211914062e-01
-3.172013759613037109e+00,2.242760658264160156e+00,-6.780928373336791992e-02
-3.176036357879638672e+00,2.245604991912841797e+00,6.789527833461761475e-02
-3.179712533950805664e+00,2.248204231262207031e+00,2.040874212980270386e-01
-3.183645009994506836e+00,2.250984430313110352e+00,3.411214351654052734e-01
-3.188230991363525391e+00,2.254226922988891602e+00,4.794310331344604492e-01
-3.191968917846679688e+00,2.256870031356811523e+00,6.191612482070922852e-01
-3.196378231048583984e+00,2.259987592697143555e+00,7.609270811080932617e-01
-3.200438261032104492e+00,2.262858152389526367e+00,9.049116373062133789e-01
-3.233229160308837891e+00,2.217324256896972656e+00,-1.050492405891418457e+00
-3.237355947494506836e+00,2.220154285430908203e+00,-9.062719345092773438e-01
-3.241210460662841797e+00,2.222797632217407227e+00,-7.639474272727966309e-01
-3.245595693588256836e+00,2.225805044174194336e+00,-6.233198046684265137e-01
-3.249752044677734375e+00,2.228655576705932617e+00,-4.838357865810394287e-01
-3.253802776336669922e+00,2.231433391571044922e+00,-3.451811075210571289e-01
-3.257837295532226562e+00,2.234200239181518555e+00,-2.070280313491821289e-01
-3.261904478073120117e+00,2.236989498138427734e+00,-6.903935223817825317e-02
-3.265987634658813477e+00,2.239789724349975586e+00,6.912577152252197266e-02
-3.270105123519897461e+00,2.242613554000854492e+00,2.078076303005218506e-01
-3.274168968200683594e+00,2.245400428771972656e+00,3.473416566848754883e-01
-3.278068542480468750e+00,2.248074769973754883e+00,4.880516827106475830e-01
-3.282603263854980469e+00,2.251184701919555664e+00,6.304271817207336426e-01
-3.286995410919189453e+00,2.254196643829345703e+00,7.747388482093811035e-01
-3.290976762771606445e+00,2.256927251815795898e+00,9.212827086448669434e-01
-3.330595254898071289e+00,2.214685440063476562e+00,-1.071717977523803711e+00
-3.335213899612426758e+00,2.217756509780883789e+00,-9.246853590011596680e-01
-3.339313983917236328e+00,2.220482826232910156e+00,-7.794992923736572266e-01
-3.343895912170410156e+00,2.223529577255249023e+00,-6.360210180282592773e-01
-3.347746610641479492e+00,2.226090192794799805e+00,-4.936311542987823486e-01
-3.352040767669677734e+00,2.228945493698120117e+00,-3.521821200847625732e-01
-3.356258153915405273e+00,2.231750011444091797e+00,-2.112308442592620850e-01
-3.360447883605957031e+00,2.234535932540893555e+00,-7.044088840484619141e-02
-3.364596843719482422e+00,2.237294912338256836e+00,7.052786648273468018e-02
-3.368721246719360352e+00,2.240037202835083008e+00,2.120152264833450317e-01
-3.373350620269775391e+00,2.243115663528442383e+00,3.544210195541381836e-01
-3.377305984497070312e+00,2.245745658874511719e+00,4.979897141456604004e-01
-3.381852388381958008e+00,2.248768806457519531e+00,6.432405114173889160e-01
-3.386189460754394531e+00,2.251652717590332031e+00,7.904414534568786621e-01
-3.390047788619995117e+00,2.254218339920043945e+00,9.398880004882812500e-01
-3.362638711929321289e+00,2.167234420776367188e+00,-1.071937203407287598e+00
-3.429795742034912109e+00,2.210517406463623047e+00,-9.420394301414489746e-01
-3.434122562408447266e+00,2.213306188583374023e+00,-7.941541075706481934e-01
-3.438261985778808594e+00,2.215974092483520508e+00,-6.478705406188964844e-01
-3.442842006683349609e+00,2.218925714492797852e+00,-5.029184818267822266e-01
-3.446925401687622070e+00,2.221557617187500000e+00,-3.587735295295715332e-01
-3.451319694519042969e+00,2.224389791488647461e+00,-2.151878178119659424e-01
-3.455628156661987305e+00,2.227166652679443359e+00,-7.176046073436737061e-02
-3.459839344024658203e+00,2.229880571365356445e+00,7.184790819883346558e-02
-3.464424371719360352e+00,2.232835769653320312e+00,2.160048931837081909e-01
-3.468555927276611328e+00,2.235498666763305664e+00,3.610249459743499756e-01
-3.473212003707885742e+00,2.238499402999877930e+00,5.073547959327697754e-01
-3.477775096893310547e+00,2.241440296173095703e+00,6.553159356117248535e-01
-3.482068777084350586e+00,2.244207620620727539e+00,8.052418828010559082e-01
-3.487133264541625977e+00,2.247471809387207031e+00,9.577879309654235840e-01
-3.396810293197631836e+00,2.121071100234985352e+00,-1.073042392730712891e+00
-3.533578634262084961e+00,2.206473350524902344e+00,-9.617717266082763672e-01
-3.538187026977539062e+00,2.209351062774658203e+00,-8.108233213424682617e-01
-3.542536735534667969e+00,2.212066888809204102e+00,-6.614850759506225586e-01
-3.546814680099487305e+00,2.214738368988037109e+00,-5.134231448173522949e-01
-3.551428794860839844e+00,2.217619419097900391e+00,-3.663094043731689453e-01
-3.555750608444213867e+00,2.220318317413330078e+00,-2.196950316429138184e-01
-3.560191631317138672e+00,2.223091363906860352e+00,-7.326356321573257446e-02
-3.564748764038085938e+00,2.225936889648437500e+00,7.335734367370605469e-02
-3.569056987762451172e+00,2.228626966476440430e+00,2.205171734094619751e-01
-3.573769807815551758e+00,2.231570005416870117e+00,3.686137795448303223e-01
-3.578483104705810547e+00,2.234513044357299805e+00,5.180073380470275879e-01
-3.583036422729492188e+00,2.237356185913085938e+00,6.690474152565002441e-01
-3.587245941162109375e+00,2.239984750747680664e+00,8.220658302307128906e-01
-3.592177391052246094e+00,2.243064165115356445e+00,9.777211546897888184e-01
-3.430978775024414062e+00,2.074753999710083008e+00,-1.074344992637634277e+00
-3.640620946884155273e+00,2.201527118682861328e+00,-9.822291731834411621e-01
-3.644699096679687500e+00,2.203993320465087891e+00,-8.279178142547607422e-01
-3.649456501007080078e+00,2.206870079040527344e+00,-6.754823327064514160e-01
-3.654537677764892578e+00,2.209942817687988281e+00,-5.243840813636779785e-01
-3.658962965011596680e+00,2.212618827819824219e+00,-3.740960359573364258e-01
-3.663487434387207031e+00,2.215354681015014648e+00,-2.243694663047790527e-01
-3.668040990829467773e+00,2.218108415603637695e+00,-7.482193410396575928e-02
-3.672690391540527344e+00,2.220919847488403320e+00,7.491677254438400269e-02
-3.677471399307250977e+00,2.223811149597167969e+00,2.252259105443954468e-01
-3.681642293930053711e+00,2.226333141326904297e+00,3.764147758483886719e-01
-3.686222553253173828e+00,2.229103088378906250e+00,5.289304852485656738e-01
-3.691601276397705078e+00,2.232355594635009766e+00,6.832829713821411133e-01
-3.695712327957153320e+00,2.234841585159301758e+00,8.395057916641235352e-01
-3.700491189956665039e+00,2.237731456756591797e+00,9.983819723129272461e-01
-3.444282054901123047e+00,2.016049146652221680e+00,-1.069365143775939941e+00
-3.751028537750244141e+00,2.195597648620605469e+00,-1.003435254096984863e+00
-3.755411148071289062e+00,2.198163032531738281e+00,-8.458330631256103516e-01
-3.760414361953735352e+00,2.201091527938842773e+00,-6.901175975799560547e-01
-3.765197992324829102e+00,2.203891515731811523e+00,-5.356813073158264160e-01
-3.769905567169189453e+00,2.206646919250488281e+00,-3.821704983711242676e-01
-3.774642229080200195e+00,2.209419488906860352e+00,-2.292167991399765015e-01
-3.779335975646972656e+00,2.212167024612426758e+00,-7.643844932317733765e-02
-3.784054517745971680e+00,2.214928865432739258e+00,7.653388381004333496e-02
-3.788833856582641602e+00,2.217726469039916992e+00,2.300786077976226807e-01
-3.793597459793090820e+00,2.220514535903930664e+00,3.845722377300262451e-01
-3.798218250274658203e+00,2.223219394683837891e+00,5.403791666030883789e-01
-3.803582191467285156e+00,2.226359128952026367e+00,6.980398297309875488e-01
-3.808810472488403320e+00,2.229419469833374023e+00,8.578602075576782227e-01
-3.813588142395019531e+00,2.232215881347656250e+00,1.020170450210571289e+00
-3.478318691253662109e+00,1.969682812690734863e+00,-1.071069836616516113e+00
-3.864917755126953125e+00,2.188603878021240234e+00,-1.025416493415832520e+00
-3.869627475738525391e+00,2.191270828247070312e+00,-8.644052147865295410e-01
-3.874891996383666992e+00,2.194252014160156250e+00,-7.052905559539794922e-01
-3.879855632781982422e+00,2.197062969207763672e+00,-5.474636554718017578e-01
-3.884374856948852539e+00,2.199621915817260742e+00,-3.905430138111114502e-01
-3.889332294464111328e+00,2.202429294586181641e+00,-2.342430800199508667e-01
-3.894169569015502930e+00,2.205168485641479492e+00,-7.811461389064788818e-02
-3.898958206176757812e+00,2.207880258560180664e+00,7.821067422628402710e-02
-3.904232740402221680e+00,2.210866928100585938e+00,2.351404875516891479e-01
-3.909109115600585938e+00,2.213628530502319336e+00,3.930298686027526855e-01
-3.913760185241699219e+00,2.216262102127075195e+00,5.522477030754089355e-01
-3.919098377227783203e+00,2.219285011291503906e+00,7.133368253707885742e-01
-3.924218177795410156e+00,2.222184181213378906e+00,8.765997886657714844e-01
-3.928806781768798828e+00,2.224782705307006836e+00,1.042367100715637207e+00
-3.514775514602661133e+00,1.924420714378356934e+00,-1.073703885078430176e+00
-3.990338563919067383e+00,2.184802532196044922e+00,-1.050287842750549316e+00
-3.995440006256103516e+00,2.187595605850219727e+00,-8.854241967201232910e-01
-4.001025199890136719e+00,2.190653562545776367e+00,-7.224675416946411133e-01
-4.005713939666748047e+00,2.193220615386962891e+00,-5.607357025146484375e-01
-4.010855197906494141e+00,2.196035861968994141e+00,-4.000583291053771973e-01
-4.015861034393310547e+00,2.198776483535766602e+00,-2.399434894323348999e-01
-4.020868301391601562e+00,2.201518297195434570e+00,-8.001582324504852295e-02
-4.025928974151611328e+00,2.204288959503173828e+00,8.011652529239654541e-02
-4.030890464782714844e+00,2.207005739212036133e+00,2.408414930105209351e-01
-4.036377906799316406e+00,2.210010051727294922e+00,4.026040136814117432e-01
-4.041037082672119141e+00,2.212561130523681641e+00,5.656804442405700684e-01
-4.046307563781738281e+00,2.215446710586547852e+00,7.306441664695739746e-01
-4.051272392272949219e+00,2.218165159225463867e+00,8.977972269058227539e-01
-4.057076930999755859e+00,2.221343278884887695e+00,1.067853927612304688e+00
-3.530435323715209961e+00,1.867824077606201172e+00,-1.070211052894592285e+00
-4.120224952697753906e+00,2.179860115051269531e+00,-1.076152324676513672e+00
-4.125747680664062500e+00,2.182781934738159180e+00,-9.072847962379455566e-01
-4.130959987640380859e+00,2.185539722442626953e+00,-7.402054071426391602e-01
-4.136590957641601562e+00,2.188518762588500977e+00,-5.746124982833862305e-01
-4.141572475433349609e+00,2.191154479980468750e+00,-4.099263250827789307e-01
-4.146833896636962891e+00,2.193938016891479492e+00,-2.458675205707550049e-01
-4.152007102966308594e+00,2.196674823760986328e+00,-8.199139684438705444e-02
-4.157143592834472656e+00,2.199392318725585938e+00,8.209282904863357544e-02
-4.162611007690429688e+00,2.202285051345825195e+00,2.468029260635375977e-01
-4.167475700378417969e+00,2.204858779907226562e+00,4.124901592731475830e-01
-4.172861099243164062e+00,2.207707881927490234e+00,5.796507596969604492e-01
-4.178076267242431641e+00,2.210467100143432617e+00,7.486478686332702637e-01
-4.184154987335205078e+00,2.213683366775512695e+00,9.201291203498840332e-01
-4.189898014068603516e+00,2.216721534729003906e+00,1.094350099563598633e+00
-3.566854238510131836e+00,1.822238683700561523e+00,-1.073234438896179199e+00
-4.220067977905273438e+00,2.155953168869018555e+00,-1.094057917594909668e+00
-4.260724067687988281e+00,2.176723718643188477e+00,-9.300204515457153320e-01
-4.266284465789794922e+00,2.179564237594604492e+00,-7.587856650352478027e-01
-4.271652221679687500e+00,2.182306528091430664e+00,-5.889744758605957031e-01
-4.276993751525878906e+00,2.185035467147827148e+00,-4.201914370059967041e-01
-4.282524585723876953e+00,2.187861204147338867e+00,-2.520301342010498047e-01
-4.287868022918701172e+00,2.190590858459472656e+00,-8.404651284217834473e-02
-4.293082714080810547e+00,2.193254947662353516e+00,8.414871990680694580e-02
-4.298533439636230469e+00,2.196039676666259766e+00,2.529722452163696289e-01
-4.304025173187255859e+00,2.198845386505126953e+00,4.228471517562866211e-01
-4.309410572052001953e+00,2.201596736907958984e+00,5.941805839538574219e-01
-4.315683841705322266e+00,2.204801559448242188e+00,7.675716876983642578e-01
-4.320437431335449219e+00,2.207230091094970703e+00,9.430545568466186523e-01
-4.325906753540039062e+00,2.210024356842041016e+00,1.121496915817260742e+00
-3.582505226135253906e+00,1.766042232513427734e+00,-1.070228099822998047e+00
-4.258733749389648438e+00,2.099397897720336914e+00,-1.096179485321044922e+00
-4.400559902191162109e+00,2.169312953948974609e+00,-9.536681771278381348e-01
-4.406491756439208984e+00,2.172236919403076172e+00,-7.781127691268920898e-01
-4.412122249603271484e+00,2.175012588500976562e+00,-6.039881110191345215e-01
-4.417626857757568359e+00,2.177726268768310547e+00,-4.309014081954956055e-01
-4.423121929168701172e+00,2.180434942245483398e+00,-2.584411799907684326e-01
-4.428644180297851562e+00,2.183157205581665039e+00,-8.618453890085220337e-02
-4.434263706207275391e+00,2.185927391052246094e+00,8.629389107227325439e-02
-4.439912319183349609e+00,2.188712120056152344e+00,2.594222426414489746e-01
-4.445499420166015625e+00,2.191466331481933594e+00,4.336201250553131104e-01
-4.450880050659179688e+00,2.194118738174438477e+00,6.092937588691711426e-01
-4.457063674926757812e+00,2.197167158126831055e+00,7.870429754257202148e-01
-4.462978363037109375e+00,2.200083017349243164e+00,9.671952128410339355e-01
-4.468341350555419922e+00,2.202726602554321289e+00,1.150131583213806152e+00
-3.618781328201293945e+00,1.719991445541381836e+00,-1.073600530624389648e+00
-4.297333717346191406e+00,2.042504549026489258e+00,-1.098477363586425781e+00
-4.545453548431396484e+00,2.160434722900390625e+00,-9.782670736312866211e-01
-4.551779270172119141e+00,2.163441419601440430e+00,-7.982181906700134277e-01
-4.557148456573486328e+00,2.165993213653564453e+00,-6.195335984230041504e-01
-4.563043594360351562e+00,2.168795347213745117e+00,-4.420123100280761719e-01
-4.568828582763671875e+00,2.171544790267944336e+00,-2.651115059852600098e-01
-4.574533462524414062e+00,2.174256324768066406e+00,-8.840894699096679688e-02
-4.580235481262207031e+00,2.176966428756713867e+00,8.851914852857589722e-02
-4.585863590240478516e+00,2.179641485214233398e+00,2.660999596118927002e-01
-4.592104911804199219e+00,2.182608127593994141e+00,4.448274374008178711e-01
-4.597467899322509766e+00,2.185157060623168945e+00,6.250149607658386230e-01
-4.603547573089599609e+00,2.188046693801879883e+00,8.072965741157531738e-01
-4.609250545501708984e+00,2.190757274627685547e+00,9.919973611831665039e-01
-4.615896224975585938e+00,2.193916082382202148e+00,1.179907798767089844e+00
-3.637038946151733398e+00,1.665281534194946289e+00,-1.071835756301879883e+00
-4.309664249420166016e+00,1.973254680633544922e+00,-1.094297528266906738e+00
-4.705723285675048828e+00,2.154597043991088867e+00,-1.006019711494445801e+00
-4.712516784667968750e+00,2.157707691192626953e+00,-8.209057450294494629e-01
-4.718213558197021484e+00,2.160315990447998047e+00,-6.371610760688781738e-01
-4.724329948425292969e+00,2.163116693496704102e+00,-4.545900225639343262e-01
-4.730104446411132812e+00,2.165760517120361328e+00,-2.726429998874664307e-01
-4.736016273498535156e+00,2.168467283248901367e+00,-9.092065691947937012e-02
-4.742152214050292969e+00,2.171276807785034180e+00,9.103845059871673584e-02
-4.747972965240478516e+00,2.173941850662231445e+00,2.736729383468627930e-01
-4.754302978515625000e+00,2.176840066909790039e+00,4.574740827083587646e-01
-4.759613037109375000e+00,2.179271459579467773e+00,6.427517533302307129e-01
-4.766777992248535156e+00,2.182552099227905273e+00,8.303578495979309082e-01
-4.772409439086914062e+00,2.185130596160888672e+00,1.020276308059692383e+00
-4.778890132904052734e+00,2.188097953796386719e+00,1.213441967964172363e+00
-3.652580022811889648e+00,1.609567523002624512e+00,-1.069516777992248535e+00
-4.348027706146240234e+00,1.916027784347534180e+00,-1.096962571144104004e+00
-4.862872123718261719e+00,2.142902135848999023e+00,-1.032952904701232910e+00
-4.869094371795654297e+00,2.145643949508666992e+00,-8.427448868751525879e-01
-4.875099182128906250e+00,2.148290157318115234e+00,-6.541278362274169922e-01
-4.881076335906982422e+00,2.150923967361450195e+00,-4.666623771190643311e-01
-4.887162208557128906e+00,2.153605937957763672e+00,-2.798903584480285645e-01
-4.893271923065185547e+00,2.156298398971557617e+00,-9.333752095699310303e-02
-4.899498462677001953e+00,2.159041881561279297e+00,9.345628321170806885e-02
-4.905877113342285156e+00,2.161853075027465820e+00,2.809621691703796387e-01
-4.912303924560546875e+00,2.164685010910034180e+00,4.696479737758636475e-01
-4.918617248535156250e+00,2.167467117309570312e+00,6.599670052528381348e-01
-4.924625873565673828e+00,2.170114755630493164e+00,8.523562550544738770e-01
-4.931482315063476562e+00,2.173136234283447266e+00,1.047526836395263672e+00
-4.937819480895996094e+00,2.175928831100463867e+00,1.245760917663574219e+00
-3.673679113388061523e+00,1.556464910507202148e+00,-1.069061994552612305e+00
-4.363818168640136719e+00,1.848863005638122559e+00,-1.094157695770263672e+00
-5.047074317932128906e+00,2.138345241546630859e+00,-1.065469861030578613e+00
-5.053039550781250000e+00,2.140872478485107422e+00,-8.691893815994262695e-01
-5.059690475463867188e+00,2.143690347671508789e+00,-6.747096776962280273e-01
-5.066177845001220703e+00,2.146439075469970703e+00,-4.813726842403411865e-01
-5.072637081146240234e+00,2.149175405502319336e+00,-2.887212634086608887e-01
-5.078983306884765625e+00,2.151864290237426758e+00,-9.628252685070037842e-02
-5.085310459136962891e+00,2.154544830322265625e+00,9.640246629714965820e-02
-5.091654300689697266e+00,2.157232761383056641e+00,2.898036837577819824e-01
-5.097908496856689453e+00,2.159882545471191406e+00,4.843876361846923828e-01
-5.104980945587158203e+00,2.162878990173339844e+00,6.807491183280944824e-01
-5.112066268920898438e+00,2.165880918502807617e+00,8.793427944183349609e-01
-5.118803024291992188e+00,2.168735265731811523e+00,1.080612301826477051e+00
-5.124866008758544922e+00,2.171303987503051758e+00,1.284978389739990234e+00
-3.712245464324951172e+00,1.510509371757507324e+00,-1.073883295059204102e+00
-4.405295372009277344e+00,1.792510747909545898e+00,-1.098011970520019531e+00
-5.227780342102050781e+00,2.127179145812988281e+00,-1.097078084945678711e+00
-5.234264850616455078e+00,2.129817724227905273e+00,-8.950270414352416992e-01
-5.241319179534912109e+00,2.132688045501708984e+00,-6.947879791259765625e-01
-5.248070716857910156e+00,2.135435104370117188e+00,-4.957005381584167480e-01
-5.254656791687011719e+00,2.138115167617797852e+00,-2.973090112209320068e-01
-5.261250972747802734e+00,2.140798091888427734e+00,-9.914673864841461182e-02
-5.267916679382324219e+00,2.143510580062866211e+00,9.927235543727874756e-02
-5.274464607238769531e+00,2.146174907684326172e+00,2.984297573566436768e-01
-5.280787944793701172e+00,2.148747920989990234e+00,4.987908303737640381e-01
-5.287811279296875000e+00,2.151605844497680664e+00,7.009510397911071777e-01
-5.294713497161865234e+00,2.154414176940917969e+00,9.053633213043212891e-01
-5.301127433776855469e+00,2.157024145126342773e+00,1.112470388412475586e+00
-5.308498382568359375e+00,2.160023212432861328e+00,1.323133707046508789e+00
-3.733252525329589844e+00,1.457134723663330078e+00,-1.073816776275634766e+00
-4.421151638031005859e+00,1.725630283355712891e+00,-1.095695495605468750e+00
-5.415444374084472656e+00,2.113715171813964844e+00,-1.129995584487915039e+00
-5.436314582824707031e+00,2.121860980987548828e+00,-9.242883324623107910e-01
-5.442985534667968750e+00,2.124464988708496094e+00,-7.174164652824401855e-01
-5.449687004089355469e+00,2.127080440521240234e+00,-5.118158459663391113e-01
-5.456684112548828125e+00,2.129811525344848633e+00,-3.069834709167480469e-01
-5.463534832000732422e+00,2.132485389709472656e+00,-1.023730263113975525e-01
-5.470310211181640625e+00,2.135129928588867188e+00,1.024999916553497314e-01
-5.477447509765625000e+00,2.137915849685668945e+00,3.081515729427337646e-01
-5.484698772430419922e+00,2.140746116638183594e+00,5.151040554046630859e-01
-5.491878509521484375e+00,2.143548488616943359e+00,7.238608002662658691e-01
-5.498774528503417969e+00,2.146239995956420898e+00,9.349078536033630371e-01
-5.505013465881347656e+00,2.148674964904785156e+00,1.148685216903686523e+00
-5.513915061950683594e+00,2.152149438858032227e+00,1.366515398025512695e+00
-3.754235029220581055e+00,1.403746008872985840e+00,-1.073962688446044922e+00
-4.437129974365234375e+00,1.659087300300598145e+00,-1.093658089637756348e+00
-5.462393760681152344e+00,2.042443752288818359e+00,-1.133575916290283203e+00
-5.646754264831542969e+00,2.111377954483032227e+00,-9.548314809799194336e-01
-5.653916835784912109e+00,2.114056110382080078e+00,-7.411540746688842773e-01
-5.660946846008300781e+00,2.116684913635253906e+00,-5.287570953369140625e-01
-5.667996883392333984e+00,2.119320869445800781e+00,-3.171324729919433594e-01
-5.675119876861572266e+00,2.121984243392944336e+00,-1.057576611638069153e-01
-5.682400226593017578e+00,2.124706268310546875e+00,1.058933362364768982e-01
-5.689756393432617188e+00,2.127456903457641602e+00,3.183499276638031006e-01
-5.697065830230712891e+00,2.130189895629882812e+00,5.321307182312011719e-01
-5.704143524169921875e+00,2.132836341857910156e+00,7.477381229400634766e-01
-5.712180137634277344e+00,2.135841369628906250e+00,9.658945798873901367e-01
-5.718218803405761719e+00,2.138099431991577148e+00,1.186665654182434082e+00
-5.726829528808593750e+00,2.141319036483764648e+00,1.411541581153869629e+00
-3.755210161209106445e+00,1.343172073364257812e+00,-1.068632483482360840e+00
-4.481594562530517578e+00,1.602986812591552734e+00,-1.098849773406982422e+00
-5.509179592132568359e+00,1.970535874366760254e+00,-1.137315273284912109e+00
-5.866957187652587891e+00,2.098506450653076172e+00,-9.868863224983215332e-01
-5.873991012573242188e+00,2.101022481918334961e+00,-7.659823298454284668e-01
-5.881632804870605469e+00,2.103755712509155273e+00,-5.465015172958374023e-01
-5.889132022857666016e+00,2.106437921524047852e+00,-3.277847468852996826e-01
-5.896537780761718750e+00,2.109086990356445312e+00,-1.093100905418395996e-01
-5.903941154479980469e+00,2.111735105514526367e+00,1.094473376870155334e-01
-5.911253929138183594e+00,2.114350557327270508e+00,3.290160298347473145e-01
-5.919288158416748047e+00,2.117224216461181641e+00,5.500003099441528320e-01
-5.926246166229248047e+00,2.119713068008422852e+00,7.727965116500854492e-01
-5.934024333953857422e+00,2.122495174407958984e+00,9.981676936149597168e-01
-5.942966938018798828e+00,2.125693798065185547e+00,1.226866364479064941e+00
-3.779107570648193359e+00,1.291018009185791016e+00,-1.070064783096313477e+00
-4.500979423522949219e+00,1.537623763084411621e+00,-1.098093986511230469e+00
-5.516831398010253906e+00,1.884658813476562500e+00,-1.133209943771362305e+00
-6.112174987792968750e+00,2.088040113449096680e+00,-1.023002505302429199e+00
-6.119805335998535156e+00,2.090646743774414062e+00,-7.940535545349121094e-01
-6.127871513366699219e+00,2.093402385711669922e+00,-5.665390491485595703e-01
-6.135480880737304688e+00,2.096001863479614258e+00,-3.397917151451110840e-01
-6.143203258514404297e+00,2.098639965057373047e+00,-1.133143156766891479e-01
-6.151155948638916016e+00,2.101356744766235352e+00,1.134610027074813843e-01
-6.158680915832519531e+00,2.103927373886108398e+00,3.410765528678894043e-01
-6.166761875152587891e+00,2.106688022613525391e+00,5.701345801353454590e-01
-6.174810409545898438e+00,2.109437704086303711e+00,8.011905550956726074e-01
-6.182480812072753906e+00,2.112057924270629883e+00,1.034769654273986816e+00
-6.191196441650390625e+00,2.115035533905029297e+00,1.271731019020080566e+00
-3.802904367446899414e+00,1.238658070564270020e+00,-1.071673035621643066e+00
-4.520383834838867188e+00,1.472350835800170898e+00,-1.097574114799499512e+00
-5.567672729492187500e+00,1.813467264175415039e+00,-1.138204813003540039e+00
-6.370066642761230469e+00,2.074817895889282227e+00,-1.061086893081665039e+00
-6.378332614898681641e+00,2.077510356903076172e+00,-8.236550688743591309e-01
-6.386445045471191406e+00,2.080152750015258789e+00,-5.876320004463195801e-01
-6.394580841064453125e+00,2.082802534103393555e+00,-3.524538874626159668e-01
-6.402635097503662109e+00,2.085425853729248047e+00,-1.175370290875434875e-01
-6.410733222961425781e+00,2.088063716888427734e+00,1.176856905221939087e-01
-6.418908119201660156e+00,2.090726137161254883e+00,3.537947535514831543e-01
-6.427028179168701172e+00,2.093371152877807617e+00,5.913661718368530273e-01
-6.434920310974121094e+00,2.095941781997680664e+00,8.309624791145324707e-01
-6.443758010864257812e+00,2.098820209503173828e+00,1.073361992835998535e+00
-6.452213287353515625e+00,2.101574182510375977e+00,1.319032311439514160e+00
-3.810159206390380859e+00,1.180978655815124512e+00,-1.068844318389892578e+00
-4.543413639068603516e+00,1.408254623413085938e+00,-1.098159193992614746e+00
-5.579986572265625000e+00,1.729545831680297852e+00,-1.135545015335083008e+00
-6.658055305480957031e+00,2.063698768615722656e+00,-1.104024767875671387e+00
-6.667066574096679688e+00,2.066491842269897461e+00,-8.570328950881958008e-01
-6.675704479217529297e+00,2.069169282913208008e+00,-6.114596724510192871e-01
-6.684143543243408203e+00,2.071785211563110352e+00,-3.667418658733367920e-01
-6.692596912384033203e+00,2.074405193328857422e+00,-1.223024278879165649e-01
-6.701139926910400391e+00,2.077053070068359375e+00,1.224585473537445068e-01
-6.709545135498046875e+00,2.079658269882202148e+00,3.681355714797973633e-01
-6.717675209045410156e+00,2.082178354263305664e+00,6.153039932250976562e-01
-6.726654052734375000e+00,2.084961414337158203e+00,8.646927475929260254e-01
-6.735366344451904297e+00,2.087661743164062500e+00,1.116844415664672852e+00
-6.745313167572021484e+00,2.090744972229003906e+00,1.372692704200744629e+00
-3.833754301071166992e+00,1.128411531448364258e+00,-1.070822834968566895e+00
-4.562701225280761719e+00,1.342966675758361816e+00,-1.098062396049499512e+00
-5.588029861450195312e+00,1.644757866859436035e+00,-1.132274985313415527e+00
-6.945988655090332031e+00,2.044453859329223633e+00,-1.146799564361572266e+00
-6.954718112945556641e+00,2.047023296356201172e+00,-8.901520371437072754e-01
-6.963433742523193359e+00,2.049588680267333984e+00,-6.350620388984680176e-01
-6.972459316253662109e+00,2.052245140075683594e+00,-3.809102475643157959e-01
-6.981287002563476562e+00,2.054843425750732422e+00,-1.270275413990020752e-01
-6.989993095397949219e+00,2.057405948638916016e+00,1.271859556436538696e-01
-6.999101161956787109e+00,2.060086727142333984e+00,3.823657035827636719e-01
-7.008298873901367188e+00,2.062793970108032227e+00,6.391537189483642578e-01
-7.017401218414306641e+00,2.065473318099975586e+00,8.981750607490539551e-01
-7.026010036468505859e+00,2.068006992340087891e+00,1.160011291503906250e+00
-3.844157695770263672e+00,1.071934461593627930e+00,-1.069333553314208984e+00
-4.589237689971923828e+00,1.279698252677917480e+00,-1.099927902221679688e+00
-5.605395317077636719e+00,1.563051342964172363e+00,-1.131144404411315918e+00
-7.262159347534179688e+00,2.025036096572875977e+00,-1.194092154502868652e+00
-7.295735836029052734e+00,2.034399032592773438e+00,-9.299774765968322754e-01
-7.305093288421630859e+00,2.037008285522460938e+00,-6.634941697120666504e-01
-7.314336299896240234e+00,2.039585590362548828e+00,-3.979516327381134033e-01
-7.323649406433105469e+00,2.042182683944702148e+00,-1.327115148305892944e-01
-7.333019256591796875e+00,2.044795274734497070e+00,1.328812986612319946e-01
-7.342377662658691406e+00,2.047405004501342773e+00,3.994772732257843018e-01
-7.351578235626220703e+00,2.049970388412475586e+00,6.677162647247314453e-01
-7.361814498901367188e+00,2.052824735641479492e+00,9.384004473686218262e-01
-7.370193481445312500e+00,2.055161237716674805e+00,1.211855888366699219e+00
-3.873526811599731445e+00,1.020606875419616699e+00,-1.073329567909240723e+00
-4.588548660278320312e+00,1.209002614021301270e+00,-1.095502972602844238e+00
-5.622904777526855469e+00,1.481537342071533203e+00,-1.130282759666442871e+00
-7.253192424774169922e+00,1.911089897155761719e+00,-1.187998294830322266e+00
-7.658658027648925781e+00,2.017922878265380859e+00,-9.724573493003845215e-01
-7.668711662292480469e+00,2.020571947097778320e+00,-6.938223838806152344e-01
-7.678231716156005859e+00,2.023080348968505859e+00,-4.161320030689239502e-01
-7.688019752502441406e+00,2.025659322738647461e+00,-1.387746334075927734e-01
-7.698094367980957031e+00,2.028313636779785156e+00,1.389564871788024902e-01
-7.707715511322021484e+00,2.030848741531372070e+00,4.177299141883850098e-01
-7.718029975891113281e+00,2.033566474914550781e+00,6.982844471931457520e-01
-7.728334903717041016e+00,2.036281585693359375e+00,9.813045859336853027e-01
-7.738189697265625000e+00,2.038878202438354492e+00,1.267435908317565918e+00
-3.883845090866088867e+00,9.640983343124389648e-01,-1.072255134582519531e+00
-4.614954948425292969e+00,1.145583868026733398e+00,-1.097780108451843262e+00
-5.640456199645996094e+00,1.400147080421447754e+00,-1.129666686058044434e+00
-7.313245296478271484e+00,1.815388441085815430e+00,-1.193456172943115234e+00
-8.045444488525390625e+00,1.997144460678100586e+00,-1.017835617065429688e+00
-8.055769920349121094e+00,1.999707341194152832e+00,-7.261772155761718750e-01
-8.066070556640625000e+00,2.002264499664306641e+00,-4.355535805225372314e-01
-8.076368331909179688e+00,2.004820585250854492e+00,-1.452517509460449219e-01
-8.086680412292480469e+00,2.007380485534667969e+00,1.454372107982635498e-01
-8.097084045410156250e+00,2.009963035583496094e+00,4.372282624244689941e-01
-8.107414245605468750e+00,2.012527227401733398e+00,7.308326959609985352e-01
-8.118944168090820312e+00,2.015389442443847656e+00,1.027134060859680176e+00
-8.128555297851562500e+00,2.017775297164916992e+00,1.326507449150085449e+00
-3.897264480590820312e+00,9.084184169769287109e-01,-1.072260379791259766e+00
-4.618398189544677734e+00,1.076508402824401855e+00,-1.094821691513061523e+00
-5.662585258483886719e+00,1.319899320602416992e+00,-1.130199074745178223e+00
-7.310932636260986328e+00,1.704114675521850586e+00,-1.188976407051086426e+00
-8.481751441955566406e+00,1.977022409439086914e+00,-1.069343566894531250e+00
-8.492936134338378906e+00,1.979629397392272949e+00,-7.629526853561401367e-01
-8.503785133361816406e+00,1.982158303260803223e+00,-4.576105177402496338e-01
-8.514692306518554688e+00,1.984700679779052734e+00,-1.526083797216415405e-01
-8.525609970092773438e+00,1.987245559692382812e+00,1.528040617704391479e-01
-8.536314010620117188e+00,1.989740490913391113e+00,4.593609571456909180e-01
-8.547836303710937500e+00,1.992426156997680664e+00,7.678845524787902832e-01
-8.559418678283691406e+00,1.995125889778137207e+00,1.079135417938232422e+00
-3.910620689392089844e+00,8.527122139930725098e-01,-1.072467207908630371e+00
-4.648139953613281250e+00,1.013528466224670410e+00,-1.098320722579956055e+00
-5.684581756591796875e+00,1.239524960517883301e+00,-1.130932450294494629e+00
-7.376003265380859375e+00,1.608340144157409668e+00,-1.195692539215087891e+00
-8.950344085693359375e+00,1.951625704765319824e+00,-1.124784708023071289e+00
-8.962466239929199219e+00,1.954268932342529297e+00,-8.025373220443725586e-01
-8.973749160766601562e+00,1.956729173660278320e+00,-4.813440442085266113e-01
-8.985279083251953125e+00,1.959243178367614746e+00,-1.605236232280731201e-01
-8.997046470642089844e+00,1.961809158325195312e+00,1.607338488101959229e-01
-9.008058547973632812e+00,1.964210391044616699e+00,4.831843674182891846e-01
-9.019598007202148438e+00,1.966726422309875488e+00,8.076530694961547852e-01
-9.032478332519531250e+00,1.969534873962402344e+00,1.135106325149536133e+00
-3.908968687057495117e+00,7.939232587814331055e-01,-1.068788170814514160e+00
-4.655370712280273438e+00,9.455196857452392578e-01,-1.096719026565551758e+00
-5.711032867431640625e+00,1.159927845001220703e+00,-1.132775664329528809e+00
-7.379879474639892578e+00,1.498875617980957031e+00,-1.192720890045166016e+00
-9.483154296875000000e+00,1.926056981086730957e+00,-1.188156366348266602e+00
-9.494937896728515625e+00,1.928450226783752441e+00,-8.476585149765014648e-01
-9.507286071777343750e+00,1.930958271026611328e+00,-5.084279179573059082e-01
-9.519527435302734375e+00,1.933444499969482422e+00,-1.695562899112701416e-01
-9.531648635864257812e+00,1.935906291007995605e+00,1.697721779346466064e-01
-9.544513702392578125e+00,1.938519239425659180e+00,5.104187130928039551e-01
-9.556451797485351562e+00,1.940943956375122070e+00,8.531502485275268555e-01
-9.569313049316406250e+00,1.943556070327758789e+00,1.198951363563537598e+00
-3.928424358367919922e+00,7.394955754280090332e-01,-1.071103930473327637e+00
-4.666446685791015625e+00,8.784226179122924805e-01,-1.096253991127014160e+00
-5.741848945617675781e+00,1.080858826637268066e+00,-1.135703206062316895e+00
-7.390241146087646484e+00,1.391155838966369629e+00,-1.191055297851562500e+00
-1.008992481231689453e+01,1.899350523948669434e+00,-1.260644078254699707e+00
-1.010293292999267578e+01,1.901799082756042480e+00,-8.994148373603820801e-01
-1.011595439910888672e+01,1.904250383377075195e+00,-5.394651889801025391e-01
-1.012900829315185547e+01,1.906707644462585449e+00,-1.799074709415435791e-01
-1.014213275909423828e+01,1.909178256988525391e+00,1.801405847072601318e-01
-1.015541076660156250e+01,1.911677718162536621e+00,5.415692925453186035e-01
-1.016868877410888672e+01,1.914177179336547852e+00,9.052687287330627441e-01
-1.018152236938476562e+01,1.916593194007873535e+00,1.272088408470153809e+00
-3.930140256881713867e+00,6.817278265953063965e-01,-1.068801760673522949e+00
-4.677544593811035156e+00,8.113736510276794434e-01,-1.096020579338073730e+00
-5.734045505523681641e+00,9.946358799934387207e-01,-1.131227850914001465e+00
-7.400881767272949219e+00,1.283767700195312500e+00,-1.189686894416809082e+00
-1.042327022552490234e+01,1.808035612106323242e+00,-1.298926234245300293e+00
-1.076708030700683594e+01,1.867673397064208984e+00,-9.560628533363342285e-01
-1.078102397918701172e+01,1.870092034339904785e+00,-5.734459161758422852e-01
-1.079502201080322266e+01,1.872520208358764648e+00,-1.912413090467453003e-01
-1.080901527404785156e+01,1.874947428703308105e+00,1.914892047643661499e-01
-1.082273674011230469e+01,1.877327561378479004e+00,5.756646394729614258e-01
-1.083747100830078125e+01,1.879883527755737305e+00,9.623131752014160156e-01
-3.952296733856201172e+00,6.274422407150268555e-01,-1.072275042533874512e+00
-4.692280292510986328e+00,7.449175119400024414e-01,-1.096862673759460449e+00
-5.768975734710693359e+00,9.158470630645751953e-01,-1.135416507720947266e+00
-7.417631149291992188e+00,1.177577376365661621e+00,-1.189548015594482422e+00
-1.037406444549560547e+01,1.646922588348388672e+00,-1.289724588394165039e+00
-1.153207588195800781e+01,1.830761313438415527e+00,-1.021559119224548340e+00
-1.154692554473876953e+01,1.833118677139282227e+00,-6.127260923385620117e-01
-1.156196403503417969e+01,1.835506081581115723e+00,-2.043418437242507935e-01
-1.157718372344970703e+01,1.837922334671020508e+00,2.046108394861221313e-01
-1.159248542785644531e+01,1.840351462364196777e+00,6.151436567306518555e-01
-1.160769557952880859e+01,1.842766046524047852e+00,1.028257846832275391e+00
-3.960098981857299805e+00,5.707013607025146484e-01,-1.072065830230712891e+00
-4.710545063018798828e+00,6.788502931594848633e-01,-1.098748326301574707e+00
-5.770738124847412109e+00,8.316378593444824219e-01,-1.133304476737976074e+00
-7.440262794494628906e+00,1.072237849235534668e+00,-1.190594196319580078e+00
-1.045806312561035156e+01,1.507141828536987305e+00,-1.297352552413940430e+00
-1.241984558105468750e+01,1.789860010147094727e+00,-1.097819566726684570e+00
-1.243579864501953125e+01,1.792159080505371094e+00,-6.584646105766296387e-01
-1.245205211639404297e+01,1.794501304626464844e+00,-2.195964902639389038e-01
-1.246866798400878906e+01,1.796895980834960938e+00,2.198895215988159180e-01
-1.248456001281738281e+01,1.799186229705810547e+00,6.610465049743652344e-01
-1.250142955780029297e+01,1.801617264747619629e+00,1.105031013488769531e+00
-3.967867851257324219e+00,5.139668583869934082e-01,-1.072067618370056152e+00
-4.704574108123779297e+00,6.093940138816833496e-01,-1.095208764076232910e+00
-5.772815704345703125e+00,7.477658390998840332e-01,-1.131494641304016113e+00
-7.462653636932373047e+00,9.666543602943420410e-01,-1.191841125488281250e+00
-1.041942214965820312e+01,1.349651217460632324e+00,-1.290030479431152344e+00
-1.341253852844238281e+01,1.737356305122375488e+00,-1.183246731758117676e+00
-1.342995071411132812e+01,1.739611744880676270e+00,-7.097129821777343750e-01
-1.344764804840087891e+01,1.741904020309448242e+00,-2.366902381181716919e-01
-1.346555328369140625e+01,1.744223356246948242e+00,2.370053976774215698e-01
-1.348334217071533203e+01,1.746527671813964844e+00,7.125344872474670410e-01
-3.965183496475219727e+00,4.560181498527526855e-01,-1.069469213485717773e+00
-4.706336021423339844e+00,5.412548184394836426e-01,-1.093703508377075195e+00
-5.784126758575439453e+00,6.652067303657531738e-01,-1.131729483604431152e+00
-7.496508598327636719e+00,8.621401786804199219e-01,-1.195154666900634766e+00
-1.051781177520751953e+01,1.209606766700744629e+00,-1.299935221672058105e+00
-1.463568878173828125e+01,1.683185577392578125e+00,-1.288895010948181152e+00
-1.465475177764892578e+01,1.685377955436706543e+00,-7.730842232704162598e-01
-1.467416095733642578e+01,1.687610149383544922e+00,-2.578263580799102783e-01
