-1.495650172233581543e+00,-2.851642370223999023e+00,-7.434099912643432617e-01
-1.497179865837097168e+00,-2.854558944702148438e+00,-6.265568733215332031e-01
-1.499043345451354980e+00,-2.858111858367919922e+00,-5.111648440361022949e-01
-1.500840783119201660e+00,-2.861539125442504883e+00,-3.967461287975311279e-01
-1.502765655517578125e+00,-2.865208864212036133e+00,-2.830592393875122070e-01
-1.504499435424804688e+00,-2.868514537811279297e+00,-1.697548031806945801e-01
-1.506288766860961914e+00,-2.871926307678222656e+00,-5.660619959235191345e-02
-1.508138775825500488e+00,-2.875453472137451172e+00,5.667572468519210815e-02
-1.509814620018005371e+00,-2.878648757934570312e+00,1.703545302152633667e-01
-1.511636734008789062e+00,-2.882122993469238281e+00,2.847301959991455078e-01
-1.513424158096313477e+00,-2.885530948638916016e+00,4.000725150108337402e-01
-1.515587091445922852e+00,-2.889654636383056641e+00,5.168061852455139160e-01
-1.517167687416076660e+00,-2.892668247222900391e+00,6.349216699600219727e-01
-1.519098997116088867e+00,-2.896350622177124023e+00,7.550652027130126953e-01
-1.438367128372192383e+00,-2.840532541275024414e+00,-8.531349301338195801e-01
-1.440462470054626465e+00,-2.844670295715332031e+00,-7.361419796943664551e-01
-1.441949009895324707e+00,-2.847605943679809570e+00,-6.204370260238647461e-01
-1.443754196166992188e+00,-2.851171016693115234e+00,-5.061757564544677734e-01
-1.445493340492248535e+00,-2.854605674743652344e+00,-3.928759396076202393e-01
-1.447352409362792969e+00,-2.858277082443237305e+00,-2.802990674972534180e-01
-1.449025392532348633e+00,-2.861580848693847656e+00,-1.680998504161834717e-01
-1.450749397277832031e+00,-2.864985466003417969e+00,-5.605436488986015320e-02
-1.452528834342956543e+00,-2.868499517440795898e+00,5.612312257289886475e-02
-1.454138517379760742e+00,-2.871678352355957031e+00,1.686930209398269653e-01
-1.455886244773864746e+00,-2.875129699707031250e+00,2.819517552852630615e-01
-1.457598090171813965e+00,-2.878510475158691406e+00,3.961659371852874756e-01
-1.459668993949890137e+00,-2.882600069046020508e+00,5.117554664611816406e-01
-1.461177229881286621e+00,-2.885578632354736328e+00,6.287105083465576172e-01
-1.463020324707031250e+00,-2.889218568801879883e+00,7.476701140403747559e-01
-1.385782957077026367e+00,-2.836707115173339844e+00,-8.459420204162597656e-01
-1.387817978858947754e+00,-2.840873003005981445e+00,-7.299439907073974609e-01
-1.389264822006225586e+00,-2.843834638595581055e+00,-6.152197122573852539e-01
-1.391015529632568359e+00,-2.847418308258056641e+00,-5.019233822822570801e-01
-1.392699956893920898e+00,-2.850866317749023438e+00,-3.895778656005859375e-01
-1.394496917724609375e+00,-2.854544878005981445e+00,-2.779471874237060547e-01
-1.396112084388732910e+00,-2.857851028442382812e+00,-1.666897833347320557e-01
-1.397773504257202148e+00,-2.861252069473266602e+00,-5.558418482542037964e-02
-1.399485349655151367e+00,-2.864756107330322266e+00,5.565225705504417419e-02
-1.401031136512756348e+00,-2.867920398712158203e+00,1.672770977020263672e-01
-1.402706980705261230e+00,-2.871351003646850586e+00,2.795836031436920166e-01
-1.404345512390136719e+00,-2.874704837799072266e+00,3.928354680538177490e-01
-1.406326651573181152e+00,-2.878760337829589844e+00,5.074481368064880371e-01
-1.407764077186584473e+00,-2.881702899932861328e+00,6.234118938446044922e-01
-1.409520983695983887e+00,-2.885299205780029297e+00,7.413589954376220703e-01
-1.333193540573120117e+00,-2.831089019775390625e+00,-8.384900689125061035e-01
-1.334677934646606445e+00,-2.834241151809692383e+00,-7.232573032379150391e-01
-1.336438536643981934e+00,-2.837980031967163086e+00,-6.097524166107177734e-01
-1.337787270545959473e+00,-2.840844154357910156e+00,-4.973382353782653809e-01
-1.339418768882751465e+00,-2.844308853149414062e+00,-3.860223591327667236e-01
-1.341154813766479492e+00,-2.847995281219482422e+00,-2.754120826721191406e-01
-1.342712402343750000e+00,-2.851302862167358398e+00,-1.651699542999267578e-01
-1.344310522079467773e+00,-2.854696512222290039e+00,-5.507739260792732239e-02
-1.345953702926635742e+00,-2.858185768127441406e+00,5.514471232891082764e-02
-1.347433447837829590e+00,-2.861328125000000000e+00,1.657506972551345825e-01
-1.349034190177917480e+00,-2.864727258682250977e+00,2.770301401615142822e-01
-1.350945591926574707e+00,-2.868786334991455078e+00,3.893443942070007324e-01
-1.352482318878173828e+00,-2.872049570083618164e+00,5.028012990951538086e-01
-1.354341983795166016e+00,-2.875998735427856445e+00,6.179208755493164062e-01
-1.356077551841735840e+00,-2.879684209823608398e+00,7.348537445068359375e-01
-1.281087160110473633e+00,-2.824631214141845703e+00,-8.310614228248596191e-01
-1.282539248466491699e+00,-2.827832937240600586e+00,-7.168640494346618652e-01
-1.284252643585205078e+00,-2.831610679626464844e+00,-6.043725609779357910e-01
-1.285566687583923340e+00,-2.834508180618286133e+00,-4.929571449756622314e-01
-1.287337779998779297e+00,-2.838413000106811523e+00,-3.826822340488433838e-01
-1.288824558258056641e+00,-2.841691017150878906e+00,-2.729905247688293457e-01
-1.290326118469238281e+00,-2.845001935958862305e+00,-1.637183278799057007e-01
-1.291862487792968750e+00,-2.848389387130737305e+00,-5.459335446357727051e-02
-1.293437361717224121e+00,-2.851861715316772461e+00,5.465990677475929260e-02
-1.295039057731628418e+00,-2.855393409729003906e+00,1.643162965774536133e-01
-1.296377301216125488e+00,-2.858343839645385742e+00,2.745903134346008301e-01
-1.298196554183959961e+00,-2.862355232238769531e+00,3.859101831912994385e-01
-1.299652576446533203e+00,-2.865565538406372070e+00,4.983584284782409668e-01
-1.301414132118225098e+00,-2.869449615478515625e+00,6.124488115310668945e-01
-1.303052783012390137e+00,-2.873062372207641602e+00,7.283298373222351074e-01
-1.231083273887634277e+00,-2.821029901504516602e+00,-8.247329592704772949e-01
-1.232504248619079590e+00,-2.824286222457885742e+00,-7.114198803901672363e-01
-1.234171390533447266e+00,-2.828106403350830078e+00,-5.997927784919738770e-01
-1.235704898834228516e+00,-2.831620454788208008e+00,-4.893288016319274902e-01
-1.237166643142700195e+00,-2.834969997406005859e+00,-3.797916769981384277e-01
-1.238604426383972168e+00,-2.838264703750610352e+00,-2.709304988384246826e-01
-1.240052223205566406e+00,-2.841582298278808594e+00,-1.624834835529327393e-01
-1.241528868675231934e+00,-2.844966173171997070e+00,-5.418159440159797668e-02
-1.243038535118103027e+00,-2.848425388336181641e+00,5.424747616052627563e-02
-1.244569182395935059e+00,-2.851933002471923828e+00,1.630753427743911743e-01
-1.246094942092895508e+00,-2.855429172515869141e+00,2.725689709186553955e-01
-1.247574567794799805e+00,-2.858819961547851562e+00,3.829867541790008545e-01
-1.248953342437744141e+00,-2.861979246139526367e+00,4.945750236511230469e-01
-1.250620961189270020e+00,-2.865800857543945312e+00,6.077870726585388184e-01
-1.252167105674743652e+00,-2.869343519210815430e+00,7.227695584297180176e-01
-1.180737376213073730e+00,-2.814889192581176758e+00,-8.179129958152770996e-01
-1.182131171226501465e+00,-2.818212032318115234e+00,-7.055553793907165527e-01
-1.183755278587341309e+00,-2.822083950042724609e+00,-5.948610901832580566e-01
-1.185246944427490234e+00,-2.825639963150024414e+00,-4.853138923645019531e-01
-1.186664938926696777e+00,-2.829020500183105469e+00,-3.766805827617645264e-01
-1.188054919242858887e+00,-2.832334280014038086e+00,-2.687136232852935791e-01
-1.189449310302734375e+00,-2.835658550262451172e+00,-1.611547321081161499e-01
-1.190866112709045410e+00,-2.839036226272583008e+00,-5.373853072524070740e-02
-1.192309021949768066e+00,-2.842475891113281250e+00,5.380364134907722473e-02
-1.193767070770263672e+00,-2.845952033996582031e+00,1.617397367954254150e-01
-1.195215106010437012e+00,-2.849404335021972656e+00,2.703331112861633301e-01
-1.196614146232604980e+00,-2.852739334106445312e+00,3.798387348651885986e-01
-1.197911620140075684e+00,-2.855832815170288086e+00,4.904996156692504883e-01
-1.199480414390563965e+00,-2.859572649002075195e+00,6.027632355690002441e-01
-1.200928330421447754e+00,-2.863024711608886719e+00,7.167745232582092285e-01
-1.132237792015075684e+00,-2.811406612396240234e+00,-8.121089339256286621e-01
-1.133960723876953125e+00,-2.815684795379638672e+00,-7.007874250411987305e-01
-1.135185122489929199e+00,-2.818725109100341797e+00,-5.906676054000854492e-01
-1.136635184288024902e+00,-2.822325706481933594e+00,-4.819010198116302490e-01
-1.138010025024414062e+00,-2.825739383697509766e+00,-3.740365803241729736e-01
-1.139353394508361816e+00,-2.829075098037719727e+00,-2.668298780918121338e-01
-1.140695810317993164e+00,-2.832408666610717773e+00,-1.600257456302642822e-01
-1.142054915428161621e+00,-2.835783004760742188e+00,-5.336207151412963867e-02
-1.143433809280395508e+00,-2.839206933975219727e+00,5.342650040984153748e-02
-1.144822359085083008e+00,-2.842654943466186523e+00,1.606046408414840698e-01
-1.146196484565734863e+00,-2.846066951751708984e+00,2.684324979782104492e-01
-1.147518873214721680e+00,-2.849350452423095703e+00,3.771619200706481934e-01
-1.149098157882690430e+00,-2.853271961212158203e+00,4.871849417686462402e-01
-1.150214791297912598e+00,-2.856044530868530273e+00,5.984879732131958008e-01
-1.152050733566284180e+00,-2.860603332519531250e+00,7.119670510292053223e-01
-1.083882451057434082e+00,-2.806601524353027344e+00,-8.061569333076477051e-01
-1.085166215896606445e+00,-2.809925794601440430e+00,-6.954169869422912598e-01
-1.086367726325988770e+00,-2.813037157058715820e+00,-5.861572027206420898e-01
-1.087778687477111816e+00,-2.816690683364868164e+00,-4.782313406467437744e-01
-1.089112162590026855e+00,-2.820143222808837891e+00,-3.711943328380584717e-01
-1.090409755706787109e+00,-2.823503494262695312e+00,-2.648051977157592773e-01
-1.091700911521911621e+00,-2.826846599578857422e+00,-1.588123887777328491e-01
-1.093001842498779297e+00,-2.830215454101562500e+00,-5.295748636126518250e-02
-1.094315886497497559e+00,-2.833618164062500000e+00,5.302115529775619507e-02
-1.095633268356323242e+00,-2.837029218673706055e+00,1.593844592571258545e-01
-1.096930861473083496e+00,-2.840389251708984375e+00,2.663888335227966309e-01
-1.098173737525939941e+00,-2.843607425689697266e+00,3.742827177047729492e-01
-1.099655747413635254e+00,-2.847445011138916016e+00,4.834529757499694824e-01
-1.101092696189880371e+00,-2.851165771484375000e+00,5.941020846366882324e-01
-1.102406859397888184e+00,-2.854568719863891602e+00,7.064655423164367676e-01
-1.035883903503417969e+00,-2.800953865051269531e+00,-8.001938462257385254e-01
-1.037147164344787598e+00,-2.804369688034057617e+00,-6.902973055839538574e-01
-1.038595557212829590e+00,-2.808285951614379883e+00,-5.820099115371704102e-01
-1.039699316024780273e+00,-2.811270475387573242e+00,-4.747357666492462158e-01
-1.040992259979248047e+00,-2.814766407012939453e+00,-3.684876561164855957e-01
-1.042245388031005859e+00,-2.818154811859130859e+00,-2.628775238990783691e-01
-1.043485879898071289e+00,-2.821508884429931641e+00,-1.576572656631469727e-01
-1.044729709625244141e+00,-2.824872255325317383e+00,-5.257231369614601135e-02
-1.045979738235473633e+00,-2.828252315521240234e+00,5.263521894812583923e-02
-1.047226667404174805e+00,-2.831623792648315430e+00,1.582224667072296143e-01
-1.048449158668518066e+00,-2.834929227828979492e+00,2.644422352313995361e-01
-1.049881935119628906e+00,-2.838803529739379883e+00,3.716343939304351807e-01
-1.050998687744140625e+00,-2.841823101043701172e+00,4.798951447010040283e-01
-1.052335619926452637e+00,-2.845438241958618164e+00,5.897096395492553711e-01
-1.053550481796264648e+00,-2.848722934722900391e+00,7.012149095535278320e-01
-9.893871545791625977e-01,-2.797668457031250000e+00,-7.951280474662780762e-01
-9.906269907951354980e-01,-2.801174163818359375e+00,-6.859502196311950684e-01
-9.920373558998107910e-01,-2.805162429809570312e+00,-5.783605575561523438e-01
-9.931150674819946289e-01,-2.808209896087646484e+00,-4.717701375484466553e-01
-9.943670630455017090e-01,-2.811749935150146484e+00,-3.661920130252838135e-01
-9.955753087997436523e-01,-2.815166711807250977e+00,-2.612427771091461182e-01
-9.967663288116455078e-01,-2.818534374237060547e+00,-1.566778123378753662e-01
-9.979546666145324707e-01,-2.821894645690917969e+00,-5.224571377038955688e-02
-9.991433024406433105e-01,-2.825255870819091797e+00,5.230794101953506470e-02
-1.000323414802551270e+00,-2.828592538833618164e+00,1.572369337081909180e-01
-1.001474380493164062e+00,-2.831847190856933594e+00,2.627907097339630127e-01
-1.002820134162902832e+00,-2.835652589797973633e+00,3.693049848079681396e-01
-1.003859758377075195e+00,-2.838592290878295898e+00,4.768742918968200684e-01
-1.005103468894958496e+00,-2.842109203338623047e+00,5.859781503677368164e-01
-1.006643056869506836e+00,-2.846462488174438477e+00,6.970403790473937988e-01
-9.430906176567077637e-01,-2.793311595916748047e+00,-7.899723649024963379e-01
-9.442605376243591309e-01,-2.796777009963989258e+00,-6.814939379692077637e-01
-9.453415870666503906e-01,-2.799978971481323242e+00,-5.744431614875793457e-01
-9.465861916542053223e-01,-2.803665161132812500e+00,-4.686824977397918701e-01
-9.476077556610107422e-01,-2.806690931320190430e+00,-3.637294173240661621e-01
-9.487724304199218750e-01,-2.810140609741210938e+00,-2.594895660877227783e-01
-9.499141573905944824e-01,-2.813522100448608398e+00,-1.556274294853210449e-01
-9.510468840599060059e-01,-2.816877126693725586e+00,-5.189546942710876465e-02
-9.521733522415161133e-01,-2.820213794708251953e+00,5.195694044232368469e-02
-9.532852172851562500e-01,-2.823506832122802734e+00,1.561797261238098145e-01
-9.545531868934631348e-01,-2.827262401580810547e+00,2.610706090927124023e-01
-9.556190967559814453e-01,-2.830419540405273438e+00,3.668044805526733398e-01
-9.568741917610168457e-01,-2.834136962890625000e+00,4.737764000892639160e-01
-9.580723643302917480e-01,-2.837685823440551758e+00,5.821791291236877441e-01
-9.591472148895263672e-01,-2.840869188308715820e+00,6.922379136085510254e-01
-8.970892429351806641e-01,-2.788102626800537109e+00,-7.847874164581298828e-01
-8.982411026954650879e-01,-2.791682720184326172e+00,-6.770503520965576172e-01
-8.993026018142700195e-01,-2.794981718063354492e+00,-5.707186460494995117e-01
-9.005125761032104492e-01,-2.798742294311523438e+00,-4.656571149826049805e-01
-9.015051722526550293e-01,-2.801826953887939453e+00,-3.613898158073425293e-01
-9.026264548301696777e-01,-2.805312156677246094e+00,-2.578242719173431396e-01
-9.037195444107055664e-01,-2.808709383010864258e+00,-1.546298712491989136e-01
-9.047973752021789551e-01,-2.812059164047241211e+00,-5.156283453106880188e-02
-9.058626294136047363e-01,-2.815369844436645508e+00,5.162353813648223877e-02
-9.069074988365173340e-01,-2.818617343902587891e+00,1.551753431558609009e-01
-9.080933928489685059e-01,-2.822303056716918945e+00,2.593858242034912109e-01
-9.090816974639892578e-01,-2.825374603271484375e+00,3.644270598888397217e-01
-9.102425575256347656e-01,-2.828982353210449219e+00,4.706884920597076416e-01
-9.113432765007019043e-01,-2.832403421401977539e+00,5.783599615097045898e-01
-9.126973748207092285e-01,-2.836611747741699219e+00,6.879467368125915527e-01
-8.520167469978332520e-01,-2.784065485000610352e+00,-7.801384329795837402e-01
-8.528408408164978027e-01,-2.786758184432983398e+00,-6.728266477584838867e-01
-8.541005253791809082e-01,-2.790874481201171875e+00,-5.673255920410156250e-01
-8.550570607185363770e-01,-2.794000148773193359e+00,-4.627844095230102539e-01
-8.561437726020812988e-01,-2.797551155090332031e+00,-3.592208921909332275e-01
-8.570985794067382812e-01,-2.800671100616455078e+00,-2.562440037727355957e-01
-8.581433296203613281e-01,-2.804085016250610352e+00,-1.536833196878433228e-01
-8.591670393943786621e-01,-2.807430028915405273e+00,-5.124720558524131775e-02
-8.601721525192260742e-01,-2.810714244842529297e+00,5.130715668201446533e-02
-8.612731695175170898e-01,-2.814311981201171875e+00,1.542438268661499023e-01
-8.622567653656005859e-01,-2.817525863647460938e+00,2.577860951423645020e-01
-8.633878231048583984e-01,-2.821221828460693359e+00,3.622603416442871094e-01
-8.642381429672241211e-01,-2.824000358581542969e+00,4.677534997463226318e-01
-8.655552864074707031e-01,-2.828304290771484375e+00,5.749343037605285645e-01
-8.664827346801757812e-01,-2.831334829330444336e+00,6.835890412330627441e-01
-8.072017431259155273e-01,-2.779165029525756836e+00,-7.754482626914978027e-01
-8.082724213600158691e-01,-2.782851457595825195e+00,-6.690216660499572754e-01
-8.092489838600158691e-01,-2.786213636398315430e+00,-5.639657378196716309e-01
-8.101826906204223633e-01,-2.789428472518920898e+00,-4.600592851638793945e-01
-8.112323880195617676e-01,-2.793042659759521484e+00,-3.571144044399261475e-01
-8.121512532234191895e-01,-2.796205997467041016e+00,-2.547457814216613770e-01
-8.131480813026428223e-01,-2.799638271331787109e+00,-1.527860611677169800e-01
-8.141184449195861816e-01,-2.802978992462158203e+00,-5.094802752137184143e-02
-8.150643110275268555e-01,-2.806235790252685547e+00,5.100722238421440125e-02
-8.160937428474426270e-01,-2.809780120849609375e+00,1.533395349979400635e-01
-8.170059323310852051e-01,-2.812920570373535156e+00,2.562685608863830566e-01
-8.180503249168395996e-01,-2.816516399383544922e+00,3.601157367229461670e-01
-8.190742135047912598e-01,-2.820041656494140625e+00,4.651083052158355713e-01
-8.200307488441467285e-01,-2.823334932327270508e+00,5.714796185493469238e-01
-8.212003707885742188e-01,-2.827361822128295898e+00,6.797223091125488281e-01
-7.632112503051757812e-01,-2.775405883789062500e+00,-7.712722420692443848e-01
-7.639877796173095703e-01,-2.778229475021362305e+00,-6.652134060859680176e-01
-7.649441361427307129e-01,-2.781707286834716797e+00,-5.607799291610717773e-01
-7.660065293312072754e-01,-2.785570621490478516e+00,-4.575678110122680664e-01
-7.668660879135131836e-01,-2.788696527481079102e+00,-3.551189005374908447e-01
-7.678153514862060547e-01,-2.792148351669311523e+00,-2.533489167690277100e-01
-7.686978578567504883e-01,-2.795357704162597656e+00,-1.519364416599273682e-01
-7.696152329444885254e-01,-2.798693656921386719e+00,-5.066471546888351440e-02
-7.705679535865783691e-01,-2.802158117294311523e+00,5.072743445634841919e-02
-7.714625000953674316e-01,-2.805411338806152344e+00,1.524828821420669556e-01
-7.724570631980895996e-01,-2.809027910232543945e+00,2.548805177211761475e-01
-7.732652425765991211e-01,-2.811966896057128906e+00,3.580822348594665527e-01
-7.741998434066772461e-01,-2.815365552902221680e+00,4.624620079994201660e-01
-7.753416895866394043e-01,-2.819517850875854492e+00,5.684024095535278320e-01
-7.761235237121582031e-01,-2.822360992431640625e+00,6.757801175117492676e-01
-7.216741442680358887e-01,-2.779353380203247070e+00,-7.694199085235595703e-01
-7.226734757423400879e-01,-2.783202171325683594e+00,-6.638593077659606934e-01
-7.235761284828186035e-01,-2.786678552627563477e+00,-5.596368908882141113e-01
-7.244272828102111816e-01,-2.789956569671630859e+00,-4.565382301807403564e-01
-7.252643704414367676e-01,-2.793180465698242188e+00,-3.543316721916198730e-01
-7.261789441108703613e-01,-2.796702623367309570e+00,-2.527931332588195801e-01
-7.270243167877197266e-01,-2.799958467483520508e+00,-1.516053676605224609e-01
-7.278955578804016113e-01,-2.803313732147216797e+00,-5.055456608533859253e-02
-7.287934422492980957e-01,-2.806771755218505859e+00,5.061692744493484497e-02
-7.296297550201416016e-01,-2.809992551803588867e+00,1.521486639976501465e-01
-7.305535078048706055e-01,-2.813550233840942383e+00,2.543159723281860352e-01
-7.314788103103637695e-01,-2.817113876342773438e+00,3.573677539825439453e-01
-7.323724627494812012e-01,-2.820555448532104492e+00,4.615453481674194336e-01
-7.331929802894592285e-01,-2.823715448379516602e+00,5.670748949050903320e-01
-7.341894507408142090e-01,-2.827553272247314453e+00,6.744380593299865723e-01
-6.845327615737915039e-01,-2.800486803054809570e+00,-7.724788188934326172e-01
-6.852744817733764648e-01,-2.803521394729614258e+00,-6.662980914115905762e-01
-6.861630082130432129e-01,-2.807156562805175781e+00,-5.617194771766662598e-01
-6.869967579841613770e-01,-2.810567378997802734e+00,-4.582549035549163818e-01
-6.878108978271484375e-01,-2.813898086547851562e+00,-3.556744754314422607e-01
-6.886912584304809570e-01,-2.817499637603759766e+00,-2.537559568881988525e-01
-6.894999146461486816e-01,-2.820807933807373047e+00,-1.521843075752258301e-01
-6.903261542320251465e-01,-2.824188232421875000e+00,-5.074762552976608276e-02
-6.911706924438476562e-01,-2.827643394470214844e+00,5.080971121788024902e-02
-6.919507980346679688e-01,-2.830834865570068359e+00,1.527252644300460815e-01
-6.928064823150634766e-01,-2.834335327148437500e+00,2.552722692489624023e-01
-6.936571598052978516e-01,-2.837815761566162109e+00,3.586976528167724609e-01
-6.944715380668640137e-01,-2.841147422790527344e+00,4.632408916950225830e-01
-6.954573988914489746e-01,-2.845180749893188477e+00,5.693281888961791992e-01
-6.963916420936584473e-01,-2.849002599716186523e+00,6.771073937416076660e-01
-6.468230485916137695e-01,-2.820641517639160156e+00,-7.754049897193908691e-01
-6.477596759796142578e-01,-2.824725866317749023e+00,-6.690655350685119629e-01
-6.485974788665771484e-01,-2.828379392623901367e+00,-5.640507936477661133e-01
-6.492487788200378418e-01,-2.831219434738159180e+00,-4.600598514080047607e-01
-6.501297354698181152e-01,-2.835061073303222656e+00,-3.571366965770721436e-01
-6.508827805519104004e-01,-2.838345050811767578e+00,-2.547682225704193115e-01
-6.516538262367248535e-01,-2.841707468032836914e+00,-1.527929753065109253e-01
-6.524347066879272461e-01,-2.845112562179565430e+00,-5.095058679580688477e-02
-6.532261967658996582e-01,-2.848564147949218750e+00,5.101240053772926331e-02
-6.540414690971374512e-01,-2.852119445800781250e+00,1.533528119325637817e-01
-6.547393202781677246e-01,-2.855162382125854492e+00,2.562777400016784668e-01
-6.556801199913024902e-01,-2.859265089035034180e+00,3.601856827735900879e-01
-6.564520001411437988e-01,-2.862631082534790039e+00,4.651640653610229492e-01
-6.571459770202636719e-01,-2.865657329559326172e+00,5.714849829673767090e-01
-6.579834818840026855e-01,-2.869309425354003906e+00,6.796256303787231445e-01
-6.092755794525146484e-01,-2.843085289001464844e+00,-7.790976762771606445e-01
-6.099834442138671875e-01,-2.846388578414916992e+00,-6.720597147941589355e-01
-6.108073592185974121e-01,-2.850233316421508789e+00,-5.666074156761169434e-01
-6.115695834159851074e-01,-2.853789806365966797e+00,-4.622576236724853516e-01
-6.123006343841552734e-01,-2.857201337814331055e+00,-3.587849438190460205e-01
-6.130245327949523926e-01,-2.860579252243041992e+00,-2.559501230716705322e-01
-6.137580275535583496e-01,-2.864001989364624023e+00,-1.535036265850067139e-01
-6.144934892654418945e-01,-2.867434024810791016e+00,-5.118756741285324097e-02
-6.152315735816955566e-01,-2.870878219604492188e+00,5.124904960393905640e-02
-6.159848570823669434e-01,-2.874393224716186523e+00,1.540605872869491577e-01
-6.167402267456054688e-01,-2.877918004989624023e+00,2.575015127658843994e-01
-6.174772977828979492e-01,-2.881357431411743164e+00,3.618182539939880371e-01
-6.181688308715820312e-01,-2.884584188461303711e+00,4.672456979751586914e-01
-6.189979314804077148e-01,-2.888453006744384766e+00,5.742052793502807617e-01
-6.197684407234191895e-01,-2.892048597335815430e+00,6.828404664993286133e-01
-5.710755586624145508e-01,-2.864317178726196289e+00,-7.825957536697387695e-01
-5.717467665672302246e-01,-2.867683649063110352e+00,-6.750862598419189453e-01
-5.723775625228881836e-01,-2.870847463607788086e+00,-5.690184831619262695e-01
-5.731166601181030273e-01,-2.874554395675659180e+00,-4.642447829246520996e-01
-5.738206505775451660e-01,-2.878085613250732422e+00,-3.603391349315643311e-01
-5.745118856430053711e-01,-2.881552457809448242e+00,-2.570646107196807861e-01
-5.752056837081909180e-01,-2.885032415390014648e+00,-1.541737467050552368e-01
-5.758949518203735352e-01,-2.888489484786987305e+00,-5.141102150082588196e-02
-5.765803456306457520e-01,-2.891927242279052734e+00,5.147220566868782043e-02
-5.772734284400939941e-01,-2.895403385162353516e+00,1.547279655933380127e-01
-5.779621601104736328e-01,-2.898857831954956055e+00,2.586084306240081787e-01
-5.786278843879699707e-01,-2.902196884155273438e+00,3.633579015731811523e-01
-5.794178843498229980e-01,-2.906159400939941406e+00,4.693489968776702881e-01
-5.801872014999389648e-01,-2.910017967224121094e+00,5.767822861671447754e-01
-5.808948874473571777e-01,-2.913567304611206055e+00,6.858878731727600098e-01
-5.322982072830200195e-01,-2.884526491165161133e+00,-7.859551906585693359e-01
-5.331196188926696777e-01,-2.888977527618408203e+00,-6.782332658767700195e-01
-5.337098836898803711e-01,-2.892176389694213867e+00,-5.716732740402221680e-01
-5.343947410583496094e-01,-2.895887613296508789e+00,-4.664069712162017822e-01
-5.349656343460083008e-01,-2.898981332778930664e+00,-3.619595170021057129e-01
-5.356222391128540039e-01,-2.902539491653442383e+00,-2.582264542579650879e-01
-5.362750887870788574e-01,-2.906077146530151367e+00,-1.548722982406616211e-01
-5.369177460670471191e-01,-2.909559726715087891e+00,-5.164396762847900391e-02
-5.375506877899169922e-01,-2.912989616394042969e+00,5.170484632253646851e-02
-5.381845831871032715e-01,-2.916424751281738281e+00,1.554237455129623413e-01
-5.389118194580078125e-01,-2.920365810394287109e+00,2.598123848438262939e-01
-5.395368933677673340e-01,-2.923752784729003906e+00,3.650524318218231201e-01
-5.402714014053344727e-01,-2.927732944488525391e+00,4.715359508991241455e-01
-5.407912731170654297e-01,-2.930550336837768555e+00,5.792583227157592773e-01
-5.416246056556701660e-01,-2.935066461563110352e+00,6.890533566474914551e-01
-4.935631752014160156e-01,-2.907180309295654297e+00,-7.901219129562377930e-01
-4.941895604133605957e-01,-2.910869836807250977e+00,-6.816423535346984863e-01
-4.947693049907684326e-01,-2.914284467697143555e+00,-5.745845437049865723e-01
-4.954295754432678223e-01,-2.918173551559448242e+00,-4.688062071800231934e-01
-4.960476160049438477e-01,-2.921814203262329102e+00,-3.638865947723388672e-01
-4.966422617435455322e-01,-2.925316572189331055e+00,-2.595938444137573242e-01
-4.972266852855682373e-01,-2.928759098052978516e+00,-1.556858420372009277e-01
-4.978215396404266357e-01,-2.932262897491455078e+00,-5.191514641046524048e-02
-4.984292984008789062e-01,-2.935842752456665039e+00,5.197852477431297302e-02
-4.990313649177551270e-01,-2.939388990402221680e+00,1.562509089708328247e-01
-4.996172785758972168e-01,-2.942840099334716797e+00,2.611488699913024902e-01
-5.001711249351501465e-01,-2.946102380752563477e+00,3.669115006923675537e-01
-5.008191466331481934e-01,-2.949919462203979492e+00,4.739061892032623291e-01
-5.014371871948242188e-01,-2.953559637069702148e+00,5.823280811309814453e-01
-5.021892189979553223e-01,-2.957989215850830078e+00,6.926763653755187988e-01
-4.543820619583129883e-01,-2.929918289184570312e+00,-7.944527268409729004e-01
-4.549719393253326416e-01,-2.933722019195556641e+00,-6.853985190391540527e-01
-4.555126726627349854e-01,-2.937208652496337891e+00,-5.777596235275268555e-01
-4.560333490371704102e-01,-2.940566062927246094e+00,-4.713066518306732178e-01
-4.566206037998199463e-01,-2.944352865219116211e+00,-3.658421337604522705e-01
-4.571804404258728027e-01,-2.947962760925292969e+00,-2.609960138797760010e-01
-4.577247798442840576e-01,-2.951472520828247070e+00,-1.565289348363876343e-01
-4.582723379135131836e-01,-2.955003261566162109e+00,-5.219628289341926575e-02
-4.588255584239959717e-01,-2.958570480346679688e+00,5.225929245352745056e-02
-4.593671858310699463e-01,-2.962063074111938477e+00,1.570906043052673340e-01
-4.598881006240844727e-01,-2.965421915054321289e+00,2.625417709350585938e-01
-4.604849815368652344e-01,-2.969270706176757812e+00,3.689382672309875488e-01
-4.610745310783386230e-01,-2.973072290420532227e+00,4.765166640281677246e-01
-4.616299867630004883e-01,-2.976654052734375000e+00,5.855186581611633301e-01
-4.621200561523437500e-01,-2.979814052581787109e+00,6.961668729782104492e-01
-4.145116806030273438e-01,-2.951137542724609375e+00,-7.985157966613769531e-01
-4.150596857070922852e-01,-2.955039024353027344e+00,-6.889202594757080078e-01
-4.155574738979339600e-01,-2.958583116531372070e+00,-5.807345509529113770e-01
-4.160314500331878662e-01,-2.961957454681396484e+00,-4.737322628498077393e-01
-4.165033698081970215e-01,-2.965317249298095703e+00,-3.676686286926269531e-01
-4.170244038105010986e-01,-2.969026803970336914e+00,-2.623055875301361084e-01
-4.175262451171875000e-01,-2.972599744796752930e+00,-1.573163419961929321e-01
-4.180257022380828857e-01,-2.976155757904052734e+00,-5.245884880423545837e-02
-4.185250103473663330e-01,-2.979710578918457031e+00,5.252150818705558777e-02
-4.190086722373962402e-01,-2.983154058456420898e+00,1.578748971223831177e-01
-4.195472002029418945e-01,-2.986988067626953125e+00,2.638924121856689453e-01
-4.200928211212158203e-01,-2.990872621536254883e+00,3.708372414112091064e-01
-4.206260740756988525e-01,-2.994669198989868164e+00,4.789641499519348145e-01
-4.211228787899017334e-01,-2.998206138610839844e+00,5.885121226310729980e-01
-4.215547740459442139e-01,-3.001281023025512695e+00,6.997008323669433594e-01
-3.743929564952850342e-01,-2.973928213119506836e+00,-8.031502366065979004e-01
-3.747907280921936035e-01,-2.977087974548339844e+00,-6.927389502525329590e-01
-3.752669394016265869e-01,-2.980870723724365234e+00,-5.839951634407043457e-01
-3.757166862487792969e-01,-2.984443187713623047e+00,-4.764196872711181641e-01
-3.762106299400329590e-01,-2.988366842269897461e+00,-3.698209822177886963e-01
-3.766406476497650146e-01,-2.991782426834106445e+00,-2.638126909732818604e-01
-3.770992457866668701e-01,-2.995425224304199219e+00,-1.582224518060684204e-01
-3.775504231452941895e-01,-2.999009132385253906e+00,-5.276101455092430115e-02
-3.779959082603454590e-01,-3.002547979354858398e+00,5.282327160239219666e-02
-3.784728050231933594e-01,-3.006335973739624023e+00,1.587987691164016724e-01
-3.788917958736419678e-01,-3.009664058685302734e+00,2.653894722461700439e-01
-3.793626129627227783e-01,-3.013403892517089844e+00,3.729194104671478271e-01
-3.798170685768127441e-01,-3.017013788223266602e+00,4.816190898418426514e-01
-3.803635239601135254e-01,-3.021354675292968750e+00,5.919265747070312500e-01
-3.807353675365447998e-01,-3.024308204650878906e+00,7.037266492843627930e-01
-3.337705433368682861e-01,-2.996748447418212891e+00,-8.079401850700378418e-01
-3.341380059719085693e-01,-3.000047683715820312e+00,-6.968972086906433105e-01
-3.345699310302734375e-01,-3.003925561904907227e+00,-5.875135660171508789e-01
-3.349732160568237305e-01,-3.007546663284301758e+00,-4.792932868003845215e-01
-3.353649675846099854e-01,-3.011064052581787109e+00,-3.719976842403411865e-01
-3.357584178447723389e-01,-3.014596700668334961e+00,-2.653734683990478516e-01
-3.361722528934478760e-01,-3.018311977386474609e+00,-1.591608971357345581e-01
-3.365744054317474365e-01,-3.021922826766967773e+00,-5.307393893599510193e-02
-3.369666337966918945e-01,-3.025444269180297852e+00,5.313578993082046509e-02
-3.373815417289733887e-01,-3.029169797897338867e+00,1.597334444522857666e-01
-3.378033638000488281e-01,-3.032957077026367188e+00,2.669897079467773438e-01
-3.382207155227661133e-01,-3.036704301834106445e+00,3.751653730869293213e-01
-3.386184871196746826e-01,-3.040275573730468750e+00,4.845091104507446289e-01
-3.390926420688629150e-01,-3.044532775878906250e+00,5.954555869102478027e-01
-3.395381867885589600e-01,-3.048533201217651367e+00,7.081601619720458984e-01
-2.926262021064758301e-01,-3.019578933715820312e+00,-8.128829002380371094e-01
-2.929603457450866699e-01,-3.023026704788208008e+00,-7.011892199516296387e-01
-2.932759523391723633e-01,-3.026283502578735352e+00,-5.910048484802246094e-01
-2.936471700668334961e-01,-3.030114173889160156e+00,-4.821705222129821777e-01
-2.940041124820709229e-01,-3.033797502517700195e+00,-3.742479979991912842e-01
-2.943821251392364502e-01,-3.037698030471801758e+00,-2.670087814331054688e-01
-2.947252392768859863e-01,-3.041238546371459961e+00,-1.601310074329376221e-01
-2.950778305530548096e-01,-3.044877052307128906e+00,-5.339743569493293762e-02
-2.954407930374145508e-01,-3.048622369766235352e+00,5.346311628818511963e-02
-2.957719564437866211e-01,-3.052039623260498047e+00,1.606997102499008179e-01
-2.961281836032867432e-01,-3.055715322494506836e+00,2.685924768447875977e-01
-2.964761555194854736e-01,-3.059306144714355469e+00,3.773947656154632568e-01
-2.968880534172058105e-01,-3.063556432723999023e+00,4.874920845031738281e-01
-2.972916364669799805e-01,-3.067720890045166016e+00,5.990971922874450684e-01
-2.976656854152679443e-01,-3.071580648422241211e+00,7.124512791633605957e-01
-2.510924935340881348e-01,-3.044219255447387695e+00,-8.184647560119628906e-01
-2.513923943042755127e-01,-3.047855377197265625e+00,-7.060412764549255371e-01
-2.516721189022064209e-01,-3.051246404647827148e+00,-5.951154232025146484e-01
-2.519948780536651611e-01,-3.055159568786621094e+00,-4.855322241783142090e-01
-2.523009479045867920e-01,-3.058870315551757812e+00,-3.768569231033325195e-01
-2.526000142097473145e-01,-3.062496185302734375e+00,-2.688431441783905029e-01
-2.528989017009735107e-01,-3.066119909286499023e+00,-1.612339764833450317e-01
-2.532014846801757812e-01,-3.069788217544555664e+00,-5.376523360610008240e-02
-2.535084486007690430e-01,-3.073509931564331055e+00,5.383041873574256897e-02
-2.538175284862518311e-01,-3.077257394790649414e+00,1.618196368217468262e-01
-2.541234195232391357e-01,-3.080965995788574219e+00,2.704645395278930664e-01
-2.544178366661071777e-01,-3.084535121917724609e+00,3.800188601016998291e-01
-2.547623217105865479e-01,-3.088711977005004883e+00,4.908644556999206543e-01
-2.550952136516571045e-01,-3.092747926712036133e+00,6.032098531723022461e-01
-2.553986012935638428e-01,-3.096426010131835938e+00,7.172927856445312500e-01
-2.088297456502914429e-01,-3.067061424255371094e+00,-8.237180709838867188e-01
-2.090887129306793213e-01,-3.070864915847778320e+00,-7.106053829193115234e-01
-2.093275338411331177e-01,-3.074372291564941406e+00,-5.989801883697509766e-01
-2.095597982406616211e-01,-3.077783584594726562e+00,-4.886009395122528076e-01
-2.098243087530136108e-01,-3.081668376922607422e+00,-3.792568147182464600e-01
-2.100798040628433228e-01,-3.085420846939086914e+00,-2.705639302730560303e-01
-2.103317975997924805e-01,-3.089121818542480469e+00,-1.622686088085174561e-01
-2.105834335088729858e-01,-3.092817544937133789e+00,-5.411024391651153564e-02
-2.108353227376937866e-01,-3.096517086029052734e+00,5.417496711015701294e-02
-2.110856026411056519e-01,-3.100193023681640625e+00,1.628501564264297485e-01
-2.113299220800399780e-01,-3.103781223297119141e+00,2.721739709377288818e-01
-2.116108834743499756e-01,-3.107907533645629883e+00,3.824860155582427979e-01
-2.118911296129226685e-01,-3.112023591995239258e+00,4.940365850925445557e-01
-2.121583223342895508e-01,-3.115947723388671875e+00,6.070802807807922363e-01
-2.123977392911911011e-01,-3.119463920593261719e+00,7.218513488769531250e-01
-1.660970598459243774e-01,-3.091784238815307617e+00,-8.296343684196472168e-01
-1.662654429674148560e-01,-3.094918489456176758e+00,-7.155474424362182617e-01
-1.665091812610626221e-01,-3.099455595016479492e+00,-6.033409833908081055e-01
-1.666974723339080811e-01,-3.102960348129272461e+00,-4.921685755252838135e-01
-1.669082790613174438e-01,-3.106884241104125977e+00,-3.820269405841827393e-01
-1.670954227447509766e-01,-3.110367774963378906e+00,-2.725139260292053223e-01
-1.672988682985305786e-01,-3.114154815673828125e+00,-1.634410321712493896e-01
-1.674990206956863403e-01,-3.117880582809448242e+00,-5.450120195746421814e-02
-1.676963418722152710e-01,-3.121553659439086914e+00,5.456541106104850769e-02
-1.679112166166305542e-01,-3.125553369522094727e+00,1.640392839908599854e-01
-1.681051999330520630e-01,-3.129164218902587891e+00,2.741607725620269775e-01
-1.683251261711120605e-01,-3.133258104324340820e+00,3.852698802947998047e-01
-1.684938967227935791e-01,-3.136399745941162109e+00,4.974724650382995605e-01
-1.687441915273666382e-01,-3.141058444976806641e+00,6.114394068717956543e-01
-1.689221709966659546e-01,-3.144371747970581055e+00,7.269811034202575684e-01
-1.226455643773078918e-01,-3.114544153213500977e+00,-8.351850509643554688e-01
-1.227762103080749512e-01,-3.117861986160278320e+00,-7.203719019889831543e-01
-1.229314953088760376e-01,-3.121805191040039062e+00,-6.072868108749389648e-01
-1.231012046337127686e-01,-3.126115083694458008e+00,-4.955109655857086182e-01
-1.232404634356498718e-01,-3.129651308059692383e+00,-3.845701217651367188e-01
-1.233926713466644287e-01,-3.133516550064086914e+00,-2.743592560291290283e-01
-1.235351487994194031e-01,-3.137134790420532227e+00,-1.645374447107315063e-01
-1.236829310655593872e-01,-3.140887737274169922e+00,-5.486680567264556885e-02
-1.238361671566963196e-01,-3.144778966903686523e+00,5.493478477001190186e-02
-1.239810138940811157e-01,-3.148457527160644531e+00,1.651313006877899170e-01
-1.241405233740806580e-01,-3.152508020401000977e+00,2.760220766067504883e-01
-1.242721751332283020e-01,-3.155851364135742188e+00,3.877895474433898926e-01
-1.244215667247772217e-01,-3.159645080566406250e+00,5.008257031440734863e-01
-1.245999634265899658e-01,-3.164175510406494141e+00,6.155291199684143066e-01
-1.247698590159416199e-01,-3.168489933013916016e+00,7.320693731307983398e-01
-7.864053547382354736e-02,-3.139247894287109375e+00,-8.414215445518493652e-01
-7.872930914163589478e-02,-3.142791748046875000e+00,-7.257971167564392090e-01
-7.883226126432418823e-02,-3.146901607513427734e+00,-6.118866801261901855e-01
-7.892863452434539795e-02,-3.150748491287231445e+00,-4.991853237152099609e-01
-7.902241498231887817e-02,-3.154492378234863281e+00,-3.874438703060150146e-01
-7.912293076515197754e-02,-3.158504724502563477e+00,-2.764196395874023438e-01
-7.921582460403442383e-02,-3.162213087081909180e+00,-1.657763123512268066e-01
-7.931059598922729492e-02,-3.165996074676513672e+00,-5.527992174029350281e-02
-7.940733432769775391e-02,-3.169857740402221680e+00,5.534734949469566345e-02
-7.949727773666381836e-02,-3.173448085784912109e+00,1.663652956485748291e-01
-7.959501445293426514e-02,-3.177349567413330078e+00,2.780688703060150146e-01
-7.969185709953308105e-02,-3.181215524673461914e+00,3.907261192798614502e-01
-7.978420704603195190e-02,-3.184902191162109375e+00,5.045964121818542480e-01
-7.989352941513061523e-02,-3.189266204833984375e+00,6.201241016387939453e-01
-7.999597489833831787e-02,-3.193355560302734375e+00,7.374743819236755371e-01
-3.395986929535865784e-02,-3.163929224014282227e+00,-8.478198051452636719e-01
-3.400043025612831116e-02,-3.167708396911621094e+00,-7.313640713691711426e-01
-3.404641896486282349e-02,-3.171992778778076172e+00,-6.166075468063354492e-01
-3.408892825245857239e-02,-3.175953388214111328e+00,-5.030497908592224121e-01
-3.412966057658195496e-02,-3.179748296737670898e+00,-3.904459178447723389e-01
-3.416994959115982056e-02,-3.183501720428466797e+00,-2.785359621047973633e-01
-3.421073034405708313e-02,-3.187301397323608398e+00,-1.670487523078918457e-01
-3.425165638327598572e-02,-3.191114187240600586e+00,-5.570423230528831482e-02
-3.429277241230010986e-02,-3.194944858551025391e+00,5.577109754085540771e-02
-3.433468192815780640e-02,-3.198849201202392578e+00,1.676539927721023560e-01
-3.437666594982147217e-02,-3.202760696411132812e+00,2.802209854125976562e-01
-3.441759198904037476e-02,-3.206573963165283203e+00,3.937398493289947510e-01
-3.445593640208244324e-02,-3.210146188735961914e+00,5.084657073020935059e-01
-3.450088948011398315e-02,-3.214334249496459961e+00,6.248383522033691406e-01
-3.454224765300750732e-02,-3.218187570571899414e+00,7.430188059806823730e-01
1.142473239451646805e-02,-3.191744804382324219e+00,-8.552296161651611328e-01
1.143873203545808792e-02,-3.195656061172485352e+00,-7.377789616584777832e-01
1.145168859511613846e-02,-3.199275732040405273e+00,-6.218792200088500977e-01
1.146638300269842148e-02,-3.203381061553955078e+00,-5.073682069778442383e-01
1.147877052426338196e-02,-3.206841707229614258e+00,-3.937525749206542969e-01
1.149281114339828491e-02,-3.210764169692993164e+00,-2.809068560600280762e-01
1.150677073746919632e-02,-3.214664220809936523e+00,-1.684742420911788940e-01
1.152053754776716232e-02,-3.218510150909423828e+00,-5.617957934737205505e-02
1.153412088751792908e-02,-3.222305059432983398e+00,5.624581873416900635e-02
1.154772471636533737e-02,-3.226105690002441406e+00,1.690738648176193237e-01
1.156314741820096970e-02,-3.230414152145385742e+00,2.826260030269622803e-01
1.157650910317897797e-02,-3.234147071838378906e+00,3.971052765846252441e-01
1.159193087369203568e-02,-3.238455533981323242e+00,5.129234790802001953e-01
1.160669513046741486e-02,-3.242580175399780273e+00,6.302968263626098633e-01
1.161999907344579697e-02,-3.246296882629394531e+00,7.494703531265258789e-01
5.755272880196571350e-02,-3.216343164443969727e+00,-8.619531393051147461e-01
5.762725695967674255e-02,-3.220508098602294922e+00,-7.436307668685913086e-01
5.769543349742889404e-02,-3.224318265914916992e+00,-6.268433332443237305e-01
5.776095762848854065e-02,-3.227979898452758789e+00,-5.113428831100463867e-01
5.783416703343391418e-02,-3.232071399688720703e+00,-3.969113826751708984e-01
5.790428444743156433e-02,-3.235989809036254883e+00,-2.831573188304901123e-01
5.797283723950386047e-02,-3.239820957183837891e+00,-1.698187589645385742e-01
5.804207548499107361e-02,-3.243690252304077148e+00,-5.662780627608299255e-02
5.811230093240737915e-02,-3.247614860534667969e+00,5.669631808996200562e-02
5.818146839737892151e-02,-3.251480340957641602e+00,1.704299002885818481e-01
5.824839323759078979e-02,-3.255220413208007812e+00,2.848400473594665527e-01
5.832419544458389282e-02,-3.259456634521484375e+00,4.002744257450103760e-01
5.839894339442253113e-02,-3.263633966445922852e+00,5.169907808303833008e-01
5.846926942467689514e-02,-3.267564296722412109e+00,6.352508664131164551e-01
5.853118002414703369e-02,-3.271023988723754883e+00,7.552951574325561523e-01
1.044780462980270386e-01,-3.243093490600585938e+00,-8.694337606430053711e-01
1.046218574047088623e-01,-3.247557640075683594e+00,-7.501455545425415039e-01
1.047520115971565247e-01,-3.251597642898559570e+00,-6.323735117912292480e-01
1.048750653862953186e-01,-3.255417346954345703e+00,-5.158741474151611328e-01
1.049964651465415955e-01,-3.259185791015625000e+00,-4.003846943378448486e-01
1.051283255219459534e-01,-3.263278722763061523e+00,-2.856476008892059326e-01
1.052550971508026123e-01,-3.267214059829711914e+00,-1.713160127401351929e-01
1.053808107972145081e-01,-3.271116018295288086e+00,-5.712708085775375366e-02
1.055059805512428284e-01,-3.275001525878906250e+00,5.719493702054023743e-02
1.056270003318786621e-01,-3.278758049011230469e+00,1.719213128089904785e-01
1.057598963379859924e-01,-3.282883405685424805e+00,2.873636484146118164e-01
1.058933809399604797e-01,-3.287026882171630859e+00,4.038049280643463135e-01
1.060226559638977051e-01,-3.291039466857910156e+00,5.215190649032592773e-01
1.061416715383529663e-01,-3.294734001159667969e+00,6.407626867294311523e-01
1.062813475728034973e-01,-3.299069643020629883e+00,7.620441913604736328e-01
1.522583961486816406e-01,-3.270823717117309570e+00,-8.773622512817382812e-01
1.524329036474227905e-01,-3.274572372436523438e+00,-7.568120956420898438e-01
1.526320278644561768e-01,-3.278849840164184570e+00,-6.380330920219421387e-01
1.528175324201583862e-01,-3.282834768295288086e+00,-5.205122232437133789e-01
1.529971510171890259e-01,-3.286693572998046875e+00,-4.039916396141052246e-01
1.531769484281539917e-01,-3.290556192398071289e+00,-2.881976664066314697e-01
1.533650457859039307e-01,-3.294596672058105469e+00,-1.728492081165313721e-01
1.535482257604598999e-01,-3.298531532287597656e+00,-5.763834714889526367e-02
1.537272334098815918e-01,-3.302377223968505859e+00,5.770554393529891968e-02
1.539156138896942139e-01,-3.306423902511596680e+00,1.734697222709655762e-01
1.541065275669097900e-01,-3.310525178909301758e+00,2.899466156959533691e-01
1.542947739362716675e-01,-3.314569234848022461e+00,4.074180126190185547e-01
1.544735431671142578e-01,-3.318409442901611328e+00,5.261527895927429199e-01
1.546822339296340942e-01,-3.322892427444458008e+00,6.466033458709716797e-01
1.548761129379272461e-01,-3.327057600021362305e+00,7.689423561096191406e-01
2.008294165134429932e-01,-3.297446966171264648e+00,-8.851840496063232422e-01
2.010771781206130981e-01,-3.301515102386474609e+00,-7.636259794235229492e-01
2.013526111841201782e-01,-3.306037425994873047e+00,-6.438183784484863281e-01
2.016057521104812622e-01,-3.310193777084350586e+00,-5.252538919448852539e-01
2.018466442823410034e-01,-3.314148902893066406e+00,-4.076797366142272949e-01
2.020830810070037842e-01,-3.318031072616577148e+00,-2.908275723457336426e-01
2.023205906152725220e-01,-3.321930885314941406e+00,-1.744173467159271240e-01
2.025622427463531494e-01,-3.325898647308349609e+00,-5.816125869750976562e-02
2.028086334466934204e-01,-3.329944133758544922e+00,5.823200568556785583e-02
2.030579447746276855e-01,-3.334037542343139648e+00,1.750530153512954712e-01
2.033058702945709229e-01,-3.338108301162719727e+00,2.925873398780822754e-01
2.035457342863082886e-01,-3.342046499252319336e+00,4.111114442348480225e-01
2.037686109542846680e-01,-3.345705986022949219e+00,5.308888554573059082e-01
2.040260881185531616e-01,-3.349933624267578125e+00,6.523666977882385254e-01
2.043316513299942017e-01,-3.354950666427612305e+00,7.759854197502136230e-01
2.503160238265991211e-01,-3.324973821640014648e+00,-8.934438228607177734e-01
2.506358623504638672e-01,-3.329222202301025391e+00,-7.707853913307189941e-01
2.509294450283050537e-01,-3.333122014999389648e+00,-6.497257351875305176e-01
2.512129843235015869e-01,-3.336888074874877930e+00,-5.300059318542480469e-01
2.515301704406738281e-01,-3.341101646423339844e+00,-4.113959670066833496e-01
2.518363893032073975e-01,-3.345169067382812500e+00,-2.934921085834503174e-01
2.521381974220275879e-01,-3.349177837371826172e+00,-1.760194003582000732e-01
2.524393498897552490e-01,-3.353178024291992188e+00,-5.869548395276069641e-02
2.527405917644500732e-01,-3.357179403305053711e+00,5.876552686095237732e-02
2.530396878719329834e-01,-3.361152648925781250e+00,1.766487509012222290e-01
2.533313930034637451e-01,-3.365027427673339844e+00,2.952344119548797607e-01
2.536620497703552246e-01,-3.369419336318969727e+00,4.148828089237213135e-01
2.539896070957183838e-01,-3.373770713806152344e+00,5.358640551567077637e-01
2.542993724346160889e-01,-3.377884864807128906e+00,6.584513783454895020e-01
2.545738518238067627e-01,-3.381531000137329102e+00,7.828959226608276367e-01
3.005925714969635010e-01,-3.351322412490844727e+00,-9.015876054763793945e-01
3.010036945343017578e-01,-3.355906248092651367e+00,-7.778810262680053711e-01
3.013768196105957031e-01,-3.360066175460815430e+00,-6.557516455650329590e-01
3.017310500144958496e-01,-3.364015340805053711e+00,-5.349457859992980957e-01
3.021183907985687256e-01,-3.368334054946899414e+00,-4.152390658855438232e-01
3.024634122848510742e-01,-3.372180461883544922e+00,-2.962114810943603516e-01
3.028328120708465576e-01,-3.376299142837524414e+00,-1.776544004678726196e-01
3.031945228576660156e-01,-3.380331754684448242e+00,-5.924068763852119446e-02
3.035493791103363037e-01,-3.384287834167480469e+00,5.931002274155616760e-02
3.039308786392211914e-01,-3.388541460037231445e+00,1.782985776662826538e-01
3.042748868465423584e-01,-3.392376899719238281e+00,2.979855239391326904e-01
3.046582043170928955e-01,-3.396650552749633789e+00,4.187298417091369629e-01
3.050308227539062500e-01,-3.400804758071899414e+00,5.407960414886474609e-01
3.053753972053527832e-01,-3.404646396636962891e+00,6.644518971443176270e-01
3.057766258716583252e-01,-3.409119844436645508e+00,7.902157306671142578e-01
3.521006703376770020e-01,-3.381003618240356445e+00,-9.108351469039916992e-01
3.526029288768768311e-01,-3.385826349258422852e+00,-7.859057188034057617e-01
3.529767990112304688e-01,-3.389416456222534180e+00,-6.623978018760681152e-01
3.534106910228729248e-01,-3.393582820892333984e+00,-5.403966903686523438e-01
3.538317978382110596e-01,-3.397626399993896484e+00,-4.194315373897552490e-01
3.542794883251190186e-01,-3.401925563812255859e+00,-2.992390692234039307e-01
