-9.068090915679931641e-01,1.856244444847106934e+00,-5.535556077957153320e-01
-9.081707000732421875e-01,1.859031677246093750e+00,-4.776661992073059082e-01
-9.091490507125854492e-01,1.861034393310546875e+00,-4.026060402393341064e-01
-9.103249907493591309e-01,1.863441467285156250e+00,-3.284747004508972168e-01
-9.114570617675781250e-01,1.865758895874023438e+00,-2.549605071544647217e-01
-9.126609563827514648e-01,1.868223309516906738e+00,-1.819090098142623901e-01
-9.137480854988098145e-01,1.870448589324951172e+00,-1.090975999832153320e-01
-9.148660302162170410e-01,1.872737050056457520e+00,-3.638077527284622192e-02
-9.160161018371582031e-01,1.875091314315795898e+00,3.642650693655014038e-02
-9.170575737953186035e-01,1.877223134040832520e+00,1.094927340745925903e-01
-9.181842207908630371e-01,1.879529356956481934e+00,1.830098927021026611e-01
-9.192874431610107422e-01,1.881787776947021484e+00,2.571508884429931641e-01
-9.206157326698303223e-01,1.884506702423095703e+00,3.321879208087921143e-01
-9.215870499610900879e-01,1.886495113372802734e+00,4.081140756607055664e-01
-9.227691888809204102e-01,1.888914823532104492e+00,4.853444993495941162e-01
-9.440472126007080078e-01,1.864333987236022949e+00,-5.599402785301208496e-01
-9.454534053802490234e-01,1.867111086845397949e+00,-4.831698238849639893e-01
-9.464622139930725098e-01,1.869103193283081055e+00,-4.072406291961669922e-01
-9.476794004440307617e-01,1.871506929397583008e+00,-3.322534561157226562e-01
-9.488518834114074707e-01,1.873822450637817383e+00,-2.578919231891632080e-01
-9.501022696495056152e-01,1.876291751861572266e+00,-1.839999407529830933e-01
-9.512317180633544922e-01,1.878522157669067383e+00,-1.103513464331626892e-01
-9.523948431015014648e-01,1.880819201469421387e+00,-3.679883480072021484e-02
-9.535951614379882812e-01,1.883189558982849121e+00,3.684521466493606567e-02
-9.546822309494018555e-01,1.885336399078369141e+00,1.107516363263130188e-01
-9.558621644973754883e-01,1.887666583061218262e+00,1.851154416799545288e-01
-9.570176601409912109e-01,1.889948487281799316e+00,2.601113319396972656e-01
-9.584103822708129883e-01,1.892698764801025391e+00,3.360157012939453125e-01
-9.594326019287109375e-01,1.894717574119567871e+00,4.128215014934539795e-01
-9.606761336326599121e-01,1.897173285484313965e+00,4.909493029117584229e-01
-9.836194515228271484e-01,1.875392436981201172e+00,-5.674319863319396973e-01
-9.850744009017944336e-01,1.878166437149047852e+00,-4.896292984485626221e-01
-9.861167073249816895e-01,1.880153775215148926e+00,-4.126813709735870361e-01
-9.873766899108886719e-01,1.882556080818176270e+00,-3.366895914077758789e-01
-9.885939955711364746e-01,1.884877085685729980e+00,-2.613340616226196289e-01
-9.898934364318847656e-01,1.887354612350463867e+00,-1.864552199840545654e-01
-9.910687804222106934e-01,1.889595508575439453e+00,-1.118237003684043884e-01
-9.922803640365600586e-01,1.891905546188354492e+00,-3.728980943560600281e-02
-9.935326576232910156e-01,1.894293189048767090e+00,3.733687102794647217e-02
-9.946686625480651855e-01,1.896459102630615234e+00,1.122298762202262878e-01
-9.959016442298889160e-01,1.898809909820556641e+00,1.875869035720825195e-01
-9.971134066581726074e-01,1.901120305061340332e+00,2.635861635208129883e-01
-9.985734820365905762e-01,1.903904199600219727e+00,3.405076265335083008e-01
-9.996490478515625000e-01,1.905954837799072266e+00,4.183445274829864502e-01
-1.000956535339355469e+00,1.908447742462158203e+00,4.975235164165496826e-01
-1.022722005844116211e+00,1.883895277976989746e+00,-5.743750333786010742e-01
-1.024229526519775391e+00,1.886672377586364746e+00,-4.956178367137908936e-01
-1.025307178497314453e+00,1.888657450675964355e+00,-4.177263081073760986e-01
-1.026613473892211914e+00,1.891063690185546875e+00,-3.408042788505554199e-01
-1.027876853942871094e+00,1.893390893936157227e+00,-2.645272612571716309e-01
-1.029224276542663574e+00,1.895872831344604492e+00,-1.887327879667282104e-01
-1.030446410179138184e+00,1.898123979568481445e+00,-1.131896451115608215e-01
-1.031706690788269043e+00,1.900445580482482910e+00,-3.774533420801162720e-02
-1.033008933067321777e+00,1.902844190597534180e+00,3.779297322034835815e-02
-1.034192323684692383e+00,1.905024051666259766e+00,1.136011183261871338e-01
-1.035478353500366211e+00,1.907392978668212891e+00,1.898796111345291138e-01
-1.036741495132446289e+00,1.909719824790954590e+00,2.668085694313049316e-01
-1.038265705108642578e+00,1.912527441978454590e+00,3.446724414825439453e-01
-1.039390802383422852e+00,1.914599895477294922e+00,4.234641492366790771e-01
-1.040757656097412109e+00,1.917117714881896973e+00,5.036156773567199707e-01
-1.062777161598205566e+00,1.892567276954650879e+00,-5.815973877906799316e-01
-1.064003467559814453e+00,1.894751071929931641e+00,-5.016894340515136719e-01
-1.065456986427307129e+00,1.897339463233947754e+00,-4.229762554168701172e-01
-1.066812872886657715e+00,1.899753928184509277e+00,-3.450869619846343994e-01
-1.068120956420898438e+00,1.902083277702331543e+00,-2.678501904010772705e-01
-1.069522619247436523e+00,1.904579401016235352e+00,-1.911039054393768311e-01
-1.070789456367492676e+00,1.906835198402404785e+00,-1.146113499999046326e-01
-1.072100639343261719e+00,1.909170150756835938e+00,-3.821948170661926270e-02
-1.073454737663269043e+00,1.911581635475158691e+00,3.826775774359703064e-02
-1.074685692787170410e+00,1.913773536682128906e+00,1.150283813476562500e-01
-1.076024293899536133e+00,1.916157364845275879e+00,1.922656297683715820e-01
-1.077340722084045410e+00,1.918501615524291992e+00,2.701622247695922852e-01
-1.078586220741271973e+00,1.920719623565673828e+00,3.488953411579132080e-01
-1.080099940299987793e+00,1.923415184020996094e+00,4.287893474102020264e-01
-1.081525802612304688e+00,1.925954341888427734e+00,5.099513530731201172e-01
-1.105632305145263672e+00,1.904512882232666016e+00,-5.900711417198181152e-01
-1.106905937194824219e+00,1.906706809997558594e+00,-5.089979767799377441e-01
-1.108416318893432617e+00,1.909308552742004395e+00,-4.291374683380126953e-01
-1.109825491905212402e+00,1.911735892295837402e+00,-3.501131534576416016e-01
-1.111187100410461426e+00,1.914081335067749023e+00,-2.717516422271728516e-01
-1.112643599510192871e+00,1.916590213775634766e+00,-1.938871741294860840e-01
-1.113963484764099121e+00,1.918863773345947266e+00,-1.162807866930961609e-01
-1.115326046943664551e+00,1.921210885047912598e+00,-3.877613693475723267e-02
-1.116734385490417480e+00,1.923636913299560547e+00,3.882510215044021606e-02
-1.118016123771667480e+00,1.925844669342041016e+00,1.167038232088088989e-01
-1.119409918785095215e+00,1.928245544433593750e+00,1.950662732124328613e-01
-1.120779633522033691e+00,1.930604934692382812e+00,2.740975916385650635e-01
-1.122076392173767090e+00,1.932838797569274902e+00,3.539779186248779297e-01
-1.123653650283813477e+00,1.935555696487426758e+00,4.350367784500122070e-01
-1.125137925148010254e+00,1.938112378120422363e+00,5.173817276954650879e-01
-1.147851109504699707e+00,1.913625717163085938e+00,-5.979236960411071777e-01
-1.149176478385925293e+00,1.915835261344909668e+00,-5.157729387283325195e-01
-1.150746941566467285e+00,1.918453454971313477e+00,-4.348503947257995605e-01
-1.152211189270019531e+00,1.920894503593444824e+00,-3.547744750976562500e-01
-1.153626441955566406e+00,1.923253893852233887e+00,-2.753700613975524902e-01
-1.155139923095703125e+00,1.925777077674865723e+00,-1.964690536260604858e-01
-1.156509876251220703e+00,1.928061008453369141e+00,-1.178291812539100647e-01
-1.157923936843872070e+00,1.930418372154235840e+00,-3.929246589541435242e-02
-1.159386396408081055e+00,1.932856440544128418e+00,3.934208676218986511e-02
-1.160715103149414062e+00,1.935071587562561035e+00,1.182576268911361694e-01
-1.162160277366638184e+00,1.937480926513671875e+00,1.976630836725234985e-01
-1.163582682609558105e+00,1.939852237701416016e+00,2.777465879917144775e-01
-1.164927005767822266e+00,1.942093372344970703e+00,3.586897552013397217e-01
-1.166562080383300781e+00,1.944819331169128418e+00,4.408266842365264893e-01
-1.168100237846374512e+00,1.947383642196655273e+00,5.242663025856018066e-01
-1.193226933479309082e+00,1.926229476928710938e+00,-6.071361303329467773e-01
-1.194988369941711426e+00,1.929072856903076172e+00,-5.238878726959228516e-01
-1.196247935295104980e+00,1.931106209754943848e+00,-4.415542185306549072e-01
-1.197773933410644531e+00,1.933569669723510742e+00,-3.602449893951416016e-01
-1.199247479438781738e+00,1.935948491096496582e+00,-2.796167433261871338e-01
-1.200823187828063965e+00,1.938492059707641602e+00,-1.994993239641189575e-01
-1.202248215675354004e+00,1.940792441368103027e+00,-1.196466311812400818e-01
-1.203718423843383789e+00,1.943165898323059082e+00,-3.989854082465171814e-02
-1.205238342285156250e+00,1.945619463920593262e+00,3.994891420006752014e-02
-1.206618547439575195e+00,1.947847604751586914e+00,1.200815737247467041e-01
-1.208117961883544922e+00,1.950268030166625977e+00,2.007112503051757812e-01
-1.209590435028076172e+00,1.952645063400268555e+00,2.820282876491546631e-01
-1.211367011070251465e+00,1.955513000488281250e+00,3.643332719802856445e-01
-1.212677597999572754e+00,1.957628726959228516e+00,4.476186931133270264e-01
-1.214269042015075684e+00,1.960197806358337402e+00,5.323406457901000977e-01
-1.237838029861450195e+00,1.935798525810241699e+00,-6.156737208366394043e-01
-1.239675402641296387e+00,1.938671827316284180e+00,-5.312591195106506348e-01
-1.240989565849304199e+00,1.940726995468139648e+00,-4.477697014808654785e-01
-1.242578983306884766e+00,1.943212628364562988e+00,-3.653177917003631592e-01
-1.244112491607666016e+00,1.945610761642456055e+00,-2.835552692413330078e-01
-1.245749711990356445e+00,1.948171138763427734e+00,-2.023098021745681763e-01
-1.247230529785156250e+00,1.950487017631530762e+00,-1.213324144482612610e-01
-1.248756170272827148e+00,1.952872872352600098e+00,-4.046070575714111328e-02
-1.250330686569213867e+00,1.955335140228271484e+00,4.051171988248825073e-02
-1.251758694648742676e+00,1.957568407058715820e+00,1.217729225754737854e-01
-1.253310441970825195e+00,1.959995031356811523e+00,2.035376578569412231e-01
-1.254832744598388672e+00,1.962375640869140625e+00,2.859986126422882080e-01
-1.256667494773864746e+00,1.965245008468627930e+00,3.694598376750946045e-01
-1.258016586303710938e+00,1.967354774475097656e+00,4.539133608341217041e-01
-1.259659171104431152e+00,1.969923496246337891e+00,5.398231148719787598e-01
-1.286004543304443359e+00,1.949087977409362793e+00,-6.256906390190124512e-01
-1.287925124168395996e+00,1.951998829841613770e+00,-5.399075746536254883e-01
-1.289304494857788086e+00,1.954089522361755371e+00,-4.550639986991882324e-01
-1.290965676307678223e+00,1.956607222557067871e+00,-3.712717592716217041e-01
-1.292565584182739258e+00,1.959031939506530762e+00,-2.881781458854675293e-01
-1.294272065162658691e+00,1.961618423461914062e+00,-2.056089788675308228e-01
-1.295811891555786133e+00,1.963952183723449707e+00,-1.233111768960952759e-01
-1.297397017478942871e+00,1.966354608535766602e+00,-4.112056642770767212e-02
-1.299031615257263184e+00,1.968832135200500488e+00,4.117237403988838196e-02
-1.300511240959167480e+00,1.971074581146240234e+00,1.237583681941032410e-01
-1.302114129066467285e+00,1.973503947257995605e+00,2.068547755479812622e-01
-1.303686738014221191e+00,1.975887537002563477e+00,2.906576395034790039e-01
-1.305579185485839844e+00,1.978755593299865723e+00,3.754744827747344971e-01
-1.306967735290527344e+00,1.980860114097595215e+00,4.612982869148254395e-01
-1.308655142784118652e+00,1.983417630195617676e+00,5.485977530479431152e-01
-1.333260416984558105e+00,1.959125399589538574e+00,-6.349738836288452148e-01
-1.335268378257751465e+00,1.962076067924499512e+00,-5.479249954223632812e-01
-1.336713552474975586e+00,1.964199662208557129e+00,-4.618267416954040527e-01
-1.338446140289306641e+00,1.966745495796203613e+00,-3.767921626567840576e-01
-1.340116381645202637e+00,1.969199776649475098e+00,-2.924655675888061523e-01
-1.341888546943664551e+00,1.971803903579711914e+00,-2.086684107780456543e-01
-1.343490242958068848e+00,1.974157452583312988e+00,-1.251465231180191040e-01
-1.345132589340209961e+00,1.976570725440979004e+00,-4.173256084322929382e-02
-1.346825599670410156e+00,1.979058384895324707e+00,4.178508743643760681e-02
-1.348353028297424316e+00,1.981302976608276367e+00,1.255994886159896851e-01
-1.350007534027099609e+00,1.983734011650085449e+00,2.099309414625167847e-01
-1.351623892784118652e+00,1.986109256744384766e+00,2.949769794940948486e-01
-1.353572607040405273e+00,1.988972663879394531e+00,3.810504972934722900e-01
-1.354995727539062500e+00,1.991063833236694336e+00,4.681431353092193604e-01
-1.356726884841918945e+00,1.993607640266418457e+00,5.567304491996765137e-01
-1.385020971298217773e+00,1.973844289779663086e+00,-6.461036205291748047e-01
-1.386620998382568359e+00,1.976124525070190430e+00,-5.573335886001586914e-01
-1.388501763343811035e+00,1.978804945945739746e+00,-4.698855578899383545e-01
-1.389958143234252930e+00,1.980880498886108398e+00,-3.832724690437316895e-01
-1.391703009605407715e+00,1.983367085456848145e+00,-2.974977791309356689e-01
-1.393553614616394043e+00,1.986004590988159180e+00,-2.122603356838226318e-01
-1.395219564437866211e+00,1.988378763198852539e+00,-1.273009628057479858e-01
-1.396926999092102051e+00,1.990811944007873535e+00,-4.245106130838394165e-02
-1.398679494857788086e+00,1.993309497833251953e+00,4.250431805849075317e-02
-1.400257468223571777e+00,1.995558381080627441e+00,1.277606189250946045e-01
-1.401962876319885254e+00,1.997988700866699219e+00,2.135411947965621948e-01
-1.403993129730224609e+00,2.000882148742675781e+00,3.001249730587005615e-01
-1.405629277229309082e+00,2.003213882446289062e+00,3.875936865806579590e-01
-1.407601356506347656e+00,2.006024360656738281e+00,4.763490557670593262e-01
-1.409444332122802734e+00,2.008651018142700195e+00,5.665071606636047363e-01
-1.435219883918762207e+00,1.984363317489624023e+00,-6.562039852142333984e-01
-1.436902642250061035e+00,1.986689805984497070e+00,-5.660560131072998047e-01
-1.438874840736389160e+00,1.989416718482971191e+00,-4.772470593452453613e-01
-1.440695881843566895e+00,1.991934537887573242e+00,-3.893613219261169434e-01
-1.442435503005981445e+00,1.994339704513549805e+00,-3.022095263004302979e-01
-1.444149971008300781e+00,1.996710181236267090e+00,-2.155917137861251831e-01
-1.445882320404052734e+00,1.999105453491210938e+00,-1.292994618415832520e-01
-1.447652220726013184e+00,2.001552581787109375e+00,-4.311751201748847961e-02
-1.449462294578552246e+00,2.004055261611938477e+00,4.317142441868782043e-02
-1.451303124427795410e+00,2.006600379943847656e+00,1.297842264175415039e-01
-1.453140974044799805e+00,2.009141445159912109e+00,2.169339507818222046e-01
-1.454928874969482422e+00,2.011613368988037109e+00,3.048270642757415771e-01
-1.456602573394775391e+00,2.013927459716796875e+00,3.936602771282196045e-01
-1.458619475364685059e+00,2.016716003417968750e+00,4.837959706783294678e-01
-1.460499167442321777e+00,2.019315004348754883e+00,5.753516554832458496e-01
-1.489905476570129395e+00,1.999084949493408203e+00,-6.680559515953063965e-01
-1.491688132286071777e+00,2.001476764678955078e+00,-5.762936472892761230e-01
-1.493764042854309082e+00,2.004262208938598633e+00,-4.858877360820770264e-01
-1.495678067207336426e+00,2.006830453872680664e+00,-3.964170515537261963e-01
-1.497503519058227539e+00,2.009279727935791016e+00,-3.076899647712707520e-01
-1.499294757843017578e+00,2.011682987213134766e+00,-2.195030152797698975e-01
-1.501099109649658203e+00,2.014104127883911133e+00,-1.316457390785217285e-01
-1.502937436103820801e+00,2.016570568084716797e+00,-4.389995336532592773e-02
-1.504810690879821777e+00,2.019083976745605469e+00,4.395467042922973633e-02
-1.506708741188049316e+00,2.021630764007568359e+00,1.321377009153366089e-01
-1.508597970008850098e+00,2.024165630340576172e+00,2.208650559186935425e-01
-1.510432124137878418e+00,2.026626586914062500e+00,3.103463649749755859e-01
-1.512139320373535156e+00,2.028917312622070312e+00,4.007799625396728516e-01
-1.514198660850524902e+00,2.031680345535278320e+00,4.925346672534942627e-01
-1.516108274459838867e+00,2.034242630004882812e+00,5.857279896736145020e-01
-1.546533107757568359e+00,2.014245271682739258e+00,-6.804500222206115723e-01
-1.548425555229187012e+00,2.016709804534912109e+00,-5.870012044906616211e-01
-1.550615668296813965e+00,2.019562482833862305e+00,-4.949268400669097900e-01
-1.552628874778747559e+00,2.022184610366821289e+00,-4.037985503673553467e-01
-1.554543614387512207e+00,2.024678230285644531e+00,-3.134232759475708008e-01
-1.556420803070068359e+00,2.027123212814331055e+00,-2.235956788063049316e-01
-1.558299660682678223e+00,2.029570102691650391e+00,-1.341007798910140991e-01
-1.560206413269042969e+00,2.032053709030151367e+00,-4.471859335899353027e-02
-1.562144875526428223e+00,2.034578323364257812e+00,4.477414861321449280e-02
-1.564101219177246094e+00,2.037126302719116211e+00,1.346000432968139648e-01
-1.566043138504028320e+00,2.039655447006225586e+00,2.249780148267745972e-01
-1.567915320396423340e+00,2.042093753814697266e+00,3.161192238330841064e-01
-1.569656968116760254e+00,2.044362306594848633e+00,4.082270860671997070e-01
-1.571750521659851074e+00,2.047089099884033203e+00,5.016726851463317871e-01
-1.573684573173522949e+00,2.049607992172241211e+00,5.965767502784729004e-01
-1.602408528327941895e+00,2.026307821273803711e+00,-6.922023296356201172e-01
-1.604315280914306641e+00,2.028719186782836914e+00,-5.971194505691528320e-01
-1.606115460395812988e+00,2.030995607376098633e+00,-5.033109784126281738e-01
-1.608229994773864746e+00,2.033669471740722656e+00,-4.106464385986328125e-01
-1.610236406326293945e+00,2.036206483840942383e+00,-3.187431097030639648e-01
-1.612194180488586426e+00,2.038682222366333008e+00,-2.273926883935928345e-01
-1.614147186279296875e+00,2.041151762008666992e+00,-1.363786160945892334e-01
-1.616123080253601074e+00,2.043650388717651367e+00,-4.547820240259170532e-02
-1.618124723434448242e+00,2.046181678771972656e+00,4.553452879190444946e-02
-1.620135903358459473e+00,2.048724889755249023e+00,1.368845999240875244e-01
-1.622123360633850098e+00,2.051238059997558594e+00,2.287931740283966064e-01
-1.624038338661193848e+00,2.053659677505493164e+00,3.214751780033111572e-01
-1.626313686370849609e+00,2.056536912918090820e+00,4.152639210224151611e-01
-1.628528594970703125e+00,2.059337615966796875e+00,5.103346109390258789e-01
-1.630566596984863281e+00,2.061914682388305664e+00,6.068900227546691895e-01
-1.663052439689636230e+00,2.042226314544677734e+00,-7.056995630264282227e-01
-1.665087103843688965e+00,2.044724941253662109e+00,-6.087829470634460449e-01
-1.667002201080322266e+00,2.047076702117919922e+00,-5.131565928459167480e-01
-1.669234037399291992e+00,2.049817323684692383e+00,-4.186886847019195557e-01
-1.671342253684997559e+00,2.052406072616577148e+00,-3.249904513359069824e-01
-1.673392891883850098e+00,2.054924249649047852e+00,-2.318521589040756226e-01
-1.675431847572326660e+00,2.057428121566772461e+00,-1.390541642904281616e-01
-1.677481412887573242e+00,2.059945106506347656e+00,-4.637037962675094604e-02
-1.679548144340515137e+00,2.062483072280883789e+00,4.642751067876815796e-02
-1.681619167327880859e+00,2.065026283264160156e+00,1.395676881074905396e-01
-1.683655738830566406e+00,2.067527055740356445e+00,2.332741022109985352e-01
-1.685603141784667969e+00,2.069918394088745117e+00,3.277634680271148682e-01
-1.687919020652770996e+00,2.072762489318847656e+00,4.233753681182861328e-01
-1.690162181854248047e+00,2.075517177581787109e+00,5.202859640121459961e-01
-1.692214727401733398e+00,2.078037500381469727e+00,6.187012791633605957e-01
-1.725972890853881836e+00,2.058604001998901367e+00,-7.198219895362854004e-01
-1.728145956993103027e+00,2.061195850372314453e+00,-6.209880113601684570e-01
-1.730630993843078613e+00,2.064159870147705078e+00,-5.235949158668518066e-01
-1.732542157173156738e+00,2.066439390182495117e+00,-4.271053671836853027e-01
-1.734764099121093750e+00,2.069089412689208984e+00,-3.315300345420837402e-01
-1.736912250518798828e+00,2.071651458740234375e+00,-2.365202605724334717e-01
-1.739040613174438477e+00,2.074190139770507812e+00,-1.418548524379730225e-01
-1.741168618202209473e+00,2.076728105545043945e+00,-4.730433970689773560e-02
-1.743302702903747559e+00,2.079273462295532227e+00,4.736232012510299683e-02
-1.745430588722229004e+00,2.081811666488647461e+00,1.423760950565338135e-01
-1.747513532638549805e+00,2.084295988082885742e+00,2.379638701677322388e-01
-1.749944567680358887e+00,2.087195634841918945e+00,3.344311714172363281e-01
-1.751844286918640137e+00,2.089461326599121094e+00,4.318636953830718994e-01
-1.754110217094421387e+00,2.092164039611816406e+00,5.306984782218933105e-01
-1.756170153617858887e+00,2.094620943069458008e+00,6.310581564903259277e-01
-1.787864446640014648e+00,2.071468830108642578e+00,-7.331933379173278809e-01
-1.790080189704895020e+00,2.074035882949829102e+00,-6.325109601020812988e-01
-1.792147040367126465e+00,2.076430559158325195e+00,-5.331597924232482910e-01
-1.794169187545776367e+00,2.078773498535156250e+00,-4.349180161952972412e-01
-1.796500086784362793e+00,2.081474304199218750e+00,-3.376000523567199707e-01
-1.798747777938842773e+00,2.084078550338745117e+00,-2.408538311719894409e-01
-1.800961613655090332e+00,2.086643457412719727e+00,-1.444547176361083984e-01
-1.803163886070251465e+00,2.089195013046264648e+00,-4.817127808928489685e-02
-1.805365204811096191e+00,2.091745615005493164e+00,4.823008552193641663e-02
-1.807547450065612793e+00,2.094274044036865234e+00,1.449829638004302979e-01
-1.809673547744750977e+00,2.096737384796142578e+00,2.423167973756790161e-01
-1.812148571014404297e+00,2.099605083465576172e+00,3.405407369136810303e-01
-1.814630746841430664e+00,2.102480888366699219e+00,4.398780465126037598e-01
-1.817011833190917969e+00,2.105239868164062500e+00,5.405570268630981445e-01
-1.819166541099548340e+00,2.107736110687255859e+00,6.427884101867675781e-01
-1.855494260787963867e+00,2.088630199432373047e+00,-7.485912442207336426e-01
-1.857870459556579590e+00,2.091305017471313477e+00,-6.458210945129394531e-01
-1.860079765319824219e+00,2.093791961669921875e+00,-5.443980693817138672e-01
-1.862604856491088867e+00,2.096634149551391602e+00,-4.441871345043182373e-01
-1.864690542221069336e+00,2.098981857299804688e+00,-3.447333276271820068e-01
-1.867050647735595703e+00,2.101638555526733398e+00,-2.459464818239212036e-01
-1.869358897209167480e+00,2.104236841201782227e+00,-1.475099027156829834e-01
-1.871648311614990234e+00,2.106813907623291016e+00,-4.919018596410751343e-02
-1.873918652534484863e+00,2.109369516372680664e+00,4.924985393881797791e-02
-1.876157283782958984e+00,2.111889362335205078e+00,1.480463594198226929e-01
-1.878700613975524902e+00,2.114752292633056641e+00,2.474811226129531860e-01
-1.880841612815856934e+00,2.117162466049194336e+00,3.477192521095275879e-01
-1.883351922035217285e+00,2.119988203048706055e+00,4.491348266601562500e-01
-1.885745048522949219e+00,2.122681856155395508e+00,5.519096255302429199e-01
-1.887891530990600586e+00,2.125097990036010742e+00,6.562568545341491699e-01
-1.925802350044250488e+00,2.106271266937255859e+00,-7.647153735160827637e-01
-1.928349852561950684e+00,2.109057664871215820e+00,-6.597594022750854492e-01
-1.930715918540954590e+00,2.111645460128784180e+00,-5.561684370040893555e-01
-1.933394551277160645e+00,2.114575147628784180e+00,-4.538043737411499023e-01
-1.935603022575378418e+00,2.116990566253662109e+00,-3.522051870822906494e-01
-1.938081860542297363e+00,2.119701385498046875e+00,-2.512809634208679199e-01
-1.940492987632751465e+00,2.122338771820068359e+00,-1.507105082273483276e-01
-1.942869424819946289e+00,2.124937772750854492e+00,-5.025748535990715027e-02
-1.945214271545410156e+00,2.127502202987670898e+00,5.031814053654670715e-02
-1.947507619857788086e+00,2.130010604858398438e+00,1.512552946805953979e-01
-1.950104475021362305e+00,2.132850885391235352e+00,2.528397440910339355e-01
-1.952266573905944824e+00,2.135215520858764648e+00,3.552373051643371582e-01
-1.954799175262451172e+00,2.137985467910766602e+00,4.588284492492675781e-01
-1.957198977470397949e+00,2.140610218048095703e+00,5.637972354888916016e-01
-1.960139870643615723e+00,2.143826484680175781e+00,6.706359386444091797e-01
-1.999663829803466797e+00,2.125163316726684570e+00,-7.818860411643981934e-01
-2.002308368682861328e+00,2.127973794937133789e+00,-6.745731830596923828e-01
-2.004723548889160156e+00,2.130540609359741211e+00,-5.686444640159606934e-01
-2.007056713104248047e+00,2.133020401000976562e+00,-4.638805985450744629e-01
-2.009685516357421875e+00,2.135813951492309570e+00,-3.600857257843017578e-01
-2.012002944946289062e+00,2.138276815414428711e+00,-2.568706274032592773e-01
-2.014525651931762695e+00,2.140957832336425781e+00,-1.540645062923431396e-01
-2.016990661621093750e+00,2.143577814102172852e+00,-5.137589573860168457e-02
-2.019408226013183594e+00,2.146147012710571289e+00,5.143747478723526001e-02
-2.022047996520996094e+00,2.148952484130859375e+00,1.546398103237152100e-01
-2.024404048919677734e+00,2.151456117630004883e+00,2.584538459777832031e-01
-2.027103185653686523e+00,2.154324769973754883e+00,3.632065057754516602e-01
-2.029762268066406250e+00,2.157150745391845703e+00,4.691284298896789551e-01
-2.032264709472656250e+00,2.159810304641723633e+00,5.764565467834472656e-01
-2.034470081329345703e+00,2.162153959274291992e+00,6.854084134101867676e-01
-2.075828552246093750e+00,2.143784999847412109e+00,-7.995870709419250488e-01
-2.078675508499145508e+00,2.146725416183471680e+00,-6.898785829544067383e-01
-2.081272363662719727e+00,2.149407148361206055e+00,-5.815714001655578613e-01
-2.083764553070068359e+00,2.151980876922607422e+00,-4.744419157505035400e-01
-2.086544752120971680e+00,2.154852151870727539e+00,-3.682928979396820068e-01
-2.088989734649658203e+00,2.157377004623413086e+00,-2.627301812171936035e-01
-2.091622829437255859e+00,2.160096406936645508e+00,-1.575799733400344849e-01
-2.094185352325439453e+00,2.162742853164672852e+00,-5.254827439785003662e-02
-2.096677064895629883e+00,2.165316104888916016e+00,5.261079967021942139e-02
-2.099382638931274414e+00,2.168110370635986328e+00,1.581645756959915161e-01
-2.101773977279663086e+00,2.170579910278320312e+00,2.643380463123321533e-01
-2.104505062103271484e+00,2.173400640487670898e+00,3.714630603790283203e-01
-2.107178449630737305e+00,2.176161289215087891e+00,4.797728955745697021e-01
-2.109671831130981445e+00,2.178736448287963867e+00,5.895071029663085938e-01
-2.112711668014526367e+00,2.181875705718994141e+00,7.011746764183044434e-01
-2.155946731567382812e+00,2.163683414459228516e+00,-8.184347152709960938e-01
-2.158244132995605469e+00,2.165989160537719727e+00,-7.059245109558105469e-01
-2.161030054092407227e+00,2.168785095214843750e+00,-5.951229333877563477e-01
-2.164126157760620117e+00,2.171892166137695312e+00,-4.856111407279968262e-01
-2.166644334793090820e+00,2.174419641494750977e+00,-3.768990039825439453e-01
-2.169404983520507812e+00,2.177189826965332031e+00,-2.688970267772674561e-01
-2.171977043151855469e+00,2.179771184921264648e+00,-1.612666547298431396e-01
-2.174633026123046875e+00,2.182436943054199219e+00,-5.377755686640739441e-02
-2.177389144897460938e+00,2.185202836990356445e+00,5.384571105241775513e-02
-2.179974555969238281e+00,2.187797307968139648e+00,1.618604511022567749e-01
-2.182833671569824219e+00,2.190666913986206055e+00,2.705615162849426270e-01
-2.185159683227539062e+00,2.193001270294189453e+00,3.801198303699493408e-01
-2.187839031219482422e+00,2.195690155029296875e+00,4.909321367740631104e-01
-2.191098690032958984e+00,2.198961496353149414e+00,6.034034490585327148e-01
-2.194232225418090820e+00,2.202106475830078125e+00,7.176955938339233398e-01
-2.238695383071899414e+00,2.183322429656982422e+00,-8.378983736038208008e-01
-2.241888523101806641e+00,2.186436653137207031e+00,-7.229728698730468750e-01
-2.244766235351562500e+00,2.189243316650390625e+00,-6.094909906387329102e-01
-2.247495651245117188e+00,2.191905260086059570e+00,-4.972276687622070312e-01
-2.250176668167114258e+00,2.194519758224487305e+00,-3.859262168407440186e-01
-2.253089427947998047e+00,2.197360515594482422e+00,-2.753430604934692383e-01
-2.255780220031738281e+00,2.199984788894653320e+00,-1.651339828968048096e-01
-2.258539438247680664e+00,2.202675580978393555e+00,-5.506720393896102905e-02
-2.261381387710571289e+00,2.205447435379028320e+00,5.513650178909301758e-02
-2.264020204544067383e+00,2.208020925521850586e+00,1.657371819019317627e-01
-2.266926288604736328e+00,2.210855245590209961e+00,2.770340144634246826e-01
-2.269831895828247070e+00,2.213688850402832031e+00,3.892972469329833984e-01
-2.272630691528320312e+00,2.216418266296386719e+00,5.027883648872375488e-01
-2.275197744369506836e+00,2.218922138214111328e+00,6.177536249160766602e-01
-2.278305292129516602e+00,2.221952676773071289e+00,7.347167134284973145e-01
-2.325856685638427734e+00,2.204266548156738281e+00,-8.586242794990539551e-01
-2.328478336334228516e+00,2.206751346588134766e+00,-7.406347990036010742e-01
-2.331577062606811523e+00,2.209687948226928711e+00,-6.244099736213684082e-01
-2.334506034851074219e+00,2.212463617324829102e+00,-5.094192028045654297e-01
-2.337359189987182617e+00,2.215167760848999023e+00,-3.954003155231475830e-01
-2.340426445007324219e+00,2.218074560165405273e+00,-2.821074724197387695e-01
-2.343247413635253906e+00,2.220748186111450195e+00,-1.691927462816238403e-01
-2.346117734909057617e+00,2.223468303680419922e+00,-5.642077699303627014e-02
-2.349044561386108398e+00,2.226242065429687500e+00,5.649116262793540955e-02
-2.351740598678588867e+00,2.228797197341918945e+00,1.698059737682342529e-01
-2.354689359664916992e+00,2.231591939926147461e+00,2.838266789913177490e-01
-2.357614517211914062e+00,2.234364271163940430e+00,3.988268375396728516e-01
-2.360407352447509766e+00,2.237010955810546875e+00,5.150712132453918457e-01
-2.363778829574584961e+00,2.240206241607666016e+00,6.330337524414062500e-01
-2.366968870162963867e+00,2.243229389190673828e+00,7.528776526451110840e-01
-2.416881322860717773e+00,2.225745916366577148e+00,-8.803762793540954590e-01
-2.419627666473388672e+00,2.228275060653686523e+00,-7.594045400619506836e-01
-2.422843694686889648e+00,2.231236934661865234e+00,-6.402332782745361328e-01
-2.425853013992309570e+00,2.234008312225341797e+00,-5.223211050033569336e-01
-2.428757429122924805e+00,2.236683130264282227e+00,-4.054044485092163086e-01
-2.431654453277587891e+00,2.239351034164428711e+00,-2.892106473445892334e-01
-2.434610843658447266e+00,2.242073535919189453e+00,-1.734546422958374023e-01
-2.437591314315795898e+00,2.244818210601806641e+00,-5.784195661544799805e-02
-2.440608263015747070e+00,2.247596502304077148e+00,5.791354551911354065e-02
-2.443704366683959961e+00,2.250447988510131836e+00,1.741025149822235107e-01
-2.446827888488769531e+00,2.253324508666992188e+00,2.910152971744537354e-01
-2.449900150299072266e+00,2.256153583526611328e+00,4.089335501194000244e-01
-2.452809810638427734e+00,2.258833169937133789e+00,5.281253457069396973e-01
-2.456292867660522461e+00,2.262040853500366211e+00,6.490721702575683594e-01
-2.459555864334106445e+00,2.265045881271362305e+00,7.719361782073974609e-01
-2.518286943435668945e+00,2.253383874893188477e+00,-9.054729342460632324e-01
-2.522086858749389648e+00,2.256783962249755859e+00,-7.813434004783630371e-01
-2.524836063385009766e+00,2.259243965148925781e+00,-6.585720181465148926e-01
-2.528075695037841797e+00,2.262142896652221680e+00,-5.373044013977050781e-01
-2.531198263168334961e+00,2.264936923980712891e+00,-4.170496463775634766e-01
-2.534278631210327148e+00,2.267693281173706055e+00,-2.975253462791442871e-01
-2.537389516830444336e+00,2.270477056503295898e+00,-1.784435063600540161e-01
-2.540495872497558594e+00,2.273256301879882812e+00,-5.950559303164482117e-02
-2.543608903884887695e+00,2.276042222976684570e+00,5.957851186394691467e-02
-2.546774625778198242e+00,2.278874635696411133e+00,1.791035085916519165e-01
-2.549939393997192383e+00,2.281706571578979492e+00,2.993639111518859863e-01
-2.553021430969238281e+00,2.284464359283447266e+00,4.206452965736389160e-01
-2.556677103042602539e+00,2.287735462188720703e+00,5.433831810951232910e-01
-2.559353351593017578e+00,2.290130376815795898e+00,6.675754189491271973e-01
-2.562549591064453125e+00,2.292990207672119141e+00,7.938787341117858887e-01
-2.618238925933837891e+00,2.276192665100097656e+00,-9.296018481254577637e-01
-2.621439695358276367e+00,2.278975248336791992e+00,-8.019351363182067871e-01
-2.625091075897216797e+00,2.282149553298950195e+00,-6.761326193809509277e-01
-2.627927064895629883e+00,2.284615039825439453e+00,-5.515197515487670898e-01
-2.631257295608520508e+00,2.287510156631469727e+00,-4.280971586704254150e-01
-2.634519100189208984e+00,2.290345907211303711e+00,-3.054136335849761963e-01
-2.637782812118530273e+00,2.293183326721191406e+00,-1.831766366958618164e-01
-2.641013145446777344e+00,2.295991420745849609e+00,-6.108397617936134338e-02
-2.644219636917114258e+00,2.298779010772705078e+00,6.115813925862312317e-02
-2.647451877593994141e+00,2.301589012145996094e+00,1.838480830192565918e-01
-2.650653839111328125e+00,2.304372787475585938e+00,3.072840869426727295e-01
-2.654396533966064453e+00,2.307626485824584961e+00,4.318618476390838623e-01
-2.657390356063842773e+00,2.310229301452636719e+00,5.577031970024108887e-01
-2.660935640335083008e+00,2.313311338424682617e+00,6.853649616241455078e-01
-2.664192199707031250e+00,2.316142559051513672e+00,8.150137066841125488e-01
-2.731050014495849609e+00,2.306474447250366211e+00,-9.578356742858886719e-01
-2.734453916549682617e+00,2.309349298477172852e+00,-8.263111710548400879e-01
-2.737618684768676758e+00,2.312021970748901367e+00,-6.965208649635314941e-01
-2.741242170333862305e+00,2.315082311630249023e+00,-5.682885050773620605e-01
-2.744672298431396484e+00,2.317979097366333008e+00,-4.411062300205230713e-01
-2.747767210006713867e+00,2.320592880249023438e+00,-3.146593868732452393e-01
-2.751208782196044922e+00,2.323499441146850586e+00,-1.887244880199432373e-01
-2.754575729370117188e+00,2.326342821121215820e+00,-6.293396651744842529e-02
-2.757885932922363281e+00,2.329138278961181641e+00,6.300959736108779907e-02
-2.761569976806640625e+00,2.332249879837036133e+00,1.894352436065673828e-01
-2.764955520629882812e+00,2.335108995437622070e+00,3.166276812553405762e-01
-2.768181562423706055e+00,2.337833404541015625e+00,4.448844790458679199e-01
-2.771957635879516602e+00,2.341022491455078125e+00,5.746561288833618164e-01
-2.775589227676391602e+00,2.344089508056640625e+00,7.061815857887268066e-01
-2.778881072998046875e+00,2.346869707107543945e+00,8.397364020347595215e-01
-2.840263605117797852e+00,2.329891204833984375e+00,-9.843422770500183105e-01
-2.844007015228271484e+00,2.332961797714233398e+00,-8.492386937141418457e-01
-2.848166942596435547e+00,2.336374521255493164e+00,-7.160654664039611816e-01
-2.851370573043823242e+00,2.339002370834350586e+00,-5.841188430786132812e-01
-2.855040073394775391e+00,2.342012405395507812e+00,-4.534098803997039795e-01
-2.858565568923950195e+00,2.344904422760009766e+00,-3.234707117080688477e-01
-2.862021684646606445e+00,2.347739458084106445e+00,-1.940008848905563354e-01
-2.865527391433715820e+00,2.350615262985229492e+00,-6.469356268644332886e-02
-2.869094848632812500e+00,2.353541612625122070e+00,6.477410346269607544e-02
-2.872616291046142578e+00,2.356430292129516602e+00,1.947190314531326294e-01
-2.876034021377563477e+00,2.359234094619750977e+00,3.254474401473999023e-01
-2.879962444305419922e+00,2.362456321716308594e+00,4.573678374290466309e-01
-2.883015394210815430e+00,2.364960908889770508e+00,5.906014442443847656e-01
-2.886590242385864258e+00,2.367893457412719727e+00,7.257255911827087402e-01
-2.890926361083984375e+00,2.371450185775756836e+00,8.632491230964660645e-01
-2.965155601501464844e+00,2.362164258956909180e+00,-1.015803933143615723e+00
-2.969152688980102539e+00,2.365348339080810547e+00,-8.764085173606872559e-01
-2.972813844680786133e+00,2.368265151977539062e+00,-7.388051748275756836e-01
-2.976889371871948242e+00,2.371511697769165039e+00,-6.028165221214294434e-01
-2.980277538299560547e+00,2.374210834503173828e+00,-4.678540825843811035e-01
-2.984037637710571289e+00,2.377206325531005859e+00,-3.337844014167785645e-01
-2.987687110900878906e+00,2.380113601684570312e+00,-2.001892924308776855e-01
-2.991347551345825195e+00,2.383029937744140625e+00,-6.675723195075988770e-02
-2.995029926300048828e+00,2.385963439941406250e+00,6.683941185474395752e-02
-2.998625278472900391e+00,2.388827562332153320e+00,2.009222060441970825e-01
-3.002645254135131836e+00,2.392030000686645508e+00,3.358657956123352051e-01
-3.006006002426147461e+00,2.394707202911376953e+00,4.718930423259735107e-01
-3.009882211685180664e+00,2.397795438766479492e+00,6.094976067543029785e-01
-3.013521909713745117e+00,2.400694608688354492e+00,7.489219903945922852e-01
-3.017915010452270508e+00,2.404194593429565430e+00,8.908017873764038086e-01
-3.097131967544555664e+00,2.395654439926147461e+00,-1.049161911010742188e+00
-3.101412534713745117e+00,2.398965597152709961e+00,-9.052196741104125977e-01
-3.105296373367309570e+00,2.401969671249389648e+00,-7.631074190139770508e-01
-3.108984708786010742e+00,2.404822587966918945e+00,-6.225316524505615234e-01
-3.112640619277954102e+00,2.407650470733642578e+00,-4.831734895706176758e-01
-3.116656541824340820e+00,2.410756826400756836e+00,-3.447236716747283936e-01
-3.120512723922729492e+00,2.413739442825317383e+00,-2.067531198263168335e-01
-3.124336004257202148e+00,2.416697025299072266e+00,-6.894607841968536377e-02
-3.128135681152343750e+00,2.419636011123657227e+00,6.902992725372314453e-02
-3.131803512573242188e+00,2.422472953796386719e+00,2.075012028217315674e-01
-3.135868787765502930e+00,2.425617694854736328e+00,3.468486666679382324e-01
-3.139967441558837891e+00,2.428787946701049805e+00,4.874154031276702881e-01
-3.143954277038574219e+00,2.431871652603149414e+00,6.295338273048400879e-01
-3.147659301757812500e+00,2.434737682342529297e+00,7.735178470611572266e-01
-3.152091503143310547e+00,2.438166141510009766e+00,9.200115203857421875e-01
-3.207522630691528320e+00,2.408466100692749023e+00,-1.074768900871276855e+00
-3.241361141204833984e+00,2.433874845504760742e+00,-9.358030557632446289e-01
-3.244704961776733398e+00,2.436385631561279297e+00,-7.887156009674072266e-01
-3.248752117156982422e+00,2.439424514770507812e+00,-6.434606909751892090e-01
-3.253146409988403320e+00,2.442724227905273438e+00,-4.995055496692657471e-01
-3.257000207901000977e+00,2.445617914199829102e+00,-3.563382923603057861e-01
-3.261077404022216797e+00,2.448679447174072266e+00,-2.137222886085510254e-01
-3.265078306198120117e+00,2.451683521270751953e+00,-7.127020508050918579e-02
-3.269004344940185547e+00,2.454631567001342773e+00,7.135590910911560059e-02
-3.273182630538940430e+00,2.457768917083740234e+00,2.145156264305114746e-01
-3.276843547821044922e+00,2.460517883300781250e+00,3.585093021392822266e-01
-3.280936479568481445e+00,2.463591098785400391e+00,5.037725567817687988e-01
-3.285826683044433594e+00,2.467263221740722656e+00,6.508038640022277832e-01
-3.289580106735229492e+00,2.470081567764282227e+00,7.996237277984619141e-01
-3.294045925140380859e+00,2.473434925079345703e+00,9.510135054588317871e-01
-3.240077495574951172e+00,2.361157178878784180e+00,-1.074242830276489258e+00
-3.388656377792358398e+00,2.469431877136230469e+00,-9.680243134498596191e-01
-3.393222093582153320e+00,2.472759008407592773e+00,-8.161297440528869629e-01
-3.397475719451904297e+00,2.475858926773071289e+00,-6.658303141593933105e-01
-3.401585578918457031e+00,2.478853940963745117e+00,-5.167968273162841797e-01
-3.405721426010131836e+00,2.481867790222167969e+00,-3.686850666999816895e-01
-3.410035371780395508e+00,2.485011577606201172e+00,-2.211308330297470093e-01
-3.414216518402099609e+00,2.488058567047119141e+00,-7.374069094657897949e-02
-3.418271541595458984e+00,2.491013526916503906e+00,7.382827252149581909e-02
-3.422539949417114258e+00,2.494123935699462891e+00,2.219417244195938110e-01
-3.426858901977539062e+00,2.497271299362182617e+00,3.709733188152313232e-01
-3.431113004684448242e+00,2.500371456146240234e+00,5.212828516960144043e-01
-3.435148954391479492e+00,2.503312587738037109e+00,6.732134222984313965e-01
-3.439941644668579102e+00,2.506805181503295898e+00,8.273665904998779297e-01
-3.444428205490112305e+00,2.510074853897094727e+00,9.839564561843872070e-01
-3.272573947906494141e+00,2.313861370086669922e+00,-1.073926329612731934e+00
-3.545946359634399414e+00,2.507148504257202148e+00,-1.002602696418762207e+00
-3.550809860229492188e+00,2.510587215423583984e+00,-8.453027606010437012e-01
-3.554635286331176758e+00,2.513291835784912109e+00,-6.895093917846679688e-01
-3.559096574783325195e+00,2.516446352005004883e+00,-5.352000594139099121e-01
-3.563817262649536133e+00,2.519783973693847656e+00,-3.818561732769012451e-01
-3.568101882934570312e+00,2.522813320159912109e+00,-2.290158867835998535e-01
-3.572478532791137695e+00,2.525907754898071289e+00,-7.637015730142593384e-02
-3.576954841613769531e+00,2.529072761535644531e+00,7.646585255861282349e-02
-3.581023216247558594e+00,2.531949520111083984e+00,2.298452407121658325e-01
-3.585378646850585938e+00,2.535028934478759766e+00,3.841664493083953857e-01
-3.590462446212768555e+00,2.538623332977294922e+00,5.399166941642761230e-01
-3.594599723815917969e+00,2.541548490524291992e+00,6.972614526748657227e-01
-3.599464416503906250e+00,2.544988155364990234e+00,8.568853735923767090e-01
-3.603958129882812500e+00,2.548165559768676758e+00,1.019005298614501953e+00
-3.304995775222778320e+00,2.266541242599487305e+00,-1.073809742927551270e+00
-3.713074207305908203e+00,2.546398401260375977e+00,-1.039445400238037109e+00
-3.717395305633544922e+00,2.549361705780029297e+00,-8.761833310127258301e-01
-3.722323894500732422e+00,2.552741765975952148e+00,-7.148759365081787109e-01
-3.726971626281738281e+00,2.555929183959960938e+00,-5.548861026763916016e-01
-3.731539964675903320e+00,2.559062004089355469e+00,-3.958620727062225342e-01
-3.736086130142211914e+00,2.562179803848266602e+00,-2.374196350574493408e-01
-3.740667581558227539e+00,2.565321683883666992e+00,-7.917254418134689331e-02
-3.745296478271484375e+00,2.568496227264404297e+00,7.927051186561584473e-02
-3.749939680099487305e+00,2.571680545806884766e+00,2.383000105619430542e-01
-3.754517793655395508e+00,2.574820041656494141e+00,3.982996642589569092e-01
-3.758912801742553711e+00,2.577834129333496094e+00,5.596415996551513672e-01
-3.764030933380126953e+00,2.581344127655029297e+00,7.228857874870300293e-01
-3.768961668014526367e+00,2.584725379943847656e+00,8.883374333381652832e-01
-3.773442268371582031e+00,2.587798357009887695e+00,1.056344985961914062e+00
-3.339476108551025391e+00,2.220590591430664062e+00,-1.074575662612915039e+00
-3.905541181564331055e+00,2.596996545791625977e+00,-1.082808136940002441e+00
-3.910236120223999023e+00,2.600118637084960938e+00,-9.127702116966247559e-01
-3.915494918823242188e+00,2.603615283966064453e+00,-7.447412014007568359e-01
-3.919869661331176758e+00,2.606524467468261719e+00,-5.779916644096374512e-01
-3.924815177917480469e+00,2.609812974929809570e+00,-4.123606383800506592e-01
-3.929665088653564453e+00,2.613037824630737305e+00,-2.473190128803253174e-01
-3.934487104415893555e+00,2.616244316101074219e+00,-8.247376233339309692e-02
-3.939286947250366211e+00,2.619436025619506836e+00,8.257437497377395630e-02
-3.944032192230224609e+00,2.622591495513916016e+00,2.482232302427291870e-01
-3.949366092681884766e+00,2.626138210296630859e+00,4.149400889873504639e-01
-3.953911304473876953e+00,2.629160404205322266e+00,5.830112099647521973e-01
-3.959144353866577148e+00,2.632640123367309570e+00,7.530434727668762207e-01
-3.964111804962158203e+00,2.635943412780761719e+00,9.253464937210083008e-01
-3.968540668487548828e+00,2.638888359069824219e+00,1.100274682044982910e+00
-3.371786594390869141e+00,2.173130273818969727e+00,-1.074853420257568359e+00
-4.003107547760009766e+00,2.580019474029541016e+00,-1.099507212638854980e+00
-4.101396083831787109e+00,2.643366575241088867e+00,-9.484636783599853516e-01
-4.106219291687011719e+00,2.646475076675415039e+00,-7.737334370613098145e-01
-4.111574172973632812e+00,2.649926424026489258e+00,-6.006045341491699219e-01
-4.116332054138183594e+00,2.652992725372314453e+00,-4.284487664699554443e-01
-4.121490001678466797e+00,2.656317234039306641e+00,-2.569725513458251953e-01
-4.126544475555419922e+00,2.659574747085571289e+00,-8.569287508726119995e-02
-4.131515979766845703e+00,2.662779092788696289e+00,8.579611778259277344e-02
-4.136898040771484375e+00,2.666247844696044922e+00,2.579332590103149414e-01
-4.141742706298828125e+00,2.669370174407958984e+00,4.310936629772186279e-01
-4.147211074829101562e+00,2.672894477844238281e+00,6.058102250099182129e-01
-4.152565956115722656e+00,2.676345825195312500e+00,7.824665904045104980e-01
-4.157575130462646484e+00,2.679574251174926758e+00,9.614552855491638184e-01
-4.163520812988281250e+00,2.683406352996826172e+00,1.143566846847534180e+00
-3.406255245208740234e+00,2.126968860626220703e+00,-1.076026082038879395e+00
-4.039424419403076172e+00,2.522338628768920898e+00,-1.099453210830688477e+00
-4.322831630706787109e+00,2.699306726455688477e+00,-9.906351566314697266e-01
-4.328018188476562500e+00,2.702545404434204102e+00,-8.081551790237426758e-01
-4.333112716674804688e+00,2.705726623535156250e+00,-6.272445917129516602e-01
-4.338625907897949219e+00,2.709169149398803711e+00,-4.475042521953582764e-01
-4.343807697296142578e+00,2.712404727935791016e+00,-2.683857977390289307e-01
-4.349136352539062500e+00,2.715732097625732422e+00,-8.949889242649078369e-02
-4.354634761810302734e+00,2.719165563583374023e+00,8.961204439401626587e-02
-4.359802246093750000e+00,2.722392320632934570e+00,2.693740427494049072e-01
-4.365461826324462891e+00,2.725926160812377930e+00,4.502722024917602539e-01
-4.371123790740966797e+00,2.729461669921875000e+00,6.327468752861022949e-01
-4.376586437225341797e+00,2.732872962951660156e+00,8.172241449356079102e-01
-4.381602764129638672e+00,2.736005067825317383e+00,1.004103302955627441e+00
-4.387522697448730469e+00,2.739701747894287109e+00,1.194198846817016602e+00
-3.440730094909667969e+00,2.080650806427001953e+00,-1.077398300170898438e+00
-4.075732707977294922e+00,2.464644670486450195e+00,-1.099621176719665527e+00
-4.560609340667724609e+00,2.757855176925659180e+00,-1.035972952842712402e+00
-4.566424369812011719e+00,2.761371850967407227e+00,-8.452050685882568359e-01
-4.572652816772460938e+00,2.765137910842895508e+00,-6.561229825019836426e-01
-4.578041076660156250e+00,2.768396139144897461e+00,-4.680634438991546631e-01
-4.583599090576171875e+00,2.771757364273071289e+00,-2.807214856147766113e-01
-4.589224338531494141e+00,2.775159120559692383e+00,-9.361254423856735229e-02
-4.594940185546875000e+00,2.778615474700927734e+00,9.372913837432861328e-02
-4.600818634033203125e+00,2.782170295715332031e+00,2.817761003971099854e-01
-4.605935573577880859e+00,2.785264492034912109e+00,4.709154367446899414e-01
-4.611563205718994141e+00,2.788667440414428711e+00,6.617062091827392578e-01
-4.618183135986328125e+00,2.792670726776123047e+00,8.547851443290710449e-01
-4.623194217681884766e+00,2.795701026916503906e+00,1.050189614295959473e+00
-4.629062175750732422e+00,2.799249410629272461e+00,1.248907804489135742e+00
-3.454201221466064453e+00,2.021855115890502930e+00,-1.072444915771484375e+00
-4.112005710601806641e+00,2.406889200210571289e+00,-1.100000023841857910e+00
-4.818783283233642578e+00,2.820588827133178711e+00,-1.085336804389953613e+00
-4.825060844421386719e+00,2.824263572692871094e+00,-8.855033516883850098e-01
-4.831056118011474609e+00,2.827772617340087891e+00,-6.873227953910827637e-01
-4.836935997009277344e+00,2.831214189529418945e+00,-4.903396368026733398e-01
-4.842898368835449219e+00,2.834704399108886719e+00,-2.940871417522430420e-01
-4.848847389221191406e+00,2.838186502456665039e+00,-9.806971251964569092e-02
-4.854791641235351562e+00,2.841665983200073242e+00,9.818993508815765381e-02
-4.860813617706298828e+00,2.845190763473510742e+00,2.951750457286834717e-01
-4.866813659667968750e+00,2.848702907562255859e+00,4.933685064315795898e-01
-4.872632980346679688e+00,2.852108716964721680e+00,6.932379603385925293e-01
