2.875502109527587891e+00,2.610302448272705078e+00,-6.150977015495300293e-01
2.878911256790161133e+00,2.613397121429443359e+00,-4.774082303047180176e-01
2.882653713226318359e+00,2.616794347763061523e+00,-3.406137228012084961e-01
2.886376857757568359e+00,2.620174169540405273e+00,-2.042992115020751953e-01
2.890050649642944336e+00,2.623509168624877930e+00,-6.813100725412368774e-02
2.893700838088989258e+00,2.626822710037231445e+00,6.821706146001815796e-02
2.897355794906616211e+00,2.630140542984008789e+00,2.050762921571731567e-01
2.901401996612548828e+00,2.633813619613647461e+00,3.428290188312530518e-01
2.904975652694702148e+00,2.637057781219482422e+00,4.817305207252502441e-01
2.908961534500122070e+00,2.640676021575927734e+00,6.222549676895141602e-01
2.912739753723144531e+00,2.644105672836303711e+00,7.646660804748535156e-01
2.917038917541503906e+00,2.648008584976196289e+00,9.095450043678283691e-01
2.761274576187133789e+00,2.579651594161987305e+00,-1.012521624565124512e+00
2.765345573425292969e+00,2.583454608917236328e+00,-8.736867904663085938e-01
2.769044160842895508e+00,2.586910009384155273e+00,-7.365876436233520508e-01
2.772540569305419922e+00,2.590176582336425781e+00,-6.009422540664672852e-01
2.775979042053222656e+00,2.593388795852661133e+00,-4.664469063282012939e-01
2.779643058776855469e+00,2.596812009811401367e+00,-3.327998518943786621e-01
2.783197164535522461e+00,2.600131988525390625e+00,-1.996098756790161133e-01
2.786746740341186523e+00,2.603448390960693359e+00,-6.656735390424728394e-02
2.790290117263793945e+00,2.606758594512939453e+00,6.665199249982833862e-02
2.793747425079345703e+00,2.609988451004028320e+00,2.003665417432785034e-01
2.797485351562500000e+00,2.613480567932128906e+00,3.349360525608062744e-01
2.801222562789916992e+00,2.616971969604492188e+00,4.706886112689971924e-01
2.804836750030517578e+00,2.620348453521728516e+00,6.079423427581787109e-01
2.808160781860351562e+00,2.623453855514526367e+00,7.469930052757263184e-01
2.811892747879028320e+00,2.626940488815307617e+00,8.883930444717407227e-01
2.665385484695434570e+00,2.562485933303833008e+00,-9.907082915306091309e-01
2.668897867202758789e+00,2.565862655639648438e+00,-8.547307848930358887e-01
2.672176599502563477e+00,2.569014787673950195e+00,-7.205277681350708008e-01
2.675782918930053711e+00,2.572482109069824219e+00,-5.878908634185791016e-01
2.679247379302978516e+00,2.575812578201293945e+00,-4.563414156436920166e-01
2.682839870452880859e+00,2.579266548156738281e+00,-3.255966007709503174e-01
2.686187028884887695e+00,2.582484483718872070e+00,-1.952833980321884155e-01
2.689608573913574219e+00,2.585773944854736328e+00,-6.512442231178283691e-02
2.693110704421997070e+00,2.589140892028808594e+00,6.520922482013702393e-02
2.696381807327270508e+00,2.592285633087158203e+00,1.960245668888092041e-01
2.699831485748291016e+00,2.595602035522460938e+00,3.276587426662445068e-01
2.703195333480834961e+00,2.598835945129394531e+00,4.604203402996063232e-01
2.706973552703857422e+00,2.602468490600585938e+00,5.947436690330505371e-01
2.710607767105102539e+00,2.605962514877319336e+00,7.308904528617858887e-01
2.713912010192871094e+00,2.609138965606689453e+00,8.691468834877014160e-01
2.574934244155883789e+00,2.547437906265258789e+00,-9.705416560173034668e-01
2.577941179275512695e+00,2.550412654876708984e+00,-8.372066617012023926e-01
2.581317663192749023e+00,2.553753137588500977e+00,-7.058124542236328125e-01
2.584921360015869141e+00,2.557318449020385742e+00,-5.759111046791076660e-01
2.588038444519042969e+00,2.560402154922485352e+00,-4.470026195049285889e-01
2.591403245925903320e+00,2.563730955123901367e+00,-3.189204335212707520e-01
2.594718217849731445e+00,2.567010641098022461e+00,-1.912852823734283447e-01
2.598017215728759766e+00,2.570274353027343750e+00,-6.379095464944839478e-02
2.601310729980468750e+00,2.573532819747924805e+00,6.387182325124740601e-02
2.604575395584106445e+00,2.576762437820434570e+00,1.920119673013687134e-01
2.608138561248779297e+00,2.580287694931030273e+00,3.209800422191619873e-01
2.611257076263427734e+00,2.583372831344604492e+00,4.510129392147064209e-01
2.614686727523803711e+00,2.586765766143798828e+00,5.825427174568176270e-01
2.618588209152221680e+00,2.590625762939453125e+00,7.160033583641052246e-01
2.621493816375732422e+00,2.593500137329101562e+00,8.513507246971130371e-01
2.485641717910766602e+00,2.530510425567626953e+00,-9.504403471946716309e-01
2.489411115646362305e+00,2.534348011016845703e+00,-8.201525211334228516e-01
2.492348194122314453e+00,2.537338018417358398e+00,-6.913450956344604492e-01
2.495609521865844727e+00,2.540658235549926758e+00,-5.640571117401123047e-01
2.498775005340576172e+00,2.543880939483642578e+00,-4.378292858600616455e-01
2.502091646194458008e+00,2.547257423400878906e+00,-3.123840987682342529e-01
2.505222558975219727e+00,2.550444841384887695e+00,-1.873596161603927612e-01
2.508404254913330078e+00,2.553683996200561523e+00,-6.248170882463455200e-02
2.511652708053588867e+00,2.556991100311279297e+00,6.256262212991714478e-02
2.514727830886840820e+00,2.560121774673461914e+00,1.880704909563064575e-01
2.518002510070800781e+00,2.563455581665039062e+00,3.143705725669860840e-01
2.521232366561889648e+00,2.566743612289428711e+00,4.417642056941986084e-01
2.524871110916137695e+00,2.570448160171508789e+00,5.706707835197448730e-01
2.527738332748413086e+00,2.573367118835449219e+00,7.011618614196777344e-01
2.531651020050048828e+00,2.577350378036499023e+00,8.340687155723571777e-01
2.399107933044433594e+00,2.513378858566284180e+00,-9.310127496719360352e-01
2.402461767196655273e+00,2.516892433166503906e+00,-8.032929897308349609e-01
2.405545234680175781e+00,2.520122766494750977e+00,-6.772035360336303711e-01
2.408850908279418945e+00,2.523586034774780273e+00,-5.525554418563842773e-01
2.411732912063598633e+00,2.526605129241943359e+00,-4.288707375526428223e-01
2.414863586425781250e+00,2.529885053634643555e+00,-3.059833645820617676e-01
2.417970895767211914e+00,2.533140420913696289e+00,-1.835271269083023071e-01
2.421037673950195312e+00,2.536353111267089844e+00,-6.120352447032928467e-02
2.424077510833740234e+00,2.539537906646728516e+00,6.128037348389625549e-02
2.427116394042968750e+00,2.542721509933471680e+00,1.842212826013565063e-01
2.430449724197387695e+00,2.546213388442993164e+00,3.079582452774047852e-01
2.433400154113769531e+00,2.549304485321044922e+00,4.327237308025360107e-01
2.436649560928344727e+00,2.552708387374877930e+00,5.589320063591003418e-01
2.439707040786743164e+00,2.555911779403686523e+00,6.868206858634948730e-01
2.443129062652587891e+00,2.559496641159057617e+00,8.168905973434448242e-01
2.317398309707641602e+00,2.498411655426025391e+00,-9.130880832672119141e-01
2.320872306823730469e+00,2.502156972885131836e+00,-7.879068851470947266e-01
2.323593616485595703e+00,2.505090713500976562e+00,-6.641589403152465820e-01
2.326617717742919922e+00,2.508351325988769531e+00,-5.418725013732910156e-01
2.329792737960815430e+00,2.511774301528930664e+00,-4.206497371196746826e-01
2.332661390304565430e+00,2.514866828918457031e+00,-3.000979721546173096e-01
2.335650682449340820e+00,2.518089771270751953e+00,-1.799961626529693604e-01
2.338617086410522461e+00,2.521287679672241211e+00,-6.002610549330711365e-02
2.341557979583740234e+00,2.524458408355712891e+00,6.010159105062484741e-02
2.344649076461791992e+00,2.527790784835815430e+00,1.806896030902862549e-01
2.347459316253662109e+00,2.530820608139038086e+00,3.020017147064208984e-01
2.350478887557983398e+00,2.534075975418090820e+00,4.243846535682678223e-01
2.353877544403076172e+00,2.537740230560302734e+00,5.482213497161865234e-01
2.356583833694458008e+00,2.540657758712768555e+00,6.735885739326477051e-01
2.360233545303344727e+00,2.544592618942260742e+00,8.012695312500000000e-01
2.239980220794677734e+00,2.485361099243164062e+00,-8.965091705322265625e-01
2.243092060089111328e+00,2.488813638687133789e+00,-7.735159397125244141e-01
2.245960950851440430e+00,2.491996765136718750e+00,-6.520975232124328613e-01
2.249034404754638672e+00,2.495407104492187500e+00,-5.320674777030944824e-01
2.251951217651367188e+00,2.498643398284912109e+00,-4.130102694034576416e-01
2.254798889160156250e+00,2.501803159713745117e+00,-2.946576476097106934e-01
2.257636547088623047e+00,2.504951477050781250e+00,-1.767290383577346802e-01
2.260499715805053711e+00,2.508128166198730469e+00,-5.893645808100700378e-02
2.263394594192504883e+00,2.511340141296386719e+00,5.901193246245384216e-02
2.266301155090332031e+00,2.514565229415893555e+00,1.774073094129562378e-01
2.269169807434082031e+00,2.517748355865478516e+00,2.965356409549713135e-01
2.271928548812866211e+00,2.520809173583984375e+00,4.166741371154785156e-01
2.274964809417724609e+00,2.524178028106689453e+00,5.382019877433776855e-01
2.277833700180053711e+00,2.527361154556274414e+00,6.613515615463256836e-01
2.281022548675537109e+00,2.530899524688720703e+00,7.865961194038391113e-01
2.162716627120971680e+00,2.469813585281372070e+00,-8.796445727348327637e-01
2.165471792221069336e+00,2.472960233688354492e+00,-7.588777542114257812e-01
2.168431758880615234e+00,2.476340293884277344e+00,-6.398131847381591797e-01
2.171208858489990234e+00,2.479511737823486328e+00,-5.219985246658325195e-01
2.173911094665527344e+00,2.482597827911376953e+00,-4.051732122898101807e-01
2.176748752593994141e+00,2.485838174819946289e+00,-2.890781462192535400e-01
2.179450750350952148e+00,2.488923788070678711e+00,-1.733796000480651855e-01
2.182210922241210938e+00,2.492076158523559570e+00,-5.781937390565872192e-02
2.185041904449462891e+00,2.495308876037597656e+00,5.789437890052795410e-02
2.187750577926635742e+00,2.498402357101440430e+00,1.740398705005645752e-01
2.190634250640869141e+00,2.501695394515991211e+00,2.909221947193145752e-01
2.193490266799926758e+00,2.504956960678100586e+00,4.088223576545715332e-01
2.196218967437744141e+00,2.508073091506958008e+00,5.280114412307739258e-01
2.199241161346435547e+00,2.511524677276611328e+00,6.489037871360778809e-01
2.202016353607177734e+00,2.514693975448608398e+00,7.716845870018005371e-01
2.090975046157836914e+00,2.457992076873779297e+00,-8.646861910820007324e-01
2.093886375427246094e+00,2.461414575576782227e+00,-7.460612058639526367e-01
2.096560955047607422e+00,2.464558601379394531e+00,-6.289513111114501953e-01
2.099406719207763672e+00,2.467903852462768555e+00,-5.131760239601135254e-01
2.101904153823852539e+00,2.470839738845825195e+00,-3.983033299446105957e-01
2.104607582092285156e+00,2.474017620086669922e+00,-2.841712832450866699e-01
2.107296943664550781e+00,2.477179050445556641e+00,-1.704428344964981079e-01
2.109962701797485352e+00,2.480312824249267578e+00,-5.683992803096771240e-02
2.112615823745727539e+00,2.483431339263916016e+00,5.691139772534370422e-02
2.115272998809814453e+00,2.486555099487304688e+00,1.710879653692245483e-01
2.118178844451904297e+00,2.489970922470092773e+00,2.860037088394165039e-01
2.120769977569580078e+00,2.493016958236694336e+00,4.018783271312713623e-01
2.123600482940673828e+00,2.496344327926635742e+00,5.190898776054382324e-01
2.126262664794921875e+00,2.499473810195922852e+00,6.378615498542785645e-01
2.129197597503662109e+00,2.502923965454101562e+00,7.586427927017211914e-01
2.019592285156250000e+00,2.444111585617065430e+00,-8.495469689369201660e-01
2.022213220596313477e+00,2.447283506393432617e+00,-7.329296469688415527e-01
2.024998903274536133e+00,2.450654745101928711e+00,-6.179428696632385254e-01
2.027597904205322266e+00,2.453800201416015625e+00,-5.041568279266357422e-01
2.030116558074951172e+00,2.456848144531250000e+00,-3.913235962390899658e-01
2.032632112503051758e+00,2.459892511367797852e+00,-2.791784405708312988e-01
2.035236358642578125e+00,2.463043928146362305e+00,-1.674487292766571045e-01
2.037814617156982422e+00,2.466164350509643555e+00,-5.584154650568962097e-02
2.040363550186157227e+00,2.469249010086059570e+00,5.591138824820518494e-02
2.043025970458984375e+00,2.472471237182617188e+00,1.680896282196044922e-01
2.045717477798461914e+00,2.475728273391723633e+00,2.809756696224212646e-01
2.048370361328125000e+00,2.478939056396484375e+00,3.948421776294708252e-01
2.050892591476440430e+00,2.481991291046142578e+00,5.099489688873291016e-01
2.053655624389648438e+00,2.485335111618041992e+00,6.266877055168151855e-01
2.056173086166381836e+00,2.488381624221801758e+00,7.452380657196044922e-01
1.951788663864135742e+00,2.432121992111206055e+00,-8.355833888053894043e-01
1.954147696495056152e+00,2.435061693191528320e+00,-7.208186984062194824e-01
1.956714868545532227e+00,2.438260555267333984e+00,-6.076931953430175781e-01
1.959410786628723145e+00,2.441620111465454102e+00,-4.958411753177642822e-01
1.961768031120300293e+00,2.444557428359985352e+00,-3.848540186882019043e-01
1.964289903640747070e+00,2.447700023651123047e+00,-2.745756208896636963e-01
1.966780662536621094e+00,2.450803756713867188e+00,-1.646858602762222290e-01
1.969267129898071289e+00,2.453902006149291992e+00,-5.492002144455909729e-02
1.971757411956787109e+00,2.457005023956298828e+00,5.498947203159332275e-02
1.974232554435729980e+00,2.460089445114135742e+00,1.653098165988922119e-01
1.976910471916198730e+00,2.463426351547241211e+00,2.763397693634033203e-01
1.979280829429626465e+00,2.466380119323730469e+00,3.882896006107330322e-01
1.981842875480651855e+00,2.469572544097900391e+00,5.015177726745605469e-01
1.984688878059387207e+00,2.473119020462036133e+00,6.163810491561889648e-01
1.987349629402160645e+00,2.476434469223022461e+00,7.330657839775085449e-01
1.885725617408752441e+00,2.419954538345336914e+00,-8.220457434654235840e-01
1.888237953186035156e+00,2.423178672790527344e+00,-7.092279791831970215e-01
1.890560507774353027e+00,2.426159143447875977e+00,-5.978715419769287109e-01
1.893052458763122559e+00,2.429357051849365234e+00,-4.877982437610626221e-01
1.895442247390747070e+00,2.432423830032348633e+00,-3.786337971687316895e-01
1.897803187370300293e+00,2.435453653335571289e+00,-2.701270282268524170e-01
1.900188207626342773e+00,2.438514471054077148e+00,-1.620158255100250244e-01
1.902588367462158203e+00,2.441594600677490234e+00,-5.402955412864685059e-02
1.905014157295227051e+00,2.444707632064819336e+00,5.409844219684600830e-02
1.907480001449584961e+00,2.447872161865234375e+00,1.626375466585159302e-01
1.909948825836181641e+00,2.451040267944335938e+00,2.718558013439178467e-01
1.912353515625000000e+00,2.454126119613647461e+00,3.820120096206665039e-01
1.914985537528991699e+00,2.457503795623779297e+00,4.934498965740203857e-01
1.917494535446166992e+00,2.460723638534545898e+00,6.063891649246215820e-01
1.919743061065673828e+00,2.463609218597412109e+00,7.210614085197448730e-01
1.821447968482971191e+00,2.407765150070190430e+00,-8.089659214019775391e-01
1.823769450187683105e+00,2.410833835601806641e+00,-6.979030370712280273e-01
1.826234936714172363e+00,2.414093017578125000e+00,-5.883963108062744141e-01
1.828554511070251465e+00,2.417159318923950195e+00,-4.800444841384887695e-01
1.830821871757507324e+00,2.420156478881835938e+00,-3.726069033145904541e-01
1.833202242851257324e+00,2.423303127288818359e+00,-2.658417522907257080e-01
1.835520863533020020e+00,2.426367998123168945e+00,-1.594469249248504639e-01
1.837841510772705078e+00,2.429435729980468750e+00,-5.317293107509613037e-02
1.840162634849548340e+00,2.432503938674926758e+00,5.324008315801620483e-02
1.842439770698547363e+00,2.435514211654663086e+00,1.600479483604431152e-01
1.844865441322326660e+00,2.438720703125000000e+00,2.675331234931945801e-01
1.847275733947753906e+00,2.441906929016113281e+00,3.759555816650390625e-01
1.849587798118591309e+00,2.444963216781616211e+00,4.855662882328033447e-01
1.852115988731384277e+00,2.448305130004882812e+00,5.967350006103515625e-01
1.854433417320251465e+00,2.451368570327758789e+00,7.096372246742248535e-01
1.758972287178039551e+00,2.395684480667114258e+00,-7.963664531707763672e-01
1.761470317840576172e+00,2.399086475372314453e+00,-6.871331930160522461e-01
1.763751626014709473e+00,2.402193784713745117e+00,-5.792835950851440430e-01
1.765927553176879883e+00,2.405157089233398438e+00,-4.725925922393798828e-01
1.768241286277770996e+00,2.408308506011962891e+00,-3.668485581874847412e-01
1.770488023757934570e+00,2.411368370056152344e+00,-2.617256641387939453e-01
1.772718071937561035e+00,2.414405822753906250e+00,-1.569773405790328979e-01
1.774956464767456055e+00,2.417454481124877930e+00,-5.234927684068679810e-02
1.777209043502807617e+00,2.420522451400756836e+00,5.241571739315986633e-02
1.779458045959472656e+00,2.423585414886474609e+00,1.575741618871688843e-01
1.781668186187744141e+00,2.426595687866210938e+00,2.633783817291259766e-01
1.784059405326843262e+00,2.429852485656738281e+00,3.701302707195281982e-01
1.786393761634826660e+00,2.433031797409057617e+00,4.780696928501129150e-01
1.788570046424865723e+00,2.435995817184448242e+00,5.874348878860473633e-01
1.790915608406066895e+00,2.439190626144409180e+00,6.986195445060729980e-01
1.699720859527587891e+00,2.385824680328369141e+00,-7.849211692810058594e-01
1.702013373374938965e+00,2.389042615890502930e+00,-6.772095561027526855e-01
1.704127311706542969e+00,2.392009973526000977e+00,-5.708872079849243164e-01
1.706374287605285645e+00,2.395163774490356445e+00,-4.657821357250213623e-01
1.708527684211730957e+00,2.398186445236206055e+00,-3.615445494651794434e-01
1.710655093193054199e+00,2.401172637939453125e+00,-2.579349875450134277e-01
1.712800621986389160e+00,2.404184341430664062e+00,-1.547029465436935425e-01
1.714960813522338867e+00,2.407216310501098633e+00,-5.159073323011398315e-02
1.717144131660461426e+00,2.410280942916870117e+00,5.165641382336616516e-02
1.719362139701843262e+00,2.413394451141357422e+00,1.552955955266952515e-01
1.721580266952514648e+00,2.416507720947265625e+00,2.595823109149932861e-01
1.723740100860595703e+00,2.419539690017700195e+00,3.647636771202087402e-01
1.726085782051086426e+00,2.422832012176513672e+00,4.711627066135406494e-01
1.728309631347656250e+00,2.425953626632690430e+00,5.789883732795715332e-01
1.730722665786743164e+00,2.429340600967407227e+00,6.886326074600219727e-01
1.641033887863159180e+00,2.374646663665771484e+00,-7.734367847442626953e-01
1.643174648284912109e+00,2.377744436264038086e+00,-6.672716140747070312e-01
1.645168423652648926e+00,2.380629539489746094e+00,-5.624934434890747070e-01
1.647308230400085449e+00,2.383725881576538086e+00,-4.589255452156066895e-01
1.649523019790649414e+00,2.386930942535400391e+00,-3.562517464160919189e-01
1.651546835899353027e+00,2.389859437942504883e+00,-2.541543543338775635e-01
1.653644680976867676e+00,2.392895221710205078e+00,-1.524378508329391479e-01
1.655730724334716797e+00,2.395913600921630859e+00,-5.083537474274635315e-02
1.657808661460876465e+00,2.398920536041259766e+00,5.089917406439781189e-02
1.659977912902832031e+00,2.402059555053710938e+00,1.530216634273529053e-01
1.661978721618652344e+00,2.404954671859741211e+00,2.557596862316131592e-01
1.664090871810913086e+00,2.408011198043823242e+00,3.593979775905609131e-01
1.666403532028198242e+00,2.411357641220092773e+00,4.642453193664550781e-01
1.668621540069580078e+00,2.414567232131958008e+00,5.705122351646423340e-01
1.670633316040039062e+00,2.417478322982788086e+00,6.784222126007080078e-01
1.584051251411437988e+00,2.363823652267456055e+00,-7.624487280845642090e-01
1.586073160171508789e+00,2.366840839385986328e+00,-6.577733755111694336e-01
1.588200330734252930e+00,2.370015144348144531e+00,-5.545574426651000977e-01
1.590204954147338867e+00,2.373006582260131836e+00,-4.524333477020263672e-01
1.592170476913452148e+00,2.375939607620239258e+00,-3.511739671230316162e-01
1.594234585762023926e+00,2.379019737243652344e+00,-2.505491673946380615e-01
1.596260786056518555e+00,2.382043361663818359e+00,-1.502756327390670776e-01
1.598273277282714844e+00,2.385046720504760742e+00,-5.011428147554397583e-02
1.600276350975036621e+00,2.388035774230957031e+00,5.017708614468574524e-02
1.602254152297973633e+00,2.390987157821655273e+00,1.508398801088333130e-01
1.604360461235046387e+00,2.394130229949951172e+00,2.521405518054962158e-01
1.606460809707641602e+00,2.397264480590820312e+00,3.543258905410766602e-01
1.608482122421264648e+00,2.400280952453613281e+00,4.576334357261657715e-01
1.610668301582336426e+00,2.403543233871459961e+00,5.624026656150817871e-01
1.612672328948974609e+00,2.406533956527709961e+00,6.688045263290405273e-01
1.528723835945129395e+00,2.353409290313720703e+00,-7.519547939300537109e-01
1.530918240547180176e+00,2.356787681579589844e+00,-6.488232016563415527e-01
1.532696723937988281e+00,2.359525442123413086e+00,-5.469136238098144531e-01
1.534806728363037109e+00,2.362773656845092773e+00,-4.462482035160064697e-01
1.536798000335693359e+00,2.365839242935180664e+00,-3.463943600654602051e-01
1.538656353950500488e+00,2.368700027465820312e+00,-2.471176087856292725e-01
1.540617465972900391e+00,2.371719121932983398e+00,-1.482179611921310425e-01
1.542557001113891602e+00,2.374705076217651367e+00,-4.942799359560012817e-02
1.544482827186584473e+00,2.377669572830200195e+00,4.948969930410385132e-02
1.546529293060302734e+00,2.380820035934448242e+00,1.487867236137390137e-01
1.548461914062500000e+00,2.383795499801635742e+00,2.486924529075622559e-01
1.550309062004089355e+00,2.386638879776000977e+00,3.494397699832916260e-01
1.552539825439453125e+00,2.390073299407958984e+00,4.514041543006896973e-01
1.554398894309997559e+00,2.392935037612915039e+00,5.546576380729675293e-01
1.556364297866821289e+00,2.395960807800292969e+00,6.596075296401977539e-01
1.475283622741699219e+00,2.343904733657836914e+00,-7.420948147773742676e-01
1.477107524871826172e+00,2.346802473068237305e+00,-6.401881575584411621e-01
1.479039549827575684e+00,2.349871873855590820e+00,-5.397137403488159180e-01
1.481045484542846680e+00,2.353059053421020508e+00,-4.403645396232604980e-01
1.482949376106262207e+00,2.356083869934082031e+00,-3.418231904506683350e-01
1.484808802604675293e+00,2.359038114547729492e+00,-2.438673973083496094e-01
1.486663579940795898e+00,2.361984968185424805e+00,-1.462648361921310425e-01
1.488536238670349121e+00,2.364960193634033203e+00,-4.877669364213943481e-02
1.490431904792785645e+00,2.367971897125244141e+00,4.883880540728569031e-02
1.492335915565490723e+00,2.370996952056884766e+00,1.468228995800018311e-01
1.494217991828918457e+00,2.373987197875976562e+00,2.454127967357635498e-01
1.496028661727905273e+00,2.376863956451416016e+00,3.448379933834075928e-01
1.497957706451416016e+00,2.379928827285766602e+00,4.453931152820587158e-01
1.500051975250244141e+00,2.383256196975708008e+00,5.473814010620117188e-01
1.501996517181396484e+00,2.386345624923706055e+00,6.509752273559570312e-01
1.423342943191528320e+00,2.334851980209350586e+00,-7.327033877372741699e-01
1.425082921981811523e+00,2.337706327438354492e+00,-6.320776939392089844e-01
1.426929593086242676e+00,2.340735673904418945e+00,-5.328697562217712402e-01
1.428848981857299805e+00,2.343883991241455078e+00,-4.347755014896392822e-01
1.430680513381958008e+00,2.346888542175292969e+00,-3.374835848808288574e-01
1.432477116584777832e+00,2.349835634231567383e+00,-2.407718598842620850e-01
1.434279322624206543e+00,2.352792024612426758e+00,-1.444094926118850708e-01
1.436084151268005371e+00,2.355752706527709961e+00,-4.815790429711341858e-02
1.437899231910705566e+00,2.358730077743530273e+00,4.821877181529998779e-02
1.439731359481811523e+00,2.361735582351684570e+00,1.449584364891052246e-01
1.441552042961120605e+00,2.364722251892089844e+00,2.422971725463867188e-01
1.443313956260681152e+00,2.367612600326538086e+00,3.404636979103088379e-01
1.445191621780395508e+00,2.370692729949951172e+00,4.397483170032501221e-01
1.447229027748107910e+00,2.374034881591796875e+00,5.404503345489501953e-01
1.449127793312072754e+00,2.377149581909179688e+00,6.427425146102905273e-01
1.372260928153991699e+00,2.325296401977539062e+00,-7.234668135643005371e-01
1.374174594879150391e+00,2.328538894653320312e+00,-6.242168545722961426e-01
1.375926733016967773e+00,2.331508159637451172e+00,-5.262317657470703125e-01
1.377603530883789062e+00,2.334349393844604492e+00,-4.293052852153778076e-01
1.379379630088806152e+00,2.337358951568603516e+00,-3.332399427890777588e-01
1.381126880645751953e+00,2.340319633483886719e+00,-2.377468943595886230e-01
1.382899641990661621e+00,2.343323707580566406e+00,-1.425988227128982544e-01
1.384641170501708984e+00,2.346274852752685547e+00,-4.755412787199020386e-02
1.386350750923156738e+00,2.349171638488769531e+00,4.761283844709396362e-02
1.388101935386657715e+00,2.352138996124267578e+00,1.431352496147155762e-01
1.389845490455627441e+00,2.355093479156494141e+00,2.392477244138717651e-01
1.391720056533813477e+00,2.358269691467285156e+00,3.362212181091308594e-01
1.393558740615844727e+00,2.361385345458984375e+00,4.342774450778961182e-01
1.395280838012695312e+00,2.364303588867187500e+00,5.336338877677917480e-01
1.397092819213867188e+00,2.367373943328857422e+00,6.346274018287658691e-01
1.322188019752502441e+00,2.315534114837646484e+00,-7.144681811332702637e-01
1.324109911918640137e+00,2.318900108337402344e+00,-6.164891123771667480e-01
1.325677633285522461e+00,2.321645498275756836e+00,-5.196697711944580078e-01
1.327494502067565918e+00,2.324827432632446289e+00,-4.240162670612335205e-01
1.329107761383056641e+00,2.327652692794799805e+00,-3.291101157665252686e-01
1.330802440643310547e+00,2.330620527267456055e+00,-2.348024547100067139e-01
1.332478165626525879e+00,2.333555221557617188e+00,-1.408293396234512329e-01
1.334154248237609863e+00,2.336490631103515625e+00,-4.696396738290786743e-02
1.335834980010986328e+00,2.339434146881103516e+00,4.702313244342803955e-02
1.337508559226989746e+00,2.342364788055419922e+00,1.413609981536865234e-01
1.339286327362060547e+00,2.345478296279907227e+00,2.362993359565734863e-01
1.340885758399963379e+00,2.348279476165771484e+00,3.320265412330627441e-01
1.342778563499450684e+00,2.351594209671020508e+00,4.288981556892395020e-01
1.344355702400207520e+00,2.354356288909912109e+00,5.269916057586669922e-01
1.346280932426452637e+00,2.357728004455566406e+00,6.268116235733032227e-01
1.273987174034118652e+00,2.307190179824829102e+00,-7.061947584152221680e-01
1.275622248649597168e+00,2.310151100158691406e+00,-6.092466115951538086e-01
1.277324318885803223e+00,2.313233852386474609e+00,-5.136418938636779785e-01
1.278931856155395508e+00,2.316144943237304688e+00,-4.190510213375091553e-01
1.280606746673583984e+00,2.319178104400634766e+00,-3.252868652343750000e-01
1.282225012779235840e+00,2.322108745574951172e+00,-2.320721298456192017e-01
1.283804655075073242e+00,2.324969530105590820e+00,-1.391879618167877197e-01
1.285417318344116211e+00,2.327890157699584961e+00,-4.641652107238769531e-02
1.287073731422424316e+00,2.330889940261840820e+00,4.647633805871009827e-02
1.288698434829711914e+00,2.333832263946533203e+00,1.397185474634170532e-01
1.290287494659423828e+00,2.336709976196289062e+00,2.335313707590103149e-01
1.291973352432250977e+00,2.339763164520263672e+00,3.281741142272949219e-01
1.293598771095275879e+00,2.342706680297851562e+00,4.238567352294921875e-01
1.295340061187744141e+00,2.345860242843627930e+00,5.208864212036132812e-01
1.296932101249694824e+00,2.348743438720703125e+00,6.194244027137756348e-01
1.226606130599975586e+00,2.298521518707275391e+00,-6.980959773063659668e-01
1.228182077407836914e+00,2.301474809646606445e+00,-6.022605895996093750e-01
1.229824423789978027e+00,2.304552316665649414e+00,-5.077535510063171387e-01
1.231371641159057617e+00,2.307451725006103516e+00,-4.142468869686126709e-01
1.232886433601379395e+00,2.310290336608886719e+00,-3.215321600437164307e-01
1.234475493431091309e+00,2.313267707824707031e+00,-2.293991595506668091e-01
1.236037135124206543e+00,2.316194057464599609e+00,-1.375893652439117432e-01
1.237590312957763672e+00,2.319104671478271484e+00,-4.588343948125839233e-02
1.239139795303344727e+00,2.322008132934570312e+00,4.594088718295097351e-02
1.240673422813415527e+00,2.324882268905639648e+00,1.381054520606994629e-01
1.242301702499389648e+00,2.327933311462402344e+00,2.308534979820251465e-01
1.243924260139465332e+00,2.330973863601684570e+00,3.244107961654663086e-01
1.245484352111816406e+00,2.333897113800048828e+00,4.189945459365844727e-01
1.247157573699951172e+00,2.337032556533813477e+00,5.149098038673400879e-01
1.248685002326965332e+00,2.339894771575927734e+00,6.123145222663879395e-01
1.180055379867553711e+00,2.289592266082763672e+00,-6.901834011077880859e-01
1.181589603424072266e+00,2.292569160461425781e+00,-5.954433679580688477e-01
1.183187246322631836e+00,2.295669078826904297e+00,-5.020135641098022461e-01
1.184687018394470215e+00,2.298578977584838867e+00,-4.095678329467773438e-01
1.186148166656494141e+00,2.301414012908935547e+00,-3.179013729095458984e-01
1.187674760818481445e+00,2.304375886917114258e+00,-2.268083244562149048e-01
1.189166545867919922e+00,2.307270288467407227e+00,-1.360342055559158325e-01
1.190661907196044922e+00,2.310171604156494141e+00,-4.536486417055130005e-02
1.192161202430725098e+00,2.313080787658691406e+00,4.542199149727821350e-02
1.193637847900390625e+00,2.315945625305175781e+00,1.365457028150558472e-01
1.195199370384216309e+00,2.318975448608398438e+00,2.282453030347824097e-01
1.196747660636901855e+00,2.321979522705078125e+00,3.207421600818634033e-01
1.198230147361755371e+00,2.324855804443359375e+00,4.142499268054962158e-01
1.199820280075073242e+00,2.327941179275512695e+00,5.090707540512084961e-01
1.201540350914001465e+00,2.331278324127197266e+00,6.054971814155578613e-01
1.134969472885131836e+00,2.281727313995361328e+00,-6.828455328941345215e-01
1.136458873748779297e+00,2.284721612930297852e+00,-5.891198515892028809e-01
1.137839674949645996e+00,2.287497520446777344e+00,-4.966142475605010986e-01
1.139311909675598145e+00,2.290457487106323242e+00,-4.051734805107116699e-01
1.140735983848571777e+00,2.293320178985595703e+00,-3.144957423210144043e-01
1.142211556434631348e+00,2.296286821365356445e+00,-2.243800312280654907e-01
1.143622994422912598e+00,2.299124240875244141e+00,-1.345750391483306885e-01
1.145058870315551758e+00,2.302011013031005859e+00,-4.487817361950874329e-02
1.146526098251342773e+00,2.304960727691650391e+00,4.493567720055580139e-02
1.147936820983886719e+00,2.307796716690063477e+00,1.350826621055603027e-01
1.149418115615844727e+00,2.310774564743041992e+00,2.257957011461257935e-01
1.150875091552734375e+00,2.313703775405883789e+00,3.172910511493682861e-01
1.152460217475891113e+00,2.316890716552734375e+00,4.098494350910186768e-01
1.153974056243896484e+00,2.319933891296386719e+00,5.036562085151672363e-01
1.155337810516357422e+00,2.322675704956054688e+00,5.989063978195190430e-01
1.090469717979431152e+00,2.273289203643798828e+00,-6.755800247192382812e-01
1.091962695121765137e+00,2.276401519775390625e+00,-5.828846693038940430e-01
1.093339920043945312e+00,2.279272794723510742e+00,-4.913808703422546387e-01
1.094795584678649902e+00,2.282307386398315430e+00,-4.009187221527099609e-01
1.096191048622131348e+00,2.285216569900512695e+00,-3.112008571624755859e-01
1.097568511962890625e+00,2.288088083267211914e+00,-2.220210582017898560e-01
1.098974466323852539e+00,2.291019201278686523e+00,-1.331662386655807495e-01
1.100354909896850586e+00,2.293896913528442383e+00,-4.440839216113090515e-02
1.101710915565490723e+00,2.296723604202270508e+00,4.446311667561531067e-02
1.103108167648315430e+00,2.299636363983154297e+00,1.336671262979507446e-01
1.104503393173217773e+00,2.302545070648193359e+00,2.234238833189010620e-01
1.105860948562622070e+00,2.305375099182128906e+00,3.139460682868957520e-01
1.107330799102783203e+00,2.308439254760742188e+00,4.055091440677642822e-01
1.108721494674682617e+00,2.311338424682617188e+00,4.982937872409820557e-01
1.110221624374389648e+00,2.314465999603271484e+00,5.926312208175659180e-01
1.047011256217956543e+00,2.265272140502929688e+00,-6.686753034591674805e-01
1.048489809036254883e+00,2.268471002578735352e+00,-5.769520998001098633e-01
1.049841761589050293e+00,2.271395921707153320e+00,-4.863933026790618896e-01
1.051256895065307617e+00,2.274457693099975586e+00,-3.968558907508850098e-01
1.052508234977722168e+00,2.277164936065673828e+00,-3.080212771892547607e-01
1.053847670555114746e+00,2.280062913894653320e+00,-2.197561711072921753e-01
1.055181622505187988e+00,2.282948970794677734e+00,-1.318057775497436523e-01
1.056505441665649414e+00,2.285813331604003906e+00,-4.395463690161705017e-02
1.057824850082397461e+00,2.288667917251586914e+00,4.400952905416488647e-02
1.059147477149963379e+00,2.291529417037963867e+00,1.323011666536331177e-01
1.060577154159545898e+00,2.294622659683227539e+00,2.211594581604003906e-01
1.061861872673034668e+00,2.297402143478393555e+00,3.107586801052093506e-01
1.063242197036743164e+00,2.300388574600219727e+00,4.013804495334625244e-01
1.064530372619628906e+00,2.303175687789916992e+00,4.931985437870025635e-01
1.066175818443298340e+00,2.306735754013061523e+00,5.866842269897460938e-01
1.004574656486511230e+00,2.257755041122436523e+00,-6.621440649032592773e-01
1.005834221839904785e+00,2.260585784912109375e+00,-5.712264776229858398e-01
1.007173418998718262e+00,2.263595581054687500e+00,-4.815865755081176758e-01
1.008437633514404297e+00,2.266436815261840820e+00,-3.928976058959960938e-01
1.009763360023498535e+00,2.269416332244873047e+00,-3.049869239330291748e-01
1.010985016822814941e+00,2.272162199020385742e+00,-2.175776958465576172e-01
1.012266635894775391e+00,2.275042295455932617e+00,-1.304994076490402222e-01
1.013536810874938965e+00,2.277897357940673828e+00,-4.351899772882461548e-02
1.014798879623413086e+00,2.280733585357666016e+00,4.357318580150604248e-02
1.016133069992065430e+00,2.283732175827026367e+00,1.309978663921356201e-01
1.017374873161315918e+00,2.286523103713989258e+00,2.189528644084930420e-01
1.018702745437622070e+00,2.289507389068603516e+00,3.076869547367095947e-01
1.019982695579528809e+00,2.292384147644042969e+00,3.973957002162933350e-01
1.021379947662353516e+00,2.295524597167968750e+00,4.883795380592346191e-01
1.022666811943054199e+00,2.298416614532470703e+00,5.807859301567077637e-01
9.627092480659484863e-01,2.249818086624145508e+00,-6.557079553604125977e-01
9.639860391616821289e-01,2.252801895141601562e+00,-5.657150149345397949e-01
9.653230905532836914e-01,2.255926370620727539e+00,-4.769664406776428223e-01
9.665681719779968262e-01,2.258836030960083008e+00,-3.891417980194091797e-01
9.677700400352478027e-01,2.261644840240478516e+00,-3.020499646663665771e-01
9.689659476280212402e-01,2.264439821243286133e+00,-2.154880464076995850e-01
9.701990485191345215e-01,2.267321348190307617e+00,-1.292466968297958374e-01
9.714168310165405273e-01,2.270167350769042969e+00,-4.310125857591629028e-02
9.726206064224243164e-01,2.272980451583862305e+00,4.315467178821563721e-02
9.738720059394836426e-01,2.275904893875122070e+00,1.297360062599182129e-01
9.751325845718383789e-01,2.278850793838500977e+00,2.168594300746917725e-01
9.763701558113098145e-01,2.281743049621582031e+00,3.047341704368591309e-01
9.775413274765014648e-01,2.284480094909667969e+00,3.935596048831939697e-01
9.788088798522949219e-01,2.287442207336425781e+00,4.836297929286956787e-01
9.802026152610778809e-01,2.290699481964111328e+00,5.752317309379577637e-01
9.218326210975646973e-01,2.242496967315673828e+00,-6.496621370315551758e-01
9.231069087982177734e-01,2.245596885681152344e+00,-5.605303645133972168e-01
9.242746233940124512e-01,2.248437404632568359e+00,-4.725375771522521973e-01
9.253949522972106934e-01,2.251162767410278320e+00,-3.854984939098358154e-01
9.265983104705810547e-01,2.254090309143066406e+00,-2.992390692234039307e-01
9.277734756469726562e-01,2.256948947906494141e+00,-2.134896367788314819e-01
9.289451241493225098e-01,2.259799242019653320e+00,-1.280468404293060303e-01
9.301099777221679688e-01,2.262632846832275391e+00,-4.270107671618461609e-02
9.312713146209716797e-01,2.265457868576049805e+00,4.275439307093620300e-02
9.324386715888977051e-01,2.268297910690307617e+00,1.285284012556076050e-01
9.335912466049194336e-01,2.271101713180541992e+00,2.148283571004867554e-01
9.348493814468383789e-01,2.274162054061889648e+00,3.019037246704101562e-01
9.360851049423217773e-01,2.277168273925781250e+00,3.899517655372619629e-01
9.372451901435852051e-01,2.279990434646606445e+00,4.791688024997711182e-01
9.385102391242980957e-01,2.283067703247070312e+00,5.698835849761962891e-01
8.813861012458801270e-01,2.234525918960571289e+00,-6.436321139335632324e-01
8.824851512908935547e-01,2.237312316894531250e+00,-5.552525520324707031e-01
8.836646080017089844e-01,2.240302324295043945e+00,-4.681217074394226074e-01
8.847782015800476074e-01,2.243125677108764648e+00,-3.819143772125244141e-01
8.859506845474243164e-01,2.246098041534423828e+00,-2.964642643928527832e-01
8.870248198509216309e-01,2.248821258544921875e+00,-2.114981710910797119e-01
8.881522417068481445e-01,2.251679658889770508e+00,-1.268534362316131592e-01
8.892658948898315430e-01,2.254503011703491211e+00,-4.230309650301933289e-02
8.903681635856628418e-01,2.257297515869140625e+00,4.235553368926048279e-02
8.915346264839172363e-01,2.260254859924316406e+00,1.273365467786788940e-01
8.926127552986145020e-01,2.262988090515136719e+00,2.128305286169052124e-01
8.937718868255615234e-01,2.265926837921142578e+00,2.990814745426177979e-01
8.948879837989807129e-01,2.268756389617919922e+00,3.862782418727874756e-01
8.961188793182373047e-01,2.271877050399780273e+00,4.747193753719329834e-01
8.972554206848144531e-01,2.274758338928222656e+00,5.645458698272705078e-01
8.420082330703735352e-01,2.227580070495605469e+00,-6.380946040153503418e-01
8.431314826011657715e-01,2.230551719665527344e+00,-5.505232810974121094e-01
8.441721200942993164e-01,2.233304738998413086e+00,-4.640871882438659668e-01
8.452931642532348633e-01,2.236270427703857422e+00,-3.786484301090240479e-01
8.463686704635620117e-01,2.239115715026855469e+00,-2.939135730266571045e-01
8.474316000938415527e-01,2.241927862167358398e+00,-2.096876055002212524e-01
8.485197424888610840e-01,2.244806766510009766e+00,-1.257691234350204468e-01
8.495838046073913574e-01,2.247621774673461914e+00,-4.194150492548942566e-02
8.506245613098144531e-01,2.250375032424926758e+00,4.199288412928581238e-02
8.517006635665893555e-01,2.253221988677978516e+00,1.262405961751937866e-01
8.527765274047851562e-01,2.256068229675292969e+00,2.110101431608200073e-01
8.538245558738708496e-01,2.258840799331665039e+00,2.965027391910552979e-01
8.549790382385253906e-01,2.261894941329956055e+00,3.829872012138366699e-01
8.560791611671447754e-01,2.264805316925048828e+00,4.706331193447113037e-01
8.572975397109985352e-01,2.268028736114501953e+00,5.597730278968811035e-01
8.030441403388977051e-01,2.220059871673583984e+00,-6.325830817222595215e-01
8.041898608207702637e-01,2.223227262496948242e+00,-5.458186864852905273e-01
8.052334189414978027e-01,2.226112365722656250e+00,-4.601503610610961914e-01
8.062261343002319336e-01,2.228856563568115234e+00,-3.754006922245025635e-01
8.072845935821533203e-01,2.231782913208007812e+00,-2.914044260978698730e-01
8.083047866821289062e-01,2.234603166580200195e+00,-2.078991085290908813e-01
8.093088269233703613e-01,2.237379074096679688e+00,-1.246911883354187012e-01
8.103238940238952637e-01,2.240185022354125977e+00,-4.158204421401023865e-02
8.113515377044677734e-01,2.243026256561279297e+00,4.163477942347526550e-02
8.123700022697448730e-01,2.245841741561889648e+00,1.251628249883651733e-01
8.133618831634521484e-01,2.248583793640136719e+00,2.091998308897018433e-01
8.144389390945434570e-01,2.251561403274536133e+00,2.939869165420532227e-01
8.154876828193664551e-01,2.254460811614990234e+00,3.797131478786468506e-01
8.164604306221008301e-01,2.257149934768676758e+00,4.665660262107849121e-01
8.177500367164611816e-01,2.260715007781982422e+00,5.550221800804138184e-01
7.649762034416198730e-01,2.213351488113403320e+00,-6.274873614311218262e-01
7.659670114517211914e-01,2.216218233108520508e+00,-5.413508415222167969e-01
7.668909430503845215e-01,2.218891382217407227e+00,-4.563420712947845459e-01
7.678988575935363770e-01,2.221807718276977539e+00,-3.723241388797760010e-01
7.688722014427185059e-01,2.224623918533325195e+00,-2.890031337738037109e-01
7.698839306831359863e-01,2.227551460266113281e+00,-2.061966955661773682e-01
7.708380818367004395e-01,2.230312108993530273e+00,-1.236697733402252197e-01
7.718040347099304199e-01,2.233106851577758789e+00,-4.124137759208679199e-02
7.727851867675781250e-01,2.235945701599121094e+00,4.129380360245704651e-02
7.737133502960205078e-01,2.238631248474121094e+00,1.241310685873031616e-01
7.746939063072204590e-01,2.241468429565429688e+00,2.074849456548690796e-01
7.756555676460266113e-01,2.244250774383544922e+00,2.915528714656829834e-01
7.767252922058105469e-01,2.247345924377441406e+00,3.766037225723266602e-01
7.777544856071472168e-01,2.250323772430419922e+00,4.628064930438995361e-01
7.786882519721984863e-01,2.253025293350219727e+00,5.503416061401367188e-01
7.275791168212890625e-01,2.206961631774902344e+00,-6.226596236228942871e-01
7.284337878227233887e-01,2.209553956985473633e+00,-5.371211171150207520e-01
7.293785810470581055e-01,2.212419748306274414e+00,-4.528175890445709229e-01
7.303789258003234863e-01,2.215454101562500000e+00,-3.694696426391601562e-01
7.312475442886352539e-01,2.218088865280151367e+00,-2.867650389671325684e-01
7.321821451187133789e-01,2.220923900604248047e+00,-2.045921385288238525e-01
7.331030368804931641e-01,2.223717212677001953e+00,-1.227096840739250183e-01
7.340216636657714844e-01,2.226503610610961914e+00,-4.092120006680488586e-02
7.349399328231811523e-01,2.229289054870605469e+00,4.097239300608634949e-02
7.358512878417968750e-01,2.232053518295288086e+00,1.231696903705596924e-01
7.368415594100952148e-01,2.235057353973388672e+00,2.058941274881362915e-01
7.377127408981323242e-01,2.237699747085571289e+00,2.893004417419433594e-01
7.386624813079833984e-01,2.240580558776855469e+00,3.736599981784820557e-01
7.397304177284240723e-01,2.243819952011108398e+00,4.592442810535430908e-01
7.407352328300476074e-01,2.246867895126342773e+00,5.461917519569396973e-01
6.903967261314392090e-01,2.199556350708007812e+00,-6.177190542221069336e-01
6.912965178489685059e-01,2.202423095703125000e+00,-5.329276919364929199e-01
6.922594904899597168e-01,2.205491065979003906e+00,-4.493254721164703369e-01
6.931561231613159180e-01,2.208347558975219727e+00,-3.665923476219177246e-01
6.940206289291381836e-01,2.211101770401000977e+00,-2.845482826232910156e-01
6.948811411857604980e-01,2.213843345642089844e+00,-2.030028551816940308e-01
6.957691907882690430e-01,2.216672658920288086e+00,-1.217589229345321655e-01
6.966410279273986816e-01,2.219450235366821289e+00,-4.060414433479309082e-02
6.974978446960449219e-01,2.222180128097534180e+00,4.065408557653427124e-02
6.983894109725952148e-01,2.225020408630371094e+00,1.222174540162086487e-01
6.992874145507812500e-01,2.227881431579589844e+00,2.042901068925857544e-01
7.001687884330749512e-01,2.230689525604248047e+00,2.870690226554870605e-01
7.010015249252319336e-01,2.233342409133911133e+00,3.707415759563446045e-01
7.019236683845520020e-01,2.236280441284179688e+00,4.555981755256652832e-01
7.029642462730407715e-01,2.239595651626586914e+00,5.419225096702575684e-01
6.540294885635375977e-01,2.193061590194702148e+00,-6.132031679153442383e-01
6.549544930458068848e-01,2.196163177490234375e+00,-5.290904045104980469e-01
6.557981967926025391e-01,2.198992252349853516e+00,-4.460434019565582275e-01
6.566022038459777832e-01,2.201688289642333984e+00,-3.638894855976104736e-01
6.574661135673522949e-01,2.204585313796997070e+00,-2.824696600437164307e-01
6.582978367805480957e-01,2.207374095916748047e+00,-2.015249729156494141e-01
6.591151356697082520e-01,2.210114479064941406e+00,-1.208681017160415649e-01
6.599413156509399414e-01,2.212884902954101562e+00,-4.030709341168403625e-02
6.607771515846252441e-01,2.215687513351440430e+00,4.035813733935356140e-02
6.616045236587524414e-01,2.218461751937866211e+00,1.213246062397956848e-01
6.624087691307067871e-01,2.221158504486083984e+00,2.027834504842758179e-01
6.632894277572631836e-01,2.224111557006835938e+00,2.849715352058410645e-01
6.641482710838317871e-01,2.226991415023803711e+00,3.680714964866638184e-01
6.649475693702697754e-01,2.229671716690063477e+00,4.522663950920104980e-01
6.658362150192260742e-01,2.232651472091674805e+00,5.378809571266174316e-01
6.180412769317626953e-01,2.186159133911132812e+00,-6.087372899055480957e-01
6.188513636589050293e-01,2.189024686813354492e+00,-5.251827836036682129e-01
6.197195053100585938e-01,2.192095279693603516e+00,-4.427998065948486328e-01
6.205244660377502441e-01,2.194942712783813477e+00,-3.612696230411529541e-01
6.212976574897766113e-01,2.197677612304687500e+00,-2.804164588451385498e-01
6.220629215240478516e-01,2.200384616851806641e+00,-2.000534832477569580e-01
6.228371858596801758e-01,2.203123331069946289e+00,-1.199859306216239929e-01
6.236166357994079590e-01,2.205880641937255859e+00,-4.001282528042793274e-02
6.244045495986938477e-01,2.208667516708374023e+00,4.006337746977806091e-02
6.252074241638183594e-01,2.211507558822631836e+00,1.204425469040870667e-01
6.260119080543518066e-01,2.214353084564208984e+00,2.013234645128250122e-01
6.267973184585571289e-01,2.217131376266479492e+00,2.828986644744873047e-01
6.275360584259033203e-01,2.219744443893432617e+00,3.653517961502075195e-01
6.283562779426574707e-01,2.222645759582519531e+00,4.489709436893463135e-01
6.292858719825744629e-01,2.225934028625488281e+00,5.340379476547241211e-01
5.828011035919189453e-01,2.180233478546142578e+00,-6.047025918960571289e-01
5.834897160530090332e-01,2.182809829711914062e+00,-5.216345787048339844e-01
5.842540860176086426e-01,2.185669183731079102e+00,-4.397674202919006348e-01
5.849786400794982910e-01,2.188379526138305664e+00,-3.587744832038879395e-01
5.857536792755126953e-01,2.191279172897338867e+00,-2.785016894340515137e-01
5.864583849906921387e-01,2.193915367126464844e+00,-1.986817717552185059e-01
5.872037410736083984e-01,2.196703672409057617e+00,-1.191663444042205811e-01
5.879390239715576172e-01,2.199454545974731445e+00,-3.973954170942306519e-02
5.886652469635009766e-01,2.202171087265014648e+00,3.978862240910530090e-02
5.894395709037780762e-01,2.205067873001098633e+00,1.196200773119926453e-01
5.901501178741455078e-01,2.207726001739501953e+00,1.999324709177017212e-01
5.909253358840942383e-01,2.210626125335693359e+00,2.809606194496154785e-01
5.916770100593566895e-01,2.213438034057617188e+00,3.628827035427093506e-01
5.925272703170776367e-01,2.216618776321411133e+00,4.459946453571319580e-01
5.933241844177246094e-01,2.219599962234497070e+00,5.304265022277832031e-01
5.477659106254577637e-01,2.173385143280029297e+00,-6.005670428276062012e-01
5.484874248504638672e-01,2.176247835159301758e+00,-5.181372761726379395e-01
5.491548180580139160e-01,2.178895950317382812e+00,-4.367783665657043457e-01
5.498842597007751465e-01,2.181789875030517578e+00,-3.563672900199890137e-01
5.505784749984741211e-01,2.184544563293457031e+00,-2.766158282756805420e-01
5.512588620185852051e-01,2.187244176864624023e+00,-1.973428577184677124e-01
5.519405007362365723e-01,2.189948797225952148e+00,-1.183592155575752258e-01
5.526316761970520020e-01,2.192691087722778320e+00,-3.947037830948829651e-02
5.533340573310852051e-01,2.195477962493896484e+00,3.952054306864738464e-02
5.540422201156616211e-01,2.198287725448608398e+00,1.188099086284637451e-01
5.547451376914978027e-01,2.201076745986938477e+00,1.985908895730972290e-01
5.554242730140686035e-01,2.203771352767944336e+00,2.790503799915313721e-01
5.561827421188354492e-01,2.206780672073364258e+00,3.604491949081420898e-01
5.569055080413818359e-01,2.209648609161376953e+00,4.429429769515991211e-01
5.575547814369201660e-01,2.212224483489990234e+00,5.267028212547302246e-01
5.132811069488525391e-01,2.166972160339355469e+00,-5.967036485671997070e-01
5.140364170074462891e-01,2.170160770416259766e+00,-5.148834586143493652e-01
5.146195888519287109e-01,2.172622680664062500e+00,-4.339998066425323486e-01
5.152785181999206543e-01,2.175404548645019531e+00,-3.540833592414855957e-01
5.159760713577270508e-01,2.178349733352661133e+00,-2.748681008815765381e-01
5.166015028953552246e-01,2.180990219116210938e+00,-1.960913687944412231e-01
5.172558426856994629e-01,2.183752536773681641e+00,-1.176121458411216736e-01
5.179036259651184082e-01,2.186487436294555664e+00,-3.922124952077865601e-02
