2.677392721176147461e+00,-7.083192348480224609e+00,-1.199336051940917969e+00
3.765318155288696289e+00,-9.961360931396484375e+00,-1.307560443878173828e+00
6.331799983978271484e+00,-1.675113296508789062e+01,-1.566734075546264648e+00
1.858832931518554688e+01,-4.917646789550781250e+01,-2.755195617675781250e+00
1.963854217529296875e+01,-5.195486831665039062e+01,-9.694982767105102539e-01
1.469712853431701660e+00,-3.726075887680053711e+00,-1.073257684707641602e+00
1.750560283660888672e+00,-4.438091754913330078e+00,-1.101438403129577637e+00
2.148702621459960938e+00,-5.447478294372558594e+00,-1.138276219367980957e+00
2.778918027877807617e+00,-7.045225620269775391e+00,-1.199519515037536621e+00
3.881513595581054688e+00,-9.840571403503417969e+00,-1.298864841461181641e+00
6.552669525146484375e+00,-1.661259460449218750e+01,-1.562388777732849121e+00
1.377846145629882812e+01,-3.493171310424804688e+01,-1.967956781387329102e+00
1.380389213562011719e+01,-3.499618911743164062e+01,-6.566623449325561523e-01
1.524178981781005859e+00,-3.707795381546020508e+00,-1.074166178703308105e+00
1.809562444686889648e+00,-4.402033805847167969e+00,-1.098805189132690430e+00
2.224797248840332031e+00,-5.412154674530029297e+00,-1.137432813644409180e+00
2.885092258453369141e+00,-7.018422603607177734e+00,-1.201863884925842285e+00
4.050560951232910156e+00,-9.853601455688476562e+00,-1.308103203773498535e+00
6.784086704254150391e+00,-1.650331497192382812e+01,-1.561083912849426270e+00
1.065066814422607422e+01,-2.590935707092285156e+01,-1.468100070953369141e+00
1.066922473907470703e+01,-2.595450019836425781e+01,-4.898210167884826660e-01
1.068792915344238281e+01,-2.600000000000000000e+01,4.906797111034393311e-01
1.578682065010070801e+00,-3.689325094223022461e+00,-1.075251340866088867e+00
1.877841353416442871e+00,-4.388449668884277344e+00,-1.102010846138000488e+00
2.300848722457885742e+00,-5.377003192901611328e+00,-1.136849999427795410e+00
2.967229604721069336e+00,-6.934312343597412109e+00,-1.194611072540283203e+00
4.172540664672851562e+00,-9.751082420349121094e+00,-1.302288532257080078e+00
7.015393257141113281e+00,-1.639472961425781250e+01,-1.560151100158691406e+00
1.055729675292968750e+01,-2.467203330993652344e+01,-1.406408071517944336e+00
1.057013511657714844e+01,-2.470203590393066406e+01,-4.689913988113403320e-01
1.058282947540283203e+01,-2.473170280456542969e+01,4.695546329021453857e-01
1.627791285514831543e+00,-3.658417701721191406e+00,-1.072924137115478516e+00
1.938203215599060059e+00,-4.356060504913330078e+00,-1.100731134414672852e+00
2.378717660903930664e+00,-5.346105098724365234e+00,-1.137399435043334961e+00
3.075793027877807617e+00,-6.912763595581054688e+00,-1.198360562324523926e+00
4.297558307647705078e+00,-9.658648490905761719e+00,-1.298026084899902344e+00
7.252427101135253906e+00,-1.629963874816894531e+01,-1.560820698738098145e+00
1.092365837097167969e+01,-2.455063247680664062e+01,-1.408256411552429199e+00
1.093694305419921875e+01,-2.458049011230468750e+01,-4.696077704429626465e-01
1.095013809204101562e+01,-2.461014747619628906e+01,4.701743721961975098e-01
1.684806346893310547e+00,-3.645179986953735352e+00,-1.076004028320312500e+00
2.000031709671020508e+00,-4.327188968658447266e+00,-1.100556731224060059e+00
2.458510160446166992e+00,-5.319135189056396484e+00,-1.139031529426574707e+00
3.162329435348510742e+00,-6.841890335083007812e+00,-1.193798661231994629e+00
4.474872112274169922e+00,-9.681654930114746094e+00,-1.309591531753540039e+00
7.495532512664794922e+00,-1.621703529357910156e+01,-1.563024401664733887e+00
1.129108428955078125e+01,-2.442893981933593750e+01,-1.410401821136474609e+00
1.130481719970703125e+01,-2.445865249633789062e+01,-4.703232944011688232e-01
1.131848812103271484e+01,-2.448822975158691406e+01,4.708920419216156006e-01
1.736385226249694824e+00,-3.619821548461914062e+00,-1.075744867324829102e+00
2.063398599624633789e+00,-4.301542758941650391e+00,-1.101432800292968750e+00
2.540327548980712891e+00,-5.295790672302246094e+00,-1.141701936721801758e+00
3.276128292083740234e+00,-6.829705715179443359e+00,-1.199731826782226562e+00
4.606865406036376953e+00,-9.603877067565917969e+00,-1.307856321334838867e+00
7.745023727416992188e+00,-1.614595794677734375e+01,-1.566697955131530762e+00
9.224334716796875000e+00,-1.922986030578613281e+01,-1.117741942405700684e+00
9.237667083740234375e+00,-1.925765609741210938e+01,-3.728160262107849121e-01
9.250753402709960938e+00,-1.928493499755859375e+01,3.733441233634948730e-01
1.782385706901550293e+00,-3.583284139633178711e+00,-1.072358489036560059e+00
2.118534088134765625e+00,-4.259072780609130859e+00,-1.098210096359252930e+00
2.609148979187011719e+00,-5.245398044586181641e+00,-1.138772606849670410e+00
3.367545604705810547e+00,-6.770068645477294922e+00,-1.197600245475769043e+00
4.742419719696044922e+00,-9.534096717834472656e+00,-1.307463645935058594e+00
7.859856605529785156e+00,-1.580135059356689453e+01,-1.544017791748046875e+00
8.694235801696777344e+00,-1.747877502441406250e+01,-1.023088097572326660e+00
8.706592559814453125e+00,-1.750361633300781250e+01,-3.412365615367889404e-01
8.719234466552734375e+00,-1.752902984619140625e+01,3.417320251464843750e-01
1.836524605751037598e+00,-3.563301086425781250e+00,-1.074135065078735352e+00
2.185057878494262695e+00,-4.239540100097656250e+00,-1.101125359535217285e+00
2.679885864257812500e+00,-5.199625968933105469e+00,-1.137046575546264648e+00
3.461492300033569336e+00,-6.716130733489990234e+00,-1.196700811386108398e+00
4.881657600402832031e+00,-9.471594810485839844e+00,-1.308340549468994141e+00
8.120779991149902344e+00,-1.575627422332763672e+01,-1.550812363624572754e+00
8.251034736633300781e+00,-1.600899887084960938e+01,-9.438736438751220703e-01
8.262680053710937500e+00,-1.603159523010253906e+01,-3.148126006126403809e-01
8.274332046508789062e+00,-1.605420303344726562e+01,3.152565658092498779e-01
8.285826683044433594e+00,-1.607650566101074219e+01,9.478536844253540039e-01
1.886451482772827148e+00,-3.534997224807739258e+00,-1.073632478713989258e+00
2.244960784912109375e+00,-4.206803321838378906e+00,-1.100855827331542969e+00
2.754634141921997070e+00,-5.161873817443847656e+00,-1.137296676635742188e+00
3.560712099075317383e+00,-6.672372817993164062e+00,-1.197862505912780762e+00
5.028509616851806641e+00,-9.422860145568847656e+00,-1.311416506767272949e+00
7.846458911895751953e+00,-1.470337963104248047e+01,-1.458085775375366211e+00
7.857455730438232422e+00,-1.472398567199707031e+01,-8.746519684791564941e-01
7.868403434753417969e+00,-1.474450016021728516e+01,-2.917196452617645264e-01
7.879326343536376953e+00,-1.476496982574462891e+01,2.921246290206909180e-01
7.890157699584960938e+00,-1.478526592254638672e+01,8.782922029495239258e-01
1.937726259231567383e+00,-3.509221315383911133e+00,-1.074117660522460938e+00
2.306502819061279297e+00,-4.177075386047363281e+00,-1.101602911949157715e+00
2.831441164016723633e+00,-5.127738475799560547e+00,-1.138588428497314453e+00
3.662658452987670898e+00,-6.633072376251220703e+00,-1.200095772743225098e+00
5.128172874450683594e+00,-9.287117958068847656e+00,-1.302606940269470215e+00
7.514279842376708984e+00,-1.360835742950439453e+01,-1.360022664070129395e+00
7.524491310119628906e+00,-1.362684917449951172e+01,-8.157927989959716797e-01
7.534859657287597656e+00,-1.364562702178955078e+01,-2.720843851566314697e-01
7.545530319213867188e+00,-1.366495132446289062e+01,2.724696993827819824e-01
7.555998802185058594e+00,-1.368390941619873047e+01,8.192088007926940918e-01
1.990365743637084961e+00,-3.485706806182861328e+00,-1.075530052185058594e+00
2.359709501266479492e+00,-4.132534980773925781e+00,-1.098651409149169922e+00
2.910332202911376953e+00,-5.096835136413574219e+00,-1.140859365463256836e+00
3.741669416427612305e+00,-6.552746772766113281e+00,-1.195130109786987305e+00
5.282588958740234375e+00,-9.251343727111816406e+00,-1.308060526847839355e+00
7.444241523742675781e+00,-1.303702354431152344e+01,-1.313437819480895996e+00
7.453315258026123047e+00,-1.305291366577148438e+01,-7.877392768859863281e-01
7.462391376495361328e+00,-1.306880855560302734e+01,-2.626858949661254883e-01
7.471492767333984375e+00,-1.308474826812744141e+01,2.630062997341156006e-01
7.480552673339843750e+00,-1.310061454772949219e+01,7.906180024147033691e-01
2.038827180862426758e+00,-3.454793214797973633e+00,-1.074885845184326172e+00
2.420361757278442383e+00,-4.101303577423095703e+00,-1.099445939064025879e+00
2.975370883941650391e+00,-5.041766643524169922e+00,-1.137949228286743164e+00
3.857610464096069336e+00,-6.536721229553222656e+00,-1.202154755592346191e+00
5.424489498138427734e+00,-9.191798210144042969e+00,-1.310485124588012695e+00
7.647867202758789062e+00,-1.295931243896484375e+01,-1.316502332687377930e+00
7.657380104064941406e+00,-1.297543144226074219e+01,-7.895969152450561523e-01
7.666704654693603516e+00,-1.299123191833496094e+01,-2.633053660392761230e-01
7.675862789154052734e+00,-1.300675010681152344e+01,2.636198699474334717e-01
7.685245513916015625e+00,-1.302264976501464844e+01,7.924702763557434082e-01
2.085659027099609375e+00,-3.421315431594848633e+00,-1.073648214340209961e+00
2.486101150512695312e+00,-4.078200817108154297e+00,-1.102679014205932617e+00
3.058213472366333008e+00,-5.016693592071533203e+00,-1.142053008079528809e+00
3.941103935241699219e+00,-6.464987754821777344e+00,-1.199213862419128418e+00
5.463056564331054688e+00,-8.961598396301269531e+00,-1.288681745529174805e+00
5.470602989196777344e+00,-8.973978042602539062e+00,-9.195031523704528809e-01
5.478169918060302734e+00,-8.986391067504882812e+00,-5.515660047531127930e-01
5.485732078552246094e+00,-8.998796463012695312e+00,-1.839595437049865723e-01
5.493352890014648438e+00,-9.011297225952148438e+00,1.842150986194610596e-01
5.501041889190673828e+00,-9.023910522460937500e+00,5.538688898086547852e-01
5.508687019348144531e+00,-9.036450386047363281e+00,9.259042739868164062e-01
2.135363817214965820e+00,-3.392628431320190430e+00,-1.074127197265625000e+00
2.544937610626220703e+00,-4.043352127075195312e+00,-1.102992773056030273e+00
3.129425048828125000e+00,-4.971975326538085938e+00,-1.141953110694885254e+00
4.029800415039062500e+00,-6.402475833892822266e+00,-1.198194861412048340e+00
5.246524333953857422e+00,-8.335585594177246094e+00,-1.209335803985595703e+00
5.253687858581542969e+00,-8.346966743469238281e+00,-8.628742098808288574e-01
5.260852336883544922e+00,-8.358349800109863281e+00,-5.175869464874267578e-01
5.268080234527587891e+00,-8.369832992553710938e+00,-1.726256310939788818e-01
5.275389194488525391e+00,-8.381445884704589844e+00,1.728651374578475952e-01
5.282732486724853516e+00,-8.393112182617187500e+00,5.197396278381347656e-01
5.289999008178710938e+00,-8.404657363891601562e+00,8.688380122184753418e-01
5.297012329101562500e+00,-8.415800094604492188e+00,1.220973372459411621e+00
2.186759948730468750e+00,-3.366429805755615234e+00,-1.075632333755493164e+00
2.593906641006469727e+00,-3.993215799331665039e+00,-1.099331498146057129e+00
3.203038454055786133e+00,-4.930949687957763672e+00,-1.142943263053894043e+00
4.121343135833740234e+00,-6.344643592834472656e+00,-1.198289036750793457e+00
5.051759243011474609e+00,-7.776982307434082031e+00,-1.138666868209838867e+00
5.058393001556396484e+00,-7.787194252014160156e+00,-8.124088048934936523e-01
5.065371036529541016e+00,-7.797936439514160156e+00,-4.873234033584594727e-01
5.072264671325683594e+00,-7.808548927307128906e+00,-1.625300347805023193e-01
5.079123497009277344e+00,-7.819108009338378906e+00,1.627498269081115723e-01
5.086398601531982422e+00,-7.830307960510253906e+00,4.893464148044586182e-01
5.093286514282226562e+00,-7.840911388397216797e+00,8.180128931999206543e-01
5.099893093109130859e+00,-7.851081848144531250e+00,1.149516224861145020e+00
2.231447935104370117e+00,-3.329910993576049805e+00,-1.074059128761291504e+00
2.656502962112426758e+00,-3.964205265045166016e+00,-1.101700067520141602e+00
3.260432481765747070e+00,-4.865427970886230469e+00,-1.138456583023071289e+00
4.216204166412353516e+00,-6.291692256927490234e+00,-1.199563145637512207e+00
4.875640869140625000e+00,-7.275746345520019531e+00,-1.075386166572570801e+00
4.882411479949951172e+00,-7.285850048065185547e+00,-7.673175930976867676e-01
4.889084815979003906e+00,-7.295808792114257812e+00,-4.602696597576141357e-01
4.895711898803710938e+00,-7.305697441101074219e+00,-1.535063385963439941e-01
4.902313709259033203e+00,-7.315549373626708984e+00,1.537133306264877319e-01
4.908840656280517578e+00,-7.325289249420166016e+00,4.621295034885406494e-01
4.915772438049316406e+00,-7.335633754730224609e+00,7.725605964660644531e-01
4.922688484191894531e+00,-7.345953464508056641e+00,1.085763096809387207e+00
2.277582645416259766e+00,-3.295760154724121094e+00,-1.073449015617370605e+00
2.708774566650390625e+00,-3.919713497161865234e+00,-1.099997758865356445e+00
3.339100360870361328e+00,-4.831821918487548828e+00,-1.141659498214721680e+00
4.314893722534179688e+00,-6.243837356567382812e+00,-1.202091336250305176e+00
4.717067241668701172e+00,-6.825799465179443359e+00,-1.018757104873657227e+00
4.723265171051025391e+00,-6.834768295288085938e+00,-7.268569469451904297e-01
4.729674816131591797e+00,-6.844043254852294922e+00,-4.359953999519348145e-01
4.736064910888671875e+00,-6.853290081024169922e+00,-1.454098969697952271e-01
4.742420196533203125e+00,-6.862486362457275391e+00,1.456050127744674683e-01
4.749050140380859375e+00,-6.872080326080322266e+00,4.377814829349517822e-01
4.755184650421142578e+00,-6.880956649780273438e+00,7.317690253257751465e-01
4.761653423309326172e+00,-6.890317916870117188e+00,1.028386592864990234e+00
4.768705368041992188e+00,-6.900522232055664062e+00,1.328519225120544434e+00
2.325391292572021484e+00,-3.264051198959350586e+00,-1.073852181434631348e+00
2.762858629226684570e+00,-3.878105163574218750e+00,-1.099306464195251465e+00
3.400659322738647461e+00,-4.773358345031738281e+00,-1.139230012893676758e+00
4.383220672607421875e+00,-6.152537345886230469e+00,-1.196470141410827637e+00
4.573037624359130859e+00,-6.418975353240966797e+00,-9.677085280418395996e-01
4.579089164733886719e+00,-6.427469730377197266e+00,-6.904415488243103027e-01
4.585206031799316406e+00,-6.436055660247802734e+00,-4.141433238983154297e-01
4.591353416442871094e+00,-6.444684505462646484e+00,-1.381205320358276367e-01
4.597574234008789062e+00,-6.453416347503662109e+00,1.383076608180999756e-01
4.603888034820556641e+00,-6.462278842926025391e+00,4.158307015895843506e-01
4.610200881958007812e+00,-6.471139430999755859e+00,6.951326131820678711e-01
4.616359710693359375e+00,-6.479784965515136719e+00,9.768760204315185547e-01
4.623029708862304688e+00,-6.489146709442138672e+00,1.261929869651794434e+00
2.376935958862304688e+00,-3.237338066101074219e+00,-1.076146602630615234e+00
2.821214199066162109e+00,-3.842436313629150391e+00,-1.100529432296752930e+00
3.467140674591064453e+00,-4.722174644470214844e+00,-1.138741731643676758e+00
4.444776058197021484e+00,-6.053694248199462891e+00,-1.189498543739318848e+00
4.450976371765136719e+00,-6.062139034271240234e+00,-9.234227538108825684e-01
4.456955909729003906e+00,-6.070282459259033203e+00,-6.588577032089233398e-01
4.462901115417480469e+00,-6.078380107879638672e+00,-3.951978087425231934e-01
4.468868732452392578e+00,-6.086508274078369141e+00,-1.318015754222869873e-01
4.474872589111328125e+00,-6.094685077667236328e+00,1.319786459207534790e-01
4.480868816375732422e+00,-6.102851867675781250e+00,3.967888951301574707e-01
4.486771583557128906e+00,-6.110890865325927734e+00,6.632652282714843750e-01
4.493137359619140625e+00,-6.119561195373535156e+00,9.321696758270263672e-01
4.499360561370849609e+00,-6.128036975860595703e+00,1.204106211662292480e+00
2.418700933456420898e+00,-3.197271585464477539e+00,-1.074226021766662598e+00
2.879820346832275391e+00,-3.806823730468750000e+00,-1.102022767066955566e+00
3.533508062362670898e+00,-4.670930862426757812e+00,-1.138464212417602539e+00
4.326372623443603516e+00,-5.719015598297119141e+00,-1.135788559913635254e+00
4.332082271575927734e+00,-5.726562976837158203e+00,-8.816606998443603516e-01
4.338008880615234375e+00,-5.734397411346435547e+00,-6.290761828422546387e-01
4.343780517578125000e+00,-5.742026805877685547e+00,-3.773328959941864014e-01
4.349573612213134766e+00,-5.749685287475585938e+00,-1.258430480957031250e-01
4.355365753173828125e+00,-5.757341861724853516e+00,1.260106265544891357e-01
4.361051559448242188e+00,-5.764857292175292969e+00,3.788332045078277588e-01
4.367095470428466797e+00,-5.772847175598144531e+00,6.332942247390747070e-01
4.373105049133300781e+00,-5.780790805816650391e+00,8.900096416473388672e-01
4.378887176513671875e+00,-5.788434028625488281e+00,1.149574995040893555e+00
2.462082147598266602e+00,-3.159593820571899414e+00,-1.073297262191772461e+00
2.925968408584594727e+00,-3.754899740219116211e+00,-1.099002718925476074e+00
3.602740049362182617e+00,-4.623401641845703125e+00,-1.139331936836242676e+00
4.218938827514648438e+00,-5.414170265197753906e+00,-1.087128281593322754e+00
4.224578380584716797e+00,-5.421407699584960938e+00,-8.439022898674011230e-01
4.230110645294189453e+00,-5.428507328033447266e+00,-6.020999550819396973e-01
4.235682964324951172e+00,-5.435658454895019531e+00,-3.611472249031066895e-01
4.241294384002685547e+00,-5.442859649658203125e+00,-1.204439476132392883e-01
4.246971607208251953e+00,-5.450145244598388672e+00,1.206051707267761230e-01
4.252742290496826172e+00,-5.457550525665283203e+00,3.626017272472381592e-01
4.258513927459716797e+00,-5.464957237243652344e+00,6.061427593231201172e-01
4.264146804809570312e+00,-5.472185611724853516e+00,8.518065214157104492e-01
4.270297527313232422e+00,-5.480079650878906250e+00,1.100362300872802734e+00
4.276170730590820312e+00,-5.487616539001464844e+00,1.352297902107238770e+00
2.507284164428710938e+00,-3.124324560165405273e+00,-1.073397517204284668e+00
2.989580154418945312e+00,-3.725312948226928711e+00,-1.102754592895507812e+00
3.675182104110717773e+00,-4.579640865325927734e+00,-1.141394376754760742e+00
4.121542453765869141e+00,-5.135850429534912109e+00,-1.042982220649719238e+00
4.126792907714843750e+00,-5.142392635345458984e+00,-8.095823526382446289e-01
4.132338047027587891e+00,-5.149302482604980469e+00,-5.776332616806030273e-01
4.137801647186279297e+00,-5.156110763549804688e+00,-3.464734852313995361e-01
4.143273353576660156e+00,-5.162929058074951172e+00,-1.155499219894409180e-01
4.148753166198730469e+00,-5.169757843017578125e+00,1.157027557492256165e-01
4.154201984405517578e+00,-5.176547527313232422e+00,3.478467762470245361e-01
4.160081386566162109e+00,-5.183873653411865234e+00,5.815113782882690430e-01
4.165313243865966797e+00,-5.190393447875976562e+00,8.171392083168029785e-01
4.170952796936035156e+00,-5.197420597076416016e+00,1.055485725402832031e+00
4.177197456359863281e+00,-5.205202102661132812e+00,1.297304272651672363e+00
2.554522752761840820e+00,-3.091484785079956055e+00,-1.074566960334777832e+00
3.040138483047485352e+00,-3.679177284240722656e+00,-1.101865887641906738e+00
3.726357936859130859e+00,-4.509640216827392578e+00,-1.137124657630920410e+00
4.033391475677490234e+00,-4.881212711334228516e+00,-1.002892017364501953e+00
4.038662910461425781e+00,-4.887591838836669922e+00,-7.784892916679382324e-01
4.043887615203857422e+00,-4.893914699554443359e+00,-5.554208159446716309e-01
4.049267768859863281e+00,-4.900425910949707031e+00,-3.331528306007385254e-01
4.054613590240478516e+00,-4.906895160675048828e+00,-1.111072003841400146e-01
4.059899330139160156e+00,-4.913292407989501953e+00,1.112520545721054077e-01
4.065418720245361328e+00,-4.919971942901611328e+00,3.344816863536834717e-01
4.070992946624755859e+00,-4.926717758178710938e+00,5.591436624526977539e-01
4.076493740081787109e+00,-4.933374881744384766e+00,7.857815027236938477e-01
4.081732273101806641e+00,-4.939714431762695312e+00,1.014911770820617676e+00
4.087461471557617188e+00,-4.946648120880126953e+00,1.247318029403686523e+00
2.601965665817260742e+00,-3.058674335479736328e+00,-1.075997471809387207e+00
3.090535402297973633e+00,-3.632999897003173828e+00,-1.101171731948852539e+00
3.802203893661499023e+00,-4.469583511352539062e+00,-1.140630364418029785e+00
3.946578025817871094e+00,-4.639298915863037109e+00,-9.646959304809570312e-01
3.951515674591064453e+00,-4.645103454589843750e+00,-7.487980723381042480e-01
3.956789016723632812e+00,-4.651302337646484375e+00,-5.342590808868408203e-01
3.962031364440917969e+00,-4.657464504241943359e+00,-3.204578459262847900e-01
3.967228651046752930e+00,-4.663574218750000000e+00,-1.068724989891052246e-01
3.972409248352050781e+00,-4.669663906097412109e+00,1.070120558142662048e-01
3.977601289749145508e+00,-4.675767421722412109e+00,3.217172026634216309e-01
3.983265399932861328e+00,-4.682425975799560547e+00,5.378340482711791992e-01
3.988331794738769531e+00,-4.688381671905517578e+00,7.557746171951293945e-01
3.993855714797973633e+00,-4.694875240325927734e+00,9.762524366378784180e-01
3.999065399169921875e+00,-4.700999259948730469e+00,1.199687242507934570e+00
4.004795074462890625e+00,-4.707734584808349609e+00,1.426926612854003906e+00
2.641750812530517578e+00,-3.016868829727172852e+00,-1.074482798576354980e+00
3.145913124084472656e+00,-3.592620134353637695e+00,-1.102468013763427734e+00
3.858709812164306641e+00,-4.406630992889404297e+00,-1.138543367385864258e+00
3.875147581100463867e+00,-4.425402641296386719e+00,-9.316567182540893555e-01
3.880189657211303711e+00,-4.431160926818847656e+00,-7.231891155242919922e-01
3.885426759719848633e+00,-4.437141895294189453e+00,-5.159952640533447266e-01
3.890410900115966797e+00,-4.442833423614501953e+00,-3.094898462295532227e-01
3.895511627197265625e+00,-4.448658466339111328e+00,-1.032145991921424866e-01
3.900743484497070312e+00,-4.454633235931396484e+00,1.033532321453094482e-01
3.905748367309570312e+00,-4.460348606109619141e+00,3.107099533081054688e-01
3.911073923110961914e+00,-4.466430664062500000e+00,5.194012522697448730e-01
3.916349649429321289e+00,-4.472455501556396484e+00,7.299286127090454102e-01
3.921403169631958008e+00,-4.478226661682128906e+00,9.427774548530578613e-01
3.926981210708618164e+00,-4.484596729278564453e+00,1.158687353134155273e+00
3.932125329971313477e+00,-4.490471363067626953e+00,1.377991676330566406e+00
2.691643238067626953e+00,-2.986501932144165039e+00,-1.077278614044189453e+00
3.198922395706176758e+00,-3.549351453781127930e+00,-1.103127956390380859e+00
3.792137145996093750e+00,-4.207550525665283203e+00,-1.101017951965332031e+00
3.797477722167968750e+00,-4.213476181030273438e+00,-8.983919620513916016e-01
3.802600622177124023e+00,-4.219160079956054688e+00,-6.974010467529296875e-01
3.807563543319702148e+00,-4.224666595458984375e+00,-4.975732862949371338e-01
3.812498331069946289e+00,-4.230142116546630859e+00,-2.984444797039031982e-01
3.817486524581909180e+00,-4.235676765441894531e+00,-9.953071177005767822e-02
3.822529792785644531e+00,-4.241272449493408203e+00,9.966219961643218994e-02
3.827592372894287109e+00,-4.246889591217041016e+00,2.996260523796081543e-01
3.832592248916625977e+00,-4.252437114715576172e+00,5.008440613746643066e-01
3.837411642074584961e+00,-4.257784843444824219e+00,7.037854194641113281e-01
3.842700481414794922e+00,-4.263652801513671875e+00,9.090905785560607910e-01
3.847702980041503906e+00,-4.269203186035156250e+00,1.117151141166687012e+00
3.853260517120361328e+00,-4.275369644165039062e+00,1.328772306442260742e+00
2.733458042144775391e+00,-2.946969985961914062e+00,-1.077021598815917969e+00
3.238866806030273438e+00,-3.491856336593627930e+00,-1.099554419517517090e+00
3.729135751724243164e+00,-4.020420551300048828e+00,-1.065908670425415039e+00
3.734125852584838867e+00,-4.025800704956054688e+00,-8.696830868721008301e-01
3.739400148391723633e+00,-4.031486988067626953e+00,-6.751577854156494141e-01
3.744146823883056641e+00,-4.036603927612304688e+00,-4.816862046718597412e-01
3.749082088470458984e+00,-4.041924953460693359e+00,-2.889217734336853027e-01
3.753967523574829102e+00,-4.047192096710205078e+00,-9.635440260171890259e-02
3.758825778961181641e+00,-4.052429676055908203e+00,9.647909551858901978e-02
3.763928174972534180e+00,-4.057930946350097656e+00,2.900658845901489258e-01
3.768573999404907227e+00,-4.062939167022705078e+00,4.848287999629974365e-01
3.773563146591186523e+00,-4.068318367004394531e+00,6.813259720802307129e-01
3.779164552688598633e+00,-4.074357032775878906e+00,8.801726698875427246e-01
3.783656358718872070e+00,-4.079199790954589844e+00,1.081492424011230469e+00
3.789667606353759766e+00,-4.085680484771728516e+00,1.286544322967529297e+00
2.775202274322509766e+00,-2.907386779785156250e+00,-1.076962351799011230e+00
3.297200679779052734e+00,-3.454248189926147461e+00,-1.102460145950317383e+00
3.666498184204101562e+00,-3.841135501861572266e+00,-1.032184004783630371e+00
3.671655416488647461e+00,-3.846538305282592773e+00,-8.422244191169738770e-01
3.676216125488281250e+00,-3.851316452026367188e+00,-6.537297368049621582e-01
3.681110858917236328e+00,-3.856444120407104492e+00,-4.664274454116821289e-01
3.685968160629272461e+00,-3.861532926559448242e+00,-2.797697484493255615e-01
3.690749645233154297e+00,-3.866542339324951172e+00,-9.330168366432189941e-02
3.695506572723388672e+00,-3.871525764465332031e+00,9.342193603515625000e-02
3.700259685516357422e+00,-3.876505136489868164e+00,2.808544933795928955e-01
3.705467224121093750e+00,-3.881960868835449219e+00,4.695136249065399170e-01
3.710088968276977539e+00,-3.886802673339843750e+00,6.597532033920288086e-01
3.715169429779052734e+00,-3.892125129699707031e+00,8.522059917449951172e-01
3.719962120056152344e+00,-3.897145986557006836e+00,1.047235131263732910e+00
3.725314617156982422e+00,-3.902753353118896484e+00,1.245605349540710449e+00
2.816944599151611328e+00,-2.867794036865234375e+00,-1.077121376991271973e+00
3.336442470550537109e+00,-3.396669387817382812e+00,-1.099212527275085449e+00
3.604293584823608398e+00,-3.669355392456054688e+00,-9.997842907905578613e-01
3.609117269515991211e+00,-3.674266099929809570e+00,-8.157318234443664551e-01
3.613842010498046875e+00,-3.679076433181762695e+00,-6.332086324691772461e-01
3.618743658065795898e+00,-3.684066295623779297e+00,-4.517971575260162354e-01
3.623381376266479492e+00,-3.688787937164306641e+00,-2.709840536117553711e-01
3.628073215484619141e+00,-3.693564414978027344e+00,-9.037148952484130859e-02
3.632880210876464844e+00,-3.698458194732666016e+00,9.049122780561447144e-02
3.637434720993041992e+00,-3.703094720840454102e+00,2.720350623130798340e-01
3.642280101776123047e+00,-3.708027601242065430e+00,4.547356665134429932e-01
3.647061347961425781e+00,-3.712895154953002930e+00,6.390292644500732422e-01
3.652437448501586914e+00,-3.718368530273437500e+00,8.255230784416198730e-01
3.656699419021606445e+00,-3.722707271575927734e+00,1.014320969581604004e+00
3.662472963333129883e+00,-3.728585004806518555e+00,1.206625223159790039e+00
2.846904039382934570e+00,-2.816503524780273438e+00,-1.073052167892456055e+00
3.398131132125854492e+00,-3.361844301223754883e+00,-1.103569746017456055e+00
3.548723459243774414e+00,-3.510828495025634766e+00,-9.703311920166015625e-01
3.553767681121826172e+00,-3.515818834304809570e+00,-7.917665243148803711e-01
3.558188676834106445e+00,-3.520192623138427734e+00,-6.145657300949096680e-01
3.562908172607421875e+00,-3.524861812591552734e+00,-4.384822249412536621e-01
3.567557811737060547e+00,-3.529461860656738281e+00,-2.630040049552917480e-01
3.572175979614257812e+00,-3.534030675888061523e+00,-8.771016448736190796e-02
3.576796054840087891e+00,-3.538601398468017578e+00,8.782359957695007324e-02
3.581373929977416992e+00,-3.543130397796630859e+00,2.640225589275360107e-01
3.586370468139648438e+00,-3.548073530197143555e+00,4.413697123527526855e-01
3.590754270553588867e+00,-3.552410602569580078e+00,6.201903820037841797e-01
3.595566034317016602e+00,-3.557170867919921875e+00,8.010790348052978516e-01
3.601033687591552734e+00,-3.562580108642578125e+00,9.846344590187072754e-01
3.605126619338989258e+00,-3.566629409790039062e+00,1.170793175697326660e+00
2.893072128295898438e+00,-2.781382560729980469e+00,-1.075338125228881836e+00
3.442580223083496094e+00,-3.309676408767700195e+00,-1.102507352828979492e+00
3.499419450759887695e+00,-3.364321470260620117e+00,-9.435862302780151367e-01
3.504223823547363281e+00,-3.368940353393554688e+00,-7.699059844017028809e-01
3.508881568908691406e+00,-3.373418092727661133e+00,-5.976484417915344238e-01
3.513664484024047852e+00,-3.378016471862792969e+00,-4.264276921749114990e-01
3.518126487731933594e+00,-3.382306337356567383e+00,-2.557646632194519043e-01
3.522678852081298828e+00,-3.386682748794555664e+00,-8.529584109783172607e-02
3.527346849441528320e+00,-3.391170740127563477e+00,8.540887385606765747e-02
3.531706809997558594e+00,-3.395362138748168945e+00,2.567519545555114746e-01
3.536306858062744141e+00,-3.399784564971923828e+00,4.291756153106689453e-01
3.540793895721435547e+00,-3.404098510742187500e+00,6.030839085578918457e-01
3.545830011367797852e+00,-3.408940315246582031e+00,7.790471911430358887e-01
3.550677299499511719e+00,-3.413600444793701172e+00,9.574074745178222656e-01
3.555088043212890625e+00,-3.417840957641601562e+00,1.138538718223571777e+00
2.939581155776977539e+00,-2.746229887008666992e+00,-1.077904224395751953e+00
3.446147680282592773e+00,-3.219477176666259766e+00,-1.088780283927917480e+00
3.450824022293090820e+00,-3.223845958709716797e+00,-9.179465174674987793e-01
3.455251932144165039e+00,-3.227982521057128906e+00,-7.489184141159057617e-01
3.459644079208374023e+00,-3.232085704803466797e+00,-5.813229680061340332e-01
3.464279651641845703e+00,-3.236416339874267578e+00,-4.147696793079376221e-01
3.468774795532226562e+00,-3.240615844726562500e+00,-2.487792521715164185e-01
3.473257541656494141e+00,-3.244803667068481445e+00,-8.296611905097961426e-02
3.477738857269287109e+00,-3.248990297317504883e+00,8.307316154241561890e-02
3.482114553451538086e+00,-3.253078222274780273e+00,2.497359812259674072e-01
3.486843585968017578e+00,-3.257496356964111328e+00,4.174712300300598145e-01
3.491570472717285156e+00,-3.261912107467651367e+00,5.866875052452087402e-01
3.496144533157348633e+00,-3.266185283660888672e+00,7.577818036079406738e-01
3.500365018844604492e+00,-3.270128250122070312e+00,9.311248064041137695e-01
3.505087375640869141e+00,-3.274539947509765625e+00,1.107401847839355469e+00
2.971103906631469727e+00,-2.697087049484252930e+00,-1.075197219848632812e+00
3.397371768951416016e+00,-3.084041357040405273e+00,-1.059314727783203125e+00
3.401708126068115234e+00,-3.087977886199951172e+00,-8.930323719978332520e-01
3.406416177749633789e+00,-3.092251539230346680e+00,-7.286652922630310059e-01
3.410550594329833984e+00,-3.096004962921142578e+00,-5.655696988105773926e-01
3.415039539337158203e+00,-3.100079774856567383e+00,-4.035203158855438232e-01
3.419506549835205078e+00,-3.104134798049926758e+00,-2.420344054698944092e-01
3.423914670944213867e+00,-3.108136415481567383e+00,-8.071649819612503052e-02
3.428281784057617188e+00,-3.112100839614868164e+00,8.081944286823272705e-02
3.432669162750244141e+00,-3.116083383560180664e+00,2.429660409688949585e-01
3.437518596649169922e+00,-3.120485782623291016e+00,4.061764478683471680e-01
3.441808700561523438e+00,-3.124380111694335938e+00,5.707532167434692383e-01
3.446590662002563477e+00,-3.128720998764038086e+00,7.372590303421020508e-01
3.451127052307128906e+00,-3.132838964462280273e+00,9.060060381889343262e-01
3.456279993057250977e+00,-3.137516736984252930e+00,1.077682614326477051e+00
3.004681825637817383e+00,-2.650126695632934570e+00,-1.073511362075805664e+00
3.354367971420288086e+00,-2.958549737930297852e+00,-1.032596230506896973e+00
3.358414411544799805e+00,-2.962118625640869141e+00,-8.704469203948974609e-01
3.362935304641723633e+00,-2.966105937957763672e+00,-7.102100253105163574e-01
3.367716073989868164e+00,-2.970322608947753906e+00,-5.513596534729003906e-01
3.371940135955810547e+00,-2.974048376083374023e+00,-3.933574855327606201e-01
3.376240730285644531e+00,-2.977841377258300781e+00,-2.359309643507003784e-01
3.380590677261352539e+00,-2.981678009033203125e+00,-7.868099212646484375e-02
3.385004997253417969e+00,-2.985571384429931641e+00,7.878372818231582642e-02
3.389539957046508789e+00,-2.989571332931518555e+00,2.368603050708770752e-01
3.393584966659545898e+00,-2.993139028549194336e+00,3.958824872970581055e-01
3.397942543029785156e+00,-2.996982574462890625e+00,5.563083291053771973e-01
3.402890205383300781e+00,-3.001346111297607422e+00,7.186479568481445312e-01
3.407706022262573242e+00,-3.005593776702880859e+00,8.832225799560546875e-01
3.412148237228393555e+00,-3.009511947631835938e+00,1.050383090972900391e+00
3.054109096527099609e+00,-2.616968870162963867e+00,-1.077677488327026367e+00
3.311370611190795898e+00,-2.837408065795898438e+00,-1.006754755973815918e+00
3.315784692764282227e+00,-2.841190338134765625e+00,-8.487707376480102539e-01
3.319985151290893555e+00,-2.844789743423461914e+00,-6.924692392349243164e-01
3.324548006057739258e+00,-2.848699331283569336e+00,-5.375615358352661133e-01
3.328657388687133789e+00,-2.852220535278320312e+00,-3.835064768791198730e-01
3.333011150360107422e+00,-2.855951070785522461e+00,-2.300299406051635742e-01
3.337303400039672852e+00,-2.859629154205322266e+00,-7.671301066875457764e-02
3.341528892517089844e+00,-2.863249778747558594e+00,7.681012898683547974e-02
3.346060752868652344e+00,-2.867132902145385742e+00,2.309305667877197266e-01
3.350207567214965820e+00,-2.870686292648315430e+00,3.859893381595611572e-01
3.354767084121704102e+00,-2.874593019485473633e+00,5.424478054046630859e-01
3.359204292297363281e+00,-2.878395318984985352e+00,7.006493806838989258e-01
3.363329410552978516e+00,-2.881930112838745117e+00,8.609412312507629395e-01
3.368006944656372070e+00,-2.885937929153442383e+00,1.023973941802978516e+00
3.090035915374755859e+00,-2.571979522705078125e+00,-1.077254056930541992e+00
3.273802042007446289e+00,-2.724936723709106445e+00,-9.833739399909973145e-01
3.277983903884887695e+00,-2.728417396545410156e+00,-8.290128707885742188e-01
3.282557487487792969e+00,-2.732224225997924805e+00,-6.764365434646606445e-01
3.286930084228515625e+00,-2.735863924026489258e+00,-5.250932574272155762e-01
3.291164159774780273e+00,-2.739387989044189453e+00,-3.746308386325836182e-01
3.295374870300292969e+00,-2.742892742156982422e+00,-2.246998548507690430e-01
3.299613475799560547e+00,-2.746420621871948242e+00,-7.493534684181213379e-02
3.303883075714111328e+00,-2.749974489212036133e+00,7.503231614828109741e-02
3.308171033859252930e+00,-2.753543615341186523e+00,2.255723774433135986e-01
3.312400102615356445e+00,-2.757063627243041992e+00,3.770481348037719727e-01
3.316463470458984375e+00,-2.760445594787597656e+00,5.298112630844116211e-01
3.321032285690307617e+00,-2.764248609542846680e+00,6.843650341033935547e-01
3.325383424758911133e+00,-2.767870187759399414e+00,8.410003781318664551e-01
3.330379009246826172e+00,-2.772028207778930664e+00,1.000368356704711914e+00
3.123414278030395508e+00,-2.524973392486572266e+00,-1.076180696487426758e+00
3.230897903442382812e+00,-2.611863136291503906e+00,-9.591587781906127930e-01
3.235464572906494141e+00,-2.615554809570312500e+00,-8.087086677551269531e-01
3.239735126495361328e+00,-2.619007349014282227e+00,-6.598196029663085938e-01
3.243898868560791016e+00,-2.622373104095458984e+00,-5.121701359748840332e-01
3.248024940490722656e+00,-2.625708580017089844e+00,-3.654048740863800049e-01
3.252293348312377930e+00,-2.629159212112426758e+00,-2.191738188266754150e-01
3.256475210189819336e+00,-2.632539987564086914e+00,-7.309243828058242798e-02
3.260551452636718750e+00,-2.635835170745849609e+00,7.318393141031265259e-02
3.264832258224487305e+00,-2.639295816421508789e+00,2.200188040733337402e-01
3.269151687622070312e+00,-2.642787456512451172e+00,3.677816390991210938e-01
3.273407697677612305e+00,-2.646228075027465820e+00,5.168291926383972168e-01
3.277446269989013672e+00,-2.649492979049682617e+00,6.675000190734863281e-01
3.282046079635620117e+00,-2.653211355209350586e+00,8.203517794609069824e-01
3.286296844482421875e+00,-2.656647682189941406e+00,9.756050705909729004e-01
3.161637783050537109e+00,-2.481901168823242188e+00,-1.077000379562377930e+00
3.199253320693969727e+00,-2.511429309844970703e+00,-9.389965534210205078e-01
3.203504085540771484e+00,-2.514766454696655273e+00,-7.916420102119445801e-01
3.207537412643432617e+00,-2.517932415008544922e+00,-6.458557248115539551e-01
3.211555480957031250e+00,-2.521086692810058594e+00,-5.013147592544555664e-01
3.215828657150268555e+00,-2.524441003799438477e+00,-3.576810657978057861e-01
3.219971656799316406e+00,-2.527693510055541992e+00,-2.145354747772216797e-01
3.224109649658203125e+00,-2.530941724777221680e+00,-7.154554128646850586e-02
3.228223800659179688e+00,-2.534171581268310547e+00,7.163684070110321045e-02
3.232251405715942383e+00,-2.537333011627197266e+00,2.153536230325698853e-01
3.236633777618408203e+00,-2.540773153305053711e+00,3.599951267242431641e-01
3.241034746170043945e+00,-2.544228076934814453e+00,5.059163570404052734e-01
3.245304107666015625e+00,-2.547579526901245117e+00,6.534602642059326172e-01
3.249260902404785156e+00,-2.550685644149780273e+00,8.029493093490600586e-01
3.253775835037231445e+00,-2.554229736328125000e+00,9.549991488456726074e-01
3.157236337661743164e+00,-2.406218290328979492e+00,-1.063659787178039551e+00
3.161606073379516602e+00,-2.409548521041870117e+00,-9.177302122116088867e-01
3.165648698806762695e+00,-2.412629604339599609e+00,-7.736742496490478516e-01
3.170070648193359375e+00,-2.415999650955200195e+00,-6.312838196754455566e-01
3.174283742904663086e+00,-2.419210672378540039e+00,-4.900413155555725098e-01
3.178111553192138672e+00,-2.422127962112426758e+00,-3.495941162109375000e-01
3.182262659072875977e+00,-2.425291538238525391e+00,-2.096886783838272095e-01
3.186332941055297852e+00,-2.428393602371215820e+00,-6.992875784635543823e-02
3.190339803695678711e+00,-2.431447505950927734e+00,7.001669704914093018e-02
3.194726705551147461e+00,-2.434790849685668945e+00,2.105099707841873169e-01
3.198796749114990234e+00,-2.437892675399780273e+00,3.518694937229156494e-01
3.202681779861450195e+00,-2.440853595733642578e+00,4.944253563880920410e-01
3.207060098648071289e+00,-2.444190502166748047e+00,6.386498212814331055e-01
3.211212635040283203e+00,-2.447355270385742188e+00,7.848099470138549805e-01
3.216014146804809570e+00,-2.451014518737792969e+00,9.335234165191650391e-01
3.124860286712646484e+00,-2.311599493026733398e+00,-1.041498780250549316e+00
3.129774570465087891e+00,-2.315234899520874023e+00,-8.987789750099182129e-01
3.133513450622558594e+00,-2.318000793457031250e+00,-7.576342225074768066e-01
3.137717247009277344e+00,-2.321110486984252930e+00,-6.181616783142089844e-01
3.141786336898803711e+00,-2.324120521545410156e+00,-4.798396527767181396e-01
3.145772218704223633e+00,-2.327069044113159180e+00,-3.423377573490142822e-01
3.149798393249511719e+00,-2.330047369003295898e+00,-2.053308784961700439e-01
3.153826475143432617e+00,-2.333027124404907227e+00,-6.847546994686126709e-02
3.157882928848266602e+00,-2.336027860641479492e+00,6.856354326009750366e-02
3.161996126174926758e+00,-2.339070558547973633e+00,2.061260342597961426e-01
3.166118860244750977e+00,-2.342120409011840820e+00,3.445519804954528809e-01
3.170138120651245117e+00,-2.345093488693237305e+00,4.841697812080383301e-01
3.174733400344848633e+00,-2.348492860794067383e+00,6.254541873931884766e-01
3.178225755691528320e+00,-2.351076364517211914e+00,7.684448957443237305e-01
3.183268070220947266e+00,-2.354806423187255859e+00,9.141407012939453125e-01
3.093339443206787109e+00,-2.220494508743286133e+00,-1.020295500755310059e+00
3.097091674804687500e+00,-2.223187923431396484e+00,-8.801650404930114746e-01
3.101328849792480469e+00,-2.226229667663574219e+00,-7.420719861984252930e-01
3.105316400527954102e+00,-2.229091882705688477e+00,-6.054305434226989746e-01
3.109248876571655273e+00,-2.231914758682250977e+00,-4.699430465698242188e-01
3.113397359848022461e+00,-2.234892606735229492e+00,-3.352990150451660156e-01
3.117298603057861328e+00,-2.237693071365356445e+00,-2.011037319898605347e-01
3.121284246444702148e+00,-2.240554094314575195e+00,-6.706574559211730957e-02
3.125375747680664062e+00,-2.243491172790527344e+00,6.715365499258041382e-02
3.129225492477416992e+00,-2.246254444122314453e+00,2.018731534481048584e-01
3.133395195007324219e+00,-2.249247789382934570e+00,3.374527096748352051e-01
3.137544155120849609e+00,-2.252226114273071289e+00,4.742196798324584961e-01
3.141528606414794922e+00,-2.255086183547973633e+00,6.124906539916992188e-01
3.146127462387084961e+00,-2.258387327194213867e+00,7.527911663055419922e-01
3.150442123413085938e+00,-2.261484384536743164e+00,8.953266739845275879e-01
3.060881137847900391e+00,-2.131482839584350586e+00,-9.994242191314697266e-01
3.065196990966796875e+00,-2.134488344192504883e+00,-8.623299002647399902e-01
3.069142818450927734e+00,-2.137236118316650391e+00,-7.269764542579650879e-01
3.072921991348266602e+00,-2.139867782592773438e+00,-5.930824279785156250e-01
3.077089071273803711e+00,-2.142769575119018555e+00,-4.603994786739349365e-01
3.080822467803955078e+00,-2.145369291305541992e+00,-3.284501433372497559e-01
3.084818363189697266e+00,-2.148151874542236328e+00,-1.970045864582061768e-01
3.088759899139404297e+00,-2.150896549224853516e+00,-6.569867581129074097e-02
3.092656135559082031e+00,-2.153609752655029297e+00,6.578154861927032471e-02
3.096851587295532227e+00,-2.156531333923339844e+00,1.977730691432952881e-01
3.100684404373168945e+00,-2.159200429916381836e+00,3.305676281452178955e-01
3.104954957962036133e+00,-2.162174224853515625e+00,4.645688235759735107e-01
3.109139204025268555e+00,-2.165087938308715820e+00,6.000723838806152344e-01
3.113061428070068359e+00,-2.167819261550903320e+00,7.373793125152587891e-01
3.117594480514526367e+00,-2.170975923538208008e+00,8.770709037780761719e-01
3.033063411712646484e+00,-2.048281908035278320e+00,-9.806680679321289062e-01
3.037201404571533203e+00,-2.051076412200927734e+00,-8.461080193519592285e-01
3.041698455810546875e+00,-2.054113388061523438e+00,-7.134385108947753906e-01
3.045302867889404297e+00,-2.056547641754150391e+00,-5.820109248161315918e-01
3.049365997314453125e+00,-2.059291362762451172e+00,-4.517950117588043213e-01
3.053285121917724609e+00,-2.061938285827636719e+00,-3.223348557949066162e-01
3.057173967361450195e+00,-2.064564466476440430e+00,-1.933321356773376465e-01
3.061078071594238281e+00,-2.067200899124145508e+00,-6.447391211986541748e-02
3.065009355545043945e+00,-2.069855690002441406e+00,6.455671042203903198e-02
3.068926095962524414e+00,-2.072500705718994141e+00,1.940753161907196045e-01
3.072788953781127930e+00,-2.075109481811523438e+00,3.243938982486724854e-01
3.077158927917480469e+00,-2.078060626983642578e+00,4.559128582477569580e-01
3.080698490142822266e+00,-2.080450773239135742e+00,5.887756347656250000e-01
3.084719419479370117e+00,-2.083166360855102539e+00,7.235292196273803711e-01
3.089430093765258789e+00,-2.086347341537475586e+00,8.606579303741455078e-01
3.006068468093872070e+00,-1.968001604080200195e+00,-9.627335667610168457e-01
3.009900808334350586e+00,-1.970510601997375488e+00,-8.305601477622985840e-01
3.013511180877685547e+00,-1.972874283790588379e+00,-7.001319527626037598e-01
3.017599105834960938e+00,-1.975550532341003418e+00,-5.712535381317138672e-01
3.021564006805419922e+00,-1.978146195411682129e+00,-4.434354305267333984e-01
3.025671958923339844e+00,-1.980835556983947754e+00,-3.163941502571105957e-01
3.029456138610839844e+00,-1.983313083648681641e+00,-1.897646337747573853e-01
3.033322811126708984e+00,-1.985844492912292480e+00,-6.328415125608444214e-02
3.037285089492797852e+00,-1.988438367843627930e+00,6.336680799722671509e-02
3.040926218032836914e+00,-1.990822315216064453e+00,1.904831081628799438e-01
3.044810295104980469e+00,-1.993365049362182617e+00,3.183954358100891113e-01
3.048599004745483398e+00,-1.995845437049865723e+00,4.474029839038848877e-01
3.052974462509155273e+00,-1.998710036277770996e+00,5.779503583908081055e-01
3.057227611541748047e+00,-2.001494407653808594e+00,7.102886438369750977e-01
3.061149597167968750e+00,-2.004061937332153320e+00,8.447018861770629883e-01
2.978091239929199219e+00,-1.889354348182678223e+00,-9.450157880783081055e-01
2.982555627822875977e+00,-1.892186641693115234e+00,-8.154574036598205566e-01
2.985932350158691406e+00,-1.894328832626342773e+00,-6.873545646667480469e-01
2.990373373031616211e+00,-1.897146344184875488e+00,-5.609014630317687988e-01
2.994096040725708008e+00,-1.899508118629455566e+00,-4.353696107864379883e-01
2.997814893722534180e+00,-1.901867389678955078e+00,-3.106026947498321533e-01
3.001710414886474609e+00,-1.904338717460632324e+00,-1.863001435995101929e-01
3.005541563034057617e+00,-1.906769275665283203e+00,-6.212877854704856873e-02
3.009303808212280273e+00,-1.909156203269958496e+00,6.220655143260955811e-02
3.013273477554321289e+00,-1.911674618721008301e+00,1.870177984237670898e-01
3.017326354980468750e+00,-1.914245724678039551e+00,3.126242756843566895e-01
3.020675182342529297e+00,-1.916370272636413574e+00,4.392344653606414795e-01
3.025204420089721680e+00,-1.919243693351745605e+00,5.674346685409545898e-01
3.028727054595947266e+00,-1.921478509902954102e+00,6.972058415412902832e-01
3.032800674438476562e+00,-1.924063086509704590e+00,8.291948437690734863e-01
2.951027631759643555e+00,-1.813477516174316406e+00,-9.280959963798522949e-01
2.954412698745727539e+00,-1.815557837486267090e+00,-8.005757927894592285e-01
2.958359479904174805e+00,-1.817983269691467285e+00,-6.749481558799743652e-01
2.962641239166259766e+00,-1.820614457130432129e+00,-5.507554411888122559e-01
2.966279983520507812e+00,-1.822850465774536133e+00,-4.274871647357940674e-01
2.970192193984985352e+00,-1.825254678726196289e+00,-3.050025999546051025e-01
2.973984241485595703e+00,-1.827585101127624512e+00,-1.829370409250259399e-01
2.977779150009155273e+00,-1.829917073249816895e+00,-6.100721284747123718e-02
2.981571912765502930e+00,-1.832247734069824219e+00,6.108491495251655579e-02
2.985255718231201172e+00,-1.834511637687683105e+00,1.836303621530532837e-01
2.989321947097778320e+00,-1.837010383605957031e+00,3.069669902324676514e-01
2.992753028869628906e+00,-1.839118957519531250e+00,4.313023984432220459e-01
2.996615409851074219e+00,-1.841492295265197754e+00,5.570712089538574219e-01
3.001167535781860352e+00,-1.844289779663085938e+00,6.847147345542907715e-01
3.005520343780517578e+00,-1.846964716911315918e+00,8.144247531890869141e-01
2.923063993453979492e+00,-1.739156603813171387e+00,-9.113792181015014648e-01
2.927099466323852539e+00,-1.741557478904724121e+00,-7.863391637802124023e-01
2.931487560272216797e+00,-1.744168400764465332e+00,-6.630536317825317383e-01
2.934968471527099609e+00,-1.746239423751831055e+00,-5.409091114997863770e-01
2.938883543014526367e+00,-1.748568773269653320e+00,-4.198889732360839844e-01
2.942631721496582031e+00,-1.750798940658569336e+00,-2.995684444904327393e-01
2.946323871612548828e+00,-1.752995610237121582e+00,-1.796737313270568848e-01
2.950081586837768555e+00,-1.755231499671936035e+00,-5.991890653967857361e-02
2.953901290893554688e+00,-1.757504105567932129e+00,5.999648571014404297e-02
2.957689285278320312e+00,-1.759757757186889648e+00,1.803668290376663208e-01
2.961374759674072266e+00,-1.761950612068176270e+00,3.014765381813049316e-01
2.965553045272827148e+00,-1.764436602592468262e+00,4.236993491649627686e-01
2.968884229660034180e+00,-1.766418576240539551e+00,5.471597313880920410e-01
2.972687482833862305e+00,-1.768681406974792480e+00,6.723724007606506348e-01
2.977173805236816406e+00,-1.771350622177124023e+00,7.997911572456359863e-01
2.900261878967285156e+00,-1.669856190681457520e+00,-8.967256546020507812e-01
2.904064655303955078e+00,-1.672045707702636719e+00,-7.736425399780273438e-01
2.908276081085205078e+00,-1.674470424652099609e+00,-6.523157358169555664e-01
2.911642789840698242e+00,-1.676408886909484863e+00,-5.321334600448608398e-01
2.915498971939086914e+00,-1.678629159927368164e+00,-4.130728244781494141e-01
2.919250965118408203e+00,-1.680789470672607422e+00,-2.947088479995727539e-01
2.922999858856201172e+00,-1.682947874069213867e+00,-1.767642796039581299e-01
2.926714658737182617e+00,-1.685086607933044434e+00,-5.894837155938148499e-02
