-1.778413727879524231e-02,-1.656889557838439941e+00,3.825445473194122314e-01
5.853588227182626724e-03,-1.635325908660888672e+00,-4.381863772869110107e-01
5.861104466021060944e-03,-1.637425780296325684e+00,-3.780313730239868164e-01
5.868086125701665878e-03,-1.639376163482666016e+00,-3.186640143394470215e-01
5.875947419553995132e-03,-1.641572356224060059e+00,-2.600007951259613037e-01
5.882639437913894653e-03,-1.643441915512084961e+00,-2.017902880907058716e-01
5.890164989978075027e-03,-1.645544409751892090e+00,-1.439671963453292847e-01
5.897650495171546936e-03,-1.647635698318481445e+00,-8.634935319423675537e-02
5.905024707317352295e-03,-1.649695754051208496e+00,-2.879568934440612793e-02
5.912318825721740723e-03,-1.651733636856079102e+00,2.883125841617584229e-02
5.919626448303461075e-03,-1.653775095939636230e+00,8.667110651731491089e-02
5.927877500653266907e-03,-1.656080245971679688e+00,1.448889523744583130e-01
5.935061722993850708e-03,-1.658087253570556641e+00,2.035885155200958252e-01
5.943315569311380386e-03,-1.660393118858337402e+00,2.629817128181457520e-01
5.951234139502048492e-03,-1.662605404853820801e+00,3.231793344020843506e-01
5.958403926342725754e-03,-1.664608359336853027e+00,3.843069970607757568e-01
2.937887795269489288e-02,-1.641843080520629883e+00,-4.400002658367156982e-01
2.941863983869552612e-02,-1.644065141677856445e+00,-3.796225190162658691e-01
2.945516631007194519e-02,-1.646106600761413574e+00,-3.200214505195617676e-01
2.949033677577972412e-02,-1.648072004318237305e+00,-2.610703706741333008e-01
2.952937036752700806e-02,-1.650253415107727051e+00,-2.026577740907669067e-01
2.956682816147804260e-02,-1.652346730232238770e+00,-1.445845365524291992e-01
2.960349060595035553e-02,-1.654395699501037598e+00,-8.671695739030838013e-02
2.964057773351669312e-02,-1.656468272209167480e+00,-2.891834639012813568e-02
2.967810258269309998e-02,-1.658565282821655273e+00,2.895495668053627014e-02
2.971509285271167755e-02,-1.660632610321044922e+00,8.704386651515960693e-02
2.975094318389892578e-02,-1.662636041641235352e+00,1.454848796129226685e-01
2.979139797389507294e-02,-1.664896845817565918e+00,2.044560462236404419e-01
2.983131818473339081e-02,-1.667127847671508789e+00,2.640889883041381836e-01
2.986898459494113922e-02,-1.669232845306396484e+00,3.245174586772918701e-01
2.990235760807991028e-02,-1.671097874641418457e+00,3.858645260334014893e-01
5.311889573931694031e-02,-1.648858904838562012e+00,-4.420389235019683838e-01
5.319511145353317261e-02,-1.651224613189697266e+00,-3.814124464988708496e-01
5.326439067721366882e-02,-1.653375029563903809e+00,-3.215498030185699463e-01
5.333006754517555237e-02,-1.655413746833801270e+00,-2.623274028301239014e-01
5.339490994811058044e-02,-1.657426476478576660e+00,-2.036116570234298706e-01
5.346494913101196289e-02,-1.659600615501403809e+00,-1.452713459730148315e-01
5.353241786360740662e-02,-1.661694884300231934e+00,-8.713078498840332031e-02
5.359947681427001953e-02,-1.663776397705078125e+00,-2.905634976923465729e-02
5.366614088416099548e-02,-1.665845870971679688e+00,2.909248881042003632e-02
5.373069643974304199e-02,-1.667849659919738770e+00,8.745351433753967285e-02
5.380143225193023682e-02,-1.670045375823974609e+00,1.461856216192245483e-01
5.387248098850250244e-02,-1.672250747680664062e+00,2.054327875375747681e-01
5.394138768315315247e-02,-1.674389719963073730e+00,2.653344571590423584e-01
5.400508642196655273e-02,-1.676366925239562988e+00,3.260212838649749756e-01
5.407942831516265869e-02,-1.678674578666687012e+00,3.877530097961425781e-01
7.710219919681549072e-02,-1.656313896179199219e+00,-4.442878663539886475e-01
7.719523459672927856e-02,-1.658312439918518066e+00,-3.832655847072601318e-01
7.730057090520858765e-02,-1.660575270652770996e+00,-3.231321871280670166e-01
7.739901542663574219e-02,-1.662690043449401855e+00,-2.636290192604064941e-01
7.749449461698532104e-02,-1.664741158485412598e+00,-2.046255469322204590e-01
7.759007066488265991e-02,-1.666794300079345703e+00,-1.459833085536956787e-01
7.768967747688293457e-02,-1.668934106826782227e+00,-8.755971491336822510e-02
7.778698205947875977e-02,-1.671024322509765625e+00,-2.919938042759895325e-02
7.788201421499252319e-02,-1.673065900802612305e+00,2.923505380749702454e-02
7.798197865486145020e-02,-1.675213336944580078e+00,8.788915723562240601e-02
7.808323949575424194e-02,-1.677388668060302734e+00,1.469111889600753784e-01
7.818316668272018433e-02,-1.679535269737243652e+00,2.064440101385116577e-01
7.827828824520111084e-02,-1.681578636169433594e+00,2.666239142417907715e-01
7.838878035545349121e-02,-1.683952212333679199e+00,3.276811242103576660e-01
7.849178463220596313e-02,-1.686165094375610352e+00,3.897028267383575439e-01
1.012938842177391052e-01,-1.663158774375915527e+00,-4.464671313762664795e-01
1.014249622821807861e-01,-1.665310978889465332e+00,-3.851791620254516602e-01
1.015697717666625977e-01,-1.667688727378845215e+00,-3.247660100460052490e-01
1.017033606767654419e-01,-1.669882059097290039e+00,-2.649730145931243896e-01
1.018307805061340332e-01,-1.671974182128906250e+00,-2.056727111339569092e-01
1.019559800624847412e-01,-1.674029827117919922e+00,-1.467297971248626709e-01
1.020817235112190247e-01,-1.676094412803649902e+00,-8.800302445888519287e-02
1.022095680236816406e-01,-1.678193569183349609e+00,-2.934721298515796661e-02
1.023398265242576599e-01,-1.680332303047180176e+00,2.938461489975452423e-02
1.024715751409530640e-01,-1.682495474815368652e+00,8.833910524845123291e-02
1.026026159524917603e-01,-1.684647083282470703e+00,1.476604044437408447e-01
1.027296259999275208e-01,-1.686732411384582520e+00,2.074881494045257568e-01
1.028480753302574158e-01,-1.688677191734313965e+00,2.679553925991058350e-01
1.029842197895050049e-01,-1.690912723541259766e+00,3.292886614799499512e-01
1.031449213624000549e-01,-1.693551182746887207e+00,3.917109966278076172e-01
1.257539540529251099e-01,-1.670402884483337402e+00,-4.488489925861358643e-01
1.259222030639648438e-01,-1.672637820243835449e+00,-3.872510194778442383e-01
1.260772794485092163e-01,-1.674697637557983398e+00,-3.264489471912384033e-01
1.262273192405700684e-01,-1.676690697669982910e+00,-2.663128077983856201e-01
1.263940185308456421e-01,-1.678905010223388672e+00,-2.067266553640365601e-01
1.265552043914794922e-01,-1.681046009063720703e+00,-1.474884301424026489e-01
1.267141848802566528e-01,-1.683157801628112793e+00,-8.846005052328109741e-02
1.268728673458099365e-01,-1.685265421867370605e+00,-2.949961647391319275e-02
1.270316094160079956e-01,-1.687374114990234375e+00,2.953652665019035339e-02
1.271892786026000977e-01,-1.689468502998352051e+00,8.879171311855316162e-02
1.273432970046997070e-01,-1.691514253616333008e+00,1.484068781137466431e-01
1.275171637535095215e-01,-1.693823695182800293e+00,2.085636258125305176e-01
1.276894956827163696e-01,-1.696112990379333496e+00,2.693977057933807373e-01
1.278529018163681030e-01,-1.698283433914184570e+00,3.310464918613433838e-01
1.279986053705215454e-01,-1.700218796730041504e+00,3.936366140842437744e-01
1.504170149564743042e-01,-1.677007317543029785e+00,-4.511559307575225830e-01
1.506317704916000366e-01,-1.679401636123657227e+00,-3.892762959003448486e-01
1.508275568485260010e-01,-1.681584358215332031e+00,-3.281785845756530762e-01
1.510138660669326782e-01,-1.683661580085754395e+00,-2.677358984947204590e-01
1.512164771556854248e-01,-1.685920476913452148e+00,-2.078357040882110596e-01
1.513982266187667847e-01,-1.687946796417236328e+00,-1.482688188552856445e-01
1.515918672084808350e-01,-1.690105676651000977e+00,-8.893013000488281250e-02
1.517816781997680664e-01,-1.692221999168395996e+00,-2.965637855231761932e-02
1.519680768251419067e-01,-1.694300174713134766e+00,2.969279885292053223e-02
1.521681994199752808e-01,-1.696531414985656738e+00,8.926823735237121582e-02
1.523492336273193359e-01,-1.698549628257751465e+00,1.492001712322235107e-01
1.525503098964691162e-01,-1.700791478157043457e+00,2.096689492464065552e-01
1.527460366487503052e-01,-1.702973604202270508e+00,2.708069086074829102e-01
1.529277414083480835e-01,-1.704999446868896484e+00,3.327482640743255615e-01
1.531382203102111816e-01,-1.707346081733703613e+00,3.957536816596984863e-01
1.754430532455444336e-01,-1.684670448303222656e+00,-4.538465738296508789e-01
1.757037937641143799e-01,-1.687174081802368164e+00,-3.916207551956176758e-01
1.759010255336761475e-01,-1.689067959785461426e+00,-3.300966322422027588e-01
1.761277914047241211e-01,-1.691245436668395996e+00,-2.693151831626892090e-01
1.763481795787811279e-01,-1.693361759185791016e+00,-2.090428024530410767e-01
1.765814870595932007e-01,-1.695602059364318848e+00,-1.491480022668838501e-01
1.767993271350860596e-01,-1.697693824768066406e+00,-8.945339918136596680e-02
1.770206838846206665e-01,-1.699819326400756836e+00,-2.983087301254272461e-02
1.772465258836746216e-01,-1.701987981796264648e+00,2.986893057823181152e-02
1.774579584598541260e-01,-1.704018354415893555e+00,8.978664129972457886e-02
1.776854842901229858e-01,-1.706203103065490723e+00,1.500804871320724487e-01
1.779103726148605347e-01,-1.708362460136413574e+00,2.108946144580841064e-01
1.781705915927886963e-01,-1.710861206054687500e+00,2.724388241767883301e-01
1.783720552921295166e-01,-1.712795734405517578e+00,3.347337841987609863e-01
1.786022186279296875e-01,-1.715005874633789062e+00,3.980809748172760010e-01
2.007475644350051880e-01,-1.692199110984802246e+00,-4.566021263599395752e-01
2.010071426630020142e-01,-1.694387197494506836e+00,-3.939225077629089355e-01
2.012493163347244263e-01,-1.696428656578063965e+00,-3.320640921592712402e-01
2.015197724103927612e-01,-1.698708534240722656e+00,-2.709351778030395508e-01
2.017778754234313965e-01,-1.700884222984313965e+00,-2.103064209222793579e-01
2.020314335823059082e-01,-1.703021526336669922e+00,-1.500396132469177246e-01
2.022858411073684692e-01,-1.705166101455688477e+00,-8.999045938253402710e-02
2.025390565395355225e-01,-1.707300543785095215e+00,-3.000996448099613190e-02
2.027922123670578003e-01,-1.709434509277343750e+00,3.004747442901134491e-02
2.030480653047561646e-01,-1.711591124534606934e+00,9.032955020666122437e-02
2.033023536205291748e-01,-1.713734745979309082e+00,1.509834825992584229e-01
2.035484760999679565e-01,-1.715809345245361328e+00,2.121518552303314209e-01
2.038293629884719849e-01,-1.718177080154418945e+00,2.740403413772583008e-01
2.040996700525283813e-01,-1.720455646514892578e+00,3.367671966552734375e-01
2.043452113866806030e-01,-1.722525477409362793e+00,4.004642665386199951e-01
2.264312654733657837e-01,-1.700307726860046387e+00,-4.596174657344818115e-01
2.267412245273590088e-01,-1.702635169029235840e+00,-3.965539336204528809e-01
2.270253300666809082e-01,-1.704768657684326172e+00,-3.342984020709991455e-01
2.272980511188507080e-01,-1.706816554069519043e+00,-2.727193534374237061e-01
2.275974452495574951e-01,-1.709064722061157227e+00,-2.116990238428115845e-01
2.278854250907897949e-01,-1.711227178573608398e+00,-1.510344594717025757e-01
2.281679809093475342e-01,-1.713348984718322754e+00,-9.058539569377899170e-02
2.284541577100753784e-01,-1.715497851371765137e+00,-3.020843677222728729e-02
2.287440299987792969e-01,-1.717674612998962402e+00,3.024676814675331116e-02
2.290305644273757935e-01,-1.719826221466064453e+00,9.092784672975540161e-02
2.293089926242828369e-01,-1.721917033195495605e+00,1.519779562950134277e-01
2.296198010444641113e-01,-1.724250912666320801e+00,2.135801166296005249e-01
2.299255281686782837e-01,-1.726546645164489746e+00,2.758718729019165039e-01
2.302129417657852173e-01,-1.728704929351806641e+00,3.389922082424163818e-01
2.305438816547393799e-01,-1.731189966201782227e+00,4.032045304775238037e-01
2.523135542869567871e-01,-1.707522511482238770e+00,-4.624966084957122803e-01
2.526130378246307373e-01,-1.709549069404602051e+00,-3.989655077457427979e-01
2.529506683349609375e-01,-1.711834073066711426e+00,-3.363594412803649902e-01
2.532693445682525635e-01,-1.713990807533264160e+00,-2.744167745113372803e-01
2.536108791828155518e-01,-1.716302156448364258e+00,-2.130233347415924072e-01
2.539158165454864502e-01,-1.718365788459777832e+00,-1.519697308540344238e-01
2.542372345924377441e-01,-1.720540881156921387e+00,-9.114868938922882080e-02
2.545560598373413086e-01,-1.722698450088500977e+00,-3.039627894759178162e-02
2.548724412918090820e-01,-1.724839448928833008e+00,3.043405711650848389e-02
2.552082538604736328e-01,-1.727112174034118652e+00,9.149681776762008667e-02
2.555104494094848633e-01,-1.729157209396362305e+00,1.529241055250167847e-01
2.558417320251464844e-01,-1.731399297714233398e+00,2.148971557617187500e-01
2.561608850955963135e-01,-1.733559131622314453e+00,2.775497436523437500e-01
2.565282881259918213e-01,-1.736045479774475098e+00,3.411167263984680176e-01
2.568730115890502930e-01,-1.738378405570983887e+00,4.056935310363769531e-01
2.786049246788024902e-01,-1.715305924415588379e+00,-4.656372666358947754e-01
2.789581716060638428e-01,-1.717480897903442383e+00,-4.017072618007659912e-01
2.792890369892120361e-01,-1.719517946243286133e+00,-3.386200368404388428e-01
2.796595096588134766e-01,-1.721798896789550781e+00,-2.762794792652130127e-01
2.800156176090240479e-01,-1.723991394042968750e+00,-2.144532054662704468e-01
2.803870737552642822e-01,-1.726278185844421387e+00,-1.530087590217590332e-01
2.807308435440063477e-01,-1.728394746780395508e+00,-9.176823496818542480e-02
2.810828387737274170e-01,-1.730561852455139160e+00,-3.060287982225418091e-02
2.814439833164215088e-01,-1.732785344123840332e+00,3.064219839870929718e-02
2.817790806293487549e-01,-1.734848499298095703e+00,9.211089462041854858e-02
2.821345329284667969e-01,-1.737036824226379395e+00,1.539623439311981201e-01
2.824814021587371826e-01,-1.739172577857971191e+00,2.163416445255279541e-01
2.828769683837890625e-01,-1.741607904434204102e+00,2.794580161571502686e-01
2.832596302032470703e-01,-1.743963837623596191e+00,3.434341251850128174e-01
2.836095988750457764e-01,-1.746118545532226562e+00,4.084054231643676758e-01
3.052089810371398926e-01,-1.722902178764343262e+00,-4.688372015953063965e-01
3.056208491325378418e-01,-1.725227117538452148e+00,-4.045007824897766113e-01
3.059998750686645508e-01,-1.727366924285888672e+00,-3.409933149814605713e-01
3.063654899597167969e-01,-1.729430675506591797e+00,-2.781791985034942627e-01
3.067676723003387451e-01,-1.731701016426086426e+00,-2.159363180398941040e-01
3.071573674678802490e-01,-1.733900785446166992e+00,-1.540582776069641113e-01
3.075427412986755371e-01,-1.736076235771179199e+00,-9.240034222602844238e-02
3.079282939434051514e-01,-1.738252758979797363e+00,-3.081366792321205139e-02
3.083150088787078857e-01,-1.740435719490051270e+00,3.085236623883247375e-02
3.087001442909240723e-01,-1.742609739303588867e+00,9.274807572364807129e-02
3.090772330760955811e-01,-1.744738459587097168e+00,1.550212204456329346e-01
3.094986677169799805e-01,-1.747117519378662109e+00,2.178587019443511963e-01
3.099151849746704102e-01,-1.749468803405761719e+00,2.814023494720458984e-01
3.103088438510894775e-01,-1.751690864562988281e+00,3.457950353622436523e-01
3.107595443725585938e-01,-1.754235029220581055e+00,4.113020598888397217e-01
3.322774171829223633e-01,-1.731077313423156738e+00,-4.723076522350311279e-01
3.327572941780090332e-01,-1.733577489852905273e+00,-4.075336158275604248e-01
3.331262767314910889e-01,-1.735499620437622070e+00,-3.435048460960388184e-01
3.336014449596405029e-01,-1.737975239753723145e+00,-2.802929580211639404e-01
3.340034484863281250e-01,-1.740069627761840820e+00,-2.175537049770355225e-01
3.344112336635589600e-01,-1.742193937301635742e+00,-1.552045196294784546e-01
3.348408043384552002e-01,-1.744431972503662109e+00,-9.309061616659164429e-02
3.352605700492858887e-01,-1.746618747711181641e+00,-3.104385733604431152e-02
3.356713950634002686e-01,-1.748759031295776367e+00,3.108190000057220459e-02
3.361080288887023926e-01,-1.751033902168273926e+00,9.344291687011718750e-02
3.365555703639984131e-01,-1.753365397453308105e+00,1.561997383832931519e-01
3.369355499744415283e-01,-1.755344986915588379e+00,2.194635272026062012e-01
3.374339938163757324e-01,-1.757941722869873047e+00,2.835130691528320312e-01
3.378304839134216309e-01,-1.760007381439208984e+00,3.483556509017944336e-01
3.382781147956848145e-01,-1.762339353561401367e+00,4.142950177192687988e-01
3.596864640712738037e-01,-1.739043593406677246e+00,-4.758371114730834961e-01
3.601553738117218018e-01,-1.741310596466064453e+00,-4.105213582515716553e-01
3.606643676757812500e-01,-1.743771672248840332e+00,-3.461284339427947998e-01
3.611361682415008545e-01,-1.746052622795104980e+00,-2.824003696441650391e-01
3.615888357162475586e-01,-1.748241305351257324e+00,-2.192000001668930054e-01
3.620365262031555176e-01,-1.750405907630920410e+00,-1.563817113637924194e-01
3.624890148639678955e-01,-1.752593636512756348e+00,-9.379342943429946899e-02
3.629433810710906982e-01,-1.754790306091308594e+00,-3.127822652459144592e-02
3.634015023708343506e-01,-1.757005333900451660e+00,3.131770715117454529e-02
3.638678193092346191e-01,-1.759259939193725586e+00,9.415018558502197266e-02
3.643345832824707031e-01,-1.761516690254211426e+00,1.573743522167205811e-01
3.647897541522979736e-01,-1.763717412948608398e+00,2.211404442787170410e-01
3.652173280715942383e-01,-1.765784621238708496e+00,2.855917513370513916e-01
3.656985759735107422e-01,-1.768111467361450195e+00,3.509597480297088623e-01
3.662526607513427734e-01,-1.770790457725524902e+00,4.174713492393493652e-01
3.875406682491302490e-01,-1.747251629829406738e+00,-4.795516729354858398e-01
3.879784643650054932e-01,-1.749225497245788574e+00,-4.136541485786437988e-01
3.885525763034820557e-01,-1.751814007759094238e+00,-3.487929999828338623e-01
3.890167474746704102e-01,-1.753906726837158203e+00,-2.845420837402343750e-01
3.895232975482940674e-01,-1.756190538406372070e+00,-2.208731472492218018e-01
3.900126218795776367e-01,-1.758396625518798828e+00,-1.575782001018524170e-01
3.904950320720672607e-01,-1.760571599006652832e+00,-9.450983256101608276e-02
3.909853994846343994e-01,-1.762782454490661621e+00,-3.151720762252807617e-02
3.914838731288909912e-01,-1.765029907226562500e+00,3.155738860368728638e-02
3.919790089130401611e-01,-1.767262220382690430e+00,9.486898779869079590e-02
3.924625813961029053e-01,-1.769442439079284668e+00,1.585680693387985229e-01
3.929983079433441162e-01,-1.771857857704162598e+00,2.228436022996902466e-01
3.934326469898223877e-01,-1.773816108703613281e+00,2.877720594406127930e-01
3.940203487873077393e-01,-1.776465773582458496e+00,3.537012636661529541e-01
3.945808112621307373e-01,-1.778992652893066406e+00,4.206934571266174316e-01
4.158283174037933350e-01,-1.755545496940612793e+00,-4.834120571613311768e-01
4.164415299892425537e-01,-1.758134365081787109e+00,-4.171277880668640137e-01
4.169149398803710938e-01,-1.760133028030395508e+00,-3.516014814376831055e-01
4.174501001834869385e-01,-1.762392282485961914e+00,-2.868587374687194824e-01
4.180165231227874756e-01,-1.764783740043640137e+00,-2.226835787296295166e-01
4.185245037078857422e-01,-1.766928315162658691e+00,-1.588633358478546143e-01
4.190559089183807373e-01,-1.769171833992004395e+00,-9.528372436761856079e-02
4.195820391178131104e-01,-1.771392941474914551e+00,-3.177527710795402527e-02
4.201031029224395752e-01,-1.773592829704284668e+00,3.181473910808563232e-02
4.206524193286895752e-01,-1.775911927223205566e+00,9.564673900604248047e-02
4.211482405662536621e-01,-1.778005242347717285e+00,1.598592549562454224e-01
4.216854870319366455e-01,-1.780273318290710449e+00,2.246381044387817383e-01
4.222977161407470703e-01,-1.782858133316040039e+00,2.901898622512817383e-01
4.227820336818695068e-01,-1.784902691841125488e+00,3.565494418144226074e-01
4.233218133449554443e-01,-1.787181615829467773e+00,4.240193963050842285e-01
4.445981085300445557e-01,-1.764043569564819336e+00,-4.874545037746429443e-01
4.451851248741149902e-01,-1.766372680664062500e+00,-4.205510914325714111e-01
4.457280635833740234e-01,-1.768526792526245117e+00,-3.545163571834564209e-01
4.463214278221130371e-01,-1.770881056785583496e+00,-2.892506122589111328e-01
4.468863606452941895e-01,-1.773122668266296387e+00,-2.245199233293533325e-01
4.474401175975799561e-01,-1.775319814682006836e+00,-1.601772159337997437e-01
4.479947984218597412e-01,-1.777520537376403809e+00,-9.606888890266418457e-02
4.485571682453155518e-01,-1.779751896858215332e+00,-3.203710913658142090e-02
4.491285979747772217e-01,-1.782019257545471191e+00,3.207792341709136963e-02
4.497050642967224121e-01,-1.784306526184082031e+00,9.643564373254776001e-02
4.502769708633422852e-01,-1.786575675010681152e+00,1.611927747726440430e-01
4.508297741413116455e-01,-1.788769006729125977e+00,2.265011370182037354e-01
4.514468014240264893e-01,-1.791217207908630371e+00,2.925722599029541016e-01
4.520351588726043701e-01,-1.793551564216613770e+00,3.595327734947204590e-01
4.525636136531829834e-01,-1.795648455619812012e+00,4.275213181972503662e-01
4.739653468132019043e-01,-1.773083806037902832e+00,-4.917768537998199463e-01
4.745269715785980225e-01,-1.775184750556945801e+00,-4.242228269577026367e-01
4.751497805118560791e-01,-1.777514696121215820e+00,-3.576447367668151855e-01
4.757407307624816895e-01,-1.779725432395935059e+00,-2.917775511741638184e-01
4.763727784156799316e-01,-1.782089829444885254e+00,-2.264955788850784302e-01
4.769472181797027588e-01,-1.784238815307617188e+00,-1.615813225507736206e-01
4.775550663471221924e-01,-1.786512851715087891e+00,-9.691439568996429443e-02
4.781544804573059082e-01,-1.788755178451538086e+00,-3.231906145811080933e-02
4.787467420101165771e-01,-1.790970802307128906e+00,3.235909342765808105e-02
4.793781042098999023e-01,-1.793332695960998535e+00,9.728435426950454712e-02
4.799574911594390869e-01,-1.795500159263610840e+00,1.626011431217193604e-01
4.805897474288940430e-01,-1.797865390777587891e+00,2.285005897283554077e-01
4.812026023864746094e-01,-1.800158023834228516e+00,2.951273918151855469e-01
4.818958640098571777e-01,-1.802751421928405762e+00,3.627225160598754883e-01
4.825457334518432617e-01,-1.805182576179504395e+00,4.313915371894836426e-01
5.036006569862365723e-01,-1.781355381011962891e+00,-4.960194528102874756e-01
5.042626261711120605e-01,-1.783697009086608887e+00,-4.279380440711975098e-01
5.049712061882019043e-01,-1.786203384399414062e+00,-3.608102798461914062e-01
5.056288838386535645e-01,-1.788529753684997559e+00,-2.943773567676544189e-01
5.062604546546936035e-01,-1.790763735771179199e+00,-2.284955680370330811e-01
5.068857669830322266e-01,-1.792975544929504395e+00,-1.630128622055053711e-01
5.075185894966125488e-01,-1.795213937759399414e+00,-9.777047485113143921e-02
5.081554651260375977e-01,-1.797466754913330078e+00,-3.260454162955284119e-02
5.087991356849670410e-01,-1.799743771553039551e+00,3.264584392309188843e-02
5.094550848007202148e-01,-1.802063822746276855e+00,9.814353287220001221e-02
5.101123452186584473e-01,-1.804388761520385742e+00,1.640505343675613403e-01
5.107541680335998535e-01,-1.806659102439880371e+00,2.305237650871276855e-01
5.113579034805297852e-01,-1.808794736862182617e+00,2.977128028869628906e-01
5.120281577110290527e-01,-1.811165452003479004e+00,3.658525943756103516e-01
5.127876400947570801e-01,-1.813851952552795410e+00,4.351727068424224854e-01
5.340064764022827148e-01,-1.790606021881103516e+00,-5.006723999977111816e-01
5.347635149955749512e-01,-1.793144345283508301e+00,-4.319967627525329590e-01
5.354537963867187500e-01,-1.795459151268005371e+00,-3.641907572746276855e-01
5.361122488975524902e-01,-1.797666907310485840e+00,-2.971138358116149902e-01
5.368194580078125000e-01,-1.800038456916809082e+00,-2.306357920169830322e-01
5.375005602836608887e-01,-1.802322149276733398e+00,-1.645452529191970825e-01
5.381695628166198730e-01,-1.804565310478210449e+00,-9.868917614221572876e-02
5.388461351394653320e-01,-1.806833982467651367e+00,-3.291098400950431824e-02
5.395305156707763672e-01,-1.809128880500793457e+00,3.295278549194335938e-02
5.402076840400695801e-01,-1.811399459838867188e+00,9.906292706727981567e-02
5.408664345741271973e-01,-1.813608527183532715e+00,1.655756533145904541e-01
5.415874123573303223e-01,-1.816025972366333008e+00,2.326842397451400757e-01
5.422905683517456055e-01,-1.818383932113647461e+00,3.005378842353820801e-01
5.429452061653137207e-01,-1.820578932762145996e+00,3.692860603332519531e-01
5.436729788780212402e-01,-1.823019266128540039e+00,4.391941130161285400e-01
5.648277401924133301e-01,-1.799502253532409668e+00,-5.053686499595642090e-01
5.655660033226013184e-01,-1.801854252815246582e+00,-4.360007345676422119e-01
5.663559436798095703e-01,-1.804370999336242676e+00,-3.676051199436187744e-01
5.670908689498901367e-01,-1.806712388992309570e+00,-2.999196946620941162e-01
5.678005218505859375e-01,-1.808973193168640137e+00,-2.327980697154998779e-01
5.685064792633056641e-01,-1.811222434043884277e+00,-1.660837084054946899e-01
5.692349672317504883e-01,-1.813543438911437988e+00,-9.961555898189544678e-02
5.699504017829895020e-01,-1.815822720527648926e+00,-3.321990370750427246e-02
5.706532001495361328e-01,-1.818061590194702148e+00,3.326086699962615967e-02
5.713849663734436035e-01,-1.820393085479736328e+00,9.999180585145950317e-02
5.721217393875122070e-01,-1.822740435600280762e+00,1.671398729085922241e-01
5.728446245193481445e-01,-1.825043439865112305e+00,2.348661422729492188e-01
5.735281109809875488e-01,-1.827221035957336426e+00,3.033241927623748779e-01
5.742849111557006836e-01,-1.829632163047790527e+00,3.727515935897827148e-01
5.751384496688842773e-01,-1.832351446151733398e+00,4.433802366256713867e-01
5.964874625205993652e-01,-1.809321880340576172e+00,-5.104718208312988281e-01
5.971904397010803223e-01,-1.811454296112060547e+00,-4.403469264507293701e-01
5.979671478271484375e-01,-1.813810348510742188e+00,-3.712339103221893311e-01
5.987890362739562988e-01,-1.816303253173828125e+00,-3.029035627841949463e-01
5.995033383369445801e-01,-1.818469882011413574e+00,-2.351004034280776978e-01
6.002716422080993652e-01,-1.820800542831420898e+00,-1.677326709032058716e-01
6.010289788246154785e-01,-1.823097705841064453e+00,-1.006026044487953186e-01
6.017842888832092285e-01,-1.825388789176940918e+00,-3.354905918240547180e-02
6.025393009185791016e-01,-1.827678918838500977e+00,3.359115123748779297e-02
6.032887101173400879e-01,-1.829952120780944824e+00,1.009808406233787537e-01
6.041029691696166992e-01,-1.832422137260437012e+00,1.688032597303390503e-01
6.048195362091064453e-01,-1.834595561027526855e+00,2.371852099895477295e-01
6.056004762649536133e-01,-1.836964488029479980e+00,3.063492178916931152e-01
6.064786314964294434e-01,-1.839628100395202637e+00,3.765180408954620361e-01
6.073048114776611328e-01,-1.842134237289428711e+00,4.478048980236053467e-01
6.284341812133789062e-01,-1.818286299705505371e+00,-5.154860019683837891e-01
6.292507648468017578e-01,-1.820648908615112305e+00,-4.447259604930877686e-01
6.300122141838073730e-01,-1.822852015495300293e+00,-3.748917281627655029e-01
6.308421492576599121e-01,-1.825253486633300781e+00,-3.058706820011138916e-01
6.316440701484680176e-01,-1.827573537826538086e+00,-2.374219149351119995e-01
6.324775815010070801e-01,-1.829985260963439941e+00,-1.693953722715377808e-01
6.332638263702392578e-01,-1.832260251045227051e+00,-1.015979871153831482e-01
6.340595483779907227e-01,-1.834562540054321289e+00,-3.388099744915962219e-02
6.348679661750793457e-01,-1.836901545524597168e+00,3.392419219017028809e-02
6.356331110000610352e-01,-1.839115381240844727e+00,1.019781008362770081e-01
6.364411115646362305e-01,-1.841453194618225098e+00,1.704569160938262939e-01
6.372335553169250488e-01,-1.843746066093444824e+00,2.395229041576385498e-01
6.381152272224426270e-01,-1.846297144889831543e+00,3.093971312046051025e-01
6.389631628990173340e-01,-1.848750472068786621e+00,3.802180290222167969e-01
6.397329568862915039e-01,-1.850977659225463867e+00,4.521342813968658447e-01
6.611128449440002441e-01,-1.827682971954345703e+00,-5.207793712615966797e-01
6.620586514472961426e-01,-1.830297708511352539e+00,-4.493515491485595703e-01
6.629205942153930664e-01,-1.832680463790893555e+00,-3.788257241249084473e-01
6.637396216392517090e-01,-1.834944844245910645e+00,-3.090551495552062988e-01
6.646137237548828125e-01,-1.837361335754394531e+00,-2.399047166109085083e-01
6.654563546180725098e-01,-1.839690804481506348e+00,-1.711579412221908569e-01
6.662852764129638672e-01,-1.841982483863830566e+00,-1.026553735136985779e-01
6.671237945556640625e-01,-1.844300627708435059e+00,-3.423368558287620544e-02
6.679724454879760742e-01,-1.846646666526794434e+00,3.427723050117492676e-02
6.688132882118225098e-01,-1.848971247673034668e+00,1.030448675155639648e-01
6.696325540542602539e-01,-1.851236224174499512e+00,1.722320914268493652e-01
6.705224514007568359e-01,-1.853696227073669434e+00,2.420375645160675049e-01
6.713882684707641602e-01,-1.856089949607849121e+00,3.126165568828582764e-01
6.721919178962707520e-01,-1.858311653137207031e+00,3.841238319873809814e-01
6.732565164566040039e-01,-1.861254811286926270e+00,4.569517672061920166e-01
6.947176456451416016e-01,-1.837914586067199707e+00,-5.264741778373718262e-01
6.956471800804138184e-01,-1.840373635292053223e+00,-4.542233049869537354e-01
6.965087652206420898e-01,-1.842653036117553711e+00,-3.829086422920227051e-01
6.974364519119262695e-01,-1.845107316970825195e+00,-3.124161660671234131e-01
6.983259916305541992e-01,-1.847460508346557617e+00,-2.425036430358886719e-01
6.992056965827941895e-01,-1.849787950515747070e+00,-1.730107367038726807e-01
7.001061439514160156e-01,-1.852170109748840332e+00,-1.037709861993789673e-01
7.009870409965515137e-01,-1.854500651359558105e+00,-3.460571169853210449e-02
7.018489837646484375e-01,-1.856780886650085449e+00,3.464826196432113647e-02
7.027394175529479980e-01,-1.859136462211608887e+00,1.041612923145294189e-01
7.036299109458923340e-01,-1.861492395401000977e+00,1.741054654121398926e-01
7.044974565505981445e-01,-1.863787651062011719e+00,2.446467876434326172e-01
7.054530978202819824e-01,-1.866315722465515137e+00,3.160071969032287598e-01
7.063641548156738281e-01,-1.868726134300231934e+00,3.883266746997833252e-01
7.073721885681152344e-01,-1.871392846107482910e+00,4.618791937828063965e-01
7.287847399711608887e-01,-1.847644686698913574e+00,-5.321949720382690430e-01
7.296967506408691406e-01,-1.849956870079040527e+00,-4.591193199157714844e-01
7.306753993034362793e-01,-1.852437853813171387e+00,-3.870756030082702637e-01
7.315992712974548340e-01,-1.854780197143554688e+00,-3.157947063446044922e-01
7.325709462165832520e-01,-1.857243537902832031e+00,-2.451390475034713745e-01
7.334620952606201172e-01,-1.859502792358398438e+00,-1.748833656311035156e-01
7.343973517417907715e-01,-1.861873984336853027e+00,-1.048928648233413696e-01
7.353212833404541016e-01,-1.864216446876525879e+00,-3.497982770204544067e-02
7.362359762191772461e-01,-1.866535305976867676e+00,3.502333909273147583e-02
7.372032999992370605e-01,-1.868987679481506348e+00,1.052936315536499023e-01
7.380981445312500000e-01,-1.871256470680236816e+00,1.759887784719467163e-01
7.390595078468322754e-01,-1.873693585395812988e+00,2.473103106021881104e-01
7.399857044219970703e-01,-1.876041769981384277e+00,3.194147050380706787e-01
7.410067319869995117e-01,-1.878630399703979492e+00,3.925486505031585693e-01
7.419497966766357422e-01,-1.881021142005920410e+00,4.668288230895996094e-01
7.640112638473510742e-01,-1.858572602272033691e+00,-5.384374260902404785e-01
7.650704979896545410e-01,-1.861149430274963379e+00,-4.645672440528869629e-01
7.660416960716247559e-01,-1.863512039184570312e+00,-3.916406333446502686e-01
7.669737935066223145e-01,-1.865779519081115723e+00,-3.195038437843322754e-01
7.679734230041503906e-01,-1.868211269378662109e+00,-2.480121850967407227e-01
7.689507007598876953e-01,-1.870588541030883789e+00,-1.769429743289947510e-01
7.699251174926757812e-01,-1.872959136962890625e+00,-1.061273515224456787e-01
7.708935737609863281e-01,-1.875314950942993164e+00,-3.539149835705757141e-02
7.718599438667297363e-01,-1.877665758132934570e+00,3.543586283922195435e-02
7.728303670883178711e-01,-1.880026578903198242e+00,1.065278127789497375e-01
7.737889885902404785e-01,-1.882358551025390625e+00,1.780563145875930786e-01
7.748349905014038086e-01,-1.884903073310852051e+00,2.502280771732330322e-01
7.758629322052001953e-01,-1.887403607368469238e+00,3.232068419456481934e-01
7.768282890319824219e-01,-1.889752149581909180e+00,3.971552848815917969e-01
7.778798937797546387e-01,-1.892310261726379395e+00,4.723453819751739502e-01
7.997248172760009766e-01,-1.868929028511047363e+00,-5.446981191635131836e-01
8.007887601852416992e-01,-1.871415376663208008e+00,-4.699427187442779541e-01
8.019033670425415039e-01,-1.874020218849182129e+00,-3.962207138538360596e-01
8.029413223266601562e-01,-1.876445889472961426e+00,-3.232653737068176270e-01
8.039422035217285156e-01,-1.878785014152526855e+00,-2.509177923202514648e-01
8.049393296241760254e-01,-1.881115078926086426e+00,-1.790101975202560425e-01
8.059670925140380859e-01,-1.883517026901245117e+00,-1.073682680726051331e-01
8.069823980331420898e-01,-1.885889768600463867e+00,-3.580538928508758545e-02
8.079859614372253418e-01,-1.888235092163085938e+00,3.584991768002510071e-02
8.090292215347290039e-01,-1.890673160552978516e+00,1.077761948108673096e-01
8.100801110267639160e-01,-1.893128991127014160e+00,1.801534742116928101e-01
8.111117482185363770e-01,-1.895539999008178711e+00,2.531554698944091797e-01
8.120881915092468262e-01,-1.897821784019470215e+00,3.269478976726531982e-01
8.131453990936279297e-01,-1.900292515754699707e+00,4.017754197120666504e-01
8.143069744110107422e-01,-1.903006911277770996e+00,4.778758585453033447e-01
8.364714384078979492e-01,-1.879947423934936523e+00,-5.513424277305603027e-01
8.375244140625000000e-01,-1.882314085960388184e+00,-4.756411612033843994e-01
8.386435508728027344e-01,-1.884829163551330566e+00,-4.010029137134552002e-01
8.396998047828674316e-01,-1.887203216552734375e+00,-3.271556496620178223e-01
8.408079743385314941e-01,-1.889693617820739746e+00,-2.539559602737426758e-01
8.418278098106384277e-01,-1.891985774040222168e+00,-1.811727732419967651e-01
8.428987264633178711e-01,-1.894392609596252441e+00,-1.086648330092430115e-01
8.439603447914123535e-01,-1.896778583526611328e+00,-3.623776137828826904e-02
8.450152873992919922e-01,-1.899149417877197266e+00,3.628305718302726746e-02
8.461297154426574707e-01,-1.901654124259948730e+00,1.090813651680946350e-01
8.471674323081970215e-01,-1.903986334800720215e+00,1.823219209909439087e-01
8.482773303985595703e-01,-1.906480908393859863e+00,2.562120258808135986e-01
8.493471741676330566e-01,-1.908885240554809570e+00,3.309143483638763428e-01
8.505151271820068359e-01,-1.911510348320007324e+00,4.066793918609619141e-01
8.515905737876892090e-01,-1.913927316665649414e+00,4.836294949054718018e-01
8.739129304885864258e-01,-1.890763282775878906e+00,-5.581257939338684082e-01
8.751513361930847168e-01,-1.893442630767822266e+00,-4.815692007541656494e-01
8.762841224670410156e-01,-1.895893454551696777e+00,-4.059837758541107178e-01
8.774693012237548828e-01,-1.898457765579223633e+00,-3.312500119209289551e-01
8.785179853439331055e-01,-1.900726556777954102e+00,-2.571022510528564453e-01
8.796394467353820801e-01,-1.903153061866760254e+00,-1.834289878606796265e-01
8.807567358016967773e-01,-1.905570268630981445e+00,-1.100178658962249756e-01
8.818656206130981445e-01,-1.907969355583190918e+00,-3.668895736336708069e-02
8.829711675643920898e-01,-1.910361289978027344e+00,3.673495352268218994e-02
8.840792775154113770e-01,-1.912758708000183105e+00,1.104328930377960205e-01
8.852770924568176270e-01,-1.915350317955017090e+00,1.846045851707458496e-01
8.863538503646850586e-01,-1.917680025100708008e+00,2.593954503536224365e-01
8.875101208686828613e-01,-1.920181632041931152e+00,3.350405097007751465e-01
8.885897994041442871e-01,-1.922517538070678711e+00,4.116850197315216064e-01
8.899678587913513184e-01,-1.925499081611633301e+00,4.897223114967346191e-01
9.124327898025512695e-01,-1.902137756347656250e+00,-5.652806162834167480e-01
9.136867523193359375e-01,-1.904751896858215332e+00,-4.877218008041381836e-01
9.148436188697814941e-01,-1.907163619995117188e+00,-4.111590683460235596e-01
9.160662293434143066e-01,-1.909712314605712891e+00,-3.354672491550445557e-01
9.172382354736328125e-01,-1.912155747413635254e+00,-2.603974342346191406e-01
9.183943867683410645e-01,-1.914565920829772949e+00,-1.857769340276718140e-01
9.195754528045654297e-01,-1.917028069496154785e+00,-1.114278882741928101e-01
9.207351207733154297e-01,-1.919445514678955078e+00,-3.715924918651580811e-02
9.218739867210388184e-01,-1.921819686889648438e+00,3.720521181821823120e-02
9.230472445487976074e-01,-1.924265623092651367e+00,1.118485778570175171e-01
9.242193698883056641e-01,-1.926709175109863281e+00,1.869552284479141235e-01
9.253599643707275391e-01,-1.929086923599243164e+00,2.627031207084655762e-01
9.265948534011840820e-01,-1.931661248207092285e+00,3.393228948116302490e-01
9.277629852294921875e-01,-1.934096455574035645e+00,4.169654250144958496e-01
9.290235042572021484e-01,-1.936724185943603516e+00,4.959084689617156982e-01
9.520570635795593262e-01,-1.914002656936645508e+00,-5.727977156639099121e-01
9.533111453056335449e-01,-1.916523814201354980e+00,-4.941793680191040039e-01
9.544739127159118652e-01,-1.918861508369445801e+00,-4.165836274623870850e-01
9.557138681411743164e-01,-1.921354293823242188e+00,-3.398805260658264160e-01
9.569132924079895020e-01,-1.923765659332275391e+00,-2.638166546821594238e-01
9.581549167633056641e-01,-1.926261782646179199e+00,-1.882233023643493652e-01
9.593434929847717285e-01,-1.928651332855224609e+00,-1.128900796175003052e-01
9.605530500411987305e-01,-1.931082844734191895e+00,-3.764685243368148804e-02
9.617884755134582520e-01,-1.933566570281982422e+00,3.769527375698089600e-02
9.629763364791870117e-01,-1.935954689979553223e+00,1.133175715804100037e-01
9.642239809036254883e-01,-1.938462853431701660e+00,1.894155293703079224e-01
9.654514789581298828e-01,-1.940930604934692383e+00,2.661705911159515381e-01
9.667860865592956543e-01,-1.943613648414611816e+00,3.438181281089782715e-01
9.680614471435546875e-01,-1.946177721023559570e+00,4.225139617919921875e-01
9.692107439041137695e-01,-1.948488235473632812e+00,5.024214386940002441e-01
9.924106597900390625e-01,-1.925516366958618164e+00,-5.804349780082702637e-01
9.937064051628112793e-01,-1.928030371665954590e+00,-5.007625818252563477e-01
9.950552582740783691e-01,-1.930647492408752441e+00,-4.221912026405334473e-01
9.963216185569763184e-01,-1.933104634284973145e+00,-3.444465100765228271e-01
9.975559115409851074e-01,-1.935499429702758789e+00,-2.673564851284027100e-01
9.988445043563842773e-01,-1.937999486923217773e+00,-1.907477229833602905e-01
1.000103116035461426e+00,-1.940441608428955078e+00,-1.144063845276832581e-01
1.001365900039672852e+00,-1.942891716957092285e+00,-3.815258666872978210e-02
1.002632498741149902e+00,-1.945349216461181641e+00,3.820084407925605774e-02
1.003879189491271973e+00,-1.947768092155456543e+00,1.148383468389511108e-01
1.005197525024414062e+00,-1.950325965881347656e+00,1.919609606266021729e-01
1.006505250930786133e+00,-1.952863335609436035e+00,2.697550058364868164e-01
1.007757306098937988e+00,-1.955292463302612305e+00,3.483999967575073242e-01
1.009099960327148438e+00,-1.957897543907165527e+00,4.281501770019531250e-01
1.010552644729614258e+00,-1.960716128349304199e+00,5.092519521713256836e-01
1.034333229064941406e+00,-1.938223838806152344e+00,-5.886681079864501953e-01
1.035667538642883301e+00,-1.940724134445190430e+00,-5.078576803207397461e-01
1.037058353424072266e+00,-1.943330287933349609e+00,-4.281668365001678467e-01
1.038368701934814453e+00,-1.945785880088806152e+00,-3.493185937404632568e-01
1.039652109146118164e+00,-1.948190808296203613e+00,-2.711373865604400635e-01
1.040996789932250977e+00,-1.950710535049438477e+00,-1.934455484151840210e-01
1.042318224906921387e+00,-1.953186750411987305e+00,-1.160255596041679382e-01
1.043634057044982910e+00,-1.955652475357055664e+00,-3.869254514575004578e-02
1.044945836067199707e+00,-1.958110690116882324e+00,3.874118253588676453e-02
1.046244740486145020e+00,-1.960544824600219727e+00,1.164626479148864746e-01
1.047623515129089355e+00,-1.963128328323364258e+00,1.946769803762435913e-01
1.048997282981872559e+00,-1.965702533721923828e+00,2.735745608806610107e-01
1.050318837165832520e+00,-1.968179106712341309e+00,3.533387482166290283e-01
1.051736116409301758e+00,-1.970834970474243164e+00,4.342268109321594238e-01
1.053030133247375488e+00,-1.973259687423706055e+00,5.163717269897460938e-01
1.077211737632751465e+00,-1.950829982757568359e+00,-5.971184968948364258e-01
1.078599810600280762e+00,-1.953343749046325684e+00,-5.151472687721252441e-01
1.080045342445373535e+00,-1.955961585044860840e+00,-4.343113899230957031e-01
1.081410765647888184e+00,-1.958434343338012695e+00,-3.543318510055541992e-01
1.082832574844360352e+00,-1.961009383201599121e+00,-2.750502824783325195e-01
1.084207415580749512e+00,-1.963499188423156738e+00,-1.962326020002365112e-01
1.085547327995300293e+00,-1.965925693511962891e+00,-1.176932379603385925e-01
1.086917281150817871e+00,-1.968406558036804199e+00,-3.924867138266563416e-02
1.088323712348937988e+00,-1.970953822135925293e+00,3.929945826530456543e-02
1.089704036712646484e+00,-1.973453402519226074e+00,1.181439012289047241e-01
1.091053247451782227e+00,-1.975896954536437988e+00,1.974716484546661377e-01
1.092484831809997559e+00,-1.978489518165588379e+00,2.775020301342010498e-01
1.093865633010864258e+00,-1.980990171432495117e+00,3.584127724170684814e-01
1.095344781875610352e+00,-1.983668684959411621e+00,4.404636323451995850e-01
1.096697092056274414e+00,-1.986117959022521973e+00,5.237907171249389648e-01
1.121042728424072266e+00,-1.963270664215087891e+00,-6.057757139205932617e-01
1.122679352760314941e+00,-1.966136693954467773e+00,-5.227054953575134277e-01
1.124015092849731445e+00,-1.968475937843322754e+00,-4.406174123287200928e-01
1.125561714172363281e+00,-1.971184730529785156e+00,-3.595167398452758789e-01
1.126936316490173340e+00,-1.973591804504394531e+00,-2.790489494800567627e-01
1.128379702568054199e+00,-1.976119637489318848e+00,-1.990876495838165283e-01
1.129806637763977051e+00,-1.978618741035461426e+00,-1.194090321660041809e-01
1.131233334541320801e+00,-1.981117248535156250e+00,-3.982088714838027954e-02
1.132664799690246582e+00,-1.983624100685119629e+00,3.987127542495727539e-02
1.134090065956115723e+00,-1.986120223999023438e+00,1.198617368936538696e-01
1.135604381561279297e+00,-1.988772153854370117e+00,2.003623396158218384e-01
1.136966466903686523e+00,-1.991157770156860352e+00,2.815326154232025146e-01
1.138578414916992188e+00,-1.993980646133422852e+00,3.636744022369384766e-01
1.139922499656677246e+00,-1.996334552764892578e+00,4.468531906604766846e-01
1.141562342643737793e+00,-1.999206304550170898e+00,5.314971804618835449e-01
1.166886687278747559e+00,-1.977289676666259766e+00,-6.151918768882751465e-01
1.168521285057067871e+00,-1.980059385299682617e+00,-5.307990908622741699e-01
1.170018315315246582e+00,-1.982596158981323242e+00,-4.474807977676391602e-01
1.171452045440673828e+00,-1.985025763511657715e+00,-3.650619089603424072e-01
1.172969460487365723e+00,-1.987596869468688965e+00,-2.833739519119262695e-01
1.174461960792541504e+00,-1.990125894546508789e+00,-2.021716386079788208e-01
1.175977110862731934e+00,-1.992693305015563965e+00,-1.212618276476860046e-01
1.177464604377746582e+00,-1.995213985443115234e+00,-4.043885320425033569e-02
1.178925395011901855e+00,-1.997689247131347656e+00,4.048902168869972229e-02
1.180422306060791016e+00,-2.000225782394409180e+00,1.217202022671699524e-01
1.181911587715148926e+00,-2.002749443054199219e+00,2.034540176391601562e-01
1.183513164520263672e+00,-2.005463123321533203e+00,2.859211862087249756e-01
1.185083508491516113e+00,-2.008124113082885742e+00,3.693099021911621094e-01
1.186555147171020508e+00,-2.010617733001708984e+00,4.538054168224334717e-01
1.188103795051574707e+00,-2.013242244720458984e+00,5.396944880485534668e-01
1.213899970054626465e+00,-1.991281747817993164e+00,-6.248871088027954102e-01
1.215392470359802246e+00,-1.993730068206787109e+00,-5.390721559524536133e-01
1.216975092887878418e+00,-1.996326088905334473e+00,-4.544647336006164551e-01
1.218620181083679199e+00,-1.999024629592895508e+00,-3.708063066005706787e-01
1.220189094543457031e+00,-2.001598358154296875e+00,-2.878307104110717773e-01
1.221729516983032227e+00,-2.004125356674194336e+00,-2.053492367267608643e-01
1.223274230957031250e+00,-2.006659269332885742e+00,-1.231645718216896057e-01
1.224820971488952637e+00,-2.009196519851684570e+00,-4.107336699962615967e-02
1.226376533508300781e+00,-2.011748313903808594e+00,4.112553596496582031e-02
1.227947354316711426e+00,-2.014325141906738281e+00,1.236350908875465393e-01
1.229507684707641602e+00,-2.016884803771972656e+00,2.066566050052642822e-01
1.231017470359802246e+00,-2.019361257553100586e+00,2.903850376605987549e-01
1.232626914978027344e+00,-2.022001266479492188e+00,3.750683069229125977e-01
1.234373331069946289e+00,-2.024866342544555664e+00,4.609619081020355225e-01
1.236000418663024902e+00,-2.027535200119018555e+00,5.482124686241149902e-01
1.261954903602600098e+00,-2.004971742630004883e+00,-6.347864866256713867e-01
1.263523340225219727e+00,-2.007463693618774414e+00,-5.476193428039550781e-01
1.265184998512268066e+00,-2.010103702545166016e+00,-4.616764485836029053e-01
1.266908645629882812e+00,-2.012842178344726562e+00,-3.766945004463195801e-01
1.268545746803283691e+00,-2.015443086624145508e+00,-2.924026846885681152e-01
1.270144581794738770e+00,-2.017983436584472656e+00,-2.086106091737747192e-01
1.271739721298217773e+00,-2.020517587661743164e+00,-1.251196265220642090e-01
1.273350119590759277e+00,-2.023076295852661133e+00,-4.172542318701744080e-02
1.274979472160339355e+00,-2.025665044784545898e+00,4.177881404757499695e-02
1.276616573333740234e+00,-2.028265953063964844e+00,1.255994439125061035e-01
1.278234362602233887e+00,-2.030836343765258789e+00,2.099392861127853394e-01
1.279791951179504395e+00,-2.033310890197753906e+00,2.949949502944946289e-01
1.281450152397155762e+00,-2.035945415496826172e+00,3.810181617736816406e-01
1.283250212669372559e+00,-2.038805246353149414e+00,4.682686030864715576e-01
1.284922599792480469e+00,-2.041462421417236328e+00,5.568939447402954102e-01
1.311732530593872070e+00,-2.019360065460205078e+00,-6.452202796936035156e-01
1.313624262809753418e+00,-2.022272109985351562e+00,-5.567311644554138184e-01
1.315160155296325684e+00,-2.024636745452880859e+00,-4.692898690700531006e-01
1.316979050636291504e+00,-2.027436733245849609e+00,-3.829143345355987549e-01
1.318696141242980957e+00,-2.030080080032348633e+00,-2.972342073917388916e-01
1.320299983024597168e+00,-2.032549142837524414e+00,-2.120482474565505981e-01
1.321992158889770508e+00,-2.035154104232788086e+00,-1.271847039461135864e-01
1.323665261268615723e+00,-2.037729978561401367e+00,-4.241406545042991638e-02
1.325326561927795410e+00,-2.040287256240844727e+00,4.246729984879493713e-02
1.327091574668884277e+00,-2.043004512786865234e+00,1.276753097772598267e-01
1.328759431838989258e+00,-2.045572042465209961e+00,2.134068757295608521e-01
1.330352544784545898e+00,-2.048024654388427734e+00,2.998615503311157227e-01
1.332275748252868652e+00,-2.050985336303710938e+00,3.873619139194488525e-01
1.333880066871643066e+00,-2.053455114364624023e+00,4.759697020053863525e-01
1.335575938224792480e+00,-2.056065797805786133e+00,5.660345554351806641e-01
1.363600254058837891e+00,-2.034852266311645508e+00,-6.563394069671630859e-01
1.365351438522338867e+00,-2.037465572357177734e+00,-5.662360191345214844e-01
1.367191910743713379e+00,-2.040212154388427734e+00,-4.773871302604675293e-01
1.368927717208862305e+00,-2.042802333831787109e+00,-3.894771635532379150e-01
1.370629191398620605e+00,-2.045341491699218750e+00,-3.023101389408111572e-01
1.372415542602539062e+00,-2.048007249832153320e+00,-2.156882137060165405e-01
1.374169349670410156e+00,-2.050624370574951172e+00,-1.293674558401107788e-01
1.375911235809326172e+00,-2.053223609924316406e+00,-4.314205795526504517e-02
1.377644419670104980e+00,-2.055809974670410156e+00,4.319640621542930603e-02
1.379357218742370605e+00,-2.058366060256958008e+00,1.298558413982391357e-01
1.381180286407470703e+00,-2.061086416244506836e+00,2.170656621456146240e-01
