1.156720542907714844e+01,3.494750738143920898e+00,-1.057176947593688965e+00
1.157279968261718750e+01,3.496441125869750977e+00,-6.335802674293518066e-01
1.157896900177001953e+01,3.498305082321166992e+00,-2.111343145370483398e-01
1.158418178558349609e+01,3.499879837036132812e+00,2.112293541431427002e-01
1.158967971801757812e+01,3.501540899276733398e+00,6.345043778419494629e-01
1.159352874755859375e+01,3.502703905105590820e+00,1.059582710266113281e+00
3.777848958969116211e+00,1.200651764869689941e+00,-1.062162876129150391e+00
4.496909141540527344e+00,1.429178833961486816e+00,-1.089362144470214844e+00
5.496434211730957031e+00,1.746841549873352051e+00,-1.121056199073791504e+00
7.061152935028076172e+00,2.244130373001098633e+00,-1.173497676849365234e+00
9.861059188842773438e+00,3.133978605270385742e+00,-1.270461201667785645e+00
1.127517032623291016e+01,3.583402633666992188e+00,-1.035068273544311523e+00
1.128808784484863281e+01,3.587507963180541992e+00,-6.207407116889953613e-01
1.130111789703369141e+01,3.591649055480957031e+00,-2.069841027259826660e-01
1.131422615051269531e+01,3.595815181732177734e+00,2.072241902351379395e-01
1.132766723632812500e+01,3.600086688995361328e+00,6.229172348976135254e-01
1.134119987487792969e+01,3.604387521743774414e+00,1.041129827499389648e+00
3.777793169021606445e+00,1.260441184043884277e+00,-1.067110300064086914e+00
4.461792469024658203e+00,1.488653898239135742e+00,-1.085905790328979492e+00
5.496864795684814453e+00,1.834000468254089355e+00,-1.126382827758789062e+00
7.061808586120605469e+00,2.356135845184326172e+00,-1.179090499877929688e+00
9.861750602722167969e+00,3.290322065353393555e+00,-1.276487231254577637e+00
1.123428440093994141e+01,3.748260736465454102e+00,-1.036133885383605957e+00
1.124729442596435547e+01,3.752601385116577148e+00,-6.213874816894531250e-01
1.126028156280517578e+01,3.756934404373168945e+00,-2.071998268365859985e-01
1.127320861816406250e+01,3.761247634887695312e+00,2.074377089738845825e-01
1.128632640838623047e+01,3.765624523162841797e+00,6.235439777374267578e-01
1.129940319061279297e+01,3.769987106323242188e+00,1.042139768600463867e+00
3.751163005828857422e+00,1.311511516571044922e+00,-1.064781546592712402e+00
4.459618568420410156e+00,1.559207320213317871e+00,-1.090696573257446289e+00
5.441189765930175781e+00,1.902392148971557617e+00,-1.120439171791076660e+00
7.058731079101562500e+00,2.467929840087890625e+00,-1.184353351593017578e+00
9.857263565063476562e+00,3.446375131607055664e+00,-1.282160282135009766e+00
1.119196033477783203e+01,3.913022279739379883e+00,-1.037289857864379883e+00
1.120504951477050781e+01,3.917598724365234375e+00,-6.220878362655639648e-01
1.121799087524414062e+01,3.922123193740844727e+00,-2.074334174394607544e-01
1.123074626922607422e+01,3.926582813262939453e+00,2.076692730188369751e-01
1.124356460571289062e+01,3.931064605712890625e+00,6.242261528968811035e-01
1.125621414184570312e+01,3.935487270355224609e+00,1.043244957923889160e+00
3.726505279541015625e+00,1.363050937652587891e+00,-1.063211441040039062e+00
4.424701690673828125e+00,1.618431448936462402e+00,-1.087711095809936523e+00
5.441175937652587891e+00,1.990229129791259766e+00,-1.126186966896057129e+00
6.970545291900634766e+00,2.549629449844360352e+00,-1.175559878349304199e+00
9.684870719909667969e+00,3.542453289031982422e+00,-1.266202211380004883e+00
1.115184497833251953e+01,4.079031467437744141e+00,-1.038876652717590332e+00
1.116407108306884766e+01,4.083503723144531250e+00,-6.229940056800842285e-01
1.117696666717529297e+01,4.088220596313476562e+00,-2.077355980873107910e-01
1.119042968750000000e+01,4.093144893646240234e+00,2.079858183860778809e-01
1.120352935791015625e+01,4.097936153411865234e+00,6.251958608627319336e-01
1.121630859375000000e+01,4.102610588073730469e+00,1.044881939888000488e+00
3.700042724609375000e+00,1.413733601570129395e+00,-1.061326146125793457e+00
4.387793540954589844e+00,1.676513314247131348e+00,-1.084426045417785645e+00
5.385873794555664062e+00,2.057865619659423828e+00,-1.120722532272338867e+00
6.966598510742187500e+00,2.661837816238403320e+00,-1.181198716163635254e+00
9.679242134094238281e+00,3.698300600051879883e+00,-1.272256851196289062e+00
1.110869598388671875e+01,4.244474411010742188e+00,-1.040410041809082031e+00
1.112135887145996094e+01,4.249312877655029297e+00,-6.239406466484069824e-01
1.113413906097412109e+01,4.254195690155029297e+00,-2.080500423908233643e-01
1.114713954925537109e+01,4.259162902832031250e+00,2.082929611206054688e-01
1.115991973876953125e+01,4.264046192169189453e+00,6.261039972305297852e-01
1.117225074768066406e+01,4.268757820129394531e+00,1.046362400054931641e+00
3.675590515136718750e+00,1.465013265609741211e+00,-1.060218453407287598e+00
4.387072563171386719e+00,1.748594999313354492e+00,-1.090321779251098633e+00
5.385245800018310547e+00,2.146445989608764648e+00,-1.126869440078735352e+00
6.879922389984130859e+00,2.742192745208740234e+00,-1.173037409782409668e+00
9.678175926208496094e+00,3.857517957687377930e+00,-1.279243111610412598e+00
1.106704139709472656e+01,4.411090373992919922e+00,-1.042315363883972168e+00
1.107981395721435547e+01,4.416181564331054688e+00,-6.250921487808227539e-01
1.109255123138427734e+01,4.421257972717285156e+00,-2.084340751171112061e-01
1.110534954071044922e+01,4.426359176635742188e+00,2.086745649576187134e-01
1.111777782440185547e+01,4.431313037872314453e+00,6.272339820861816406e-01
1.113169097900390625e+01,4.436858654022216797e+00,1.048404216766357422e+00
3.674496173858642578e+00,1.525876998901367188e+00,-1.066093444824218750e+00
4.352478981018066406e+00,1.807417273521423340e+00,-1.088042497634887695e+00
5.333189487457275391e+00,2.214668750762939453e+00,-1.122494816780090332e+00
6.878863334655761719e+00,2.856527566909790039e+00,-1.179707288742065430e+00
9.510371208190917969e+00,3.949291706085205078e+00,-1.264405250549316406e+00
1.102506351470947266e+01,4.578285217285156250e+00,-1.044426679611206055e+00
1.103794860839843750e+01,4.583636283874511719e+00,-6.263675093650817871e-01
1.105063915252685547e+01,4.588905811309814453e+00,-2.088593691587448120e-01
1.106323528289794922e+01,4.594136238098144531e+00,2.090974152088165283e-01
1.107677650451660156e+01,4.599759578704833984e+00,6.285708546638488770e-01
1.108868885040283203e+01,4.604706287384033203e+00,1.050454020500183105e+00
3.649848937988281250e+00,1.577258944511413574e+00,-1.065383434295654297e+00
4.318107128143310547e+00,1.866042494773864746e+00,-1.086015820503234863e+00
5.281757831573486328e+00,2.282477855682373047e+00,-1.118431448936462402e+00
6.793481349945068359e+00,2.935759782791137695e+00,-1.172150969505310059e+00
7.281068801879882812e+00,3.146467447280883789e+00,-9.739070534706115723e-01
7.288661003112792969e+00,3.149748325347900391e+00,-6.946693658828735352e-01
7.296764850616455078e+00,3.153250455856323242e+00,-4.165860712528228760e-01
7.304606437683105469e+00,3.156639099121093750e+00,-1.388982981443405151e-01
7.312303066253662109e+00,3.159965038299560547e+00,1.390446424484252930e-01
7.320485591888427734e+00,3.163501262664794922e+00,4.179403185844421387e-01
7.328848361968994141e+00,3.167114973068237305e+00,6.984995603561401367e-01
7.337145328521728516e+00,3.170700550079345703e+00,9.814077615737915039e-01
7.345045089721679688e+00,3.174114465713500977e+00,1.267318010330200195e+00
3.625212192535400391e+00,1.628575086593627930e+00,-1.064887166023254395e+00
4.283910751342773438e+00,1.924486041069030762e+00,-1.084232091903686523e+00
5.280006885528564453e+00,2.371968030929565430e+00,-1.125134587287902832e+00
6.721961021423339844e+00,3.019745588302612305e+00,-1.167148828506469727e+00
6.729285717010498047e+00,3.023036241531372070e+00,-9.057962298393249512e-01
6.736577987670898438e+00,3.026312112808227539e+00,-6.461136341094970703e-01
6.744237899780273438e+00,3.029753208160400391e+00,-3.874774277210235596e-01
6.751561164855957031e+00,3.033043146133422852e+00,-1.291943341493606567e-01
6.758645534515380859e+00,3.036225795745849609e+00,1.293298900127410889e-01
6.766074657440185547e+00,3.039562940597534180e+00,3.887320160865783691e-01
6.773568630218505859e+00,3.042929649353027344e+00,6.496614217758178711e-01
6.780902862548828125e+00,3.046224594116210938e+00,9.127441644668579102e-01
6.789701461791992188e+00,3.050177097320556641e+00,1.178910851478576660e+00
3.600548505783081055e+00,1.679833173751831055e+00,-1.064596176147460938e+00
4.281860351562500000e+00,1.997698783874511719e+00,-1.090838432312011719e+00
5.228665828704833984e+00,2.439430236816406250e+00,-1.121519923210144043e+00
6.248624324798583984e+00,2.915291070938110352e+00,-1.092095851898193359e+00
6.255455017089843750e+00,2.918478012084960938e+00,-8.475522994995117188e-01
6.262151241302490234e+00,2.921601772308349609e+00,-6.045596599578857422e-01
6.268887042999267578e+00,2.924744367599487305e+00,-3.625350892543792725e-01
6.275753498077392578e+00,2.927947998046875000e+00,-1.208790913224220276e-01
6.282767772674560547e+00,2.931220531463623047e+00,1.210141927003860474e-01
6.289872169494628906e+00,2.934535026550292969e+00,3.637486696243286133e-01
6.296936035156250000e+00,2.937830686569213867e+00,6.079178452491760254e-01
6.303750514984130859e+00,2.941009998321533203e+00,8.540958762168884277e-01
6.310040473937988281e+00,2.943944454193115234e+00,1.102829813957214355e+00
6.317543506622314453e+00,2.947445154190063477e+00,1.355078101158142090e+00
3.578050613403320312e+00,1.732118129730224609e+00,-1.065165638923645020e+00
4.250045776367187500e+00,2.057427883148193359e+00,-1.090124011039733887e+00
5.181062698364257812e+00,2.508128881454467773e+00,-1.118895053863525391e+00
5.801486015319824219e+00,2.808473110198974609e+00,-1.020868897438049316e+00
5.808183670043945312e+00,2.811715364456176758e+00,-7.923231720924377441e-01
5.814657211303710938e+00,2.814849138259887695e+00,-5.651895999908447266e-01
5.821064949035644531e+00,2.817951202392578125e+00,-3.389350175857543945e-01
5.827493190765380859e+00,2.821062803268432617e+00,-1.130111962556838989e-01
5.833953857421875000e+00,2.824190616607666016e+00,1.131364926695823669e-01
5.840398311614990234e+00,2.827310323715209961e+00,3.400607109069824219e-01
5.846703529357910156e+00,2.830362558364868164e+00,5.683044791221618652e-01
5.854029178619384766e+00,2.833908796310424805e+00,7.985771298408508301e-01
5.859715938568115234e+00,2.836661815643310547e+00,1.031115531921386719e+00
5.866423606872558594e+00,2.839909076690673828e+00,1.266904592514038086e+00
3.553265571594238281e+00,1.783336043357849121e+00,-1.065276980400085449e+00
4.215639591217041016e+00,2.115772724151611328e+00,-1.088955163955688477e+00
5.177843570709228516e+00,2.598689794540405273e+00,-1.126117229461669922e+00
5.444420337677001953e+00,2.732481241226196289e+00,-9.648206830024719238e-01
5.449985980987548828e+00,2.735274553298950195e+00,-7.487236857414245605e-01
5.456275939941406250e+00,2.738431453704833984e+00,-5.341098308563232422e-01
5.462414264678955078e+00,2.741512060165405273e+00,-3.203043639659881592e-01
5.468483924865722656e+00,2.744558334350585938e+00,-1.067999005317687988e-01
5.474497318267822266e+00,2.747576475143432617e+00,1.069173440337181091e-01
5.480405807495117188e+00,2.750541687011718750e+00,3.213593363761901855e-01
5.487072467803955078e+00,2.753887891769409180e+00,5.371244549751281738e-01
5.492649555206298828e+00,2.756686925888061523e+00,7.545849084854125977e-01
5.499123573303222656e+00,2.759936094284057617e+00,9.745147824287414551e-01
5.505202293395996094e+00,2.762986898422241211e+00,1.197313785552978516e+00
5.512563228607177734e+00,2.766681432723999023e+00,1.423967719078063965e+00
3.530642747879028320e+00,1.835704922676086426e+00,-1.066262841224670410e+00
4.183985233306884766e+00,2.175400733947753906e+00,-1.088710188865661621e+00
5.095465183258056641e+00,2.649311065673828125e+00,-1.116333961486816406e+00
5.101045131683349609e+00,2.652212142944335938e+00,-9.106043577194213867e-01
5.107265949249267578e+00,2.655446529388427734e+00,-7.067897915840148926e-01
5.112692832946777344e+00,2.658268213272094727e+00,-5.041497349739074707e-01
5.118570804595947266e+00,2.661324501037597656e+00,-3.023448288440704346e-01
5.124292850494384766e+00,2.664299726486206055e+00,-1.008122935891151428e-01
5.129869937896728516e+00,2.667199373245239258e+00,1.009220108389854431e-01
5.135899543762207031e+00,2.670334339141845703e+00,3.033683896064758301e-01
5.141253948211669922e+00,2.673118352890014648e+00,5.069660544395446777e-01
5.147318363189697266e+00,2.676271200180053711e+00,7.123326063156127930e-01
5.153212070465087891e+00,2.679335594177246094e+00,9.199168682098388672e-01
5.158644199371337891e+00,2.682159900665283203e+00,1.130175471305847168e+00
5.165176868438720703e+00,2.685556650161743164e+00,1.344025015830993652e+00
3.486691474914550781e+00,1.876726508140563965e+00,-1.060993194580078125e+00
4.152354717254638672e+00,2.235022783279418945e+00,-1.088692426681518555e+00
4.793461322784423828e+00,2.580101013183593750e+00,-1.058152318000793457e+00
4.798855304718017578e+00,2.583004236221313477e+00,-8.631709814071655273e-01
4.804117202758789062e+00,2.585836410522460938e+00,-6.698908209800720215e-01
4.809826850891113281e+00,2.588909864425659180e+00,-4.778899550437927246e-01
4.815080165863037109e+00,2.591737508773803711e+00,-2.865800559520721436e-01
4.820484161376953125e+00,2.594645977020263672e+00,-9.555618464946746826e-02
4.826031208038330078e+00,2.597631692886352539e+00,9.566614031791687012e-02
4.831197738647460938e+00,2.600412845611572266e+00,2.875393331050872803e-01
4.836848735809326172e+00,2.603454351425170898e+00,4.805747568607330322e-01
4.842467308044433594e+00,2.606478452682495117e+00,6.752383708953857422e-01
4.847836017608642578e+00,2.609368324279785156e+00,8.719811439514160156e-01
4.854246616363525391e+00,2.612818956375122070e+00,1.071570634841918945e+00
4.860258579254150391e+00,2.616054773330688477e+00,1.274295449256896973e+00
3.464088201522827148e+00,1.929004907608032227e+00,-1.062408208847045898e+00
4.120694637298583984e+00,2.294641256332397461e+00,-1.088891386985778809e+00
4.524783134460449219e+00,2.519661188125610352e+00,-1.006699919700622559e+00
4.530018329620361328e+00,2.522576570510864258e+00,-8.212256431579589844e-01
4.535038471221923828e+00,2.525372028350830078e+00,-6.373452544212341309e-01
4.540022373199462891e+00,2.528147459030151367e+00,-4.546318352222442627e-01
4.545095443725585938e+00,2.530972242355346680e+00,-2.726395130157470703e-01
4.550224781036376953e+00,2.533828496932983398e+00,-9.090846776962280273e-02
4.555392265319824219e+00,2.536706209182739258e+00,9.101171046495437622e-02
4.560689926147460938e+00,2.539656400680541992e+00,2.735749781131744385e-01
4.566020011901855469e+00,2.542624235153198242e+00,4.572351574897766113e-01
4.571230888366699219e+00,2.545526027679443359e+00,6.424316763877868652e-01
4.576121330261230469e+00,2.548249244689941406e+00,8.295834064483642578e-01
4.581900596618652344e+00,2.551467418670654297e+00,1.019407749176025391e+00
4.587220668792724609e+00,2.554430007934570312e+00,1.212170600891113281e+00
3.441298723220825195e+00,1.981363773345947266e+00,-1.064007639884948730e+00
4.088954925537109375e+00,2.354258775711059570e+00,-1.089297175407409668e+00
4.284066677093505859e+00,2.466596364974975586e+00,-9.609005451202392578e-01
4.288383007049560547e+00,2.469081640243530273e+00,-7.837472558021545410e-01
4.293407440185546875e+00,2.471974372863769531e+00,-6.082971692085266113e-01
4.298315525054931641e+00,2.474800348281860352e+00,-4.339303672313690186e-01
4.303223133087158203e+00,2.477625846862792969e+00,-2.602313458919525146e-01
4.308101177215576172e+00,2.480434417724609375e+00,-8.677154034376144409e-02
4.312923908233642578e+00,2.483211278915405273e+00,8.686868101358413696e-02
4.317797660827636719e+00,2.486017227172851562e+00,2.611126899719238281e-01
4.322615146636962891e+00,2.488790988922119141e+00,4.363835155963897705e-01
4.328204154968261719e+00,2.492008924484252930e+00,6.132272481918334961e-01
4.332655429840087891e+00,2.494571924209594727e+00,7.918385267257690430e-01
4.337859153747558594e+00,2.497568130493164062e+00,9.729660153388977051e-01
4.342550754547119141e+00,2.500269412994384766e+00,1.156855106353759766e+00
3.418281555175781250e+00,2.033799886703491211e+00,-1.065782546997070312e+00
4.057086467742919922e+00,2.413874149322509766e+00,-1.089900135993957520e+00
4.067029476165771484e+00,2.419790029525756836e+00,-9.198942780494689941e-01
4.071269512176513672e+00,2.422312736511230469e+00,-7.503272294998168945e-01
4.076093196868896484e+00,2.425182819366455078e+00,-5.823662877082824707e-01
4.080726623535156250e+00,2.427939414978027344e+00,-4.154297709465026855e-01
4.085277557373046875e+00,2.430647134780883789e+00,-2.491298019886016846e-01
4.089896202087402344e+00,2.433395147323608398e+00,-8.306960016489028931e-02
4.094622135162353516e+00,2.436206817626953125e+00,8.316558599472045898e-02
4.099310398101806641e+00,2.438996315002441406e+00,2.499855607748031616e-01
4.103865623474121094e+00,2.441706657409667969e+00,4.177854061126708984e-01
4.109068393707275391e+00,2.444802284240722656e+00,5.870775580406188965e-01
4.113115787506103516e+00,2.447210311889648438e+00,7.580394744873046875e-01
4.117794036865234375e+00,2.449993610382080078e+00,9.313763976097106934e-01
4.123392581939697266e+00,2.453324794769287109e+00,1.107712626457214355e+00
3.377492904663085938e+00,2.075550794601440430e+00,-1.062219023704528809e+00
3.850750684738159180e+00,2.366379022598266602e+00,-1.043462157249450684e+00
3.855356454849243164e+00,2.369209527969360352e+00,-8.795975446701049805e-01
3.860416173934936523e+00,2.372318744659423828e+00,-7.176519036293029785e-01
3.864570379257202148e+00,2.374871492385864258e+00,-5.569448471069335938e-01
3.869148492813110352e+00,2.377685070037841797e+00,-3.973144888877868652e-01
3.873565912246704102e+00,2.380399703979492188e+00,-2.382725030183792114e-01
3.877963781356811523e+00,2.383102178573608398e+00,-7.944972813129425049e-02
3.882378339767456055e+00,2.385814905166625977e+00,7.954017072916030884e-02
3.886663675308227539e+00,2.388448476791381836e+00,2.390781790018081665e-01
3.891418218612670898e+00,2.391370296478271484e+00,3.996013104915618896e-01
3.895363807678222656e+00,2.393795013427734375e+00,5.613826513290405273e-01
3.899848461151123047e+00,2.396550893783569336e+00,7.249823808670043945e-01
3.905205726623535156e+00,2.399842977523803711e+00,8.909706473350524902e-01
3.910303354263305664e+00,2.402975559234619141e+00,1.059599399566650391e+00
3.356599569320678711e+00,2.129486799240112305e+00,-1.065124988555908203e+00
3.661315917968750000e+00,2.322804212570190430e+00,-1.001036524772644043e+00
3.664943695068359375e+00,2.325105905532836914e+00,-8.436614274978637695e-01
3.669908761978149414e+00,2.328255653381347656e+00,-6.883612275123596191e-01
3.673938751220703125e+00,2.330812454223632812e+00,-5.342251062393188477e-01
3.677998065948486328e+00,2.333387851715087891e+00,-3.810762763023376465e-01
3.682293653488159180e+00,2.336112976074218750e+00,-2.285403013229370117e-01
3.686489582061767578e+00,2.338774919509887695e+00,-7.620493322610855103e-02
3.690619945526123047e+00,2.341395378112792969e+00,7.629031687974929810e-02
3.694993257522583008e+00,2.344169855117797852e+00,2.293285131454467773e-01
3.699461936950683594e+00,2.347004890441894531e+00,3.833001554012298584e-01
3.703085422515869141e+00,2.349303722381591797e+00,5.384632945060729980e-01
3.708115577697753906e+00,2.352494955062866211e+00,6.955276727676391602e-01
3.711928606033325195e+00,2.354913711547851562e+00,8.544772267341613770e-01
3.716396093368530273e+00,2.357748270034790039e+00,1.016095876693725586e+00
3.316205024719238281e+00,2.171040773391723633e+00,-1.062058925628662109e+00
3.488231897354125977e+00,2.283662557601928711e+00,-9.625521302223205566e-01
3.491929531097412109e+00,2.286083459854125977e+00,-8.112833499908447266e-01
3.496201992034912109e+00,2.288880586624145508e+00,-6.618565320968627930e-01
3.500290155410766602e+00,2.291556835174560547e+00,-5.136917829513549805e-01
3.504599809646606445e+00,2.294378280639648438e+00,-3.664755821228027344e-01
3.508511781692504883e+00,2.296939373016357422e+00,-2.197725921869277954e-01
3.512523174285888672e+00,2.299565553665161133e+00,-7.328169792890548706e-02
3.516643285751342773e+00,2.302263021469116211e+00,7.336765527725219727e-02
3.520417690277099609e+00,2.304733991622924805e+00,2.205183804035186768e-01
3.524442672729492188e+00,2.307368993759155273e+00,3.685505390167236328e-01
3.528365850448608398e+00,2.309937238693237305e+00,5.178120732307434082e-01
3.532941818237304688e+00,2.312933206558227539e+00,6.688116192817687988e-01
3.537376642227172852e+00,2.315836429595947266e+00,8.218421339988708496e-01
3.541422605514526367e+00,2.318485260009765625e+00,9.772297143936157227e-01
3.294887542724609375e+00,2.225096464157104492e+00,-1.065322637557983398e+00
3.330147743225097656e+00,2.248908281326293945e+00,-9.277173876762390137e-01
3.334643602371215820e+00,2.251944541931152344e+00,-7.821495532989501953e-01
3.338141918182373047e+00,2.254307031631469727e+00,-6.379776000976562500e-01
3.342122793197631836e+00,2.256995439529418945e+00,-4.951699674129486084e-01
3.345980644226074219e+00,2.259600639343261719e+00,-3.532346785068511963e-01
3.349805116653442383e+00,2.262183427810668945e+00,-2.118377834558486938e-01
3.353646278381347656e+00,2.264777421951293945e+00,-7.063612341880798340e-02
3.357513904571533203e+00,2.267389297485351562e+00,7.071758806705474854e-02
3.361378192901611328e+00,2.269999027252197266e+00,2.125696688890457153e-01
3.365166902542114258e+00,2.272557497024536133e+00,3.552601933479309082e-01
3.369501352310180664e+00,2.275484561920166016e+00,4.992263913154602051e-01
3.372938156127929688e+00,2.277805566787719727e+00,6.446278095245361328e-01
3.376886367797851562e+00,2.280471801757812500e+00,7.920576930046081543e-01
3.381567001342773438e+00,2.283632755279541016e+00,9.420418739318847656e-01
3.181850910186767578e+00,2.215721607208251953e+00,-1.038922667503356934e+00
3.185912609100341797e+00,2.218550205230712891e+00,-8.962907791137695312e-01
3.189593076705932617e+00,2.221113204956054688e+00,-7.555070519447326660e-01
3.193095207214355469e+00,2.223551750183105469e+00,-6.162761449813842773e-01
3.196979522705078125e+00,2.226256608963012695e+00,-4.783376753330230713e-01
3.200431585311889648e+00,2.228660583496093750e+00,-3.412018120288848877e-01
3.204173088073730469e+00,2.231266021728515625e+00,-2.046269029378890991e-01
3.207857131958007812e+00,2.233831405639648438e+00,-6.823190301656723022e-02
3.211493492126464844e+00,2.236363649368286133e+00,6.830924749374389648e-02
3.215431451797485352e+00,2.239105939865112305e+00,2.053458839654922485e-01
3.219000816345214844e+00,2.241591453552246094e+00,3.431814908981323242e-01
3.223004341125488281e+00,2.244379520416259766e+00,4.822315871715545654e-01
3.226925134658813477e+00,2.247109889984130859e+00,6.228054761886596680e-01
3.230566740036010742e+00,2.249645471572875977e+00,7.652122974395751953e-01
3.234827756881713867e+00,2.252612829208374023e+00,9.100520610809326172e-01
3.040736198425292969e+00,2.182734251022338867e+00,-1.002945065498352051e+00
3.044012069702148438e+00,2.185085773468017578e+00,-8.650802969932556152e-01
3.047777652740478516e+00,2.187788724899291992e+00,-7.292584776878356934e-01
3.051298856735229492e+00,2.190316438674926758e+00,-5.948989391326904297e-01
3.054730892181396484e+00,2.192780256271362305e+00,-4.617030024528503418e-01
3.058422803878784180e+00,2.195430278778076172e+00,-3.293785154819488525e-01
3.061856269836425781e+00,2.197894811630249023e+00,-1.975270211696624756e-01
3.065386295318603516e+00,2.200428724288940430e+00,-6.586468964815139771e-02
3.069006443023681641e+00,2.203027486801147461e+00,6.594247370958328247e-02
3.072409868240356445e+00,2.205470561981201172e+00,1.982078552246093750e-01
3.076105594635009766e+00,2.208123683929443359e+00,3.312828838825225830e-01
3.079774618148803711e+00,2.210757255554199219e+00,4.654881954193115234e-01
3.083288192749023438e+00,2.213279485702514648e+00,6.011357903480529785e-01
3.087385416030883789e+00,2.216220378875732422e+00,7.387356162071228027e-01
3.091203927993774414e+00,2.218961477279663086e+00,8.784917593002319336e-01
2.910169363021850586e+00,2.152782917022705078e+00,-9.699435234069824219e-01
2.914372444152832031e+00,2.155892133712768555e+00,-8.369217514991760254e-01
2.917466402053833008e+00,2.158180952072143555e+00,-7.053974270820617676e-01
2.921005964279174805e+00,2.160799264907836914e+00,-5.754673480987548828e-01
2.924386262893676758e+00,2.163299798965454102e+00,-4.466365277767181396e-01
2.927722454071044922e+00,2.165767908096313477e+00,-3.186085522174835205e-01
2.931093692779541016e+00,2.168261766433715820e+00,-1.910738348960876465e-01
2.934481382369995117e+00,2.170767545700073242e+00,-6.371307373046875000e-02
2.937879323959350586e+00,2.173281431198120117e+00,6.378684937953948975e-02
2.941338777542114258e+00,2.175840377807617188e+00,1.917416900396347046e-01
2.944798231124877930e+00,2.178399562835693359e+00,3.204668164253234863e-01
2.948159456253051758e+00,2.180886030197143555e+00,4.502673745155334473e-01
2.952036857604980469e+00,2.183754444122314453e+00,5.815807580947875977e-01
2.954913139343261719e+00,2.185882091522216797e+00,7.144514918327331543e-01
2.959193468093872070e+00,2.189048290252685547e+00,8.497930765151977539e-01
2.790494918823242188e+00,2.126714468002319336e+00,-9.401060938835144043e-01
2.793991565704345703e+00,2.129379272460937500e+00,-8.110215067863464355e-01
2.797197580337524414e+00,2.131822824478149414e+00,-6.836260557174682617e-01
2.800754308700561523e+00,2.134533405303955078e+00,-5.577386021614074707e-01
2.804088830947875977e+00,2.137074708938598633e+00,-4.328911602497100830e-01
2.807104587554931641e+00,2.139373064041137695e+00,-3.087831437587738037e-01
2.810416221618652344e+00,2.141896963119506836e+00,-1.851866245269775391e-01
2.813671827316284180e+00,2.144378185272216797e+00,-6.175016239285469055e-02
2.816865444183349609e+00,2.146812200546264648e+00,6.182025372982025146e-02
2.820368051528930664e+00,2.149481534957885742e+00,1.858423799276351929e-01
2.823606491088867188e+00,2.151949644088745117e+00,3.105983436107635498e-01
2.826680898666381836e+00,2.154292583465576172e+00,4.363788664340972900e-01
2.830171108245849609e+00,2.156952857971191406e+00,5.635966658592224121e-01
2.833470582962036133e+00,2.159467458724975586e+00,6.924910545349121094e-01
2.837323427200317383e+00,2.162403821945190430e+00,8.235995769500732422e-01
2.673557996749877930e+00,2.098755836486816406e+00,-9.107376933097839355e-01
2.677120685577392578e+00,2.101552724838256836e+00,-7.857480645179748535e-01
2.680332422256469727e+00,2.104074001312255859e+00,-6.623570919036865234e-01
2.683361053466796875e+00,2.106451511383056641e+00,-5.403099060058593750e-01
2.686346054077148438e+00,2.108794689178466797e+00,-4.193310439586639404e-01
2.689587116241455078e+00,2.111339092254638672e+00,-2.991497814655303955e-01
2.692717313766479492e+00,2.113795995712280273e+00,-1.794063448905944824e-01
2.695830821990966797e+00,2.116240262985229492e+00,-5.982261523604393005e-02
2.698948621749877930e+00,2.118687868118286133e+00,5.989180132746696472e-02
2.701978683471679688e+00,2.121066331863403320e+00,1.800234019756317139e-01
2.705293893814086914e+00,2.123668909072875977e+00,3.008967638015747070e-01
2.708623647689819336e+00,2.126282691955566406e+00,4.228084981441497803e-01
2.711842536926269531e+00,2.128809690475463867e+00,5.460448265075683594e-01
2.714799404144287109e+00,2.131130933761596680e+00,6.708745360374450684e-01
2.718212127685546875e+00,2.133809804916381836e+00,7.978085875511169434e-01
2.570879459381103516e+00,2.078303098678588867e+00,-8.858033418655395508e-01
2.573841810226440430e+00,2.080698013305664062e+00,-7.640981078147888184e-01
2.577152490615844727e+00,2.083374261856079102e+00,-6.441626548767089844e-01
2.580223083496093750e+00,2.085856676101684570e+00,-5.255002975463867188e-01
2.583184957504272461e+00,2.088250875473022461e+00,-4.078518450260162354e-01
2.586139678955078125e+00,2.090639591217041016e+00,-2.909423708915710449e-01
2.589221954345703125e+00,2.093131303787231445e+00,-1.744890809059143066e-01
2.592221975326538086e+00,2.095556497573852539e+00,-5.818309634923934937e-02
2.595158815383911133e+00,2.097930669784545898e+00,5.824901536107063293e-02
2.598235368728637695e+00,2.100417852401733398e+00,1.750964969396591187e-01
2.601344108581542969e+00,2.102930784225463867e+00,2.926528751850128174e-01
2.604398250579833984e+00,2.105399847030639648e+00,4.112011492252349854e-01
2.607281446456909180e+00,2.107730627059936523e+00,5.310111045837402344e-01
2.610594272613525391e+00,2.110408782958984375e+00,6.525214910507202148e-01
2.613636016845703125e+00,2.112867593765258789e+00,7.759118080139160156e-01
2.465070962905883789e+00,2.051792621612548828e+00,-8.593776822090148926e-01
2.468148708343505859e+00,2.054354190826416016e+00,-7.413744330406188965e-01
2.470979452133178711e+00,2.056710481643676758e+00,-6.249188184738159180e-01
2.474116563796997070e+00,2.059321403503417969e+00,-5.098410844802856445e-01
2.477076053619384766e+00,2.061784744262695312e+00,-3.957175314426422119e-01
2.479953527450561523e+00,2.064179897308349609e+00,-2.822913229465484619e-01
2.482815027236938477e+00,2.066561698913574219e+00,-1.692942976951599121e-01
2.485698223114013672e+00,2.068961381912231445e+00,-5.645105615258216858e-02
2.488610267639160156e+00,2.071385383605957031e+00,5.651719123125076294e-02
2.491528749465942383e+00,2.073814392089843750e+00,1.698884516954421997e-01
2.494401693344116211e+00,2.076205730438232422e+00,2.839359343051910400e-01
2.497148752212524414e+00,2.078492403030395508e+00,3.989242017269134521e-01
2.500263214111328125e+00,2.081084489822387695e+00,5.152291655540466309e-01
2.503212690353393555e+00,2.083539724349975586e+00,6.330707073211669922e-01
2.506636381149291992e+00,2.086389303207397461e+00,7.529352903366088867e-01
2.371530294418334961e+00,2.032088756561279297e+00,-8.368216753005981445e-01
2.374691963195800781e+00,2.034798145294189453e+00,-7.219767570495605469e-01
2.377551794052124023e+00,2.037248373031616211e+00,-6.086030006408691406e-01
2.380259275436401367e+00,2.039568424224853516e+00,-4.964649379253387451e-01
2.383207559585571289e+00,2.042094707489013672e+00,-3.853518664836883545e-01
2.385844707489013672e+00,2.044354438781738281e+00,-2.748816907405853271e-01
2.388670682907104492e+00,2.046775817871093750e+00,-1.648556590080261230e-01
2.391449689865112305e+00,2.049157142639160156e+00,-5.497111380100250244e-02
2.394188642501831055e+00,2.051503896713256836e+00,5.503407493233680725e-02
2.397128820419311523e+00,2.054023265838623047e+00,1.654393970966339111e-01
2.399801254272460938e+00,2.056313276290893555e+00,2.764896750450134277e-01
2.402759075164794922e+00,2.058847665786743164e+00,3.885132372379302979e-01
2.405628681182861328e+00,2.061306715011596680e+00,5.017564296722412109e-01
2.408274888992309570e+00,2.063574075698852539e+00,6.164674162864685059e-01
2.411301136016845703e+00,2.066167354583740234e+00,7.331070303916931152e-01
2.280606269836425781e+00,2.011492729187011719e+00,-8.148140311241149902e-01
2.283229112625122070e+00,2.013806104660034180e+00,-7.028608322143554688e-01
2.285681962966918945e+00,2.015969514846801758e+00,-5.924119949340820312e-01
2.288468599319458008e+00,2.018427371978759766e+00,-4.832960367202758789e-01
2.291415214538574219e+00,2.021026134490966797e+00,-3.751485645771026611e-01
2.293996095657348633e+00,2.023302555084228516e+00,-2.676087021827697754e-01
2.296630620956420898e+00,2.025626182556152344e+00,-1.604880392551422119e-01
2.299307584762573242e+00,2.027987241744995117e+00,-5.351484939455986023e-02
2.302024364471435547e+00,2.030383586883544922e+00,5.357808247208595276e-02
2.304816246032714844e+00,2.032845973968505859e+00,1.610600501298904419e-01
2.307283639907836914e+00,2.035022258758544922e+00,2.691587805747985840e-01
2.309951782226562500e+00,2.037375450134277344e+00,3.781833648681640625e-01
2.313012123107910156e+00,2.040074586868286133e+00,4.884793162345886230e-01
2.315980672836303711e+00,2.042692899703979492e+00,6.002649068832397461e-01
2.318693399429321289e+00,2.045085430145263672e+00,7.137780189514160156e-01
2.195107460021972656e+00,1.992658734321594238e+00,-7.943759560585021973e-01
2.197854995727539062e+00,1.995152831077575684e+00,-6.853004097938537598e-01
2.200371980667114258e+00,1.997437715530395508e+00,-5.776519179344177246e-01
2.203139543533325195e+00,1.999950051307678223e+00,-4.712728261947631836e-01
2.205500841140747070e+00,2.002093553543090820e+00,-3.657369613647460938e-01
2.208125591278076172e+00,2.004476308822631836e+00,-2.609116435050964355e-01
2.210734367370605469e+00,2.006844520568847656e+00,-1.564768850803375244e-01
2.213315486907958984e+00,2.009187459945678711e+00,-5.217742919921875000e-02
2.215867042541503906e+00,2.011503696441650391e+00,5.223758146166801453e-02
2.218422651290893555e+00,2.013823509216308594e+00,1.570210605859756470e-01
2.221267938613891602e+00,2.016406536102294922e+00,2.624645233154296875e-01
2.223759889602661133e+00,2.018668651580810547e+00,3.687648773193359375e-01
2.226557731628417969e+00,2.021208524703979492e+00,4.762822091579437256e-01
2.229199171066284180e+00,2.023606300354003906e+00,5.852198004722595215e-01
2.232227563858032227e+00,2.026355266571044922e+00,6.960179209709167480e-01
2.111653804779052734e+00,1.972759604454040527e+00,-7.743145823478698730e-01
2.114536285400390625e+00,1.975452423095703125e+00,-6.680693030357360840e-01
2.117131471633911133e+00,1.977877020835876465e+00,-5.631737112998962402e-01
2.119572877883911133e+00,1.980157732963562012e+00,-4.594128429889678955e-01
2.121969223022460938e+00,1.982396602630615234e+00,-3.565538525581359863e-01
2.124545812606811523e+00,1.984803795814514160e+00,-2.543666660785675049e-01
2.127038002014160156e+00,1.987131834030151367e+00,-1.525503695011138916e-01
2.129517793655395508e+00,1.989448547363281250e+00,-5.086804181337356567e-02
2.131999492645263672e+00,1.991767048835754395e+00,5.092732235789299011e-02
2.134415626525878906e+00,1.994024157524108887e+00,1.530794948339462280e-01
2.137036561965942383e+00,1.996472835540771484e+00,2.558621466159820557e-01
2.139658451080322266e+00,1.998922348022460938e+00,3.595261871814727783e-01
2.142184019088745117e+00,2.001281738281250000e+00,4.643137753009796143e-01
2.144492387771606445e+00,2.003438234329223633e+00,5.704519152641296387e-01
2.147097826004028320e+00,2.005872249603271484e+00,6.783568263053894043e-01
2.034145593643188477e+00,1.955615758895874023e+00,-7.560800909996032715e-01
2.036603927612304688e+00,1.957979083061218262e+00,-6.522348523139953613e-01
2.038882970809936523e+00,1.960170269012451172e+00,-5.497660636901855469e-01
2.041419506072998047e+00,1.962608814239501953e+00,-4.485161900520324707e-01
2.043847084045410156e+00,1.964942455291748047e+00,-3.481172025203704834e-01
2.046379089355468750e+00,1.967376828193664551e+00,-2.483540326356887817e-01
2.048715353012084961e+00,1.969622969627380371e+00,-1.489397883415222168e-01
2.051107645034790039e+00,1.971922993659973145e+00,-4.966418072581291199e-02
2.053562879562377930e+00,1.974283337593078613e+00,4.972362890839576721e-02
2.055847167968750000e+00,1.976479530334472656e+00,1.494582593441009521e-01
2.058259725570678711e+00,1.978798866271972656e+00,2.497958987951278687e-01
2.060606241226196289e+00,1.981054663658142090e+00,3.509716987609863281e-01
2.063262224197387695e+00,1.983608245849609375e+00,4.533151984214782715e-01
2.065808534622192383e+00,1.986056208610534668e+00,5.570262670516967773e-01
2.068101882934570312e+00,1.988260984420776367e+00,6.623222231864929199e-01
1.961365938186645508e+00,1.940421581268310547e+00,-7.392760515213012695e-01
1.963442802429199219e+00,1.942476272583007812e+00,-6.376435160636901855e-01
1.965806603431701660e+00,1.944814801216125488e+00,-5.375126004219055176e-01
1.968350172042846680e+00,1.947331190109252930e+00,-4.385412633419036865e-01
1.970515251159667969e+00,1.949473142623901367e+00,-3.403448462486267090e-01
1.972877502441406250e+00,1.951810121536254883e+00,-2.427993267774581909e-01
1.975199222564697266e+00,1.954107046127319336e+00,-1.456137001514434814e-01
1.977509379386901855e+00,1.956392645835876465e+00,-4.855518788099288940e-02
1.979814291000366211e+00,1.958672881126403809e+00,4.861177876591682434e-02
1.982096076011657715e+00,1.960930347442626953e+00,1.461221575736999512e-01
1.984599351882934570e+00,1.963406920433044434e+00,2.442419379949569702e-01
1.986769795417785645e+00,1.965554237365722656e+00,3.431522846221923828e-01
1.989170074462890625e+00,1.967928767204284668e+00,4.431798458099365234e-01
1.991923332214355469e+00,1.970652580261230469e+00,5.446537137031555176e-01
1.993923664093017578e+00,1.972631573677062988e+00,6.475423574447631836e-01
1.889767169952392578e+00,1.923879742622375488e+00,-7.225944399833679199e-01
1.892441391944885254e+00,1.926602244377136230e+00,-6.234769821166992188e-01
1.894474148750305176e+00,1.928671717643737793e+00,-5.255025625228881836e-01
1.896760582923889160e+00,1.930999398231506348e+00,-4.287053644657135010e-01
1.898972988128662109e+00,1.933251738548278809e+00,-3.327334523200988770e-01
1.901306271553039551e+00,1.935627102851867676e+00,-2.373765259981155396e-01
1.903491973876953125e+00,1.937852382659912109e+00,-1.423576176166534424e-01
1.905721902847290039e+00,1.940122485160827637e+00,-4.746952652931213379e-02
1.907995343208312988e+00,1.942437052726745605e+00,4.752615839242935181e-02
1.910144209861755371e+00,1.944624662399291992e+00,1.428551226854324341e-01
1.912437081336975098e+00,1.946958899497985840e+00,2.387661933898925781e-01
1.914695620536804199e+00,1.949258208274841309e+00,3.354883193969726562e-01
1.917257428169250488e+00,1.951866269111633301e+00,4.333380758762359619e-01
1.919242143630981445e+00,1.953886866569519043e+00,5.323728919029235840e-01
1.922004103660583496e+00,1.956698656082153320e+00,6.332166194915771484e-01
1.820585608482360840e+00,1.907301068305969238e+00,-7.065078020095825195e-01
1.822945117950439453e+00,1.909772992134094238e+00,-6.095243692398071289e-01
1.825100302696228027e+00,1.912030935287475586e+00,-5.137979984283447266e-01
1.827428698539733887e+00,1.914470195770263672e+00,-4.191856086254119873e-01
1.829429984092712402e+00,1.916566848754882812e+00,-3.253216743469238281e-01
1.831625342369079590e+00,1.918866753578186035e+00,-2.320822179317474365e-01
1.833802580833435059e+00,1.921147584915161133e+00,-1.391879916191101074e-01
1.835954070091247559e+00,1.923401594161987305e+00,-4.641268774867057800e-02
1.838079452514648438e+00,1.925628304481506348e+00,4.646641761064529419e-02
1.840202927589416504e+00,1.927852869033813477e+00,1.396737843751907349e-01
1.842543363571166992e+00,1.930304765701293945e+00,2.334656119346618652e-01
1.844599366188049316e+00,1.932458758354187012e+00,3.280192017555236816e-01
1.846875667572021484e+00,1.934843420982360840e+00,4.236464500427246094e-01
1.849008083343505859e+00,1.937077403068542480e+00,5.205284953117370605e-01
1.851408123970031738e+00,1.939591765403747559e+00,6.190413832664489746e-01
1.755535840988159180e+00,1.892661690711975098e+00,-6.917062401771545410e-01
1.757995367050170898e+00,1.895313262939453125e+00,-5.968172550201416016e-01
1.759879708290100098e+00,1.897344946861267090e+00,-5.030310750007629395e-01
1.761997818946838379e+00,1.899628400802612305e+00,-4.103717505931854248e-01
1.764235854148864746e+00,1.902041316032409668e+00,-3.185370564460754395e-01
1.766235232353210449e+00,1.904196739196777344e+00,-2.272269725799560547e-01
1.768331646919250488e+00,1.906456947326660156e+00,-1.362759023904800415e-01
1.770403742790222168e+00,1.908690929412841797e+00,-4.544157162308692932e-02
1.772462368011474609e+00,1.910910367965698242e+00,4.549441486597061157e-02
1.774628758430480957e+00,1.913246035575866699e+00,1.367611885070800781e-01
1.776587247848510742e+00,1.915357470512390137e+00,2.285587787628173828e-01
1.778698563575744629e+00,1.917633652687072754e+00,3.211483359336853027e-01
1.781090497970581055e+00,1.920212507247924805e+00,4.148184657096862793e-01
1.782966256141662598e+00,1.922234773635864258e+00,5.096299648284912109e-01
1.785541653633117676e+00,1.925011277198791504e+00,6.061688661575317383e-01
1.694149732589721680e+00,1.879737019538879395e+00,-6.780509352684020996e-01
1.696337699890136719e+00,1.882164716720581055e+00,-5.849712491035461426e-01
1.698341727256774902e+00,1.884388208389282227e+00,-4.931005239486694336e-01
1.700505018234252930e+00,1.886788487434387207e+00,-4.022986292839050293e-01
1.702549815177917480e+00,1.889057278633117676e+00,-3.122494518756866455e-01
1.704541563987731934e+00,1.891267180442810059e+00,-2.227498888969421387e-01
1.706525802612304688e+00,1.893468856811523438e+00,-1.335877776145935059e-01
1.708528280258178711e+00,1.895690679550170898e+00,-4.454528912901878357e-02
1.710554361343383789e+00,1.897938609123229980e+00,4.459811002016067505e-02
1.712588191032409668e+00,1.900195360183715820e+00,1.340623497962951660e-01
1.714594483375549316e+00,1.902421355247497559e+00,2.240636050701141357e-01
1.716517567634582520e+00,1.904555201530456543e+00,3.148111701011657715e-01
1.718643546104431152e+00,1.906913995742797852e+00,4.065897762775421143e-01
1.720642328262329102e+00,1.909131646156311035e+00,4.995752871036529541e-01
1.722880601882934570e+00,1.911615133285522461e+00,5.941243767738342285e-01
1.632984876632690430e+00,1.864862203598022461e+00,-6.641861200332641602e-01
1.634906411170959473e+00,1.867056488990783691e+00,-5.729439854621887207e-01
1.636987686157226562e+00,1.869433283805847168e+00,-4.830063581466674805e-01
1.638929367065429688e+00,1.871650695800781250e+00,-3.940287530422210693e-01
1.640815019607543945e+00,1.873804092407226562e+00,-3.058148324489593506e-01
1.642807245254516602e+00,1.876079201698303223e+00,-2.181692719459533691e-01
1.644691228866577148e+00,1.878230690956115723e+00,-1.308384239673614502e-01
1.646623969078063965e+00,1.880437850952148438e+00,-4.362858086824417114e-02
1.648605942726135254e+00,1.882701396942138672e+00,4.368109628558158875e-02
1.650498747825622559e+00,1.884862899780273438e+00,1.313004344701766968e-01
1.652518868446350098e+00,1.887169837951660156e+00,2.194589972496032715e-01
1.654517769813537598e+00,1.889452576637268066e+00,3.083687722682952881e-01
1.656421422958374023e+00,1.891626477241516113e+00,3.982341587543487549e-01
1.658539056777954102e+00,1.894044995307922363e+00,4.893652796745300293e-01
1.660472631454467773e+00,1.896253108978271484e+00,5.819035172462463379e-01
1.576479673385620117e+00,1.853190302848815918e+00,-6.519256234169006348e-01
1.578526377677917480e+00,1.855596303939819336e+00,-5.624361038208007812e-01
1.580393910408020020e+00,1.857791662216186523e+00,-4.741053581237792969e-01
1.582395315170288086e+00,1.860144376754760742e+00,-3.867984712123870850e-01
1.584128975868225098e+00,1.862182259559631348e+00,-3.001867830753326416e-01
1.586022257804870605e+00,1.864407896995544434e+00,-2.141501158475875854e-01
1.587905645370483398e+00,1.866621851921081543e+00,-1.284333169460296631e-01
1.589773893356323242e+00,1.868818044662475586e+00,-4.282664880156517029e-02
1.591627836227416992e+00,1.870997428894042969e+00,4.287659376859664917e-02
1.593485593795776367e+00,1.873181343078613281e+00,1.288846433162689209e-01
1.595524311065673828e+00,1.875577926635742188e+00,2.154331207275390625e-01
1.597331166267395020e+00,1.877701759338378906e+00,3.026885390281677246e-01
1.599313020706176758e+00,1.880031585693359375e+00,3.909338414669036865e-01
1.601168274879455566e+00,1.882212400436401367e+00,4.803375005722045898e-01
1.603225111961364746e+00,1.884630322456359863e+00,5.712363719940185547e-01
1.520342111587524414e+00,1.839918851852416992e+00,-6.395360231399536133e-01
1.522172927856445312e+00,1.842134475708007812e+00,-5.516954064369201660e-01
1.524131536483764648e+00,1.844504714012145996e+00,-4.650996029376983643e-01
1.525950312614440918e+00,1.846705913543701172e+00,-3.794234693050384521e-01
1.527706861495971680e+00,1.848831653594970703e+00,-2.944794893264770508e-01
1.529461622238159180e+00,1.850955247879028320e+00,-2.100688517093658447e-01
1.531287074089050293e+00,1.853164434432983398e+00,-1.259863972663879395e-01
1.533087134361267090e+00,1.855342864990234375e+00,-4.201066866517066956e-02
1.534870386123657227e+00,1.857501029968261719e+00,4.205953702330589294e-02
1.536734461784362793e+00,1.859756827354431152e+00,1.264345794916152954e-01
1.538619995117187500e+00,1.862038731575012207e+00,2.113267332315444946e-01
1.540475726127624512e+00,1.864284515380859375e+00,2.969408333301544189e-01
1.542232751846313477e+00,1.866410851478576660e+00,3.834720253944396973e-01
1.544167637825012207e+00,1.868752479553222656e+00,4.712137877941131592e-01
1.545918464660644531e+00,1.870871424674987793e+00,5.603017210960388184e-01
1.467213273048400879e+00,1.828293204307556152e+00,-6.281310915946960449e-01
1.468851208686828613e+00,1.830334067344665527e+00,-5.418093204498291016e-01
1.470648527145385742e+00,1.832573771476745605e+00,-4.567365348339080811e-01
1.472545862197875977e+00,1.834938168525695801e+00,-3.726369738578796387e-01
1.474184632301330566e+00,1.836980104446411133e+00,-2.892012894153594971e-01
1.475950717926025391e+00,1.839180946350097656e+00,-2.063137888908386230e-01
1.477692484855651855e+00,1.841351270675659180e+00,-1.237326785922050476e-01
1.479431748390197754e+00,1.843518495559692383e+00,-4.125921800732612610e-02
1.481173157691955566e+00,1.845688581466674805e+00,4.130778461694717407e-02
1.482903480529785156e+00,1.847844719886779785e+00,1.241690143942832947e-01
1.484780192375183105e+00,1.850183367729187012e+00,2.075480073690414429e-01
1.486431837081909180e+00,1.852241396903991699e+00,2.916039228439331055e-01
1.488221645355224609e+00,1.854471683502197266e+00,3.766038119792938232e-01
1.490220427513122559e+00,1.856962323188781738e+00,4.628149271011352539e-01
1.492081522941589355e+00,1.859281539916992188e+00,5.503782033920288086e-01
1.415585875511169434e+00,1.816623568534851074e+00,-6.170973777770996094e-01
1.417344808578491211e+00,1.818880677223205566e+00,-5.323590636253356934e-01
1.418961644172668457e+00,1.820955634117126465e+00,-4.487329721450805664e-01
1.420708060264587402e+00,1.823196887969970703e+00,-3.660854101181030273e-01
1.422377943992614746e+00,1.825339794158935547e+00,-2.841344177722930908e-01
1.424026131629943848e+00,1.827454924583435059e+00,-2.026911675930023193e-01
1.425691843032836914e+00,1.829592466354370117e+00,-1.215588226914405823e-01
1.427372217178344727e+00,1.831748843193054199e+00,-4.053440317511558533e-02
1.429067969322204590e+00,1.833925008773803711e+00,4.058255627751350403e-02
1.430793881416320801e+00,1.836139917373657227e+00,1.219938397407531738e-01
1.432519793510437012e+00,1.838354825973510742e+00,2.039001137018203735e-01
1.434198856353759766e+00,1.840509533882141113e+00,2.864957451820373535e-01
1.436045527458190918e+00,1.842879414558410645e+00,3.700375258922576904e-01
1.437797784805297852e+00,1.845128178596496582e+00,4.546897411346435547e-01
1.439356446266174316e+00,1.847128272056579590e+00,5.406267046928405762e-01
1.365485191345214844e+00,1.805029749870300293e+00,-6.064576506614685059e-01
1.367104411125183105e+00,1.807170033454895020e+00,-5.231506824493408203e-01
1.368834733963012695e+00,1.809457540512084961e+00,-4.410261511802673340e-01
1.370455145835876465e+00,1.811599373817443848e+00,-3.597811162471771240e-01
1.372034907341003418e+00,1.813687682151794434e+00,-2.792350649833679199e-01
1.373703479766845703e+00,1.815893411636352539e+00,-1.992075592279434204e-01
1.375326037406921387e+00,1.818038225173950195e+00,-1.194709911942481995e-01
1.376945734024047852e+00,1.820179343223571777e+00,-3.983816877007484436e-02
1.378569722175598145e+00,1.822326064109802246e+00,3.988515213131904602e-02
1.380159854888916016e+00,1.824428081512451172e+00,1.198908984661102295e-01
1.381856799125671387e+00,1.826671242713928223e+00,2.003899216651916504e-01
1.383542656898498535e+00,1.828899741172790527e+00,2.815771102905273438e-01
1.385154962539672852e+00,1.831031084060668945e+00,3.636402189731597900e-01
1.386924743652343750e+00,1.833370566368103027e+00,4.468545913696289062e-01
1.388538479804992676e+00,1.835503816604614258e+00,5.313529372215270996e-01
1.316916227340698242e+00,1.793612957000732422e+00,-5.962275862693786621e-01
1.318673253059387207e+00,1.796005964279174805e+00,-5.144021511077880859e-01
1.320268034934997559e+00,1.798177957534790039e+00,-4.336265623569488525e-01
