-2.079159021377563477e+00,1.656343102455139160e+00,-4.210272133350372314e-01
-2.081486701965332031e+00,1.658197402954101562e+00,-3.267588615417480469e-01
-2.084073543548583984e+00,1.660258293151855469e+00,-2.331174761056900024e-01
-2.086586236953735352e+00,1.662259817123413086e+00,-1.398112326860427856e-01
-2.089099884033203125e+00,1.664262413978576660e+00,-4.662197455763816833e-02
-2.091631889343261719e+00,1.666279554367065430e+00,4.667847976088523865e-02
-2.094104766845703125e+00,1.668249487876892090e+00,1.403150111436843872e-01
-2.096869707107543945e+00,1.670452237129211426e+00,2.345488071441650391e-01
-2.099175691604614258e+00,1.672289252281188965e+00,3.295357525348663330e-01
-2.101842403411865234e+00,1.674413561820983887e+00,4.256205856800079346e-01
-2.104343414306640625e+00,1.676405906677246094e+00,5.229724645614624023e-01
-2.107363939285278320e+00,1.678812265396118164e+00,6.220332384109497070e-01
-2.114707946777343750e+00,1.635742187500000000e+00,-7.163630127906799316e-01
-2.117592811584472656e+00,1.637973666191101074e+00,-6.180688738822937012e-01
-2.120214223861694336e+00,1.640001296997070312e+00,-5.210295319557189941e-01
-2.122702836990356445e+00,1.641926288604736328e+00,-4.250422120094299316e-01
-2.125169277191162109e+00,1.643834233283996582e+00,-3.298888802528381348e-01
-2.127874135971069336e+00,1.645926356315612793e+00,-2.353575229644775391e-01
-2.130464792251586914e+00,1.647930264472961426e+00,-1.411563605070114136e-01
-2.133032560348510742e+00,1.649916529655456543e+00,-4.707055538892745972e-02
-2.135589361190795898e+00,1.651894092559814453e+00,4.712697491049766541e-02
-2.138051271438598633e+00,1.653798460960388184e+00,1.416590213775634766e-01
-2.140783548355102539e+00,1.655911803245544434e+00,2.367853820323944092e-01
-2.143537282943725586e+00,1.658041954040527344e+00,3.327401280403137207e-01
-2.146217823028564453e+00,1.660115242004394531e+00,4.297507703304290771e-01
-2.148700952529907227e+00,1.662036061286926270e+00,5.280299782752990723e-01
-2.151684999465942383e+00,1.664344191551208496e+00,6.280195116996765137e-01
-2.158965349197387695e+00,1.621124863624572754e+00,-7.234208583831787109e-01
-2.161987304687500000e+00,1.623394131660461426e+00,-6.241804957389831543e-01
-2.164186239242553711e+00,1.625045299530029297e+00,-5.260655283927917480e-01
-2.166850805282592773e+00,1.627045989036560059e+00,-4.291750490665435791e-01
-2.169760465621948242e+00,1.629230856895446777e+00,-3.331566751003265381e-01
-2.172288656234741211e+00,1.631129145622253418e+00,-2.376633584499359131e-01
-2.174964666366577148e+00,1.633138656616210938e+00,-1.425413638353347778e-01
-2.177588462829589844e+00,1.635108709335327148e+00,-4.753245413303375244e-02
-2.180163860321044922e+00,1.637042522430419922e+00,4.758866876363754272e-02
-2.182909250259399414e+00,1.639104008674621582e+00,1.430620402097702026e-01
-2.185307502746582031e+00,1.640904664993286133e+00,2.390877157449722290e-01
-2.187990903854370117e+00,1.642919659614562988e+00,3.359558582305908203e-01
-2.191207408905029297e+00,1.645334839820861816e+00,4.339992105960845947e-01
-2.193665981292724609e+00,1.647180914878845215e+00,5.332313776016235352e-01
-2.196598768234252930e+00,1.649383068084716797e+00,6.341729760169982910e-01
-2.203817129135131836e+00,1.605998277664184570e+00,-7.306722998619079590e-01
-2.206346511840820312e+00,1.607841491699218750e+00,-6.302784681320190430e-01
-2.209282875061035156e+00,1.609981298446655273e+00,-5.313714742660522461e-01
-2.212021112442016602e+00,1.611976861953735352e+00,-4.335073232650756836e-01
-2.214674949645996094e+00,1.613910675048828125e+00,-3.364715874195098877e-01
-2.217319965362548828e+00,1.615838289260864258e+00,-2.400351315736770630e-01
-2.220084190368652344e+00,1.617852687835693359e+00,-1.439659744501113892e-01
-2.222762584686279297e+00,1.619804382324218750e+00,-4.800751060247421265e-02
-2.225360870361328125e+00,1.621697902679443359e+00,4.806363210082054138e-02
-2.228092908859252930e+00,1.623688817024230957e+00,1.444853246212005615e-01
-2.230856895446777344e+00,1.625703096389770508e+00,2.415005713701248169e-01
-2.233582496643066406e+00,1.627689361572265625e+00,3.393442034721374512e-01
-2.236163377761840820e+00,1.629570007324218750e+00,4.382386505603790283e-01
-2.239236593246459961e+00,1.631809592247009277e+00,5.385758876800537109e-01
-2.242108583450317383e+00,1.633902668952941895e+00,6.404944658279418945e-01
-2.249266624450683594e+00,1.590335726737976074e+00,-7.381182909011840820e-01
-2.251940727233886719e+00,1.592226505279541016e+00,-6.367275714874267578e-01
-2.254996061325073242e+00,1.594386696815490723e+00,-5.368224382400512695e-01
-2.257392644882202148e+00,1.596081137657165527e+00,-4.378770589828491211e-01
-2.260203123092651367e+00,1.598068475723266602e+00,-3.398786187171936035e-01
-2.263152599334716797e+00,1.600153803825378418e+00,-2.424924671649932861e-01
-2.265827178955078125e+00,1.602044820785522461e+00,-1.454303860664367676e-01
-2.268558025360107422e+00,1.603975772857666016e+00,-4.849578440189361572e-02
-2.271356344223022461e+00,1.605954170227050781e+00,4.855560138821601868e-02
-2.273895263671875000e+00,1.607749223709106445e+00,1.459482163190841675e-01
-2.276612043380737305e+00,1.609670162200927734e+00,2.439346015453338623e-01
-2.279791593551635742e+00,1.611918330192565918e+00,3.428242206573486328e-01
-2.282371044158935547e+00,1.613742113113403320e+00,4.427222609519958496e-01
-2.285409450531005859e+00,1.615890383720397949e+00,5.440626144409179688e-01
-2.288211584091186523e+00,1.617871642112731934e+00,6.469830274581909180e-01
-2.295309782028198242e+00,1.574106216430664062e+00,-7.457576990127563477e-01
-2.298137187957763672e+00,1.576045155525207520e+00,-6.433451771736145020e-01
-2.300771713256835938e+00,1.577851891517639160e+00,-5.422877669334411621e-01
-2.303787946701049805e+00,1.579920530319213867e+00,-4.424447417259216309e-01
-2.306644678115844727e+00,1.581879615783691406e+00,-3.434222936630249023e-01
-2.309423208236694336e+00,1.583785057067871094e+00,-2.449961900711059570e-01
-2.312189340591430664e+00,1.585682153701782227e+00,-1.469343006610870361e-01
-2.314974784851074219e+00,1.587592244148254395e+00,-4.899725317955017090e-02
-2.317791700363159180e+00,1.589524149894714355e+00,4.905687645077705383e-02
-2.320618629455566406e+00,1.591462731361389160e+00,1.474699527025222778e-01
-2.323402404785156250e+00,1.593371987342834473e+00,2.464791834354400635e-01
-2.326071739196777344e+00,1.595202445983886719e+00,3.463146388530731201e-01
-2.329189777374267578e+00,1.597340822219848633e+00,4.473231732845306396e-01
-2.332189559936523438e+00,1.599398016929626465e+00,5.496928691864013672e-01
-2.334911108016967773e+00,1.601264595985412598e+00,6.536397337913513184e-01
-2.344330787658691406e+00,1.558866977691650391e+00,-7.543580532073974609e-01
-2.347351551055908203e+00,1.560875773429870605e+00,-6.508013606071472168e-01
-2.350131273269653320e+00,1.562723994255065918e+00,-5.485934019088745117e-01
-2.353259563446044922e+00,1.564804196357727051e+00,-4.475984275341033936e-01
-2.355864763259887695e+00,1.566536545753479004e+00,-3.473764061927795410e-01
-2.358787298202514648e+00,1.568479776382446289e+00,-2.478259354829788208e-01
-2.361651897430419922e+00,1.570384621620178223e+00,-1.486338973045349121e-01
-2.364498615264892578e+00,1.572277545928955078e+00,-4.956404492259025574e-02
-2.367333173751831055e+00,1.574162483215332031e+00,4.962346330285072327e-02
-2.370135307312011719e+00,1.576025724411010742e+00,1.491678059101104736e-01
-2.373288154602050781e+00,1.578122258186340332e+00,2.493494749069213867e-01
-2.375969886779785156e+00,1.579905509948730469e+00,3.503409624099731445e-01
-2.379061460494995117e+00,1.581961274147033691e+00,4.525060355663299561e-01
-2.381994485855102539e+00,1.583911657333374023e+00,5.560312867164611816e-01
-2.384600162506103516e+00,1.585644125938415527e+00,6.611284613609313965e-01
-2.391634941101074219e+00,1.541418552398681641e+00,-7.624019980430603027e-01
-2.394827604293823242e+00,1.543476223945617676e+00,-6.577715277671813965e-01
-2.397743940353393555e+00,1.545355916023254395e+00,-5.544875860214233398e-01
-2.400527000427246094e+00,1.547149538993835449e+00,-4.523304402828216553e-01
-2.403619050979614258e+00,1.549142360687255859e+00,-3.511123657226562500e-01
-2.406367301940917969e+00,1.550913572311401367e+00,-2.504669427871704102e-01
-2.409331798553466797e+00,1.552824258804321289e+00,-1.502204686403274536e-01
-2.412234306335449219e+00,1.554694890975952148e+00,-5.009307339787483215e-02
-2.415085315704345703e+00,1.556532382965087891e+00,5.015227943658828735e-02
-2.418179273605346680e+00,1.558526396751403809e+00,1.507720947265625000e-01
-2.420957326889038086e+00,1.560317039489746094e+00,2.519855499267578125e-01
-2.424100160598754883e+00,1.562342524528503418e+00,3.541041910648345947e-01
-2.427177429199218750e+00,1.564325928688049316e+00,4.573521912097930908e-01
-2.430049657821655273e+00,1.566177010536193848e+00,5.619583725929260254e-01
-2.433469057083129883e+00,1.568380832672119141e+00,6.683849096298217773e-01
-2.442080497741699219e+00,1.524908900260925293e+00,-7.714460492134094238e-01
-2.445489406585693359e+00,1.527037501335144043e+00,-6.656149029731750488e-01
-2.448568105697631836e+00,1.528959989547729492e+00,-5.611224174499511719e-01
-2.451470613479614258e+00,1.530772328376770020e+00,-4.577542245388031006e-01
-2.454315185546875000e+00,1.532548546791076660e+00,-3.552771508693695068e-01
-2.457406759262084961e+00,1.534479141235351562e+00,-2.534673511981964111e-01
-2.460284471511840820e+00,1.536275982856750488e+00,-1.520107388496398926e-01
-2.463249444961547852e+00,1.538127303123474121e+00,-5.069008469581604004e-02
-2.466308116912841797e+00,1.540037393569946289e+00,5.075303465127944946e-02
-2.469181060791015625e+00,1.541831254959106445e+00,1.525604128837585449e-01
-2.472331762313842773e+00,1.543798685073852539e+00,2.550067603588104248e-01
-2.475480079650878906e+00,1.545764684677124023e+00,3.583409190177917480e-01
-2.478516817092895508e+00,1.547660827636718750e+00,4.628044664859771729e-01
-2.481303930282592773e+00,1.549401164054870605e+00,5.686242580413818359e-01
-2.484597444534301758e+00,1.551457762718200684e+00,6.762593984603881836e-01
-2.493276119232177734e+00,1.507713913917541504e+00,-7.807214260101318359e-01
-2.496912956237792969e+00,1.509913325309753418e+00,-6.736600399017333984e-01
-2.499592781066894531e+00,1.511533737182617188e+00,-5.677992105484008789e-01
-2.502740383148193359e+00,1.513437151908874512e+00,-4.632352590560913086e-01
-2.506114482879638672e+00,1.515477538108825684e+00,-3.595985770225524902e-01
-2.509035825729370117e+00,1.517244100570678711e+00,-2.565263211727142334e-01
-2.512025833129882812e+00,1.519052147865295410e+00,-1.538484543561935425e-01
-2.515050888061523438e+00,1.520881414413452148e+00,-5.130285397171974182e-02
-2.518126010894775391e+00,1.522740960121154785e+00,5.136558040976524353e-02
-2.521289348602294922e+00,1.524653911590576172e+00,1.544158011674880981e-01
-2.524037361145019531e+00,1.526315569877624512e+00,2.580600678920745850e-01
-2.527060985565185547e+00,1.528144121170043945e+00,3.626041710376739502e-01
-2.530628442764282227e+00,1.530301332473754883e+00,4.683970510959625244e-01
-2.533317089080810547e+00,1.531927227973937988e+00,5.754599571228027344e-01
-2.536470651626586914e+00,1.533834218978881836e+00,6.843325495719909668e-01
-2.546038627624511719e+00,1.490278363227844238e+00,-7.904825806617736816e-01
-2.549090385437011719e+00,1.492064595222473145e+00,-6.819055676460266113e-01
-2.551949501037597656e+00,1.493738293647766113e+00,-5.747768282890319824e-01
-2.555229663848876953e+00,1.495658159255981445e+00,-4.689400792121887207e-01
-2.558362007141113281e+00,1.497491598129272461e+00,-3.639826178550720215e-01
-2.561444520950317383e+00,1.499295830726623535e+00,-2.596639394760131836e-01
-2.564546823501586914e+00,1.501111865043640137e+00,-1.557332426309585571e-01
-2.567633390426635742e+00,1.502918481826782227e+00,-5.193132534623146057e-02
-2.570723295211791992e+00,1.504727125167846680e+00,5.199381709098815918e-02
-2.573851823806762695e+00,1.506558299064636230e+00,1.562982797622680664e-01
-2.576969385147094727e+00,1.508383035659790039e+00,2.612377405166625977e-01
-2.579988956451416016e+00,1.510150551795959473e+00,3.670595288276672363e-01
-2.583509206771850586e+00,1.512211084365844727e+00,4.741300046443939209e-01
-2.586919546127319336e+00,1.514207243919372559e+00,5.826531052589416504e-01
-2.590040922164916992e+00,1.516034245491027832e+00,6.928601861000061035e-01
-2.598731756210327148e+00,1.471595287322998047e+00,-8.002207875251770020e-01
-2.602024793624877930e+00,1.473459959030151367e+00,-6.903533935546875000e-01
-2.605066299438476562e+00,1.475182414054870605e+00,-5.819249749183654785e-01
-2.608488798141479492e+00,1.477120399475097656e+00,-4.747854769229888916e-01
-2.611707687377929688e+00,1.478943109512329102e+00,-3.685227334499359131e-01
-2.614626169204711914e+00,1.480595946311950684e+00,-2.628798782825469971e-01
-2.617840290069580078e+00,1.482415914535522461e+00,-1.576648503541946411e-01
-2.620993852615356445e+00,1.484201669692993164e+00,-5.257550254464149475e-02
-2.624093770980834961e+00,1.485957145690917969e+00,5.263768881559371948e-02
-2.627519369125366211e+00,1.487896919250488281e+00,1.582477837800979614e-01
-2.630677461624145508e+00,1.489685297012329102e+00,2.644937038421630859e-01
-2.633688688278198242e+00,1.491390466690063477e+00,3.716243505477905273e-01
-2.637151002883911133e+00,1.493351101875305176e+00,4.800024628639221191e-01
-2.640449523925781250e+00,1.495218992233276367e+00,5.898289680480957031e-01
-2.643407583236694336e+00,1.496894001960754395e+00,7.013328075408935547e-01
-2.655081748962402344e+00,1.453718543052673340e+00,-8.110821843147277832e-01
-2.658656358718872070e+00,1.455675721168518066e+00,-6.997788548469543457e-01
-2.661923885345458984e+00,1.457464694976806641e+00,-5.899054408073425293e-01
-2.665521383285522461e+00,1.459434390068054199e+00,-4.813147783279418945e-01
-2.668511629104614258e+00,1.461071729660034180e+00,-3.735488355159759521e-01
-2.671813964843750000e+00,1.462879776954650879e+00,-2.664971351623535156e-01
-2.675022363662719727e+00,1.464636564254760742e+00,-1.598297953605651855e-01
-2.678241968154907227e+00,1.466399312019348145e+00,-5.329737439751625061e-02
-2.681488513946533203e+00,1.468176841735839844e+00,5.336197838187217712e-02
-2.684664964675903320e+00,1.469915986061096191e+00,1.604059189558029175e-01
-2.688189744949340820e+00,1.471845984458923340e+00,2.681305110454559326e-01
-2.691166400909423828e+00,1.473475694656372070e+00,3.767201304435729980e-01
-2.694543600082397461e+00,1.475324869155883789e+00,4.865553677082061768e-01
-2.697699785232543945e+00,1.477052927017211914e+00,5.978336930274963379e-01
-2.701424598693847656e+00,1.479092240333557129e+00,7.110357880592346191e-01
-2.713195323944091797e+00,1.435452222824096680e+00,-8.224740624427795410e-01
-2.716218948364257812e+00,1.437051892280578613e+00,-7.094430923461914062e-01
-2.719721794128417969e+00,1.438905119895935059e+00,-5.980885028839111328e-01
-2.723024606704711914e+00,1.440652608871459961e+00,-4.879247248172760010e-01
-2.726604223251342773e+00,1.442546367645263672e+00,-3.787516951560974121e-01
-2.729756593704223633e+00,1.444214344024658203e+00,-2.701870203018188477e-01
-2.733091115951538086e+00,1.445978522300720215e+00,-1.620461195707321167e-01
-2.736385107040405273e+00,1.447721123695373535e+00,-5.403652787208557129e-02
-2.739638328552246094e+00,1.449442386627197266e+00,5.410077050328254700e-02
-2.743101835250854492e+00,1.451274752616882324e+00,1.626396477222442627e-01
-2.746179819107055664e+00,1.452903151512145996e+00,2.718125581741333008e-01
-2.749591827392578125e+00,1.454708337783813477e+00,3.819449245929718018e-01
-2.752875566482543945e+00,1.456445693969726562e+00,4.932735562324523926e-01
-2.756738901138305664e+00,1.458489537239074707e+00,6.062288880348205566e-01
-2.760375976562500000e+00,1.460413813591003418e+00,7.209764122962951660e-01
-2.771365404129028320e+00,1.415838360786437988e+00,-8.338789939880371094e-01
-2.775434494018554688e+00,1.417917132377624512e+00,-7.195349335670471191e-01
-2.778449058532714844e+00,1.419457316398620605e+00,-6.064730882644653320e-01
-2.781933307647705078e+00,1.421237349510192871e+00,-4.947844445705413818e-01
-2.785293340682983398e+00,1.422953844070434570e+00,-3.840356171131134033e-01
-2.788642883300781250e+00,1.424665093421936035e+00,-2.739690542221069336e-01
-2.792113542556762695e+00,1.426438212394714355e+00,-1.643181890249252319e-01
-2.795472621917724609e+00,1.428154230117797852e+00,-5.479406565427780151e-02
-2.798735618591308594e+00,1.429821252822875977e+00,5.485802143812179565e-02
-2.802148580551147461e+00,1.431564927101135254e+00,1.649087667465209961e-01
-2.805586814880371094e+00,1.433321356773376465e+00,2.756336927413940430e-01
-2.808960437774658203e+00,1.435044884681701660e+00,3.872988224029541016e-01
-2.812883615493774414e+00,1.437049269676208496e+00,5.002891421318054199e-01
-2.815836429595947266e+00,1.438557744026184082e+00,6.146339178085327148e-01
-2.819252967834472656e+00,1.440303206443786621e+00,7.308949232101440430e-01
-2.831308126449584961e+00,1.395729899406433105e+00,-8.458174467086791992e-01
-2.834830999374389648e+00,1.397466540336608887e+00,-7.296730875968933105e-01
-2.838097333908081055e+00,1.399076700210571289e+00,-6.150587797164916992e-01
-2.841774702072143555e+00,1.400889515876770020e+00,-5.018098950386047363e-01
-2.845261335372924805e+00,1.402608275413513184e+00,-3.894959986209869385e-01
-2.848671197891235352e+00,1.404289245605468750e+00,-2.778633236885070801e-01
-2.852069139480590820e+00,1.405964374542236328e+00,-1.666452437639236450e-01
-2.855501890182495117e+00,1.407656550407409668e+00,-5.557007715106010437e-02
-2.858980655670166016e+00,1.409371376037597656e+00,5.563777685165405273e-02
-2.862475156784057617e+00,1.411094069480895996e+00,1.672532558441162109e-01
-2.865931749343872070e+00,1.412798166275024414e+00,2.795469462871551514e-01
-2.869256973266601562e+00,1.414437294006347656e+00,3.927808403968811035e-01
-2.873073339462280273e+00,1.416318655014038086e+00,5.073367357254028320e-01
-2.876730442047119141e+00,1.418121337890625000e+00,6.234311461448669434e-01
-2.880034446716308594e+00,1.419750213623046875e+00,7.413082718849182129e-01
-2.891272306442260742e+00,1.374209523200988770e+00,-8.577670454978942871e-01
-2.895122289657592773e+00,1.376039266586303711e+00,-7.400463819503784180e-01
-2.898654937744140625e+00,1.377718448638916016e+00,-6.238450407981872559e-01
-2.902534484863281250e+00,1.379562377929687500e+00,-5.090000629425048828e-01
-2.905804872512817383e+00,1.381116747856140137e+00,-3.950373530387878418e-01
-2.909415960311889648e+00,1.382833123207092285e+00,-2.818289101123809814e-01
-2.912954330444335938e+00,1.384514808654785156e+00,-1.690275073051452637e-01
-2.916460752487182617e+00,1.386181473731994629e+00,-5.636448785662651062e-02
-2.919943809509277344e+00,1.387836933135986328e+00,5.643180385231971741e-02
-2.923382520675659180e+00,1.389471292495727539e+00,1.696326136589050293e-01
-2.927201747894287109e+00,1.391286611557006836e+00,2.835517823696136475e-01
-2.930469989776611328e+00,1.392839908599853516e+00,3.983905017375946045e-01
-2.934172868728637695e+00,1.394599914550781250e+00,5.145483016967773438e-01
-2.937646865844726562e+00,1.396251082420349121e+00,6.322368383407592773e-01
-2.941716670989990234e+00,1.398185491561889648e+00,7.519568204879760742e-01
-2.956415176391601562e+00,1.353646039962768555e+00,-8.712558746337890625e-01
-2.960525751113891602e+00,1.355528235435485840e+00,-7.517281770706176758e-01
-2.963599681854248047e+00,1.356935620307922363e+00,-6.335774064064025879e-01
-2.967722654342651367e+00,1.358823418617248535e+00,-5.169680714607238770e-01
-2.971147298812866211e+00,1.360391378402709961e+00,-4.012322425842285156e-01
-2.974850177764892578e+00,1.362086772918701172e+00,-2.862495183944702148e-01
-2.978322982788085938e+00,1.363676905632019043e+00,-1.716704070568084717e-01
-2.981905698776245117e+00,1.365317344665527344e+00,-5.724574998021125793e-02
-2.985609769821166992e+00,1.367013335227966309e+00,5.731686204671859741e-02
-2.989116668701171875e+00,1.368618965148925781e+00,1.722925454378128052e-01
-2.992937803268432617e+00,1.370368599891662598e+00,2.879899740219116211e-01
-2.996121883392333984e+00,1.371826410293579102e+00,4.046048521995544434e-01
-3.000447988510131836e+00,1.373807191848754883e+00,5.226686596870422363e-01
-3.003828763961791992e+00,1.375355243682861328e+00,6.421778202056884766e-01
-3.007734775543212891e+00,1.377143621444702148e+00,7.637153267860412598e-01
-3.019121408462524414e+00,1.330423951148986816e+00,-8.840329051017761230e-01
-3.022684335708618164e+00,1.331994056701660156e+00,-7.625920772552490234e-01
-3.026680231094360352e+00,1.333754897117614746e+00,-6.429159641265869141e-01
-3.030388832092285156e+00,1.335389137268066406e+00,-5.245009660720825195e-01
-3.033954143524169922e+00,1.336960315704345703e+00,-4.070879220962524414e-01
-3.037509918212890625e+00,1.338527083396911621e+00,-2.904055416584014893e-01
-3.041130065917968750e+00,1.340122342109680176e+00,-1.741671264171600342e-01
-3.044788360595703125e+00,1.341734528541564941e+00,-5.807831510901451111e-02
-3.048495054244995117e+00,1.343367934226989746e+00,5.814901739358901978e-02
-3.052297830581665039e+00,1.345043659210205078e+00,1.748067140579223633e-01
-3.056130647659301758e+00,1.346732616424560547e+00,2.921858131885528564e-01
-3.059886693954467773e+00,1.348387837409973145e+00,4.105674624443054199e-01
-3.063438653945922852e+00,1.349953055381774902e+00,5.302212834358215332e-01
-3.067523241043090820e+00,1.351752996444702148e+00,6.515917181968688965e-01
-3.071290493011474609e+00,1.353413105010986328e+00,7.748549580574035645e-01
-3.089944601058959961e+00,1.309148073196411133e+00,-8.991917967796325684e-01
-3.093822479248046875e+00,1.310791134834289551e+00,-7.757266163825988770e-01
-3.097404479980468750e+00,1.312308669090270996e+00,-6.538820266723632812e-01
-3.100884437561035156e+00,1.313783049583435059e+00,-5.333929657936096191e-01
-3.104789495468139648e+00,1.315437674522399902e+00,-4.140236377716064453e-01
-3.108605623245239258e+00,1.317054390907287598e+00,-2.953701615333557129e-01
-3.112390995025634766e+00,1.318658232688903809e+00,-1.771491765975952148e-01
-3.116136074066162109e+00,1.320244908332824707e+00,-5.907273665070533752e-02
-3.119842529296875000e+00,1.321815252304077148e+00,5.914299935102462769e-02
-3.123562574386596680e+00,1.323391437530517578e+00,1.777850389480590820e-01
-3.127226829528808594e+00,1.324943900108337402e+00,2.971394956111907959e-01
-3.131379127502441406e+00,1.326703071594238281e+00,4.175693690776824951e-01
-3.135525226593017578e+00,1.328459739685058594e+00,5.393516421318054199e-01
-3.139471769332885742e+00,1.330131769180297852e+00,6.627627015113830566e-01
-3.143009901046752930e+00,1.331630825996398926e+00,7.880595922470092773e-01
-3.157365083694458008e+00,1.284729003906250000e+00,-9.133667349815368652e-01
-3.161670446395874023e+00,1.286480903625488281e+00,-7.880406975746154785e-01
-3.165594339370727539e+00,1.288077473640441895e+00,-6.643171310424804688e-01
-3.169333219528198242e+00,1.289598822593688965e+00,-5.419364571571350098e-01
-3.173425674438476562e+00,1.291264057159423828e+00,-4.206685423851013184e-01
-3.177336215972900391e+00,1.292855262756347656e+00,-3.001116812229156494e-01
-3.181141853332519531e+00,1.294403672218322754e+00,-1.799893230199813843e-01
-3.184965372085571289e+00,1.295959591865539551e+00,-6.001974642276763916e-02
-3.188822031021118164e+00,1.297528862953186035e+00,6.009242311120033264e-02
-3.192602396011352539e+00,1.299067020416259766e+00,1.806377619504928589e-01
-3.196247100830078125e+00,1.300550103187561035e+00,3.018979132175445557e-01
-3.200312137603759766e+00,1.302204132080078125e+00,4.242326021194458008e-01
-3.204278945922851562e+00,1.303818225860595703e+00,5.479119420051574707e-01
-3.207969427108764648e+00,1.305319905281066895e+00,6.732097864151000977e-01
-3.212233066558837891e+00,1.307054758071899414e+00,8.006433248519897461e-01
-3.230591773986816406e+00,1.260940074920654297e+00,-9.292335510253906250e-01
-3.235246181488037109e+00,1.262756705284118652e+00,-8.017921447753906250e-01
-3.239423274993896484e+00,1.264387130737304688e+00,-6.759434342384338379e-01
-3.243320226669311523e+00,1.265908122062683105e+00,-5.514329671859741211e-01
-3.247107267379760742e+00,1.267386198043823242e+00,-4.279871881008148193e-01
-3.250918149948120117e+00,1.268873691558837891e+00,-3.053150177001953125e-01
-3.254899024963378906e+00,1.270427465438842773e+00,-1.831149011850357056e-01
-3.258811712265014648e+00,1.271954655647277832e+00,-6.106201559305191040e-02
-3.262666225433349609e+00,1.273459076881408691e+00,6.113423779606819153e-02
-3.266729831695556641e+00,1.275045275688171387e+00,1.837804764509201050e-01
-3.270855665206909180e+00,1.276655554771423340e+00,3.071874976158142090e-01
-3.274941444396972656e+00,1.278250336647033691e+00,4.316559135913848877e-01
-3.278836488723754883e+00,1.279770612716674805e+00,5.574714541435241699e-01
-3.282359361648559570e+00,1.281145572662353516e+00,6.849024891853332520e-01
-3.287452697753906250e+00,1.283133625984191895e+00,8.147305250167846680e-01
-3.305056810379028320e+00,1.235793828964233398e+00,-9.454676508903503418e-01
-3.310077905654907227e+00,1.237671256065368652e+00,-8.158637285232543945e-01
-3.313849449157714844e+00,1.239081501960754395e+00,-6.877021193504333496e-01
-3.318061590194702148e+00,1.240656495094299316e+00,-5.610638856887817383e-01
-3.322065353393554688e+00,1.242153525352478027e+00,-4.354790449142456055e-01
-3.326001644134521484e+00,1.243625283241271973e+00,-3.106630444526672363e-01
-3.329939603805541992e+00,1.245097756385803223e+00,-1.863148361444473267e-01
-3.333941698074340820e+00,1.246594190597534180e+00,-6.212906166911125183e-02
-3.338016033172607422e+00,1.248117566108703613e+00,6.220498681068420410e-02
-3.342134237289428711e+00,1.249657511711120605e+00,1.869971603155136108e-01
-3.346223831176757812e+00,1.251186609268188477e+00,3.125518858432769775e-01
-3.350175619125366211e+00,1.252664208412170410e+00,4.391639530658721924e-01
-3.354661941528320312e+00,1.254341721534729004e+00,5.672527551651000977e-01
-3.358000040054321289e+00,1.255589842796325684e+00,6.968644261360168457e-01
-3.362837553024291992e+00,1.257398724555969238e+00,8.288679122924804688e-01
-3.381700277328491211e+00,1.209574222564697266e+00,-9.623415470123291016e-01
-3.385329008102416992e+00,1.210872173309326172e+00,-8.300546407699584961e-01
-3.389516353607177734e+00,1.212369918823242188e+00,-6.997319459915161133e-01
-3.394053697586059570e+00,1.213992714881896973e+00,-5.709168910980224609e-01
-3.397901773452758789e+00,1.215369224548339844e+00,-4.430944323539733887e-01
-3.402117967605590820e+00,1.216877222061157227e+00,-3.161133527755737305e-01
-3.406244277954101562e+00,1.218353152275085449e+00,-1.895890533924102783e-01
-3.410337686538696289e+00,1.219817280769348145e+00,-6.322088092565536499e-02
-3.414407730102539062e+00,1.221273064613342285e+00,6.329633295536041260e-02
-3.418425321578979492e+00,1.222710132598876953e+00,1.902670413255691528e-01
-3.422852754592895508e+00,1.224293708801269531e+00,3.180399835109710693e-01
-3.426662445068359375e+00,1.225656390190124512e+00,4.468448758125305176e-01
-3.430919885635375977e+00,1.227179169654846191e+00,5.771182179450988770e-01
-3.435857534408569336e+00,1.228945255279541016e+00,7.092986106872558594e-01
-3.439444780349731445e+00,1.230228424072265625e+00,8.433233499526977539e-01
-3.462794780731201172e+00,1.182959318161010742e+00,-9.804999828338623047e-01
-3.466850996017456055e+00,1.184345006942749023e+00,-8.457999825477600098e-01
-3.471363067626953125e+00,1.185886383056640625e+00,-7.130511403083801270e-01
-3.475586652755737305e+00,1.187329292297363281e+00,-5.817133784294128418e-01
-3.479696273803710938e+00,1.188733220100402832e+00,-4.514955878257751465e-01
-3.484067916870117188e+00,1.190226674079895020e+00,-3.221119344234466553e-01
-3.488161325454711914e+00,1.191624999046325684e+00,-1.931793689727783203e-01
-3.492357254028320312e+00,1.193058490753173828e+00,-6.441818922758102417e-02
-3.496650934219360352e+00,1.194525241851806641e+00,6.449739634990692139e-02
-3.500705003738403320e+00,1.195910215377807617e+00,1.938740611076354980e-01
-3.505069017410278320e+00,1.197401046752929688e+00,3.240535557270050049e-01
-3.509390354156494141e+00,1.198877334594726562e+00,4.553484320640563965e-01
-3.513521909713745117e+00,1.200288772583007812e+00,5.880626440048217773e-01
-3.518233776092529297e+00,1.201898336410522461e+00,7.226788401603698730e-01
-3.522595405578613281e+00,1.203388452529907227e+00,8.593998551368713379e-01
-3.545305490493774414e+00,1.154754638671875000e+00,-9.990807175636291504e-01
-3.549803495407104492e+00,1.156219601631164551e+00,-8.619118332862854004e-01
-3.553967714309692383e+00,1.157575964927673340e+00,-7.265411615371704102e-01
-3.558567285537719727e+00,1.159074068069458008e+00,-5.927644371986389160e-01
-3.562946557998657227e+00,1.160500526428222656e+00,-4.600950479507446289e-01
-3.567243576049804688e+00,1.161900043487548828e+00,-3.282305598258972168e-01
-3.571554660797119141e+00,1.163304209709167480e+00,-1.968554854393005371e-01
-3.575842857360839844e+00,1.164700984954833984e+00,-6.564389914274215698e-02
-3.580126762390136719e+00,1.166096329689025879e+00,6.572254002094268799e-02
-3.584452867507934570e+00,1.167505383491516113e+00,1.975664198398590088e-01
-3.588747262954711914e+00,1.168904066085815430e+00,3.302091658115386963e-01
-3.592896461486816406e+00,1.170255541801452637e+00,4.639625549316406250e-01
-3.597578763961791992e+00,1.171780705451965332e+00,5.992627739906311035e-01
-3.602048635482788086e+00,1.173236608505249023e+00,7.363703846931457520e-01
-3.607188224792480469e+00,1.174910545349121094e+00,8.758451938629150391e-01
-3.634639263153076172e+00,1.126575350761413574e+00,-1.019606709480285645e+00
-3.638660669326782227e+00,1.127821803092956543e+00,-8.794772028923034668e-01
-3.643215417861938477e+00,1.129233598709106445e+00,-7.414059042930603027e-01
-3.647548913955688477e+00,1.130576729774475098e+00,-6.048289537429809570e-01
-3.652236700057983398e+00,1.132029771804809570e+00,-4.694848954677581787e-01
-3.656719446182250977e+00,1.133419275283813477e+00,-3.349364101886749268e-01
-3.661095857620239258e+00,1.134775757789611816e+00,-2.008749693632125854e-01
-3.665489673614501953e+00,1.136137604713439941e+00,-6.698420643806457520e-02
-3.669918775558471680e+00,1.137510418891906738e+00,6.706514209508895874e-02
-3.674274682998657227e+00,1.138860464096069336e+00,2.015980482101440430e-01
-3.678471565246582031e+00,1.140161395072937012e+00,3.369288146495819092e-01
-3.683106899261474609e+00,1.141598105430603027e+00,4.734531641006469727e-01
-3.687617301940917969e+00,1.142996072769165039e+00,6.114729642868041992e-01
-3.692790985107421875e+00,1.144599795341491699e+00,7.514947056770324707e-01
-3.696519374847412109e+00,1.145755410194396973e+00,8.934618234634399414e-01
-3.720046520233154297e+00,1.094943284988403320e+00,-1.039062619209289551e+00
-3.724546670913696289e+00,1.096267819404602051e+00,-8.963516354560852051e-01
-3.729468822479248047e+00,1.097716569900512695e+00,-7.556838393211364746e-01
-3.734045743942260742e+00,1.099063754081726074e+00,-6.164999604225158691e-01
-3.738472461700439453e+00,1.100366711616516113e+00,-4.784966111183166504e-01
-3.742885589599609375e+00,1.101665616035461426e+00,-3.413494825363159180e-01
-3.747484207153320312e+00,1.103019118309020996e+00,-2.047276496887207031e-01
-3.751976966857910156e+00,1.104341506958007812e+00,-6.826884299516677856e-02
-3.756394386291503906e+00,1.105641722679138184e+00,6.834921985864639282e-02
-3.761020183563232422e+00,1.107003211975097656e+00,2.054671198129653931e-01
-3.765695095062255859e+00,1.108379364013671875e+00,3.434297144412994385e-01
-3.770292520523071289e+00,1.109732508659362793e+00,4.825693368911743164e-01
-3.774641752243041992e+00,1.111012578010559082e+00,6.232024431228637695e-01
-3.779546737670898438e+00,1.112456321716308594e+00,7.658309340476989746e-01
-3.784037828445434570e+00,1.113778233528137207e+00,9.106688499450683594e-01
-3.817198991775512695e+00,1.064417004585266113e+00,-1.061834454536437988e+00
-3.821283102035522461e+00,1.065555930137634277e+00,-9.158679842948913574e-01
-3.826677083969116211e+00,1.067059993743896484e+00,-7.722068428993225098e-01
-3.831029176712036133e+00,1.068273544311523438e+00,-6.299231648445129395e-01
-3.835803747177124023e+00,1.069604992866516113e+00,-4.889446794986724854e-01
-3.840441465377807617e+00,1.070898175239562988e+00,-3.488128781318664551e-01
-3.845044612884521484e+00,1.072181701660156250e+00,-2.091976106166839600e-01
-3.849655866622924805e+00,1.073467612266540527e+00,-6.975943595170974731e-02
-3.854295492172241211e+00,1.074761271476745605e+00,6.984350830316543579e-02
-3.858934164047241211e+00,1.076054811477661133e+00,2.099533081054687500e-01
-3.863485813140869141e+00,1.077324032783508301e+00,3.509059250354766846e-01
-3.868543863296508789e+00,1.078734517097473145e+00,4.931180179119110107e-01
-3.872661590576171875e+00,1.079882621765136719e+00,6.367685794830322266e-01
-3.878230094909667969e+00,1.081435441970825195e+00,7.826100587844848633e-01
-3.882369279861450195e+00,1.082589626312255859e+00,9.305088520050048828e-01
-3.901802778244018555e+00,1.028057098388671875e+00,-1.081164717674255371e+00
-3.920758724212646484e+00,1.033051609992980957e+00,-9.360700249671936035e-01
-3.925774335861206055e+00,1.034373164176940918e+00,-7.891357541084289551e-01
-3.930464982986450195e+00,1.035609006881713867e+00,-6.437697410583496094e-01
-3.935040235519409180e+00,1.036814570426940918e+00,-4.996513426303863525e-01
-3.939912796020507812e+00,1.038098335266113281e+00,-3.564614057540893555e-01
-3.944522857666015625e+00,1.039313077926635742e+00,-2.137786597013473511e-01
-3.949251413345336914e+00,1.040558934211730957e+00,-7.128700613975524902e-02
-3.954116344451904297e+00,1.041840791702270508e+00,7.137481868267059326e-02
-3.958760023117065430e+00,1.043064355850219727e+00,2.145502716302871704e-01
-3.963750600814819336e+00,1.044379234313964844e+00,3.586181104183197021e-01
-3.968708753585815430e+00,1.045685648918151855e+00,5.039263963699340820e-01
-3.973455905914306641e+00,1.046936392784118652e+00,6.508112549781799316e-01
-3.977770566940307617e+00,1.048073291778564453e+00,7.995877265930175781e-01
-3.983748197555541992e+00,1.049648284912109375e+00,9.511085748672485352e-01
-3.912623643875122070e+00,9.712420701980590820e-01,-1.080200314521789551e+00
-4.021213054656982422e+00,9.981976151466369629e-01,-9.565441012382507324e-01
-4.026725769042968750e+00,9.995660781860351562e-01,-8.064698576927185059e-01
-4.031203269958496094e+00,1.000677466392517090e+00,-6.578562855720520020e-01
-4.036158561706542969e+00,1.001907587051391602e+00,-5.106176137924194336e-01
-4.041014194488525391e+00,1.003112912178039551e+00,-3.642721772193908691e-01
-4.045880794525146484e+00,1.004320979118347168e+00,-2.184704393148422241e-01
-4.050734996795654297e+00,1.005525827407836914e+00,-7.285159826278686523e-02
-4.055583000183105469e+00,1.006729364395141602e+00,7.293879985809326172e-02
-4.060476779937744141e+00,1.007944107055664062e+00,2.192585915327072144e-01
-4.065332412719726562e+00,1.009149432182312012e+00,3.664642870426177979e-01
-4.070754051208496094e+00,1.010495305061340332e+00,5.149943232536315918e-01
-4.075243473052978516e+00,1.011609673500061035e+00,6.650432348251342773e-01
-4.080201625823974609e+00,1.012840509414672852e+00,8.171799778938293457e-01
-4.085806369781494141e+00,1.014231681823730469e+00,9.719091653823852539e-01
-3.926608562469482422e+00,9.152582883834838867e-01,-1.080333828926086426e+00
-4.129542350769042969e+00,9.625603556632995605e-01,-9.789351820945739746e-01
-4.134732723236083984e+00,9.637702107429504395e-01,-8.252540230751037598e-01
-4.139612674713134766e+00,9.649077057838439941e-01,-6.732249259948730469e-01
-4.144406318664550781e+00,9.660250544548034668e-01,-5.225093364715576172e-01
-4.149528980255126953e+00,9.672190546989440918e-01,-3.727679252624511719e-01
-4.154517650604248047e+00,9.683819413185119629e-01,-2.235652655363082886e-01
-4.159490108489990234e+00,9.695410132408142090e-01,-7.455032318830490112e-02
-4.164484500885009766e+00,9.707050919532775879e-01,7.463983446359634399e-02
-4.169369697570800781e+00,9.718438386917114258e-01,2.243644893169403076e-01
-4.174643039703369141e+00,9.730730056762695312e-01,3.750240504741668701e-01
-4.179917812347412109e+00,9.743025302886962891e-01,5.269864797592163086e-01
-4.185005187988281250e+00,9.754882454872131348e-01,6.806070804595947266e-01
-4.189663410186767578e+00,9.765740633010864258e-01,8.362177014350891113e-01
-4.194821834564208984e+00,9.777764678001403809e-01,9.944102168083190918e-01
-3.940522909164428711e+00,8.592323660850524902e-01,-1.080667734146118164e+00
-4.239073276519775391e+00,9.243313670158386230e-01,-1.001661300659179688e+00
-4.244835853576660156e+00,9.255879521369934082e-01,-8.444988131523132324e-01
-4.249558925628662109e+00,9.266178011894226074e-01,-6.888779401779174805e-01
-4.254781723022460938e+00,9.277566075325012207e-01,-5.346959829330444336e-01
-4.260180950164794922e+00,9.289338588714599609e-01,-3.814746737480163574e-01
-4.265202522277832031e+00,9.300289154052734375e-01,-2.287817299365997314e-01
-4.270307540893554688e+00,9.311420917510986328e-01,-7.628981024026870728e-02
-4.275528430938720703e+00,9.322804808616638184e-01,7.638308405876159668e-02
-4.280398845672607422e+00,9.333424568176269531e-01,2.295968234539031982e-01
-4.285506725311279297e+00,9.344562292098999023e-01,3.837424516677856445e-01
-4.291211128234863281e+00,9.357001185417175293e-01,5.392740964889526367e-01
-4.295982360839843750e+00,9.367403984069824219e-01,6.964033842086791992e-01
-4.301231384277343750e+00,9.378849267959594727e-01,8.557185530662536621e-01
-4.307147502899169922e+00,9.391750097274780273e-01,1.017746686935424805e+00
-3.939185619354248047e+00,8.000603318214416504e-01,-1.077050089836120605e+00
-4.357028007507324219e+00,8.849253654479980469e-01,-1.026435017585754395e+00
-4.362533092498779297e+00,8.860435485839843750e-01,-8.653026819229125977e-01
-4.367725372314453125e+00,8.870980739593505859e-01,-7.059027552604675293e-01
-4.373264789581298828e+00,8.882231712341308594e-01,-5.479318499565124512e-01
-4.378285408020019531e+00,8.892428874969482422e-01,-3.908705115318298340e-01
-4.383613586425781250e+00,8.903250098228454590e-01,-2.344256043434143066e-01
-4.388860225677490234e+00,8.913906216621398926e-01,-7.817182689905166626e-02
-4.394058704376220703e+00,8.924464583396911621e-01,7.826441526412963867e-02
-4.399579048156738281e+00,8.935676813125610352e-01,2.352794110774993896e-01
-4.404658794403076172e+00,8.945993781089782715e-01,3.932249844074249268e-01
-4.410171508789062500e+00,8.957189917564392090e-01,5.525559186935424805e-01
-4.415494918823242188e+00,8.968001604080200195e-01,7.136231064796447754e-01
-4.421455383300781250e+00,8.980107307434082031e-01,8.769897222518920898e-01
-4.426985263824462891e+00,8.991339802742004395e-01,1.042915701866149902e+00
-3.959331035614013672e+00,7.453135251998901367e-01,-1.079530835151672363e+00
-4.482962608337402344e+00,8.438830971717834473e-01,-1.053149461746215820e+00
-4.488261699676513672e+00,8.448806405067443848e-01,-8.877511620521545410e-01
-4.493990421295166016e+00,8.459590673446655273e-01,-7.242782711982727051e-01
-4.499450206756591797e+00,8.469868302345275879e-01,-5.621653199195861816e-01
-4.504817008972167969e+00,8.479970693588256836e-01,-4.010418951511383057e-01
-4.510217189788818359e+00,8.490135669708251953e-01,-2.405215650796890259e-01
-4.515618324279785156e+00,8.500303626060485840e-01,-8.020464330911636353e-02
-4.521030902862548828e+00,8.510492444038391113e-01,8.030077815055847168e-02
-4.526513576507568359e+00,8.520812392234802246e-01,2.413906157016754150e-01
-4.531970977783203125e+00,8.531085848808288574e-01,4.034592807292938232e-01
-4.537249088287353516e+00,8.541021943092346191e-01,5.668879151344299316e-01
-4.543084144592285156e+00,8.552005887031555176e-01,7.321904897689819336e-01
-4.548619747161865234e+00,8.562425971031188965e-01,8.996896147727966309e-01
-4.554786682128906250e+00,8.574035167694091797e-01,1.070022583007812500e+00
-3.961413860321044922e+00,6.871526241302490234e-01,-1.077306628227233887e+00
-4.611552238464355469e+00,7.999265789985656738e-01,-1.080557584762573242e+00
-4.617426872253417969e+00,8.009455204010009766e-01,-9.109383225440979004e-01
-4.622938632965087891e+00,8.019016981124877930e-01,-7.431343793869018555e-01
-4.628329753875732422e+00,8.028368353843688965e-01,-5.767728090286254883e-01
-4.634048938751220703e+00,8.038288354873657227e-01,-4.114803373813629150e-01
-4.639616489410400391e+00,8.047945499420166016e-01,-2.467825859785079956e-01
-4.645159244537353516e+00,8.057560920715332031e-01,-8.229222148656845093e-02
-4.650719642639160156e+00,8.067206144332885742e-01,8.239072561264038086e-02
-4.656157016754150391e+00,8.076637983322143555e-01,2.476624101400375366e-01
-4.661988735198974609e+00,8.086753487586975098e-01,4.139612913131713867e-01
-4.667795658111572266e+00,8.096826672554016113e-01,5.816909670829772949e-01
-4.673371791839599609e+00,8.106498718261718750e-01,7.512414455413818359e-01
-4.679558753967285156e+00,8.117230534553527832e-01,9.231958389282226562e-01
-4.685247421264648438e+00,8.127098679542541504e-01,1.097825527191162109e+00
-3.984292984008789062e+00,6.325217485427856445e-01,-1.080955743789672852e+00
-4.738196849822998047e+00,7.522069215774536133e-01,-1.107596039772033691e+00
-4.754477977752685547e+00,7.547916173934936523e-01,-9.357489347457885742e-01
-4.760610103607177734e+00,7.557650804519653320e-01,-7.634478211402893066e-01
-4.766412258148193359e+00,7.566862702369689941e-01,-5.925699472427368164e-01
-4.772077083587646484e+00,7.575855255126953125e-01,-4.227304160594940186e-01
-4.777741909027099609e+00,7.584848403930664062e-01,-2.535260915756225586e-01
-4.783444881439208984e+00,7.593902349472045898e-01,-8.454082906246185303e-02
-4.789233207702636719e+00,7.603091597557067871e-01,8.464312553405761719e-02
-4.795050621032714844e+00,7.612326145172119141e-01,2.544445693492889404e-01
-4.800798892974853516e+00,7.621452212333679199e-01,4.252746999263763428e-01
-4.806318283081054688e+00,7.630214691162109375e-01,5.975311398506164551e-01
-4.812358379364013672e+00,7.639803290367126465e-01,7.717465758323669434e-01
-4.818030834197998047e+00,7.648808956146240234e-01,9.482570290565490723e-01
-4.824284076690673828e+00,7.658735513687133789e-01,1.127719759941101074e+00
-3.992582321166992188e+00,5.753826498985290527e-01,-1.080859661102294922e+00
-4.757353305816650391e+00,6.855959892272949219e-01,-1.109666466712951660e+00
-4.901488780975341797e+00,7.063677906990051270e-01,-9.625942111015319824e-01
-4.907505035400390625e+00,7.072347998619079590e-01,-7.853012084960937500e-01
-4.913328170776367188e+00,7.080739736557006836e-01,-6.095123887062072754e-01
-4.919420719146728516e+00,7.089520096778869629e-01,-4.348392486572265625e-01
-4.925201416015625000e+00,7.097850441932678223e-01,-2.607850730419158936e-01
-4.931086063385009766e+00,7.106331586837768555e-01,-8.696150779724121094e-02
-4.937096595764160156e+00,7.114993333816528320e-01,8.706749975681304932e-02
-4.942838191986083984e+00,7.123267054557800293e-01,2.617189288139343262e-01
-4.948914051055908203e+00,7.132024168968200684e-01,4.374462366104125977e-01
-4.954897403717041016e+00,7.140646576881408691e-01,6.146691441535949707e-01
-4.960570812225341797e+00,7.148822546005249023e-01,7.937927842140197754e-01
-4.966784954071044922e+00,7.157777547836303711e-01,9.754176139831542969e-01
-4.973697662353515625e+00,7.167740464210510254e-01,1.160129427909851074e+00
-4.000822544097900391e+00,5.182355642318725586e-01,-1.080971598625183105e+00
-4.751725196838378906e+00,6.155016422271728516e-01,-1.106185436248779297e+00
-5.051845073699951172e+00,6.543768048286437988e-01,-9.901815056800842285e-01
-5.057757854461669922e+00,6.551427841186523438e-01,-8.077614307403564453e-01
-5.064065456390380859e+00,6.559597849845886230e-01,-6.269828081130981445e-01
-5.070141792297363281e+00,6.567468643188476562e-01,-4.472851157188415527e-01
-5.076142311096191406e+00,6.575241684913635254e-01,-2.682514786720275879e-01
-5.082199573516845703e+00,6.583087444305419922e-01,-8.945111185312271118e-02
-5.088345527648925781e+00,6.591048240661621094e-01,8.955928683280944824e-02
-5.094456672668457031e+00,6.598964333534240723e-01,2.692193090915679932e-01
-5.100414752960205078e+00,6.606681942939758301e-01,4.499557614326477051e-01
-5.106861114501953125e+00,6.615031957626342773e-01,6.322813034057617188e-01
-5.113113880157470703e+00,6.623131632804870605e-01,8.166021704673767090e-01
-5.118888854980468750e+00,6.630612015724182129e-01,1.003322482109069824e+00
-5.126464366912841797e+00,6.640424728393554688e-01,1.193423509597778320e+00
-3.998442649841308594e+00,4.598431587219238281e-01,-1.078439712524414062e+00
-4.754029750823974609e+00,5.467398762702941895e-01,-1.104786992073059082e+00
-5.218687057495117188e+00,6.001780033111572266e-01,-1.021094799041748047e+00
-5.224605083465576172e+00,6.008586287498474121e-01,-8.329492211341857910e-01
-5.231025695800781250e+00,6.015970706939697266e-01,-6.465218067169189453e-01
-5.237612724304199219e+00,6.023545861244201660e-01,-4.612514376640319824e-01
-5.243771553039550781e+00,6.030629277229309082e-01,-2.766254246234893799e-01
-5.250026226043701172e+00,6.037821769714355469e-01,-9.224344044923782349e-02
-5.256404876708984375e+00,6.045158505439758301e-01,9.235552698373794556e-02
-5.262401103973388672e+00,6.052053570747375488e-01,2.776081860065460205e-01
-5.268637180328369141e+00,6.059225797653198242e-01,4.639835953712463379e-01
-5.275485038757324219e+00,6.067100763320922852e-01,6.520166993141174316e-01
-5.282243728637695312e+00,6.074874401092529297e-01,8.421385288238525391e-01
-5.288611888885498047e+00,6.082198023796081543e-01,1.034776449203491211e+00
-5.295559406280517578e+00,6.090188026428222656e-01,1.230632901191711426e+00
-4.012734413146972656e+00,4.033866226673126221e-01,-1.080626368522644043e+00
-4.780020713806152344e+00,4.805193245410919189e-01,-1.109115004539489746e+00
-5.389668941497802734e+00,5.418052077293395996e-01,-1.052924156188964844e+00
-5.396245956420898438e+00,5.424664020538330078e-01,-8.589878082275390625e-01
-5.402609825134277344e+00,5.431060791015625000e-01,-6.666994094848632812e-01
-5.409254074096679688e+00,5.437740683555603027e-01,-4.756329357624053955e-01
-5.415588855743408203e+00,5.444108843803405762e-01,-2.852490544319152832e-01
-5.422048568725585938e+00,5.450602173805236816e-01,-9.511907398700714111e-02
-5.428656101226806641e+00,5.457244515419006348e-01,9.523499011993408203e-02
-5.434993743896484375e+00,5.463615655899047852e-01,2.862711250782012939e-01
-5.441689968109130859e+00,5.470347404479980469e-01,4.784850180149078369e-01
-5.448287487030029297e+00,5.476979017257690430e-01,6.723362207412719727e-01
-5.454545974731445312e+00,5.483270883560180664e-01,8.682681322097778320e-01
-5.461333274841308594e+00,5.490093827247619629e-01,1.066924452781677246e+00
-5.468795299530029297e+00,5.497595071792602539e-01,1.268932461738586426e+00
-4.013598442077636719e+00,3.455278277397155762e-01,-1.079416632652282715e+00
-4.785824298858642578e+00,4.120081961154937744e-01,-1.108979701995849609e+00
-5.571816444396972656e+00,4.796737432479858398e-01,-1.087055802345275879e+00
-5.578473567962646484e+00,4.802468419075012207e-01,-8.868101835250854492e-01
-5.585485458374023438e+00,4.808504879474639893e-01,-6.883470416069030762e-01
-5.592225074768066406e+00,4.814307093620300293e-01,-4.910652637481689453e-01
-5.598839282989501953e+00,4.820001125335693359e-01,-2.945076227188110352e-01
-5.605515003204345703e+00,4.825748205184936523e-01,-9.820640087127685547e-02
-5.612258911132812500e+00,4.831553995609283447e-01,9.832454472780227661e-02
-5.618933200836181641e+00,4.837299585342407227e-01,2.955645918846130371e-01
-5.625414371490478516e+00,4.842879176139831543e-01,4.939796626567840576e-01
-5.632371425628662109e+00,4.848868548870086670e-01,6.941252350807189941e-01
-5.639072895050048828e+00,4.854637980461120605e-01,8.964436650276184082e-01
-5.646394729614257812e+00,4.860940873622894287e-01,1.101605892181396484e+00
-5.653109550476074219e+00,4.866721630096435547e-01,1.309948563575744629e+00
