-8.212646842002868652e-01,1.743987917900085449e+00,1.686503440141677856e-01
-8.224329948425292969e-01,1.746468901634216309e+00,2.370263189077377319e-01
-8.233728408813476562e-01,1.748464703559875488e+00,3.060985803604125977e-01
-8.245095014572143555e-01,1.750878572463989258e+00,3.761839270591735840e-01
-8.255707621574401855e-01,1.753132104873657227e+00,4.473739564418792725e-01
-8.432689905166625977e-01,1.726177453994750977e+00,-5.147679448127746582e-01
-8.445119261741638184e-01,1.728721737861633301e+00,-4.441839158535003662e-01
-8.453971147537231445e-01,1.730533719062805176e+00,-3.743742406368255615e-01
-8.464670181274414062e-01,1.732723832130432129e+00,-3.054326772689819336e-01
-8.474965691566467285e-01,1.734831333160400391e+00,-2.370689511299133301e-01
-8.485944867134094238e-01,1.737078785896301270e+00,-1.691394597291946411e-01
-8.495819568634033203e-01,1.739100098609924316e+00,-1.014364361763000488e-01
-8.505975604057312012e-01,1.741178989410400391e+00,-3.382505849003791809e-02
-8.516439199447631836e-01,1.743321061134338379e+00,3.386666998267173767e-02
-8.525889515876770020e-01,1.745255470275878906e+00,1.017954647541046143e-01
-8.536134958267211914e-01,1.747352719306945801e+00,1.701398342847824097e-01
-8.546152114868164062e-01,1.749403238296508789e+00,2.390602231025695801e-01
-8.558256030082702637e-01,1.751881003379821777e+00,3.088095784187316895e-01
-8.567049503326416016e-01,1.753680944442749023e+00,3.793818056583404541e-01
-8.577789664268493652e-01,1.755879521369934082e+00,4.511619210243225098e-01
-8.749638199806213379e-01,1.727905988693237305e+00,-5.189650058746337891e-01
-8.762432336807250977e-01,1.730432629585266113e+00,-4.478002488613128662e-01
-8.771525025367736816e-01,1.732228279113769531e+00,-3.774182796478271484e-01
-8.782554268836975098e-01,1.734406352043151855e+00,-3.079136312007904053e-01
-8.793181777000427246e-01,1.736505150794982910e+00,-2.389931082725524902e-01
-8.804537057876586914e-01,1.738747596740722656e+00,-1.705115735530853271e-01
-8.814761638641357422e-01,1.740766763687133789e+00,-1.022590845823287964e-01
-8.825297355651855469e-01,1.742847323417663574e+00,-3.409937024116516113e-02
-8.836170434951782227e-01,1.744994640350341797e+00,3.414138406515121460e-02
-8.846008181571960449e-01,1.746937394142150879e+00,1.026215702295303345e-01
-8.856688737869262695e-01,1.749046683311462402e+00,1.715215742588043213e-01
-8.867151737213134766e-01,1.751112818717956543e+00,2.410035580396652222e-01
-8.879799246788024902e-01,1.753610491752624512e+00,3.113229870796203613e-01
-8.889022469520568848e-01,1.755432009696960449e+00,3.824739158153533936e-01
-8.900286555290222168e-01,1.757656574249267578e+00,4.548452496528625488e-01
-9.081340432167053223e-01,1.731470227241516113e+00,-5.238858461380004883e-01
-9.094526171684265137e-01,1.733984231948852539e+00,-4.520416557788848877e-01
-9.103880524635314941e-01,1.735767602920532227e+00,-3.809895813465118408e-01
-9.115262031555175781e-01,1.737937688827514648e+00,-3.108250200748443604e-01
-9.126241803169250488e-01,1.740031242370605469e+00,-2.412515133619308472e-01
-9.137994647026062012e-01,1.742271900177001953e+00,-1.721222251653671265e-01
-9.148588180541992188e-01,1.744291782379150391e+00,-1.032248213887214661e-01
-9.159520268440246582e-01,1.746376156806945801e+00,-3.442139923572540283e-02
-9.170818924903869629e-01,1.748530387878417969e+00,3.446386009454727173e-02
-9.181058406829833984e-01,1.750482559204101562e+00,1.035911813378334045e-01
-9.192188978195190430e-01,1.752604842185974121e+00,1.731430292129516602e-01
-9.203108549118041992e-01,1.754686832427978516e+00,2.432834655046463013e-01
-9.216315150260925293e-01,1.757204771041870117e+00,3.142708539962768555e-01
-9.225978851318359375e-01,1.759047269821166992e+00,3.860992789268493652e-01
-9.237775802612304688e-01,1.761296510696411133e+00,4.591618478298187256e-01
-9.409344196319580078e-01,1.733239412307739258e+00,-5.284420251846313477e-01
-9.422945976257324219e-01,1.735744833946228027e+00,-4.559700787067413330e-01
-9.432583451271057129e-01,1.737520098686218262e+00,-3.842982947826385498e-01
-9.444335103034973145e-01,1.739684820175170898e+00,-3.135230243206024170e-01
-9.455677866935729980e-01,1.741774201393127441e+00,-2.433447539806365967e-01
-9.467832446098327637e-01,1.744013071060180664e+00,-1.736152619123458862e-01
-9.478795528411865234e-01,1.746032595634460449e+00,-1.041200757026672363e-01
-9.490119814872741699e-01,1.748118519783020020e+00,-3.471992164850234985e-02
-9.501836299896240234e-01,1.750276684761047363e+00,3.476278483867645264e-02
-9.512462019920349121e-01,1.752234101295471191e+00,1.044898852705955505e-01
-9.524022936820983887e-01,1.754363656044006348e+00,1.746456474065780640e-01
-9.535375237464904785e-01,1.756454825401306152e+00,2.453957945108413696e-01
-9.549110531806945801e-01,1.758984923362731934e+00,3.170012533664703369e-01
-9.559177756309509277e-01,1.760839223861694336e+00,3.894559442996978760e-01
-9.571468830108642578e-01,1.763103246688842773e+00,4.631569683551788330e-01
-9.742923378944396973e-01,1.734995603561401367e+00,-5.331746339797973633e-01
-9.753866195678710938e-01,1.736944317817687988e+00,-4.599055647850036621e-01
-9.766915440559387207e-01,1.739268064498901367e+00,-3.877371847629547119e-01
-9.779055118560791016e-01,1.741429805755615234e+00,-3.163276910781860352e-01
-9.790778756141662598e-01,1.743517637252807617e+00,-2.455210834741592407e-01
-9.803349971771240234e-01,1.745756149291992188e+00,-1.751677244901657104e-01
-9.814693331718444824e-01,1.747776269912719727e+00,-1.050510182976722717e-01
-9.826416969299316406e-01,1.749863982200622559e+00,-3.503034636378288269e-02
-9.838552474975585938e-01,1.752025008201599121e+00,3.507360816001892090e-02
-9.849565029144287109e-01,1.753986120223999023e+00,1.054242700338363647e-01
-9.861552715301513672e-01,1.756120800971984863e+00,1.762076914310455322e-01
-9.873329997062683105e-01,1.758218050003051758e+00,2.475911974906921387e-01
-9.884458184242248535e-01,1.760199785232543945e+00,3.197371959686279297e-01
-9.898038506507873535e-01,1.762618064880371094e+00,3.929426670074462891e-01
-9.910805821418762207e-01,1.764891743659973145e+00,4.673054516315460205e-01
-1.009406924247741699e+00,1.738759279251098633e+00,-5.387160778045654297e-01
-1.010539174079895020e+00,1.740709662437438965e+00,-4.646848142147064209e-01
-1.011889934539794922e+00,1.743036508560180664e+00,-3.917660415172576904e-01
-1.013146638870239258e+00,1.745201230049133301e+00,-3.196142017841339111e-01
-1.014360547065734863e+00,1.747292280197143555e+00,-2.480717748403549194e-01
-1.015662312507629395e+00,1.749534606933593750e+00,-1.769873946905136108e-01
-1.016837120056152344e+00,1.751558184623718262e+00,-1.061422750353813171e-01
-1.018051266670227051e+00,1.753649711608886719e+00,-3.539422154426574707e-02
-1.019308328628540039e+00,1.755815148353576660e+00,3.543792665004730225e-02
-1.020449519157409668e+00,1.757780790328979492e+00,1.065193489193916321e-01
-1.021691799163818359e+00,1.759920716285705566e+00,1.780380904674530029e-01
-1.022912383079528809e+00,1.762023329734802246e+00,2.501632273197174072e-01
-1.024066090583801270e+00,1.764010667800903320e+00,3.230589330196380615e-01
-1.025473952293395996e+00,1.766435623168945312e+00,3.970252275466918945e-01
-1.026797652244567871e+00,1.768715977668762207e+00,4.721611142158508301e-01
-1.044026136398315430e+00,1.740535020828247070e+00,-5.438404679298400879e-01
-1.045198917388916016e+00,1.742490291595458984e+00,-4.691057801246643066e-01
-1.046597242355346680e+00,1.744821548461914062e+00,-3.954937458038330078e-01
-1.047898054122924805e+00,1.746990203857421875e+00,-3.226556777954101562e-01
-1.049154400825500488e+00,1.749084591865539551e+00,-2.504326403141021729e-01
-1.050501227378845215e+00,1.751329898834228516e+00,-1.786718368530273438e-01
-1.051716089248657227e+00,1.753355264663696289e+00,-1.071524247527122498e-01
-1.052971839904785156e+00,1.755448818206787109e+00,-3.573106601834297180e-02
-1.054271697998046875e+00,1.757615804672241211e+00,3.577517345547676086e-02
-1.055450916290283203e+00,1.759581804275512695e+00,1.075329557061195374e-01
-1.056734561920166016e+00,1.761721849441528320e+00,1.797320246696472168e-01
-1.057995676994323730e+00,1.763824224472045898e+00,2.525430321693420410e-01
-1.059187054634094238e+00,1.765810370445251465e+00,3.261316418647766113e-01
-1.060640931129455566e+00,1.768234252929687500e+00,4.008006453514099121e-01
-1.062007665634155273e+00,1.770512700080871582e+00,4.766498804092407227e-01
-1.080612659454345703e+00,1.744436025619506836e+00,-5.498359203338623047e-01
-1.082175970077514648e+00,1.746959567070007324e+00,-4.744304716587066650e-01
-1.083283662796020508e+00,1.748747706413269043e+00,-3.998573124408721924e-01
-1.084633469581604004e+00,1.750926733016967773e+00,-3.262166380882263184e-01
-1.085936188697814941e+00,1.753029704093933105e+00,-2.531970739364624023e-01
-1.087331891059875488e+00,1.755282878875732422e+00,-1.806444078683853149e-01
-1.088590145111083984e+00,1.757313966751098633e+00,-1.083354875445365906e-01
-1.089889645576477051e+00,1.759411811828613281e+00,-3.612555935978889465e-02
-1.091233611106872559e+00,1.761581420898437500e+00,3.617011010646820068e-02
-1.092452287673950195e+00,1.763548612594604492e+00,1.087198480963706970e-01
-1.093777656555175781e+00,1.765688300132751465e+00,1.817152798175811768e-01
-1.095078825950622559e+00,1.767788767814636230e+00,2.553287744522094727e-01
-1.096652865409851074e+00,1.770329713821411133e+00,3.298316299915313721e-01
-1.097805976867675781e+00,1.772191047668457031e+00,4.052177369594573975e-01
-1.099213600158691406e+00,1.774463534355163574e+00,4.818998575210571289e-01
-1.116607069969177246e+00,1.746210813522338867e+00,-5.553760528564453125e-01
-1.118230104446411133e+00,1.748749017715454102e+00,-4.792141020298004150e-01
-1.119381427764892578e+00,1.750549554824829102e+00,-4.038914740085601807e-01
-1.120781540870666504e+00,1.752739191055297852e+00,-3.295094072818756104e-01
-1.122131586074829102e+00,1.754850506782531738e+00,-2.557536959648132324e-01
-1.123576164245605469e+00,1.757109522819519043e+00,-1.824688166379928589e-01
-1.124877691268920898e+00,1.759144902229309082e+00,-1.094297468662261963e-01
-1.126219987869262695e+00,1.761244177818298340e+00,-3.649043664336204529e-02
-1.127607226371765137e+00,1.763413548469543457e+00,3.653538227081298828e-02
-1.128863334655761719e+00,1.765377998352050781e+00,1.098174825310707092e-01
-1.130228519439697266e+00,1.767512917518615723e+00,1.835491508245468140e-01
-1.131567239761352539e+00,1.769606351852416992e+00,2.579042315483093262e-01
-1.133186221122741699e+00,1.772138237953186035e+00,3.331563770771026611e-01
-1.134369134902954102e+00,1.773988127708435059e+00,4.092992842197418213e-01
-1.135813951492309570e+00,1.776247620582580566e+00,4.867496192455291748e-01
-1.154797196388244629e+00,1.750228166580200195e+00,-5.618531703948974609e-01
-1.156488060951232910e+00,1.752790808677673340e+00,-4.848081767559051514e-01
-1.157689809799194336e+00,1.754612207412719727e+00,-4.086101651191711426e-01
-1.159146428108215332e+00,1.756819844245910645e+00,-3.333615362644195557e-01
-1.160549044609069824e+00,1.758945703506469727e+00,-2.587449848651885986e-01
-1.162047028541564941e+00,1.761216163635253906e+00,-1.846036165952682495e-01
-1.163395047187805176e+00,1.763259172439575195e+00,-1.107102110981941223e-01
-1.164783239364624023e+00,1.765363097190856934e+00,-3.691741451621055603e-02
-1.166214942932128906e+00,1.767533063888549805e+00,3.696279600262641907e-02
-1.167509555816650391e+00,1.769495248794555664e+00,1.111017540097236633e-01
-1.168914318084716797e+00,1.771624326705932617e+00,1.856945604085922241e-01
-1.170289397239685059e+00,1.773708462715148926e+00,2.609166204929351807e-01
-1.171952128410339355e+00,1.776228427886962891e+00,3.370443880558013916e-01
-1.173162341117858887e+00,1.778062701225280762e+00,4.140712618827819824e-01
-1.174640893936157227e+00,1.780303478240966797e+00,4.924179613590240479e-01
-1.192286968231201172e+00,1.751975655555725098e+00,-5.678343772888183594e-01
-1.194047212600708008e+00,1.754562258720397949e+00,-4.899751842021942139e-01
-1.195301055908203125e+00,1.756404638290405273e+00,-4.129695594310760498e-01
-1.196814656257629395e+00,1.758628726005554199e+00,-3.369208574295043945e-01
-1.198270559310913086e+00,1.760768175125122070e+00,-2.615092992782592773e-01
-1.199822068214416504e+00,1.763047814369201660e+00,-1.865765601396560669e-01
-1.201216220855712891e+00,1.765096545219421387e+00,-1.118936464190483093e-01
-1.202649235725402832e+00,1.767202138900756836e+00,-3.731203451752662659e-02
-1.204124569892883301e+00,1.769370198249816895e+00,3.735780715942382812e-02
-1.205455899238586426e+00,1.771326303482055664e+00,1.122885718941688538e-01
-1.206897974014282227e+00,1.773445487022399902e+00,1.876769065856933594e-01
-1.208307266235351562e+00,1.775516152381896973e+00,2.636996805667877197e-01
-1.210010170936584473e+00,1.778018593788146973e+00,3.406355977058410645e-01
-1.211244225502014160e+00,1.779831886291503906e+00,4.184778332710266113e-01
-1.212752461433410645e+00,1.782048225402832031e+00,4.976508319377899170e-01
-1.232676386833190918e+00,1.756732463836669922e+00,-5.750358104705810547e-01
-1.234059453010559082e+00,1.758703470230102539e+00,-4.960135519504547119e-01
-1.235696792602539062e+00,1.761036872863769531e+00,-4.181744754314422607e-01
-1.236952066421508789e+00,1.762825846672058105e+00,-3.410819470882415771e-01
-1.238467335700988770e+00,1.764985322952270508e+00,-2.647413015365600586e-01
-1.240077614784240723e+00,1.767280220985412598e+00,-1.888835132122039795e-01
-1.241522073745727539e+00,1.769338726997375488e+00,-1.132774800062179565e-01
-1.243002653121948242e+00,1.771448731422424316e+00,-3.777347132563591003e-02
-1.244523525238037109e+00,1.773616194725036621e+00,3.781968727707862854e-02
-1.245891690254211426e+00,1.775566101074218750e+00,1.136761680245399475e-01
-1.247370839118957520e+00,1.777674078941345215e+00,1.899943798780441284e-01
-1.249135971069335938e+00,1.780189514160156250e+00,2.670218646526336670e-01
-1.250553131103515625e+00,1.782209157943725586e+00,3.448323607444763184e-01
-1.252267837524414062e+00,1.784652829170227051e+00,4.237823188304901123e-01
-1.253866672515869141e+00,1.786931514739990234e+00,5.039747953414916992e-01
-1.271802544593811035e+00,1.758419275283813477e+00,-5.814871191978454590e-01
-1.273252725601196289e+00,1.760424256324768066e+00,-5.015874505043029785e-01
-1.274960637092590332e+00,1.762785792350769043e+00,-4.228799045085906982e-01
-1.276533603668212891e+00,1.764960527420043945e+00,-3.449949622154235840e-01
-1.278035283088684082e+00,1.767036676406860352e+00,-2.677654623985290527e-01
-1.279515624046325684e+00,1.769083499908447266e+00,-1.910140812397003174e-01
-1.281009674072265625e+00,1.771149277687072754e+00,-1.145555600523948669e-01
-1.282537102699279785e+00,1.773261070251464844e+00,-3.819965198636054993e-02
-1.284101724624633789e+00,1.775424480438232422e+00,3.824625536799430847e-02
-1.285691857337951660e+00,1.777622938156127930e+00,1.149742677807807922e-01
-1.287280082702636719e+00,1.779818773269653320e+00,1.921731978654861450e-01
-1.288823723793029785e+00,1.781953215599060059e+00,2.700258195400238037e-01
-1.290266156196594238e+00,1.783947467803955078e+00,3.487063348293304443e-01
-1.292011141777038574e+00,1.786360025405883789e+00,4.285351932048797607e-01
-1.293633341789245605e+00,1.788602948188781738e+00,5.096162557601928711e-01
-1.313635230064392090e+00,1.762573957443237305e+00,-5.890184640884399414e-01
-1.315168023109436035e+00,1.764630556106567383e+00,-5.080974698066711426e-01
-1.316957473754882812e+00,1.767031431198120117e+00,-4.283765554428100586e-01
-1.318602561950683594e+00,1.769238829612731934e+00,-3.494846820831298828e-01
-1.320169448852539062e+00,1.771341204643249512e+00,-2.712533771991729736e-01
-1.321709036827087402e+00,1.773406982421875000e+00,-1.935037374496459961e-01
-1.323257327079772949e+00,1.775484323501586914e+00,-1.160490959882736206e-01
-1.324834585189819336e+00,1.777600646018981934e+00,-3.869767114520072937e-02
-1.326444983482360840e+00,1.779761433601379395e+00,3.874471038579940796e-02
-1.328076362609863281e+00,1.781950235366821289e+00,1.164717227220535278e-01
-1.329700231552124023e+00,1.784129142761230469e+00,1.946736872196197510e-01
-1.331273436546325684e+00,1.786239981651306152e+00,2.735348939895629883e-01
-1.332737326622009277e+00,1.788204073905944824e+00,3.532309532165527344e-01
-1.334507465362548828e+00,1.790579199790954590e+00,4.340851604938507080e-01
-1.336146235466003418e+00,1.792778015136718750e+00,5.162020921707153320e-01
-1.356513738632202148e+00,1.766758918762207031e+00,-5.968444943428039551e-01
-1.358134269714355469e+00,1.768869519233703613e+00,-5.148625969886779785e-01
-1.360016822814941406e+00,1.771321535110473633e+00,-4.340913593769073486e-01
-1.361745238304138184e+00,1.773572564125061035e+00,-3.541546463966369629e-01
-1.363387107849121094e+00,1.775710940361022949e+00,-2.748827636241912842e-01
-1.364989399909973145e+00,1.777797937393188477e+00,-1.960946023464202881e-01
-1.366594314575195312e+00,1.779888272285461426e+00,-1.176034212112426758e-01
-1.368223071098327637e+00,1.782009482383728027e+00,-3.921597078442573547e-02
-1.369879245758056641e+00,1.784166455268859863e+00,3.926343843340873718e-02
-1.371550798416137695e+00,1.786343574523925781e+00,1.180299520492553711e-01
-1.373208761215209961e+00,1.788503050804138184e+00,1.972754001617431641e-01
-1.374808430671691895e+00,1.790586352348327637e+00,2.771854996681213379e-01
-1.376289367675781250e+00,1.792515277862548828e+00,3.579372167587280273e-01
-1.378079652786254883e+00,1.794847011566162109e+00,4.398566484451293945e-01
-1.379729390144348145e+00,1.796995639801025391e+00,5.230492353439331055e-01
-1.398881316184997559e+00,1.768939733505249023e+00,-6.042833924293518066e-01
-1.400513648986816406e+00,1.771003961563110352e+00,-5.212653279304504395e-01
-1.402044415473937988e+00,1.772939682006835938e+00,-4.393609166145324707e-01
-1.403850793838500977e+00,1.775223851203918457e+00,-3.584600985050201416e-01
-1.405561804771423340e+00,1.777387619018554688e+00,-2.782281637191772461e-01
-1.407231569290161133e+00,1.779498934745788574e+00,-1.984836459159851074e-01
-1.408897995948791504e+00,1.781606316566467285e+00,-1.190372034907341003e-01
-1.410582184791564941e+00,1.783735990524291992e+00,-3.969421982765197754e-02
-1.412282824516296387e+00,1.785886526107788086e+00,3.974207490682601929e-02
-1.413993000984191895e+00,1.788049101829528809e+00,1.194676756858825684e-01
-1.415682792663574219e+00,1.790185928344726562e+00,1.996756643056869507e-01
-1.417306423187255859e+00,1.792239069938659668e+00,2.805529832839965820e-01
-1.419244647026062012e+00,1.794690012931823730e+00,3.623907864093780518e-01
-1.421129465103149414e+00,1.797073364257812500e+00,4.453416168689727783e-01
-1.422860145568847656e+00,1.799261927604675293e+00,5.295825600624084473e-01
-1.443903923034667969e+00,1.773112177848815918e+00,-6.127060651779174805e-01
-1.445635914802551270e+00,1.775239109992980957e+00,-5.285480618476867676e-01
-1.447255969047546387e+00,1.777228474617004395e+00,-4.455116689205169678e-01
-1.449151277542114258e+00,1.779555916786193848e+00,-3.634860217571258545e-01
-1.450941324234008789e+00,1.781754136085510254e+00,-2.821337878704071045e-01
-1.452680945396423340e+00,1.783890247344970703e+00,-2.012720555067062378e-01
-1.454409003257751465e+00,1.786012411117553711e+00,-1.207101419568061829e-01
-1.456147074699401855e+00,1.788146853446960449e+00,-4.025206714868545532e-02
-1.457900285720825195e+00,1.790299773216247559e+00,4.030052945017814636e-02
-1.459654927253723145e+00,1.792454361915588379e+00,1.211455315351486206e-01
-1.461380720138549805e+00,1.794573664665222168e+00,2.024774253368377686e-01
-1.463026046752929688e+00,1.796594142913818359e+00,2.844836413860321045e-01
-1.464985251426696777e+00,1.799000024795532227e+00,3.674575984477996826e-01
-1.466882109642028809e+00,1.801329374313354492e+00,4.515532255172729492e-01
-1.468613505363464355e+00,1.803455591201782227e+00,5.369490385055541992e-01
-1.490119338035583496e+00,1.777296543121337891e+00,-6.214585304260253906e-01
-1.491959571838378906e+00,1.779491305351257324e+00,-5.361173152923583984e-01
-1.494062185287475586e+00,1.781999230384826660e+00,-4.520220756530761719e-01
-1.495667457580566406e+00,1.783913969993591309e+00,-3.687111437320709229e-01
-1.497541427612304688e+00,1.786148905754089355e+00,-2.861945033073425293e-01
-1.499354600906372070e+00,1.788311600685119629e+00,-2.041713744401931763e-01
-1.501146912574768066e+00,1.790449261665344238e+00,-1.224496811628341675e-01
-1.502940654754638672e+00,1.792588829994201660e+00,-4.083212837576866150e-02
-1.504740357398986816e+00,1.794735312461853027e+00,4.088102281093597412e-02
-1.506532669067382812e+00,1.796872973442077637e+00,1.228889971971511841e-01
-1.508286118507385254e+00,1.798964381217956543e+00,2.053875923156738281e-01
-1.510339498519897461e+00,1.801413536071777344e+00,2.886403501033782959e-01
-1.511935472488403320e+00,1.803317070007324219e+00,3.727215230464935303e-01
-1.513844966888427734e+00,1.805594563484191895e+00,4.580072760581970215e-01
-1.515572428703308105e+00,1.807654976844787598e+00,5.446023344993591309e-01
-1.535632133483886719e+00,1.779225587844848633e+00,-6.297543048858642578e-01
-1.537499189376831055e+00,1.781388759613037109e+00,-5.432634353637695312e-01
-1.539227485656738281e+00,1.783391118049621582e+00,-4.579167664051055908e-01
-1.540917396545410156e+00,1.785349130630493164e+00,-3.735281825065612793e-01
-1.542874097824096680e+00,1.787616252899169922e+00,-2.899384200572967529e-01
-1.544759869575500488e+00,1.789801120758056641e+00,-2.068446427583694458e-01
-1.546615004539489746e+00,1.791950583457946777e+00,-1.240536347031593323e-01
-1.548462867736816406e+00,1.794091463088989258e+00,-4.136697575449943542e-02
-1.550307393074035645e+00,1.796228766441345215e+00,4.141625389456748962e-02
-1.552135586738586426e+00,1.798346757888793945e+00,1.244964376091957092e-01
-1.553915262222290039e+00,1.800408720970153809e+00,2.080705463886260986e-01
-1.555993318557739258e+00,1.802816510200500488e+00,2.924037873744964600e-01
-1.558076620101928711e+00,1.805230259895324707e+00,3.776876628398895264e-01
-1.560073614120483398e+00,1.807544112205505371e+00,4.641184806823730469e-01
-1.561875700950622559e+00,1.809632062911987305e+00,5.518767237663269043e-01
-1.584257721900939941e+00,1.783313751220703125e+00,-6.391620635986328125e-01
-1.586248755455017090e+00,1.785554885864257812e+00,-5.514016747474670410e-01
-1.588087201118469238e+00,1.787624359130859375e+00,-4.647927284240722656e-01
-1.590195775032043457e+00,1.789997935295104980e+00,-3.792240023612976074e-01
-1.591926813125610352e+00,1.791946530342102051e+00,-2.943063378334045410e-01
-1.593894243240356445e+00,1.794161081314086914e+00,-2.099636048078536987e-01
-1.595819354057312012e+00,1.796328067779541016e+00,-1.259250789880752563e-01
-1.597725391387939453e+00,1.798473715782165527e+00,-4.199101403355598450e-02
-1.599617004394531250e+00,1.800602912902832031e+00,4.204072803258895874e-02
-1.601480603218078613e+00,1.802700757980346680e+00,1.263718008995056152e-01
-1.603602051734924316e+00,1.805088758468627930e+00,2.112424224615097046e-01
-1.605380892753601074e+00,1.807090997695922852e+00,2.967936396598815918e-01
-1.607473492622375488e+00,1.809446454048156738e+00,3.833443224430084229e-01
-1.609466791152954102e+00,1.811690330505371094e+00,4.710500240325927734e-01
-1.611249923706054688e+00,1.813697457313537598e+00,5.600924491882324219e-01
-1.634223699569702148e+00,1.787368535995483398e+00,-6.489326357841491699e-01
-1.636348843574523926e+00,1.789692878723144531e+00,-5.598551034927368164e-01
-1.638306021690368652e+00,1.791833400726318359e+00,-4.719358384609222412e-01
-1.640528678894042969e+00,1.794264316558837891e+00,-3.850632011890411377e-01
-1.642352223396301270e+00,1.796258807182312012e+00,-2.988448143005371094e-01
-1.644405722618103027e+00,1.798504710197448730e+00,-2.132045477628707886e-01
-1.646403312683105469e+00,1.800689458847045898e+00,-1.278697103261947632e-01
-1.648369312286376953e+00,1.802839756011962891e+00,-4.263945668935775757e-02
-1.650308251380920410e+00,1.804960489273071289e+00,4.268961399793624878e-02
-1.652205705642700195e+00,1.807035684585571289e+00,1.283203512430191040e-01
-1.654355764389038086e+00,1.809387087821960449e+00,2.144946008920669556e-01
-1.656141877174377441e+00,1.811340570449829102e+00,3.013539910316467285e-01
-1.658238053321838379e+00,1.813633322715759277e+00,3.892199397087097168e-01
-1.660221099853515625e+00,1.815802097320556641e+00,4.782487750053405762e-01
-1.662660598754882812e+00,1.818470239639282227e+00,5.688573122024536133e-01
-2.727201938629150391e+00,2.898361921310424805e+00,-1.066359758377075195e+00
-3.234267950057983398e+00,3.437251567840576172e+00,-1.089617609977722168e+00
-3.970120906829833984e+00,4.219286918640136719e+00,-1.126133918762207031e+00
-5.007152557373046875e+00,5.321402549743652344e+00,-1.157277107238769531e+00
-5.013353824615478516e+00,5.327993392944335938e+00,-8.982684612274169922e-01
-5.018761157989501953e+00,5.333740234375000000e+00,-6.407407522201538086e-01
-5.024689674377441406e+00,5.340040683746337891e+00,-3.842722773551940918e-01
-5.030480861663818359e+00,5.346195697784423828e+00,-1.281341910362243652e-01
-5.036149501800537109e+00,5.352219581604003906e+00,1.282785683870315552e-01
-5.042354583740234375e+00,5.358814239501953125e+00,3.856232166290283203e-01
-5.047869205474853516e+00,5.364675045013427734e+00,6.444569826126098633e-01
-5.054218769073486328e+00,5.371423244476318359e+00,9.055904746055603027e-01
-5.060469150543212891e+00,5.378065586090087891e+00,1.169599890708923340e+00
-2.777468681335449219e+00,2.868394851684570312e+00,-1.069851398468017578e+00
-3.294010400772094727e+00,3.401846885681152344e+00,-1.093228459358215332e+00
-4.043567657470703125e+00,4.175941944122314453e+00,-1.129896998405456543e+00
-5.007083415985107422e+00,5.171000480651855469e+00,-1.140037655830383301e+00
-5.013415336608886719e+00,5.177539825439453125e+00,-8.849104642868041992e-01
-5.018917083740234375e+00,5.183221817016601562e+00,-6.312242746353149414e-01
-5.024893760681152344e+00,5.189394474029541016e+00,-3.785685598850250244e-01
-5.030691146850585938e+00,5.195381164550781250e+00,-1.262324452400207520e-01
-5.036324501037597656e+00,5.201199054718017578e+00,1.263738125562667847e-01
-5.042447566986083984e+00,5.207522869110107422e+00,3.798910379409790039e-01
-5.047842979431152344e+00,5.213094711303710938e+00,6.348622441291809082e-01
-5.054027557373046875e+00,5.219481945037841797e+00,8.920788764953613281e-01
-5.060071468353271484e+00,5.225723266601562500e+00,1.152102231979370117e+00
-2.809121131896972656e+00,2.819201707839965820e+00,-1.066390991210937500e+00
-3.354060173034667969e+00,3.366096258163452148e+00,-1.097055315971374512e+00
-4.117403507232666016e+00,4.132178783416748047e+00,-1.133885622024536133e+00
-5.008522510528564453e+00,5.026495933532714844e+00,-1.123869180679321289e+00
-5.013987541198730469e+00,5.031980514526367188e+00,-8.722090721130371094e-01
-5.020031929016113281e+00,5.038046360015869141e+00,-6.222312450408935547e-01
-5.025615692138671875e+00,5.043650150299072266e+00,-3.731458485126495361e-01
-5.031420230865478516e+00,5.049475669860839844e+00,-1.244244277477264404e-01
-5.037429809570312500e+00,5.055506706237792969e+00,1.245730370283126831e-01
-5.043054103851318359e+00,5.061151504516601562e+00,3.744406402111053467e-01
-5.049305915832519531e+00,5.067425251007080078e+00,6.258597970008850098e-01
-5.054335594177246094e+00,5.072473049163818359e+00,8.792278170585632324e-01
-5.060163021087646484e+00,5.078321933746337891e+00,1.135456800460815430e+00
-5.067318916320800781e+00,5.085503101348876953e+00,1.395481586456298828e+00
-2.859543800354003906e+00,2.788814544677734375e+00,-1.070269346237182617e+00
-3.387080430984497070e+00,3.303303003311157227e+00,-1.092278718948364258e+00
-4.150055885314941406e+00,4.047406673431396484e+00,-1.126808524131774902e+00
-5.009434700012207031e+00,4.885529041290283203e+00,-1.108268857002258301e+00
-5.015050411224365234e+00,4.891005992889404297e+00,-8.601277470588684082e-01
-5.021194458007812500e+00,4.896997928619384766e+00,-6.136245131492614746e-01
-5.026834011077880859e+00,4.902498245239257812e+00,-3.679884672164916992e-01
-5.032645702362060547e+00,4.908166408538818359e+00,-1.227048560976982117e-01
-5.038614749908447266e+00,4.913987159729003906e+00,1.228503808379173279e-01
-5.044153213500976562e+00,4.919388771057128906e+00,3.692562878131866455e-01
-5.050267219543457031e+00,4.925351619720458984e+00,6.171774268150329590e-01
-5.056375503540039062e+00,4.931309223175048828e+00,8.672153949737548828e-01
-5.062248706817626953e+00,4.937036514282226562e+00,1.119953155517578125e+00
-5.067601680755615234e+00,4.942257404327392578e+00,1.375937223434448242e+00
-2.890942096710205078e+00,2.739810705184936523e+00,-1.067233920097351074e+00
-3.447263479232788086e+00,3.267049074172973633e+00,-1.096494317054748535e+00
-4.223940372467041016e+00,4.003123283386230469e+00,-1.131195902824401855e+00
-5.010810375213623047e+00,4.748857498168945312e+00,-1.093423247337341309e+00
-5.016582965850830078e+00,4.754328250885009766e+00,-8.486322760581970215e-01
-5.022830009460449219e+00,4.760248661041259766e+00,-6.054357886314392090e-01
-5.028529167175292969e+00,4.765649795532226562e+00,-3.630818426609039307e-01
-5.034348487854003906e+00,4.771164894104003906e+00,-1.210688799619674683e-01
-5.040273189544677734e+00,4.776780128479003906e+00,1.212113723158836365e-01
-5.045722484588623047e+00,4.781944274902343750e+00,3.643232882022857666e-01
-5.051694393157958984e+00,4.787603855133056641e+00,6.089149713516235352e-01
-5.057612419128417969e+00,4.793212890625000000e+00,8.555730581283569336e-01
-5.063248634338378906e+00,4.798554420471191406e+00,1.104865908622741699e+00
-5.070105552673339844e+00,4.805052757263183594e+00,1.357803821563720703e+00
-2.922184228897094727e+00,2.691087961196899414e+00,-1.064438581466674805e+00
-3.479906797409057617e+00,3.204703807830810547e+00,-1.092175126075744629e+00
-4.256024837493896484e+00,3.919443845748901367e+00,-1.124649047851562500e+00
-5.013620853424072266e+00,4.617126464843750000e+00,-1.079504847526550293e+00
-5.019278526306152344e+00,4.622336864471435547e+00,-8.378102183341979980e-01
-5.024917602539062500e+00,4.627529621124267578e+00,-5.976423025131225586e-01
-5.030676841735839844e+00,4.632833480834960938e+00,-3.584122061729431152e-01
-5.036504268646240234e+00,4.638200283050537109e+00,-1.195119321346282959e-01
-5.042384624481201172e+00,4.643615245819091797e+00,1.196514666080474854e-01
-5.048431396484375000e+00,4.649184226989746094e+00,3.596771359443664551e-01
-5.054537296295166016e+00,4.654807090759277344e+00,6.011651158332824707e-01
-5.060532093048095703e+00,4.660327911376953125e+00,8.446961641311645508e-01
-5.066190242767333984e+00,4.665538311004638672e+00,1.090823769569396973e+00
-5.073011398315429688e+00,4.671820640563964844e+00,1.340536713600158691e+00
-2.974073410034179688e+00,2.661225080490112305e+00,-1.069355010986328125e+00
-3.514026880264282227e+00,3.144380092620849609e+00,-1.088646769523620605e+00
-4.332041263580322266e+00,3.876346111297607422e+00,-1.129958987236022949e+00
-5.009000301361083984e+00,4.482094764709472656e+00,-1.064587593078613281e+00
-5.014839172363281250e+00,4.487318992614746094e+00,-8.262635469436645508e-01
-5.020600318908691406e+00,4.492474079132080078e+00,-5.894205570220947266e-01
-5.026421070098876953e+00,4.497682571411132812e+00,-3.534861803054809570e-01
-5.032249450683593750e+00,4.502897739410400391e+00,-1.178695037961006165e-01
-5.038070678710937500e+00,4.508106708526611328e+00,1.180058494210243225e-01
-5.043996334075927734e+00,4.513409614562988281e+00,3.547222018241882324e-01
-5.049921035766601562e+00,4.518710613250732422e+00,5.928627848625183105e-01
-5.055678367614746094e+00,4.523862361907958984e+00,8.329923748970031738e-01
-5.062553882598876953e+00,4.530014514923095703e+00,1.075969576835632324e+00
-5.067507266998291016e+00,4.534447193145751953e+00,1.321796178817749023e+00
-3.005135297775268555e+00,2.612545013427734375e+00,-1.066968798637390137e+00
-3.574261188507080078e+00,3.107320070266723633e+00,-1.093416571617126465e+00
-4.363664627075195312e+00,3.793596029281616211e+00,-1.123929023742675781e+00
-5.011867046356201172e+00,4.357117176055908203e+00,-1.051834225654602051e+00
-5.017881393432617188e+00,4.362345695495605469e+00,-8.163932561874389648e-01
-5.023763656616210938e+00,4.367459774017333984e+00,-5.823931694030761719e-01
-5.029649734497070312e+00,4.372576713562011719e+00,-3.492760062217712402e-01
-5.035485744476318359e+00,4.377650737762451172e+00,-1.164657250046730042e-01
-5.041260242462158203e+00,4.382670402526855469e+00,1.165992766618728638e-01
-5.047081947326660156e+00,4.387731552124023438e+00,3.504865765571594238e-01
-5.052847385406494141e+00,4.392744064331054688e+00,5.857647657394409180e-01
-5.059627056121826172e+00,4.398638248443603516e+00,8.231852054595947266e-01
-5.064991474151611328e+00,4.403301715850830078e+00,1.062983512878417969e+00
-5.071392059326171875e+00,4.408865928649902344e+00,1.306215047836303711e+00
-3.037577152252197266e+00,2.565348386764526367e+00,-1.065341114997863770e+00
-3.608264446258544922e+00,3.047315120697021484e+00,-1.090363621711730957e+00
-4.440055847167968750e+00,3.749794244766235352e+00,-1.129664897918701172e+00
-5.009733200073242188e+00,4.230908393859863281e+00,-1.038570642471313477e+00
-5.015671253204345703e+00,4.235922813415527344e+00,-8.060866594314575195e-01
-5.020977497100830078e+00,4.240404605865478516e+00,-5.749750733375549316e-01
-5.026929855346679688e+00,4.245431423187255859e+00,-3.448319435119628906e-01
-5.032768726348876953e+00,4.250362873077392578e+00,-1.149839982390403748e-01
-5.038480758666992188e+00,4.255186557769775391e+00,1.151145026087760925e-01
-5.044859886169433594e+00,4.260573863983154297e+00,3.460618853569030762e-01
-5.050707340240478516e+00,4.265512466430664062e+00,5.783795714378356934e-01
-5.056268215179443359e+00,4.270208835601806641e+00,8.126111626625061035e-01
-5.062814712524414062e+00,4.275737762451171875e+00,1.049575090408325195e+00
-5.069093704223632812e+00,4.281040668487548828e+00,1.289708375930786133e+00
-3.088275194168090820e+00,2.533337116241455078e+00,-1.070294857025146484e+00
-3.668708324432373047e+00,3.009471178054809570e+00,-1.095499873161315918e+00
-4.471210002899169922e+00,3.667769670486450195e+00,-1.124119162559509277e+00
-5.013521194458007812e+00,4.112631797790527344e+00,-1.027047157287597656e+00
-5.019647121429443359e+00,4.117656707763671875e+00,-7.971718907356262207e-01
-5.025516510009765625e+00,4.122471809387207031e+00,-5.686793923377990723e-01
-5.031260967254638672e+00,4.127184391021728516e+00,-3.410418331623077393e-01
-5.037082195281982422e+00,4.131959438323974609e+00,-1.137196570634841919e-01
-5.043022155761718750e+00,4.136831760406494141e+00,1.138537675142288208e-01
-5.048882961273193359e+00,4.141639232635498047e+00,3.422363102436065674e-01
-5.054560661315917969e+00,4.146296977996826172e+00,5.719660520553588867e-01
-5.061118602752685547e+00,4.151676177978515625e+00,8.037579655647277832e-01
-5.066149711608886719e+00,4.155803203582763672e+00,1.037828445434570312e+00
-5.072081089019775391e+00,4.160669326782226562e+00,1.275185823440551758e+00
-3.120667695999145508e+00,2.486051559448242188e+00,-1.069079399108886719e+00
-3.702579498291015625e+00,2.949626207351684570e+00,-1.092895030975341797e+00
-4.547947406768798828e+00,3.623080730438232422e+00,-1.130258202552795410e+00
-5.012716293334960938e+00,3.993335008621215820e+00,-1.015069127082824707e+00
-5.018080234527587891e+00,3.997607946395874023e+00,-7.877553105354309082e-01
-5.024090766906738281e+00,4.002396106719970703e+00,-5.619779229164123535e-01
-5.029909610748291016e+00,4.007031917572021484e+00,-3.370279669761657715e-01
-5.035734653472900391e+00,4.011672496795654297e+00,-1.123813614249229431e-01
-5.041607856750488281e+00,4.016351222991943359e+00,1.125124320387840271e-01
-5.047334194183349609e+00,4.020912647247314453e+00,3.381954729557037354e-01
-5.053759574890136719e+00,4.026031494140625000e+00,5.652965307235717773e-01
-5.059091091156005859e+00,4.030278682708740234e+00,7.941932678222656250e-01
-5.065269470214843750e+00,4.035201072692871094e+00,1.025711059570312500e+00
-5.071054935455322266e+00,4.039809703826904297e+00,1.260261178016662598e+00
-3.153027772903442383e+00,2.438890218734741211e+00,-1.068096756935119629e+00
-3.736402034759521484e+00,2.890134572982788086e+00,-1.090556144714355469e+00
-4.581222534179687500e+00,3.543609619140625000e+00,-1.125807166099548340e+00
-5.011665344238281250e+00,3.876560211181640625e+00,-1.003517508506774902e+00
-5.017251968383789062e+00,3.880881309509277344e+00,-7.788252234458923340e-01
-5.023406028747558594e+00,3.885641574859619141e+00,-5.556232929229736328e-01
-5.029301166534423828e+00,3.890201568603515625e+00,-3.332220613956451416e-01
-5.035130500793457031e+00,3.894710540771484375e+00,-1.111124083399772644e-01
-5.040936470031738281e+00,3.899201631546020508e+00,1.112405359745025635e-01
-5.046526432037353516e+00,3.903525352478027344e+00,3.343633413314819336e-01
-5.052737236022949219e+00,3.908329486846923828e+00,5.588675141334533691e-01
-5.059002876281738281e+00,3.913176298141479492e+00,7.853062748908996582e-01
-5.065093994140625000e+00,3.917887449264526367e+00,1.014215826988220215e+00
-5.070718765258789062e+00,3.922238111495971680e+00,1.246097803115844727e+00
-3.185347795486450195e+00,2.391815423965454102e+00,-1.067338585853576660e+00
-3.770169734954833984e+00,2.830946922302246094e+00,-1.088473677635192871e+00
-4.658385753631591797e+00,3.497890949249267578e+00,-1.132349967956542969e+00
-5.011299133300781250e+00,3.762886762619018555e+00,-9.925577640533447266e-01
-5.017798900604248047e+00,3.767767429351806641e+00,-7.704597711563110352e-01
-5.023413658142089844e+00,3.771983385086059570e+00,-5.495961308479309082e-01
-5.029386043548583984e+00,3.776467800140380859e+00,-3.296124935150146484e-01
-5.035221099853515625e+00,3.780849218368530273e+00,-1.099089235067367554e-01
-5.040959358215332031e+00,3.785157918930053711e+00,1.100341752171516418e-01
-5.047075748443603516e+00,3.789750814437866211e+00,3.307718336582183838e-01
-5.052402496337890625e+00,3.793750524520874023e+00,5.527676939964294434e-01
-5.058378219604492188e+00,3.798237562179565430e+00,7.766904830932617188e-01
-5.065572738647460938e+00,3.803639888763427734e+00,1.003307461738586426e+00
-5.071024894714355469e+00,3.807733774185180664e+00,1.232653379440307617e+00
-3.217617750167846680e+00,2.344790220260620117e+00,-1.066796422004699707e+00
-3.832843780517578125e+00,2.793126583099365234e+00,-1.094913601875305176e+00
-4.691439151763916016e+00,3.418815135955810547e+00,-1.128373861312866211e+00
-5.012513637542724609e+00,3.652793169021606445e+00,-9.823420643806457520e-01
-5.018290996551513672e+00,3.657003402709960938e+00,-7.624199986457824707e-01
-5.024064064025878906e+00,3.661210298538208008e+00,-5.438781380653381348e-01
-5.030116081237792969e+00,3.665620565414428711e+00,-3.261883258819580078e-01
-5.035956859588623047e+00,3.669877052307128906e+00,-1.087672412395477295e-01
-5.041625976562500000e+00,3.674008369445800781e+00,1.088896915316581726e-01
-5.047594547271728516e+00,3.678357839584350586e+00,3.273217678070068359e-01
-5.053635120391845703e+00,3.682759761810302734e+00,5.470793843269348145e-01
-5.059579849243164062e+00,3.687092065811157227e+00,7.686929106712341309e-01
-5.065203666687011719e+00,3.691190242767333984e+00,9.926681518554687500e-01
-5.071927070617675781e+00,3.696089744567871094e+00,1.219887971878051758e+00
-3.249829530715942383e+00,2.297780275344848633e+00,-1.066462635993957520e+00
-3.866487741470336914e+00,2.733786106109619141e+00,-1.093234539031982422e+00
-4.724424839019775391e+00,3.340387344360351562e+00,-1.124692559242248535e+00
-5.013360977172851562e+00,3.544678688049316406e+00,-9.724652767181396484e-01
-5.019375801086425781e+00,3.548931360244750977e+00,-7.547899484634399414e-01
-5.025724887847900391e+00,3.553420305252075195e+00,-5.384967327117919922e-01
-5.031443595886230469e+00,3.557463645935058594e+00,-3.229393661022186279e-01
-5.037290573120117188e+00,3.561597824096679688e+00,-1.076839789748191833e-01
-5.043282032012939453e+00,3.565834283828735352e+00,1.078120619058609009e-01
-5.048709869384765625e+00,3.569671869277954102e+00,3.240475952625274658e-01
-5.054523468017578125e+00,3.573782205581665039e+00,5.415824651718139648e-01
-5.061354160308837891e+00,3.578611850738525391e+00,7.611023783683776855e-01
-5.066857814788818359e+00,3.582503318786621094e+00,9.828422665596008301e-01
-5.073378086090087891e+00,3.587113380432128906e+00,1.207764029502868652e+00
-5.079366207122802734e+00,3.591347217559814453e+00,1.436171174049377441e+00
-3.281970739364624023e+00,2.250751018524169922e+00,-1.066328763961791992e+00
-3.900041103363037109e+00,2.674618721008300781e+00,-1.091785311698913574e+00
-4.801739215850830078e+00,3.292996406555175781e+00,-1.131761193275451660e+00
-5.015686035156250000e+00,3.439719676971435547e+00,-9.632673263549804688e-01
-5.021681785583496094e+00,3.443831682205200195e+00,-7.476476430892944336e-01
-5.027515888214111328e+00,3.447832345962524414e+00,-5.333462357521057129e-01
-5.033321857452392578e+00,3.451814413070678711e+00,-3.198559880256652832e-01
-5.039175510406494141e+00,3.455828666687011719e+00,-1.066559180617332458e-01
-5.045092105865478516e+00,3.459886312484741211e+00,1.067811474204063416e-01
-5.051027774810791016e+00,3.463956594467163086e+00,3.209811449050903320e-01
-5.056874275207519531e+00,3.467966318130493164e+00,5.364607572555541992e-01
-5.062469959259033203e+00,3.471803903579711914e+00,7.537203431129455566e-01
-5.069027900695800781e+00,3.476301193237304688e+00,9.735117554664611816e-01
-5.075332641601562500e+00,3.480624914169311523e+00,1.196246743202209473e+00
-5.081028938293457031e+00,3.484531402587890625e+00,1.422393441200256348e+00
-3.316128730773925781e+00,2.205065727233886719e+00,-1.067062854766845703e+00
-3.936014413833618164e+00,2.617259979248046875e+00,-1.091256856918334961e+00
-4.837548255920410156e+00,3.216736555099487305e+00,-1.129233598709106445e+00
-5.013942718505859375e+00,3.334030151367187500e+00,-9.536699056625366211e-01
-5.019273757934570312e+00,3.337574958801269531e+00,-7.401007413864135742e-01
-5.025287628173828125e+00,3.341574192047119141e+00,-5.279817581176757812e-01
-5.031185626983642578e+00,3.345496177673339844e+00,-3.166447877883911133e-01
-5.037042140960693359e+00,3.349390029907226562e+00,-1.055852472782135010e-01
-5.042871475219726562e+00,3.353266477584838867e+00,1.057074517011642456e-01
-5.048629760742187500e+00,3.357095479965209961e+00,3.177426159381866455e-01
-5.055126667022705078e+00,3.361415624618530273e+00,5.311167836189270020e-01
-5.060628890991210938e+00,3.365074157714843750e+00,7.461986541748046875e-01
-5.066996097564697266e+00,3.369308233261108398e+00,9.637608528137207031e-01
-5.073021411895751953e+00,3.373314619064331055e+00,1.184200286865234375e+00
-5.078355312347412109e+00,3.376861572265625000e+00,1.407969832420349121e+00
-3.348155498504638672e+00,2.157900094985961914e+00,-1.067320346832275391e+00
-3.969416618347167969e+00,2.558305263519287109e+00,-1.090253472328186035e+00
-4.870190143585205078e+00,3.138857603073120117e+00,-1.126250267028808594e+00
-5.016450881958007812e+00,3.233123064041137695e+00,-9.452480673789978027e-01
-5.022709846496582031e+00,3.237157106399536133e+00,-7.337000966072082520e-01
-5.028228282928466797e+00,3.240713596343994141e+00,-5.233635902404785156e-01
-5.034216403961181641e+00,3.244573354721069336e+00,-3.138805329799652100e-01
-5.040081501007080078e+00,3.248353242874145508e+00,-1.046636179089546204e-01
-5.045835971832275391e+00,3.252062082290649414e+00,1.047831252217292786e-01
-5.052083969116210938e+00,3.256088972091674805e+00,3.149945735931396484e-01
-5.057686805725097656e+00,3.259700059890747070e+00,5.264297723770141602e-01
-5.064035415649414062e+00,3.263791561126708984e+00,7.397367954254150391e-01
-5.070249557495117188e+00,3.267796516418457031e+00,9.553853273391723633e-01
-5.076037883758544922e+00,3.271527051925659180e+00,1.173853278160095215e+00
-5.082956790924072266e+00,3.275986433029174805e+00,1.396102190017700195e+00
-3.382302761077880859e+00,2.112012147903442383e+00,-1.068459510803222656e+00
-4.005357265472412109e+00,2.501066207885742188e+00,-1.090180754661560059e+00
-4.906005382537841797e+00,3.063457965850830078e+00,-1.124277234077453613e+00
-5.016113758087158203e+00,3.132213115692138672e+00,-9.366407394409179688e-01
-5.021731853485107422e+00,3.135720968246459961e+00,-7.269263863563537598e-01
-5.027847766876220703e+00,3.139540195465087891e+00,-5.185934901237487793e-01
-5.033527851104736328e+00,3.143086910247802734e+00,-3.110007345676422119e-01
-5.039395809173583984e+00,3.146751165390014648e+00,-1.037034317851066589e-01
-5.045444011688232422e+00,3.150527954101562500e+00,1.038278937339782715e-01
-5.051124095916748047e+00,3.154074430465698242e+00,3.120879232883453369e-01
-5.057355880737304688e+00,3.157965898513793945e+00,5.216371417045593262e-01
-5.063590049743652344e+00,3.161858558654785156e+00,7.329856753349304199e-01
-5.069593906402587891e+00,3.165607690811157227e+00,9.466269016265869141e-01
-5.075082302093505859e+00,3.169034719467163086e+00,1.163023591041564941e+00
-5.081599235534667969e+00,3.173104286193847656e+00,1.383113026618957520e+00
-3.416451930999755859e+00,2.065969467163085938e+00,-1.069796204566955566e+00
-4.041289329528808594e+00,2.443816184997558594e+00,-1.090328335762023926e+00
-4.986662387847900391e+00,3.015494346618652344e+00,-1.132753729820251465e+00
-5.015573978424072266e+00,3.032977819442749023e+00,-9.283386468887329102e-01
-5.022140026092529297e+00,3.036948204040527344e+00,-7.206192612648010254e-01
-5.027788162231445312e+00,3.040363788604736328e+00,-5.140460729598999023e-01
-5.033570766448974609e+00,3.043860673904418945e+00,-3.082799017429351807e-01
-5.039443016052246094e+00,3.047411680221557617e+00,-1.027962565422058105e-01
-5.045398235321044922e+00,3.051012992858886719e+00,1.029177308082580566e-01
-5.051533699035644531e+00,3.054723024368286133e+00,3.093800544738769531e-01
-5.056844711303710938e+00,3.057934761047363281e+00,5.170168280601501465e-01
-5.062701702117919922e+00,3.061476469039916992e+00,7.264394164085388184e-01
-5.069635868072509766e+00,3.065669536590576172e+00,9.383450150489807129e-01
-5.074815750122070312e+00,3.068801879882812500e+00,1.152778387069702148e+00
-5.080921173095703125e+00,3.072494029998779297e+00,1.370818018913269043e+00
-3.429917097091674805e+00,2.007640838623046875e+00,-1.064905285835266113e+00
-4.077188968658447266e+00,2.386509895324707031e+00,-1.090686202049255371e+00
-5.010352611541748047e+00,2.932720422744750977e+00,-1.128484010696411133e+00
-5.016596317291259766e+00,2.936375141143798828e+00,-9.206542372703552246e-01
-5.022545337677001953e+00,2.939857482910156250e+00,-7.145662903785705566e-01
-5.028394699096679688e+00,2.943281412124633789e+00,-5.097486376762390137e-01
-5.034280300140380859e+00,2.946726083755493164e+00,-3.057088851928710938e-01
-5.040158271789550781e+00,2.950166702270507812e+00,-1.019390374422073364e-01
-5.046020507812500000e+00,2.953598260879516602e+00,1.020576134324073792e-01
-5.051964759826660156e+00,2.957077503204345703e+00,3.067827522754669189e-01
-5.057883739471435547e+00,2.960541963577270508e+00,5.127379894256591797e-01
-5.063612461090087891e+00,2.963895320892333984e+00,7.204089760780334473e-01
-5.070312023162841797e+00,2.967816829681396484e+00,9.305122494697570801e-01
-5.076797962188720703e+00,2.971613407135009766e+00,1.143449664115905762e+00
-5.082713603973388672e+00,2.975075721740722656e+00,1.359673500061035156e+00
-3.463933944702148438e+00,1.961537122726440430e+00,-1.066640377044677734e+00
-4.113031864166259766e+00,2.329104661941528320e+00,-1.091244578361511230e+00
-5.011811256408691406e+00,2.838060379028320312e+00,-1.119548559188842773e+00
-5.018202304840087891e+00,2.841679573059082031e+00,-9.133908152580261230e-01
-5.024201393127441406e+00,2.845076799392700195e+00,-7.089355587959289551e-01
-5.029605388641357422e+00,2.848136901855468750e+00,-5.056868791580200195e-01
-5.035594463348388672e+00,2.851528167724609375e+00,-3.032790720462799072e-01
-5.041478157043457031e+00,2.854859828948974609e+00,-1.011289060115814209e-01
