3.402631282806396484e+00,-1.470425367355346680e+00,-4.551318883895874023e-01
3.406657695770263672e+00,-1.472165346145629883e+00,-3.246825337409973145e-01
3.410902976989746094e+00,-1.473999857902526855e+00,-1.947348713874816895e-01
3.415048837661743164e+00,-1.475791454315185547e+00,-6.493771821260452271e-02
3.419106006622314453e+00,-1.477544784545898438e+00,6.501486152410507202e-02
3.423412561416625977e+00,-1.479405879974365234e+00,1.954490691423416138e-01
3.427804231643676758e+00,-1.481303811073303223e+00,3.266979753971099854e-01
3.432166814804077148e+00,-1.483188986778259277e+00,4.590825438499450684e-01
3.436344146728515625e+00,-1.484994173049926758e+00,5.929086208343505859e-01
3.440144777297973633e+00,-1.486636519432067871e+00,7.284631729125976562e-01
3.444673061370849609e+00,-1.488593459129333496e+00,8.663446903228759766e-01
3.466670036315917969e+00,-1.439574837684631348e+00,-1.005796194076538086e+00
3.471526622772216797e+00,-1.441591620445251465e+00,-8.678200244903564453e-01
3.475928783416748047e+00,-1.443419694900512695e+00,-7.315907478332519531e-01
3.480099916458129883e+00,-1.445151686668395996e+00,-5.968281030654907227e-01
3.484693765640258789e+00,-1.447059392929077148e+00,-4.632905423641204834e-01
3.488711595535278320e+00,-1.448727846145629883e+00,-3.304927349090576172e-01
3.493008136749267578e+00,-1.450512051582336426e+00,-1.982167810201644897e-01
3.497253417968750000e+00,-1.452274918556213379e+00,-6.609880924224853516e-02
3.501458644866943359e+00,-1.454021215438842773e+00,6.617828458547592163e-02
3.505974054336547852e+00,-1.455896377563476562e+00,1.989525705575942993e-01
3.509963750839233398e+00,-1.457553148269653320e+00,3.325060009956359863e-01
3.514452934265136719e+00,-1.459417343139648438e+00,4.672470688819885254e-01
3.518806219100952148e+00,-1.461224913597106934e+00,6.034661531448364258e-01
3.522823333740234375e+00,-1.462893128395080566e+00,7.414608001708984375e-01
3.527643680572509766e+00,-1.464894890785217285e+00,8.818482756614685059e-01
3.552994251251220703e+00,-1.416149020195007324e+00,-1.024855852127075195e+00
3.556627035140991211e+00,-1.417596936225891113e+00,-8.839306831359863281e-01
3.561068773269653320e+00,-1.419367313385009766e+00,-7.451581358909606934e-01
3.566004037857055664e+00,-1.421334385871887207e+00,-6.080092191696166992e-01
3.570070266723632812e+00,-1.422955155372619629e+00,-4.718851745128631592e-01
3.574571132659912109e+00,-1.424749016761779785e+00,-3.366600275039672852e-01
3.578921556472778320e+00,-1.426483035087585449e+00,-2.019127607345581055e-01
3.583270788192749023e+00,-1.428216576576232910e+00,-6.733129173517227173e-02
3.587630510330200195e+00,-1.429954290390014648e+00,6.741321086883544922e-02
3.591871261596679688e+00,-1.431644558906555176e+00,2.026433497667312622e-01
3.596602678298950195e+00,-1.433530449867248535e+00,3.387350142002105713e-01
3.600534200668334961e+00,-1.435097455978393555e+00,4.759118556976318359e-01
3.605062246322631836e+00,-1.436902165412902832e+00,6.146686673164367676e-01
3.610541343688964844e+00,-1.439086079597473145e+00,7.555103302001953125e-01
3.614413261413574219e+00,-1.440629243850708008e+00,8.982923626899719238e-01
3.642182826995849609e+00,-1.391626119613647461e+00,-1.044729471206665039e+00
3.646869897842407227e+00,-1.393417000770568848e+00,-9.013096690177917480e-01
3.651173114776611328e+00,-1.395061254501342773e+00,-7.597563862800598145e-01
3.655334234237670898e+00,-1.396651148796081543e+00,-6.197682023048400879e-01
3.660048007965087891e+00,-1.398452162742614746e+00,-4.810832440853118896e-01
3.664560794830322266e+00,-1.400176525115966797e+00,-3.432127237319946289e-01
3.668969154357910156e+00,-1.401860833168029785e+00,-2.058398723602294922e-01
3.673427343368530273e+00,-1.403564214706420898e+00,-6.864084303379058838e-02
3.677947998046875000e+00,-1.405291557312011719e+00,6.872531771659851074e-02
3.682396650314331055e+00,-1.406991243362426758e+00,2.065931856632232666e-01
3.686698198318481445e+00,-1.408634781837463379e+00,3.452860414981842041e-01
3.691633939743041992e+00,-1.410520672798156738e+00,4.852349460124969482e-01
3.696529865264892578e+00,-1.412391424179077148e+00,6.267529726028442383e-01
3.701172113418579102e+00,-1.414165139198303223e+00,7.701604366302490234e-01
3.705305099487304688e+00,-1.415744304656982422e+00,9.157516956329345703e-01
3.728034019470214844e+00,-1.363610029220581055e+00,-1.063647627830505371e+00
3.732754707336425781e+00,-1.365336775779724121e+00,-9.176118969917297363e-01
3.737131357192993164e+00,-1.366937518119812012e+00,-7.734924554824829102e-01
3.742126703262329102e+00,-1.368764758110046387e+00,-6.310975551605224609e-01
3.746817827224731445e+00,-1.370480656623840332e+00,-4.898598194122314453e-01
3.751345872879028320e+00,-1.372136950492858887e+00,-3.494655787944793701e-01
3.755707263946533203e+00,-1.373732089996337891e+00,-2.095815241336822510e-01
3.760272026062011719e+00,-1.375401854515075684e+00,-6.988858431577682495e-02
3.765048980712890625e+00,-1.377149105072021484e+00,6.997736543416976929e-02
3.769694089889526367e+00,-1.378848195075988770e+00,2.103620320558547974e-01
3.774232149124145508e+00,-1.380508065223693848e+00,3.515975773334503174e-01
3.778541803359985352e+00,-1.382084369659423828e+00,4.940074384212493896e-01
3.783582925796508789e+00,-1.383928298950195312e+00,6.380890011787414551e-01
3.788411140441894531e+00,-1.385694265365600586e+00,7.841061353683471680e-01
3.792764186859130859e+00,-1.387286543846130371e+00,9.323638081550598145e-01
3.793136835098266602e+00,-1.326186656951904297e+00,-1.076696038246154785e+00
3.830628156661987305e+00,-1.339294791221618652e+00,-9.368633627891540527e-01
3.836021184921264648e+00,-1.341180324554443359e+00,-7.899060249328613281e-01
3.840209245681762695e+00,-1.342644572257995605e+00,-6.443318128585815430e-01
3.845081806182861328e+00,-1.344348073005676270e+00,-5.001398921012878418e-01
3.849839925765991211e+00,-1.346011638641357422e+00,-3.568096756935119629e-01
3.854585647583007812e+00,-1.347671031951904297e+00,-2.140009254217147827e-01
3.859270095825195312e+00,-1.349308729171752930e+00,-7.136229425668716431e-02
3.863902568817138672e+00,-1.350928425788879395e+00,7.144795358180999756e-02
3.868557214736938477e+00,-1.352555751800537109e+00,2.147765904664993286e-01
3.873154163360595703e+00,-1.354163050651550293e+00,3.589704930782318115e-01
3.878523349761962891e+00,-1.356040239334106445e+00,5.044897198677062988e-01
3.882787704467773438e+00,-1.357531189918518066e+00,6.514758467674255371e-01
3.887841224670410156e+00,-1.359297990798950195e+00,8.005766868591308594e-01
3.892457246780395508e+00,-1.360911965370178223e+00,9.519850015640258789e-01
3.820106029510498047e+00,-1.274558544158935547e+00,-1.079062342643737793e+00
3.926079750061035156e+00,-1.309916138648986816e+00,-9.555246233940124512e-01
3.930414915084838867e+00,-1.311362624168395996e+00,-8.053957819938659668e-01
3.935502290725708008e+00,-1.313059926033020020e+00,-6.570998430252075195e-01
3.940362453460693359e+00,-1.314681529998779297e+00,-5.100334286689758301e-01
3.945148706436157227e+00,-1.316278457641601562e+00,-3.638596236705780029e-01
3.949967861175537109e+00,-1.317886352539062500e+00,-2.182267755270004272e-01
3.954767704010009766e+00,-1.319487690925598145e+00,-7.277146726846694946e-02
3.959558486938476562e+00,-1.321086168289184570e+00,7.285962253808975220e-02
3.964417934417724609e+00,-1.322707533836364746e+00,2.190251052379608154e-01
3.969261884689331055e+00,-1.324323654174804688e+00,3.660835623741149902e-01
3.973960876464843750e+00,-1.325891494750976562e+00,5.143823623657226562e-01
3.979534626007080078e+00,-1.327751040458679199e+00,6.644517779350280762e-01
3.983578681945800781e+00,-1.329100370407104492e+00,8.162897825241088867e-01
3.990012884140014648e+00,-1.331247091293334961e+00,9.710845947265625000e-01
3.819907188415527344e+00,-1.214018464088439941e+00,-1.073987841606140137e+00
4.034208774566650391e+00,-1.282126426696777344e+00,-9.772744178771972656e-01
4.039643287658691406e+00,-1.283853650093078613e+00,-8.239281773567199707e-01
4.044678211212158203e+00,-1.285453796386718750e+00,-6.721877455711364746e-01
4.049525737762451172e+00,-1.286994338035583496e+00,-5.217254757881164551e-01
4.054345130920410156e+00,-1.288526058197021484e+00,-3.721916377544403076e-01
4.059247493743896484e+00,-1.290084123611450195e+00,-2.232211828231811523e-01
4.064179897308349609e+00,-1.291651725769042969e+00,-7.443694025278091431e-02
4.069152832031250000e+00,-1.293232083320617676e+00,7.452801614999771118e-02
4.074244976043701172e+00,-1.294850468635559082e+00,2.240458875894546509e-01
4.079370498657226562e+00,-1.296479463577270508e+00,3.744889795780181885e-01
4.084393978118896484e+00,-1.298075914382934570e+00,5.262176990509033203e-01
4.089134216308593750e+00,-1.299582481384277344e+00,6.795758605003356934e-01
4.094810009002685547e+00,-1.301386237144470215e+00,8.351799845695495605e-01
4.100112915039062500e+00,-1.303071618080139160e+00,9.932395219802856445e-01
3.846811532974243164e+00,-1.162220835685729980e+00,-1.076764583587646484e+00
4.139680862426757812e+00,-1.250704169273376465e+00,-9.983857274055480957e-01
4.144005775451660156e+00,-1.252010941505432129e+00,-8.414728045463562012e-01
4.149224281311035156e+00,-1.253587603569030762e+00,-6.865100264549255371e-01
4.154881954193115234e+00,-1.255296945571899414e+00,-5.329296588897705078e-01
4.159738063812255859e+00,-1.256764054298400879e+00,-3.801764547824859619e-01
4.164722919464111328e+00,-1.258270144462585449e+00,-2.280075997114181519e-01
4.169782638549804688e+00,-1.259798765182495117e+00,-7.603304088115692139e-02
4.174928188323974609e+00,-1.261353373527526855e+00,7.612685859203338623e-02
4.180241107940673828e+00,-1.262958526611328125e+00,2.288571745157241821e-01
4.184811592102050781e+00,-1.264339447021484375e+00,3.824680447578430176e-01
4.189910888671875000e+00,-1.265879988670349121e+00,5.374226570129394531e-01
4.196036338806152344e+00,-1.267730712890625000e+00,6.942552924156188965e-01
4.200627326965332031e+00,-1.269117832183837891e+00,8.529702425003051758e-01
4.206154823303222656e+00,-1.270787835121154785e+00,1.014417648315429688e+00
3.848010778427124023e+00,-1.102736115455627441e+00,-1.072572350502014160e+00
4.249226093292236328e+00,-1.217713713645935059e+00,-1.020497202873229980e+00
4.254751682281494141e+00,-1.219297170639038086e+00,-8.603286147117614746e-01
4.259940147399902344e+00,-1.220783948898315430e+00,-7.018654942512512207e-01
4.265019416809082031e+00,-1.222239613533020020e+00,-5.447568297386169434e-01
4.270521163940429688e+00,-1.223816275596618652e+00,-3.886606395244598389e-01
4.275595188140869141e+00,-1.225270390510559082e+00,-2.330935448408126831e-01
4.280788898468017578e+00,-1.226758718490600586e+00,-7.772901654243469238e-02
4.286115169525146484e+00,-1.228284955024719238e+00,7.782572507858276367e-02
4.291050434112548828e+00,-1.229699254035949707e+00,2.339361011981964111e-01
4.296473026275634766e+00,-1.231253385543823242e+00,3.910225331783294678e-01
4.301878452301025391e+00,-1.232802391052246094e+00,5.494647026062011719e-01
4.307072639465332031e+00,-1.234290838241577148e+00,7.096310257911682129e-01
4.313348770141601562e+00,-1.236089468002319336e+00,8.721771836280822754e-01
4.317562103271484375e+00,-1.237296819686889648e+00,1.036908745765686035e+00
3.874889373779296875e+00,-1.050666093826293945e+00,-1.075762391090393066e+00
4.365869522094726562e+00,-1.183794021606445312e+00,-1.044334053993225098e+00
4.371339797973632812e+00,-1.185277342796325684e+00,-8.803825378417968750e-01
4.376505851745605469e+00,-1.186678051948547363e+00,-7.181987166404724121e-01
4.381596088409423828e+00,-1.188058257102966309e+00,-5.574176311492919922e-01
4.387165546417236328e+00,-1.189568400382995605e+00,-3.976860940456390381e-01
4.392333984375000000e+00,-1.190969705581665039e+00,-2.385040223598480225e-01
4.397669315338134766e+00,-1.192416429519653320e+00,-7.953323423862457275e-02
4.403182029724121094e+00,-1.193911194801330566e+00,7.963293790817260742e-02
4.408334255218505859e+00,-1.195308208465576172e+00,2.393728494644165039e-01
4.414032936096191406e+00,-1.196853518486022949e+00,4.001215696334838867e-01
4.419754981994628906e+00,-1.198404908180236816e+00,5.622721314430236816e-01
4.425298213958740234e+00,-1.199908018112182617e+00,7.262057065963745117e-01
4.430411815643310547e+00,-1.201294541358947754e+00,8.922796249389648438e-01
4.436606884002685547e+00,-1.202974319458007812e+00,1.061254739761352539e+00
3.901977777481079102e+00,-9.982858300209045410e-01,-1.079205274581909180e+00
4.487488746643066406e+00,-1.148083448410034180e+00,-1.069385409355163574e+00
4.493149280548095703e+00,-1.149531722068786621e+00,-9.015087485313415527e-01
4.498546123504638672e+00,-1.150912404060363770e+00,-7.354472279548645020e-01
4.504546165466308594e+00,-1.152447581291198730e+00,-5.709021091461181641e-01
4.509803771972656250e+00,-1.153792619705200195e+00,-4.072642028331756592e-01
4.515460491180419922e+00,-1.155239820480346680e+00,-2.442669123411178589e-01
4.520944595336914062e+00,-1.156642913818359375e+00,-8.145494759082794189e-02
4.526268482208251953e+00,-1.158004879951477051e+00,8.155086636543273926e-02
4.532032012939453125e+00,-1.159479498863220215e+00,2.451633661985397339e-01
4.537117481231689453e+00,-1.160780549049377441e+00,4.097308218479156494e-01
4.542912006378173828e+00,-1.162263035774230957e+00,5.757645368576049805e-01
4.548569679260253906e+00,-1.163710474967956543e+00,7.436253428459167480e-01
4.553829669952392578e+00,-1.165056228637695312e+00,9.136837124824523926e-01
4.560249328613281250e+00,-1.166698575019836426e+00,1.086724638938903809e+00
3.902684450149536133e+00,-9.391664862632751465e-01,-1.075572609901428223e+00
4.617373943328857422e+00,-1.111153841018676758e+00,-1.096435189247131348e+00
4.623001098632812500e+00,-1.112508058547973633e+00,-9.242726564407348633e-01
4.628394603729248047e+00,-1.113806009292602539e+00,-7.539920210838317871e-01
4.634450435638427734e+00,-1.115263223648071289e+00,-5.852829217910766602e-01
4.639776229858398438e+00,-1.116544961929321289e+00,-4.175155758857727051e-01
4.645556926727294922e+00,-1.117936015129089355e+00,-2.504132986068725586e-01
4.651197910308837891e+00,-1.119293451309204102e+00,-8.350454270839691162e-02
4.656713962554931641e+00,-1.120620846748352051e+00,8.360357582569122314e-02
4.662725925445556641e+00,-1.122067689895629883e+00,2.513387799263000488e-01
4.668075084686279297e+00,-1.123354911804199219e+00,4.200620651245117188e-01
4.674198627471923828e+00,-1.124828577041625977e+00,5.903027057647705078e-01
4.680218219757080078e+00,-1.126277089118957520e+00,7.624343633651733398e-01
4.685864925384521484e+00,-1.127635955810546875e+00,9.368409514427185059e-01
4.692748069763183594e+00,-1.129292368888854980e+00,1.114333510398864746e+00
3.929887294769287109e+00,-8.864092230796813965e-01,-1.079462289810180664e+00
4.673735618591308594e+00,-1.054188609123229980e+00,-1.106122493743896484e+00
4.760436534881591797e+00,-1.073744535446166992e+00,-9.485801458358764648e-01
4.765835285186767578e+00,-1.074962139129638672e+00,-7.737960219383239746e-01
4.771955966949462891e+00,-1.076342821121215820e+00,-6.006412506103515625e-01
4.777357101440429688e+00,-1.077561020851135254e+00,-4.284641444683074951e-01
4.783269405364990234e+00,-1.078894615173339844e+00,-2.569777965545654297e-01
4.789077758789062500e+00,-1.080204725265502930e+00,-8.569359034299850464e-02
4.794794559478759766e+00,-1.081494212150573730e+00,8.579588681459426880e-02
4.801065444946289062e+00,-1.082908630371093750e+00,2.579338550567626953e-01
4.806688308715820312e+00,-1.084176898002624512e+00,4.310947358608245850e-01
4.813151836395263672e+00,-1.085634827613830566e+00,6.058265566825866699e-01
4.818055629730224609e+00,-1.086740851402282715e+00,7.822747230529785156e-01
4.823844909667968750e+00,-1.088046669960021973e+00,9.612150788307189941e-01
4.830951690673828125e+00,-1.089649558067321777e+00,1.143330454826354980e+00
3.930373191833496094e+00,-8.275897502899169922e-01,-1.076231837272644043e+00
4.674099445343017578e+00,-9.841907620429992676e-01,-1.102761626243591309e+00
4.904920101165771484e+00,-1.032792925834655762e+00,-9.743248820304870605e-01
4.911588668823242188e+00,-1.034196972846984863e+00,-7.949761748313903809e-01
4.917076110839843750e+00,-1.035352468490600586e+00,-6.169788837432861328e-01
4.923273563385009766e+00,-1.036657452583312988e+00,-4.401749670505523682e-01
4.929327487945556641e+00,-1.037932157516479492e+00,-2.639994621276855469e-01
4.935311794281005859e+00,-1.039192199707031250e+00,-8.803506195545196533e-02
4.941239833831787109e+00,-1.040440559387207031e+00,8.814080804586410522e-02
4.947069644927978516e+00,-1.041667938232421875e+00,2.649496495723724365e-01
4.953687191009521484e+00,-1.043061375617980957e+00,4.428941905498504639e-01
4.959231853485107422e+00,-1.044228911399841309e+00,6.222684383392333984e-01
4.965737342834472656e+00,-1.045598745346069336e+00,8.037405014038085938e-01
4.971925735473632812e+00,-1.046901702880859375e+00,9.876350164413452148e-01
4.977455139160156250e+00,-1.048066139221191406e+00,1.174332380294799805e+00
3.930776834487915039e+00,-7.690937519073486328e-01,-1.073218107223510742e+00
4.674392223358154297e+00,-9.145891666412353516e-01,-1.099629521369934082e+00
5.059731960296630859e+00,-9.899845123291015625e-01,-1.002159595489501953e+00
5.066468715667724609e+00,-9.913026094436645508e-01,-8.176642656326293945e-01
5.072018146514892578e+00,-9.923884272575378418e-01,-6.345731616020202637e-01
5.078337669372558594e+00,-9.936249256134033203e-01,-4.527208507061004639e-01
5.084545135498046875e+00,-9.948394298553466797e-01,-2.715219855308532715e-01
5.090716838836669922e+00,-9.960470199584960938e-01,-9.054356068372726440e-02
5.096868038177490234e+00,-9.972504973411560059e-01,9.065296500921249390e-02
5.102952003479003906e+00,-9.984409213066101074e-01,2.725049555301666260e-01
5.109891414642333984e+00,-9.997986555099487305e-01,4.555337727069854736e-01
5.115752696990966797e+00,-1.000945568084716797e+00,6.400449275970458984e-01
5.122646331787109375e+00,-1.002294301986694336e+00,8.267306685447692871e-01
5.129245758056640625e+00,-1.003585577011108398e+00,1.015928030014038086e+00
5.135195255279541016e+00,-1.004749655723571777e+00,1.208031296730041504e+00
3.958114624023437500e+00,-7.157837152481079102e-01,-1.077774405479431152e+00
4.713379859924316406e+00,-8.523656129837036133e-01,-1.105817794799804688e+00
5.224577903747558594e+00,-9.448103904724121094e-01,-1.032025694847106934e+00
5.230338096618652344e+00,-9.458520412445068359e-01,-8.418395519256591797e-01
5.237018108367919922e+00,-9.470600485801696777e-01,-6.534537672996520996e-01
5.243471622467041016e+00,-9.482271671295166016e-01,-4.661844372749328613e-01
5.249845504760742188e+00,-9.493797421455383301e-01,-2.795949578285217285e-01
5.256216526031494141e+00,-9.505318999290466309e-01,-9.323560446500778198e-02
5.262601852416992188e+00,-9.516866207122802734e-01,9.334886074066162109e-02
5.268952846527099609e+00,-9.528351426124572754e-01,2.806125879287719727e-01
5.275162220001220703e+00,-9.539580941200256348e-01,4.690019786357879639e-01
5.282416343688964844e+00,-9.552698731422424316e-01,6.591184139251708984e-01
5.288060665130615234e+00,-9.562906026840209961e-01,8.511301875114440918e-01
5.294798851013183594e+00,-9.575091600418090820e-01,1.045896768569946289e+00
5.303113460540771484e+00,-9.590126872062683105e-01,1.244176626205444336e+00
3.959430694580078125e+00,-6.576462984085083008e-01,-1.075459361076354980e+00
4.714801788330078125e+00,-7.831104993820190430e-01,-1.103408575057983398e+00
5.380401611328125000e+00,-8.936641812324523926e-01,-1.060170769691467285e+00
5.387601852416992188e+00,-8.948600292205810547e-01,-8.650014400482177734e-01
5.394397735595703125e+00,-8.959888219833374023e-01,-6.714220046997070312e-01
5.400984764099121094e+00,-8.970829248428344727e-01,-4.789978861808776855e-01
5.407519340515136719e+00,-8.981682658195495605e-01,-2.872782051563262939e-01
5.414080619812011719e+00,-8.992580175399780273e-01,-9.579768776893615723e-02
5.420686244964599609e+00,-9.003552198410034180e-01,9.591457247734069824e-02
5.427288055419921875e+00,-9.014517664909362793e-01,2.883284389972686768e-01
5.433771610260009766e+00,-9.025287032127380371e-01,4.819056391716003418e-01
5.439963340759277344e+00,-9.035571217536926270e-01,6.770934462547302246e-01
5.447322368621826172e+00,-9.047794342041015625e-01,8.745898604393005371e-01
5.454439640045166016e+00,-9.059615731239318848e-01,1.074759483337402344e+00
5.460932731628417969e+00,-9.070400595664978027e-01,1.278026223182678223e+00
3.959605216979980469e+00,-5.995742082595825195e-01,-1.073065876960754395e+00
4.714864253997802734e+00,-7.139375805854797363e-01,-1.100919008255004883e+00
5.567006587982177734e+00,-8.429712653160095215e-01,-1.094450354576110840e+00
5.574330329895019531e+00,-8.440802693367004395e-01,-8.929502964019775391e-01
5.581267833709716797e+00,-8.451307415962219238e-01,-6.931044459342956543e-01
5.588019371032714844e+00,-8.461531400680541992e-01,-4.944606721401214600e-01
5.594746112823486328e+00,-8.471716642379760742e-01,-2.965501844882965088e-01
5.601533412933349609e+00,-8.481994271278381348e-01,-9.888956695795059204e-02
5.608398914337158203e+00,-8.492390513420104980e-01,9.901077300310134888e-02
5.615293025970458984e+00,-8.502829074859619141e-01,2.976392805576324463e-01
5.622095108032226562e+00,-8.513129949569702148e-01,4.974758923053741455e-01
5.628626346588134766e+00,-8.523018956184387207e-01,6.989856362342834473e-01
5.636401653289794922e+00,-8.534792661666870117e-01,9.028934836387634277e-01
5.643955230712890625e+00,-8.546230196952819824e-01,1.109578132629394531e+00
5.650889873504638672e+00,-8.556731343269348145e-01,1.319480538368225098e+00
3.987159252166748047e+00,-5.454941391944885254e-01,-1.078306674957275391e+00
4.714922904968261719e+00,-6.450614929199218750e-01,-1.098664164543151855e+00
5.767041683197021484e+00,-7.890047430992126465e-01,-1.131440281867980957e+00
5.774510860443115234e+00,-7.900266051292419434e-01,-9.231111407279968262e-01
5.781607627868652344e+00,-7.909975647926330566e-01,-7.165040373802185059e-01
5.788542747497558594e+00,-7.919463515281677246e-01,-5.111487507820129395e-01
5.795477867126464844e+00,-7.928951978683471680e-01,-3.065570294857025146e-01
5.802508831024169922e+00,-7.938570976257324219e-01,-1.022265106439590454e-01
5.809649944305419922e+00,-7.948340773582458496e-01,1.023523211479187012e-01
5.816849231719970703e+00,-7.958191037178039551e-01,3.076875209808349609e-01
5.823986530303955078e+00,-7.967954874038696289e-01,5.142785310745239258e-01
5.830869197845458984e+00,-7.977371811866760254e-01,7.226089835166931152e-01
5.839075565338134766e+00,-7.988598942756652832e-01,9.334324002265930176e-01
5.844930171966552734e+00,-7.996609210968017578e-01,1.146721363067626953e+00
5.852014541625976562e+00,-8.006301522254943848e-01,1.363627552986145020e+00
3.988079309463500977e+00,-4.875819981098175049e-01,-1.076557755470275879e+00
4.755344390869140625e+00,-5.813877582550048828e-01,-1.106030821800231934e+00
5.823510646820068359e+00,-7.119815945625305176e-01,-1.140402793884277344e+00
5.966140747070312500e+00,-7.294195294380187988e-01,-9.519785046577453613e-01
5.973395347595214844e+00,-7.303065061569213867e-01,-7.389008402824401855e-01
5.980513572692871094e+00,-7.311767339706420898e-01,-5.271223187446594238e-01
5.987651824951171875e+00,-7.320494651794433594e-01,-3.161356449127197266e-01
5.994913101196289062e+00,-7.329372167587280273e-01,-1.054205968976020813e-01
6.002316474914550781e+00,-7.338423132896423340e-01,1.055507883429527283e-01
6.009804725646972656e+00,-7.347579002380371094e-01,3.173052668571472168e-01
6.017251491546630859e+00,-7.356683611869812012e-01,5.303604006767272949e-01
6.024460792541503906e+00,-7.365496754646301270e-01,7.452175021171569824e-01
6.031167030334472656e+00,-7.373695969581604004e-01,9.623543024063110352e-01
6.039256095886230469e+00,-7.383585572242736816e-01,1.182651638984680176e+00
6.046743869781494141e+00,-7.392740249633789062e-01,1.406393289566040039e+00
3.988154649734497070e+00,-4.297548532485961914e-01,-1.074807524681091309e+00
4.755328178405761719e+00,-5.124238133430480957e-01,-1.104207873344421387e+00
5.823371887207031250e+00,-6.275138854980468750e-01,-1.138500094413757324e+00
6.195987701416015625e+00,-6.676661372184753418e-01,-9.870276451110839844e-01
6.203446388244628906e+00,-6.684699058532714844e-01,-7.660958170890808105e-01
6.210785388946533203e+00,-6.692607402801513672e-01,-5.465181469917297363e-01
6.218171119689941406e+00,-6.700565814971923828e-01,-3.277665972709655762e-01
6.225710391998291016e+00,-6.708690524101257324e-01,-1.092991232872009277e-01
6.233422279357910156e+00,-6.717000603675842285e-01,1.094345152378082275e-01
6.241250991821289062e+00,-6.725436449050903320e-01,3.289831578731536865e-01
6.249062061309814453e+00,-6.733853220939636230e-01,5.498862862586975098e-01
6.256650447845458984e+00,-6.742030978202819824e-01,7.726662755012512207e-01
6.263740539550781250e+00,-6.749670505523681641e-01,9.978207349777221680e-01
6.272294998168945312e+00,-6.758888959884643555e-01,1.226266980171203613e+00
3.988833427429199219e+00,-3.721599876880645752e-01,-1.073444843292236328e+00
4.756057739257812500e+00,-4.437423646450042725e-01,-1.102789521217346191e+00
5.824179649353027344e+00,-5.433986186981201172e-01,-1.137020826339721680e+00
6.415439128875732422e+00,-5.985634326934814453e-01,-1.020517230033874512e+00
6.423465728759765625e+00,-5.993123054504394531e-01,-7.921265959739685059e-01
6.431967735290527344e+00,-6.001055240631103516e-01,-5.651673674583435059e-01
6.439592838287353516e+00,-6.008169651031494141e-01,-3.389499783515930176e-01
6.447399139404296875e+00,-6.015453338623046875e-01,-1.130283698439598083e-01
6.455406665802001953e+00,-6.022924184799194336e-01,1.131687462329864502e-01
6.462610721588134766e+00,-6.029645800590515137e-01,3.401615321636199951e-01
6.470388889312744141e+00,-6.036902666091918945e-01,5.685433745384216309e-01
6.479647159576416016e+00,-6.045540571212768555e-01,7.990547418594360352e-01
6.487091064453125000e+00,-6.052485704421997070e-01,1.031914949417114258e+00
6.496074676513671875e+00,-6.060867905616760254e-01,1.268191099166870117e+00
4.016668319702148438e+00,-3.168414533138275146e-01,-1.079604625701904297e+00
4.756019592285156250e+00,-3.751627206802368164e-01,-1.101422786712646484e+00
5.885016441345214844e+00,-4.642198681831359863e-01,-1.147482991218566895e+00
6.682078838348388672e+00,-5.270934700965881348e-01,-1.061623215675354004e+00
6.690374374389648438e+00,-5.277478098869323730e-01,-8.240252137184143066e-01
6.699192047119140625e+00,-5.284433960914611816e-01,-5.879231095314025879e-01
6.707111358642578125e+00,-5.290680527687072754e-01,-3.525961637496948242e-01
6.715240478515625000e+00,-5.297092795372009277e-01,-1.175788938999176025e-01
6.723599910736083984e+00,-5.303686857223510742e-01,1.177252605557441711e-01
6.731142520904541016e+00,-5.309636592864990234e-01,3.538595139980316162e-01
6.739304542541503906e+00,-5.316075086593627930e-01,5.914434194564819336e-01
6.747276782989501953e+00,-5.322363376617431641e-01,8.310336470603942871e-01
6.756887912750244141e+00,-5.329945087432861328e-01,1.073508620262145996e+00
6.763872623443603516e+00,-5.335454940795898438e-01,1.318845748901367188e+00
4.017145633697509766e+00,-2.590872943401336670e-01,-1.078625559806823730e+00
4.756531715393066406e+00,-3.067742884159088135e-01,-1.100411653518676758e+00
5.885599136352539062e+00,-3.795939385890960693e-01,-1.146419763565063477e+00
6.939264774322509766e+00,-4.475505053997039795e-01,-1.101353406906127930e+00
6.947829723358154297e+00,-4.481028914451599121e-01,-8.548573851585388184e-01
6.956953048706054688e+00,-4.486913084983825684e-01,-6.099181771278381348e-01
6.965164661407470703e+00,-4.492209255695343018e-01,-3.657866716384887695e-01
6.973602771759033203e+00,-4.497651457786560059e-01,-1.219774112105369568e-01
6.982299327850341797e+00,-4.503260254859924316e-01,1.221295222640037537e-01
6.990161418914794922e+00,-4.508330821990966797e-01,3.670994341373443604e-01
6.998684406280517578e+00,-4.513827860355377197e-01,6.135768294334411621e-01
7.007027149200439453e+00,-4.519208371639251709e-01,8.621409535408020020e-01
7.017088890075683594e+00,-4.525697827339172363e-01,1.113705158233642578e+00
7.024434089660644531e+00,-4.530435204505920410e-01,1.368246436119079590e+00
4.017164707183837891e+00,-2.014031112194061279e-01,-1.077746391296386719e+00
4.756509304046630859e+00,-2.384705990552902222e-01,-1.099504232406616211e+00
5.885529994964599609e+00,-2.950747609138488770e-01,-1.145466208457946777e+00
7.252406120300292969e+00,-3.636039793491363525e-01,-1.150109291076660156e+00
7.261309623718261719e+00,-3.640503585338592529e-01,-8.926951885223388672e-01
7.270814895629882812e+00,-3.645268976688385010e-01,-6.369118690490722656e-01
7.279382705688476562e+00,-3.649564683437347412e-01,-3.819748759269714355e-01
7.288199424743652344e+00,-3.653984963893890381e-01,-1.273755878210067749e-01
7.297301292419433594e+00,-3.658548295497894287e-01,1.275346577167510986e-01
7.305545806884765625e+00,-3.662681579589843750e-01,3.833477497100830078e-01
7.314496517181396484e+00,-3.667169213294982910e-01,6.407383680343627930e-01
7.323274612426757812e+00,-3.671570122241973877e-01,9.003130793571472168e-01
7.333866596221923828e+00,-3.676880300045013428e-01,1.163027524948120117e+00
4.017460823059082031e+00,-1.438109725713729858e-01,-1.077163100242614746e+00
4.756831169128417969e+00,-1.702778339385986328e-01,-1.098902702331542969e+00
5.885905265808105469e+00,-2.106947153806686401e-01,-1.144835114479064941e+00
7.556070327758789062e+00,-2.704807519912719727e-01,-1.197528600692749023e+00
7.565310955047607422e+00,-2.708115577697753906e-01,-9.294969439506530762e-01
7.575191020965576172e+00,-2.711652219295501709e-01,-6.631668210029602051e-01
7.584111213684082031e+00,-2.714845240116119385e-01,-3.977203965187072754e-01
7.593294620513916016e+00,-2.718132734298706055e-01,-1.326261460781097412e-01
7.602785587310791016e+00,-2.721529901027679443e-01,1.327919065952301025e-01
7.611394405364990234e+00,-2.724611759185791016e-01,3.991511762142181396e-01
7.620748996734619141e+00,-2.727960348129272461e-01,6.671551465988159180e-01
7.629932880401611328e+00,-2.731247842311859131e-01,9.374365806579589844e-01
7.641020774841308594e+00,-2.735216915607452393e-01,1.210992097854614258e+00
4.017492294311523438e+00,-8.626369386911392212e-02,-1.076730251312255859e+00
4.756851196289062500e+00,-1.021392196416854858e-01,-1.098457098007202148e+00
5.885918617248535156e+00,-1.263825744390487671e-01,-1.144368648529052734e+00
7.607693672180175781e+00,-1.633525788784027100e-01,-1.205216169357299805e+00
7.938693046569824219e+00,-1.704597920179367065e-01,-9.749721288681030273e-01
7.949040889739990234e+00,-1.706819981336593628e-01,-6.956102252006530762e-01
7.958397388458251953e+00,-1.708828955888748169e-01,-4.171774685382843018e-01
7.968030452728271484e+00,-1.710897386074066162e-01,-1.391143500804901123e-01
7.977994441986083984e+00,-1.713036894798278809e-01,1.392883062362670898e-01
7.987040519714355469e+00,-1.714979261159896851e-01,4.186789095401763916e-01
7.996880054473876953e+00,-1.717091947793960571e-01,6.997965574264526367e-01
8.006546974182128906e+00,-1.719167679548263550e-01,9.833054542541503906e-01
8.018222808837890625e+00,-1.721674650907516479e-01,1.270252585411071777e+00
4.017620563507080078e+00,-2.875155396759510040e-02,-1.076544046401977539e+00
4.797136783599853516e+00,-3.433005511760711670e-02,-1.107532858848571777e+00
5.886109352111816406e+00,-4.212313890457153320e-02,-1.144171237945556641e+00
7.607931613922119141e+00,-5.444512516260147095e-02,-1.205007076263427734e+00
8.303242683410644531e+00,-5.942102149128913879e-02,-1.019534587860107422e+00
8.314056396484375000e+00,-5.949841067194938660e-02,-7.274032235145568848e-01
8.323838233947753906e+00,-5.956841260194778442e-02,-4.362443983554840088e-01
8.333914756774902344e+00,-5.964052304625511169e-02,-1.454725265502929688e-01
8.344336509704589844e+00,-5.971510708332061768e-02,1.456544548273086548e-01
8.353801727294921875e+00,-5.978284403681755066e-02,4.378147721290588379e-01
8.364100456237792969e+00,-5.985654518008232117e-02,7.317816615104675293e-01
8.374223709106445312e+00,-5.992898717522621155e-02,1.028250098228454590e+00
8.383796691894531250e+00,-5.999749526381492615e-02,1.327894926071166992e+00
4.017672538757324219e+00,2.875192649662494659e-02,-1.076557993888854980e+00
4.797211647033691406e+00,3.433059155941009521e-02,-1.107550263404846191e+00
5.886223316192626953e+00,4.212395474314689636e-02,-1.144193530082702637e+00
7.608091354370117188e+00,5.444626882672309875e-02,-1.205032348632812500e+00
8.755432128906250000e+00,6.265705078840255737e-02,-1.075057744979858398e+00
8.766831398010253906e+00,6.273863464593887329e-02,-7.670168876647949219e-01
8.777144432067871094e+00,6.281243264675140381e-02,-4.600017368793487549e-01
8.787772178649902344e+00,6.288849562406539917e-02,-1.533948332071304321e-01
8.798755645751953125e+00,6.296709924936294556e-02,1.535865664482116699e-01
8.808733940124511719e+00,6.303850561380386353e-02,4.616573452949523926e-01
8.819588661193847656e+00,6.311618536710739136e-02,7.716326713562011719e-01
8.830258369445800781e+00,6.319253891706466675e-02,1.084245562553405762e+00
4.017640590667724609e+00,8.626687526702880859e-02,-1.076770067214965820e+00
4.757056713104248047e+00,1.021436303853988647e-01,-1.098504543304443359e+00
5.886237621307373047e+00,1.263894289731979370e-01,-1.144430637359619141e+00
7.608159065246582031e+00,1.633625775575637817e-01,-1.205289959907531738e+00
9.200718879699707031e+00,1.975580453872680664e-01,-1.129964828491210938e+00
9.212703704833984375e+00,1.978154033422470093e-01,-8.061917424201965332e-01
9.223542213439941406e+00,1.980481147766113281e-01,-4.834960699081420898e-01
9.234717369079589844e+00,1.982880532741546631e-01,-1.612295061349868774e-01
9.246251106262207031e+00,1.985357254743576050e-01,1.614308804273605347e-01
9.256720542907714844e+00,1.987605243921279907e-01,4.852352738380432129e-01
9.268111228942871094e+00,1.990050971508026123e-01,8.110403418540954590e-01
9.279300689697265625e+00,1.992453485727310181e-01,1.139615774154663086e+00
4.017713069915771484e+00,1.438200175762176514e-01,-1.077230930328369141e+00
4.757187366485595703e+00,1.702905893325805664e-01,-1.098984956741333008e+00
5.886450290679931641e+00,2.107142210006713867e-01,-1.144941091537475586e+00
7.608510017395019531e+00,2.723579108715057373e-01,-1.205839633941650391e+00
9.759471893310546875e+00,3.493548035621643066e-01,-1.199078202247619629e+00
9.772204399108886719e+00,3.498105406761169434e-01,-8.555033802986145020e-01
9.783706665039062500e+00,3.502223193645477295e-01,-5.130699872970581055e-01
9.795564651489257812e+00,3.506467640399932861e-01,-1.710914671421051025e-01
9.807783126831054688e+00,3.510841429233551025e-01,1.713048815727233887e-01
9.818861961364746094e+00,3.514807522296905518e-01,5.149135589599609375e-01
9.830906867980957031e+00,3.519119024276733398e-01,8.606424927711486816e-01
9.842727661132812500e+00,3.523350656032562256e-01,1.209307312965393066e+00
4.017511844635009766e+00,2.014205008745193481e-01,-1.077839374542236328e+00
4.756995677947998047e+00,2.384949773550033569e-01,-1.099616646766662598e+00
5.886277675628662109e+00,2.951122522354125977e-01,-1.145611882209777832e+00
7.608366489410400391e+00,3.814502656459808350e-01,-1.206558585166931152e+00
1.031574153900146484e+01,5.171862244606018066e-01,-1.268202781677246094e+00
1.032922172546386719e+01,5.178620815277099609e-01,-9.048234820365905762e-01
1.034139060974121094e+01,5.184721946716308594e-01,-5.426492094993591309e-01
1.035393333435058594e+01,5.191010236740112305e-01,-1.809553056955337524e-01
1.036682510375976562e+01,5.197473168373107910e-01,1.811806112527847290e-01
1.037849998474121094e+01,5.203326940536499023e-01,5.445964932441711426e-01
1.039117908477783203e+01,5.209683179855346680e-01,9.102508425712585449e-01
1.040360927581787109e+01,5.215915441513061523e-01,1.279005169868469238e+00
4.017598152160644531e+00,2.591165006160736084e-01,-1.078747153282165527e+00
4.757166862487792969e+00,3.068152666091918945e-01,-1.100558638572692871e+00
5.886572360992431641e+00,3.796567022800445557e-01,-1.146609425544738770e+00
7.608856201171875000e+00,4.907360374927520752e-01,-1.207626461982727051e+00
1.074401473999023438e+01,6.929392814636230469e-01,-1.321937918663024902e+00
1.103799533843994141e+01,7.118996977806091309e-01,-9.677044749259948730e-01
1.105102062225341797e+01,7.127397060394287109e-01,-5.803619027137756348e-01
1.106441688537597656e+01,7.136037349700927734e-01,-1.935310959815979004e-01
1.107817077636718750e+01,7.144907712936401367e-01,1.937716603279113770e-01
1.109059715270996094e+01,7.152922153472900391e-01,5.824403166770935059e-01
1.110406494140625000e+01,7.161608934402465820e-01,9.734967947006225586e-01
4.017215251922607422e+00,3.168846070766448975e-01,-1.079751610755920410e+00
4.756785869598388672e+00,3.752231597900390625e-01,-1.101600170135498047e+00
5.886192321777343750e+00,4.643126130104064941e-01,-1.147712349891662598e+00
7.608471870422363281e+00,6.001688838005065918e-01,-1.208805084228515625e+00
1.074358463287353516e+01,8.474717736244201660e-01,-1.323242068290710449e+00
1.175367164611816406e+01,9.271491169929504395e-01,-1.031505823135375977e+00
1.176756381988525391e+01,9.282449483871459961e-01,-6.186267137527465820e-01
1.178182315826416016e+01,9.293697476387023926e-01,-2.062910050153732300e-01
1.179644584655761719e+01,9.305232167243957520e-01,2.065470367670059204e-01
1.180961132049560547e+01,9.315616488456726074e-01,6.208370923995971680e-01
1.182386302947998047e+01,9.326859116554260254e-01,1.037665724754333496e+00
3.989477157592773438e+00,3.722200691699981689e-01,-1.073618173599243164e+00
4.756973743438720703e+00,4.438278377056121826e-01,-1.103001952171325684e+00
5.825554370880126953e+00,5.435268878936767578e-01,-1.137289285659790039e+00
7.609058856964111328e+00,7.099286913871765137e-01,-1.210388779640197754e+00
1.074455738067626953e+01,1.002472162246704102e+00,-1.324993491172790527e+00
1.268032550811767578e+01,1.183080196380615234e+00,-1.114201188087463379e+00
1.269534397125244141e+01,1.184481382369995117e+00,-6.682233810424804688e-01
1.271072196960449219e+01,1.185916185379028320e+00,-2.228297293186187744e-01
1.272646141052246094e+01,1.187384724617004395e+00,2.231056541204452515e-01
1.274057483673095703e+01,1.188701510429382324e+00,6.706041097640991211e-01
1.275581359863281250e+01,1.190123319625854492e+00,1.120834231376647949e+00
3.988888978958129883e+00,4.298340082168579102e-01,-1.075005412101745605e+00
4.756374835968017578e+00,5.125365853309631348e-01,-1.104450941085815430e+00
5.824929237365722656e+00,6.276817321777343750e-01,-1.138804554939270020e+00
7.505947589874267578e+00,8.088245987892150879e-01,-1.195705771446228027e+00
1.053940391540527344e+01,1.135703325271606445e+00,-1.301565766334533691e+00
1.363368606567382812e+01,1.469136357307434082e+00,-1.199696421623229980e+00
1.364987182617187500e+01,1.470880508422851562e+00,-7.194997072219848633e-01
1.366639518737792969e+01,1.472661018371582031e+00,-2.399284392595291138e-01
1.368327999114990234e+01,1.474480509757995605e+00,2.402248680591583252e-01
1.370034122467041016e+01,1.476319074630737305e+00,7.221600413322448730e-01
3.988918542861938477e+00,4.876846373081207275e-01,-1.076784372329711914e+00
4.756537914276123047e+00,5.815336704254150391e-01,-1.106308341026306152e+00
5.825268745422363281e+00,7.121965289115905762e-01,-1.140747070312500000e+00
7.506552219390869141e+00,9.177500009536743164e-01,-1.197772026062011719e+00
1.054049205780029297e+01,1.288679003715515137e+00,-1.303844451904296875e+00
1.489641189575195312e+01,1.821233153343200684e+00,-1.312969326972961426e+00
1.491414642333984375e+01,1.823401451110839844e+00,-7.874360680580139160e-01
1.493218803405761719e+01,1.825607180595397949e+00,-2.625826597213745117e-01
1.495057964324951172e+01,1.827855825424194336e+00,2.629061043262481689e-01
1.496907520294189453e+01,1.830116987228393555e+00,7.903361916542053223e-01
3.988091230392456055e+00,5.456216335296630859e-01,-1.078558683395385742e+00
4.716228485107421875e+00,6.452400684356689453e-01,-1.098968386650085449e+00
5.824354648590087891e+00,7.968458533287048340e-01,-1.142684459686279297e+00
7.505532741546630859e+00,1.026852488517761230e+00,-1.199831604957580566e+00
1.053928565979003906e+01,1.441908478736877441e+00,-1.306114315986633301e+00
1.622926712036132812e+01,2.220370531082153320e+00,-1.433101654052734375e+00
1.624864578247070312e+01,2.223021745681762695e+00,-8.594868183135986328e-01
1.626828575134277344e+01,2.225708723068237305e+00,-2.866088449954986572e-01
1.628823852539062500e+01,2.228438615798950195e+00,2.869603633880615234e-01
1.630825233459472656e+01,2.231176376342773438e+00,8.626397252082824707e-01
3.960627317428588867e+00,5.997289419174194336e-01,-1.073342800140380859e+00
4.716313838958740234e+00,7.141570448875427246e-01,-1.101257324218750000e+00
5.824636459350585938e+00,8.819823265075683594e-01,-1.145099282264709473e+00
7.506089210510253906e+00,1.136592388153076172e+00,-1.202398061752319336e+00
1.054033565521240234e+01,1.596046328544616699e+00,-1.308941602706909180e+00
1.766237068176269531e+01,2.674484252929687500e+00,-1.562869906425476074e+00
1.807209587097167969e+01,2.736526012420654297e+00,-9.579136371612548828e-01
1.809391784667968750e+01,2.739830493927001953e+00,-3.194303512573242188e-01
1.811599349975585938e+01,2.743172883987426758e+00,3.198200464248657227e-01
1.813806152343750000e+01,2.746514558792114258e+00,9.614101648330688477e-01
3.960556507110595703e+00,6.578332781791687012e-01,-1.075765252113342285e+00
4.716399192810058594e+00,7.833759188652038574e-01,-1.103782534599304199e+00
5.824927806854248047e+00,9.674982428550720215e-01,-1.147761583328247070e+00
7.506673812866210938e+00,1.246829867362976074e+00,-1.205227136611938477e+00
1.054144287109375000e+01,1.750893354415893555e+00,-1.312056899070739746e+00
1.766465759277343750e+01,2.934031963348388672e+00,-1.566627860069274902e+00
2.035626411437988281e+01,3.381097555160522461e+00,-1.081440567970275879e+00
2.038081359863281250e+01,3.385174989700317383e+00,-3.606216609477996826e-01
2.040552711486816406e+01,3.389280080795288086e+00,3.610589802265167236e-01
3.959332466125488281e+00,7.160039544105529785e-01,-1.078106045722961426e+00
4.715106010437011719e+00,8.526777029037475586e-01,-1.106222748756408691e+00
5.763800144195556641e+00,1.042323112487792969e+00,-1.138539910316467285e+00
7.505043506622314453e+00,1.357208847999572754e+00,-1.207960605621337891e+00
1.053942012786865234e+01,1.905944228172302246e+00,-1.315065979957580566e+00
1.766166496276855469e+01,3.193927764892578125e+00,-1.570256114006042480e+00
3.047723960876464844e+01,5.511490821838378906e+00,-1.623149275779724121e+00
3.051502227783203125e+01,5.518323421478271484e+00,-5.412803292274475098e-01
3.055288505554199219e+01,5.525170326232910156e+00,5.419519543647766113e-01
3.932077884674072266e+00,7.693483233451843262e-01,-1.073573231697082520e+00
4.676232337951660156e+00,9.149491786956787109e-01,-1.100062370300292969e+00
5.763902187347412109e+00,1.127762079238891602e+00,-1.141631603240966797e+00
7.405717372894287109e+00,1.448998808860778809e+00,-1.195189595222473145e+00
1.054026412963867188e+01,2.062302589416503906e+00,-1.318719387054443359e+00
1.766354370117187500e+01,3.456039667129516602e+00,-1.574659824371337891e+00
3.148178672790527344e+01,6.159709930419921875e+00,-1.681172490119934082e+00
3.151780128479003906e+01,6.166756629943847656e+00,-5.605760216712951660e-01
3.931773185729980469e+00,8.278844952583312988e-01,-1.076615214347839355e+00
4.676080703735351562e+00,9.846078157424926758e-01,-1.103229045867919922e+00
5.763939857482910156e+00,1.213670372962951660e+00,-1.144962549209594727e+00
7.406015872955322266e+00,1.559430122375488281e+00,-1.198717236518859863e+00
1.054102993011474609e+01,2.219547033309936523e+00,-1.322654485702514648e+00
1.766544342041015625e+01,3.719681978225708008e+00,-1.579413771629333496e+00
4.438586044311523438e+01,9.346003532409667969e+00,-2.377168893814086914e+00
4.444084930419921875e+01,9.357582092285156250e+00,-7.927265763282775879e-01
3.931391000747680664e+00,8.867484331130981445e-01,-1.079875349998474121e+00
4.675845146179199219e+00,1.054664373397827148e+00,-1.106621742248535156e+00
5.705409049987792969e+00,1.286888599395751953e+00,-1.136878371238708496e+00
7.406213283538818359e+00,1.670514941215515137e+00,-1.202496170997619629e+00
1.034487152099609375e+01,2.333346605300903320e+00,-1.302098512649536133e+00
1.766718673706054688e+01,3.984938144683837891e+00,-1.584506988525390625e+00
5.424197769165039062e+01,1.223459720611572266e+01,-2.914112091064453125e+00
6.013494873046875000e+01,1.356379222869873047e+01,-1.076027512550354004e+00
3.904266119003295898e+00,9.395471215248107910e-01,-1.076008439064025879e+00
4.637362480163574219e+00,1.115963935852050781e+00,-1.101181626319885254e+00
5.705231666564941406e+00,1.372942805290222168e+00,-1.140642046928405762e+00
7.406269073486328125e+00,1.782291054725646973e+00,-1.206523656845092773e+00
1.034529876708984375e+01,2.489557743072509766e+00,-1.306503772735595703e+00
1.766872215270996094e+01,4.251912117004394531e+00,-1.589940190315246582e+00
5.424692535400390625e+01,1.305432033538818359e+01,-2.924116849899291992e+00
3.903659105300903320e+00,9.987159967422485352e-01,-1.079670310020446777e+00
4.636884212493896484e+00,1.186304926872253418e+00,-1.104987025260925293e+00
5.704908847808837891e+00,1.459549427032470703e+00,-1.144636988639831543e+00
7.406145095825195312e+00,1.894795417785644531e+00,-1.210797548294067383e+00
1.034548664093017578e+01,2.646799325942993164e+00,-1.311177492141723633e+00
1.767012405395507812e+01,4.520741939544677734e+00,-1.595725655555725098e+00
5.425302505493164062e+01,1.388014602661132812e+01,-2.934854269027709961e+00
3.876644849777221680e+00,1.051142096519470215e+00,-1.076249718666076660e+00
4.598747253417968750e+00,1.246938228607177734e+00,-1.100039362907409668e+00
5.647114276885986328e+00,1.531200170516967773e+00,-1.137321949005126953e+00
7.308706760406494141e+00,1.981736660003662109e+00,-1.199382424354553223e+00
1.034537601470947266e+01,2.805121660232543945e+00,-1.316117525100708008e+00
1.712297630310058594e+01,4.642849922180175781e+00,-1.552157044410705566e+00
5.426738739013671875e+01,1.471445941925048828e+01,-2.946722745895385742e+00
3.849840402603149414e+00,1.103260397911071777e+00,-1.073082327842712402e+00
4.597927093505859375e+00,1.317641973495483398e+00,-1.104241490364074707e+00
5.646391391754150391e+00,1.618103504180908203e+00,-1.141723990440368652e+00
7.308088302612304688e+00,2.094300985336303711e+00,-1.204076766967773438e+00
1.034497070312500000e+01,2.964589595794677734e+00,-1.321328878402709961e+00
1.712321662902832031e+01,4.907052040100097656e+00,-1.558385848999023438e+00
5.427959442138671875e+01,1.555506801605224609e+01,-2.959172248840332031e+00
7.368540191650390625e+01,2.111624908447265625e+01,-1.337952852249145508e+00
3.848738670349121094e+00,1.162803173065185547e+00,-1.077304005622863770e+00
4.560019016265869141e+00,1.377699255943298340e+00,-1.099760651588439941e+00
5.645421981811523438e+00,1.705627441406250000e+00,-1.146347045898437500e+00
7.307161331176757812e+00,2.207681655883789062e+00,-1.209006547927856445e+00
1.015460014343261719e+01,3.067966461181640625e+00,-1.302488923072814941e+00
1.712276458740234375e+01,5.173228740692138672e+00,-1.564923644065856934e+00
3.895094299316406250e+01,1.176808357238769531e+01,-2.132461547851562500e+00
3.900170516967773438e+01,1.178342056274414062e+01,-7.111685276031494141e-01
3.821901082992553711e+00,1.214652180671691895e+00,-1.074548363685607910e+00
4.558750152587890625e+00,1.448832869529724121e+00,-1.104342937469482422e+00
5.588053226470947266e+00,1.775959372520446777e+00,-1.139742851257324219e+00
7.211349487304687500e+00,2.291864871978759766e+00,-1.198458909988403320e+00
1.015332698822021484e+01,3.226865291595458984e+00,-1.308115839958190918e+00
1.712150573730468750e+01,5.441447257995605469e+00,-1.571765661239624023e+00
2.316314697265625000e+01,7.361563205718994141e+00,-1.273759484291076660e+00
2.318900108337402344e+01,7.369780063629150391e+00,-4.247150123119354248e-01
2.321917915344238281e+01,7.379371166229248047e+00,4.252677261829376221e-01
3.822205305099487305e+00,1.275259017944335938e+00,-1.079655408859252930e+00
