-8.303037285804748535e-01,4.499419689178466797e+00,-1.056310057640075684e+00
-8.312314748764038086e-01,4.504446983337402344e+00,-8.903578519821166992e-01
-8.323060274124145508e-01,4.510270118713378906e+00,-7.264168262481689453e-01
-8.332031965255737305e-01,4.515131950378417969e+00,-5.637480020523071289e-01
-8.342326283454895020e-01,4.520710468292236328e+00,-4.021881818771362305e-01
-8.352571129798889160e-01,4.526261806488037109e+00,-2.412161082029342651e-01
-8.362652659416198730e-01,4.531724929809570312e+00,-8.043700456619262695e-02
-8.372586369514465332e-01,4.537108421325683594e+00,8.053255826234817505e-02
-8.382532596588134766e-01,4.542498111724853516e+00,2.420813590288162231e-01
-8.393941521644592285e-01,4.548680782318115234e+00,4.046765863895416260e-01
-8.403749465942382812e-01,4.553995609283447266e+00,5.686004757881164551e-01
-8.415275812149047852e-01,4.560241699218750000e+00,7.344651818275451660e-01
-8.423445820808410645e-01,4.564669132232666016e+00,9.022614955902099609e-01
-8.436508178710937500e-01,4.571747303009033203e+00,1.073290228843688965e+00
-7.814953923225402832e-01,3.919709920883178711e+00,-1.070952773094177246e+00
-8.883056640625000000e-01,4.455433368682861328e+00,-1.048861145973205566e+00
-8.892944455146789551e-01,4.460392951965332031e+00,-8.840754628181457520e-01
-8.904516696929931641e-01,4.466197013854980469e+00,-7.212973833084106445e-01
-8.915538787841796875e-01,4.471724987030029297e+00,-5.598643422126770020e-01
-8.926349282264709473e-01,4.477147102355957031e+00,-3.994083404541015625e-01
-8.937208652496337891e-01,4.482594013214111328e+00,-2.395461201667785645e-01
-8.948000073432922363e-01,4.488007068634033203e+00,-7.988016307353973389e-02
-8.958725333213806152e-01,4.493386268615722656e+00,7.997591048479080200e-02
-8.969578146934509277e-01,4.498829364776611328e+00,2.404137253761291504e-01
-8.980360627174377441e-01,4.504237651824951172e+00,4.018251001834869385e-01
-8.990786671638488770e-01,4.509466648101806641e+00,5.645896792411804199e-01
-9.003150463104248047e-01,4.515667915344238281e+00,7.292870283126831055e-01
-9.015184640884399414e-01,4.521704196929931641e+00,8.962277173995971680e-01
-9.026266336441040039e-01,4.527262210845947266e+00,1.065770506858825684e+00
-8.393944501876831055e-01,3.916897773742675781e+00,-1.073357105255126953e+00
-9.454212188720703125e-01,4.411653995513916016e+00,-1.041633963584899902e+00
-9.467076063156127930e-01,4.417656898498535156e+00,-8.782008290290832520e-01
-9.478980302810668945e-01,4.423212051391601562e+00,-7.164730429649353027e-01
-9.490398764610290527e-01,4.428540229797363281e+00,-5.561013221740722656e-01
-9.501697421073913574e-01,4.433812618255615234e+00,-3.967150747776031494e-01
-9.513152837753295898e-01,4.439157962799072266e+00,-2.379282116889953613e-01
-9.524633288383483887e-01,4.444515228271484375e+00,-7.934059202671051025e-02
-9.536163806915283203e-01,4.449895858764648438e+00,7.943664491176605225e-02
-9.547925591468811035e-01,4.455383777618408203e+00,2.387978881597518921e-01
-9.559717178344726562e-01,4.460886478424072266e+00,3.991374969482421875e-01
-9.571232795715332031e-01,4.466259956359863281e+00,5.608379244804382324e-01
-9.582040905952453613e-01,4.471303462982177734e+00,7.242629528045654297e-01
-9.594978690147399902e-01,4.477340698242187500e+00,8.900654911994934082e-01
-9.607018828392028809e-01,4.482959270477294922e+00,1.058469772338867188e+00
-8.971567749977111816e-01,3.912287473678588867e+00,-1.075502634048461914e+00
-1.001279473304748535e+00,4.366341590881347656e+00,-1.034213185310363770e+00
-1.002583980560302734e+00,4.372030735015869141e+00,-8.718940615653991699e-01
-1.003601193428039551e+00,4.376465797424316406e+00,-7.111551165580749512e-01
-1.004971504211425781e+00,4.382441997528076172e+00,-5.520624518394470215e-01
-1.006144404411315918e+00,4.387556552886962891e+00,-3.938245475292205811e-01
-1.007344961166381836e+00,4.392791748046875000e+00,-2.361917197704315186e-01
-1.008560895919799805e+00,4.398094177246093750e+00,-7.876155525445938110e-02
-1.009793639183044434e+00,4.403470039367675781e+00,7.885782420635223389e-02
-1.011063814163208008e+00,4.409008979797363281e+00,2.370636761188507080e-01
-1.012150883674621582e+00,4.413749217987060547e+00,3.961755931377410889e-01
-1.013615369796752930e+00,4.420135498046875000e+00,5.568107962608337402e-01
-1.014817476272583008e+00,4.425377845764160156e+00,7.191030383110046387e-01
-1.015899538993835449e+00,4.430096149444580078e+00,8.834738731384277344e-01
-1.017203450202941895e+00,4.435782432556152344e+00,1.050660967826843262e+00
-9.492517709732055664e-01,3.883476972579956055e+00,-1.071207880973815918e+00
-1.056717991828918457e+00,4.323131561279296875e+00,-1.027455687522888184e+00
-1.058097720146179199e+00,4.328775405883789062e+00,-8.661994934082031250e-01
-1.059393763542175293e+00,4.334077835083007812e+00,-7.066588997840881348e-01
-1.060658931732177734e+00,4.339253902435302734e+00,-5.484782457351684570e-01
-1.062025427818298340e+00,4.344844341278076172e+00,-3.913151025772094727e-01
-1.063282012939453125e+00,4.349985122680664062e+00,-2.346843481063842773e-01
-1.064565300941467285e+00,4.355235099792480469e+00,-7.825889438390731812e-02
-1.065877676010131836e+00,4.360604286193847656e+00,7.835536450147628784e-02
-1.067090272903442383e+00,4.365565299987792969e+00,2.355249077081680298e-01
-1.068419814109802246e+00,4.371004104614257812e+00,3.936711549758911133e-01
-1.069741606712341309e+00,4.376411914825439453e+00,5.531750321388244629e-01
-1.071007132530212402e+00,4.381588935852050781e+00,7.144054770469665527e-01
-1.072537541389465332e+00,4.387850284576416016e+00,8.780205249786376953e-01
-1.073989272117614746e+00,4.393789768218994141e+00,1.044248700141906738e+00
-1.007605433464050293e+00,3.880548715591430664e+00,-1.074268341064453125e+00
-1.111710071563720703e+00,4.281482696533203125e+00,-1.021234512329101562e+00
-1.113108754158020020e+00,4.286869525909423828e+00,-8.609139323234558105e-01
-1.114429116249084473e+00,4.291954517364501953e+00,-7.023196220397949219e-01
-1.115727186203002930e+00,4.296953678131103516e+00,-5.450942516326904297e-01
-1.117143273353576660e+00,4.302407741546630859e+00,-3.888933658599853516e-01
-1.118454456329345703e+00,4.307456970214843750e+00,-2.332297265529632568e-01
-1.119804978370666504e+00,4.312658309936523438e+00,-7.777386903762817383e-02
-1.121196269989013672e+00,4.318016529083251953e+00,7.787050306797027588e-02
-1.122493267059326172e+00,4.323011398315429688e+00,2.340719401836395264e-01
-1.123924016952514648e+00,4.328521728515625000e+00,3.912538290023803711e-01
-1.125358581542968750e+00,4.334046840667724609e+00,5.497997403144836426e-01
-1.126743435859680176e+00,4.339380264282226562e+00,7.100802063941955566e-01
-1.128016114234924316e+00,4.344281196594238281e+00,8.724436759948730469e-01
-1.129560470581054688e+00,4.350229263305664062e+00,1.037632107734680176e+00
-1.059162855148315430e+00,3.851629257202148438e+00,-1.070349693298339844e+00
-1.165627002716064453e+00,4.238784313201904297e+00,-1.014925599098205566e+00
-1.167103290557861328e+00,4.244153022766113281e+00,-8.556025028228759766e-01
-1.168741106986999512e+00,4.250108718872070312e+00,-6.981380581855773926e-01
-1.170069813728332520e+00,4.254940509796142578e+00,-5.418337583541870117e-01
-1.171533465385437012e+00,4.260263442993164062e+00,-3.865600824356079102e-01
-1.172896862030029297e+00,4.265220642089843750e+00,-2.318280935287475586e-01
-1.174313426017761230e+00,4.270372390747070312e+00,-7.730649411678314209e-02
-1.175783157348632812e+00,4.275717258453369141e+00,7.740325480699539185e-02
-1.177164673805236816e+00,4.280740737915039062e+00,2.326716482639312744e-01
-1.178699254989624023e+00,4.286321163177490234e+00,3.889245092868804932e-01
-1.179948925971984863e+00,4.290865898132324219e+00,5.464085340499877930e-01
-1.181391716003417969e+00,4.296112537384033203e+00,7.056948542594909668e-01
-1.183152198791503906e+00,4.302514076232910156e+00,8.673679232597351074e-01
-1.184362173080444336e+00,4.306914806365966797e+00,1.031238555908203125e+00
-1.117810726165771484e+00,3.848580121994018555e+00,-1.073838591575622559e+00
-1.219200253486633301e+00,4.197660446166992188e+00,-1.009153962135314941e+00
-1.220690846443176270e+00,4.202792644500732422e+00,-8.506997227668762207e-01
-1.222118139266967773e+00,4.207706451416015625e+00,-6.939752697944641113e-01
-1.223718881607055664e+00,4.213218212127685547e+00,-5.386959910392761230e-01
-1.225122332572937012e+00,4.218050003051757812e+00,-3.842815756797790527e-01
-1.226643443107604980e+00,4.223287105560302734e+00,-2.304795682430267334e-01
-1.228123903274536133e+00,4.228384494781494141e+00,-7.685674726963043213e-02
-1.229568600654602051e+00,4.233358383178710938e+00,7.694715261459350586e-02
-1.231139421463012695e+00,4.238766670227050781e+00,2.313243448734283447e-01
-1.232532978057861328e+00,4.243564605712890625e+00,3.866060376167297363e-01
-1.234126806259155273e+00,4.249052047729492188e+00,5.432776808738708496e-01
-1.235689640045166016e+00,4.254433155059814453e+00,7.016818523406982422e-01
-1.237151145935058594e+00,4.259464740753173828e+00,8.621708750724792480e-01
-1.238934040069580078e+00,4.265603542327880859e+00,1.025488018989562988e+00
-1.168923497200012207e+00,3.819596052169799805e+00,-1.070310115814208984e+00
-1.271728634834289551e+00,4.155523777008056641e+00,-1.003297328948974609e+00
-1.273625135421752930e+00,4.161720752716064453e+00,-8.459895253181457520e-01
-1.275071382522583008e+00,4.166446685791015625e+00,-6.901096701622009277e-01
-1.276710629463195801e+00,4.171802997589111328e+00,-5.356823801994323730e-01
-1.278152704238891602e+00,4.176515579223632812e+00,-3.821251988410949707e-01
-1.279729008674621582e+00,4.181665897369384766e+00,-2.291843146085739136e-01
-1.281274080276489258e+00,4.186714649200439453e+00,-7.642485946416854858e-02
-1.282791018486022949e+00,4.191671371459960938e+00,7.651533931493759155e-02
-1.284452199935913086e+00,4.197099685668945312e+00,2.300301790237426758e-01
-1.285937666893005371e+00,4.201953411102294922e+00,3.844526112079620361e-01
-1.287643790245056152e+00,4.207528591156005859e+00,5.402697324752807617e-01
-1.288930535316467285e+00,4.211732864379882812e+00,6.976106762886047363e-01
-1.290915012359619141e+00,4.218217849731445312e+00,8.574741482734680176e-01
-1.292317390441894531e+00,4.222800254821777344e+00,1.019540309906005859e+00
-1.227972269058227539e+00,3.816468238830566406e+00,-1.074248909950256348e+00
-1.324014186859130859e+00,4.114961147308349609e+00,-9.979773163795471191e-01
-1.325598478317260742e+00,4.119884967803955078e+00,-8.412560820579528809e-01
-1.327402830123901367e+00,4.125493049621582031e+00,-6.864030957221984863e-01
-1.328885793685913086e+00,4.130102157592773438e+00,-5.327155590057373047e-01
-1.330556988716125488e+00,4.135295867919921875e+00,-3.800574243068695068e-01
-1.332188248634338379e+00,4.140365600585937500e+00,-2.279424965381622314e-01
-1.333796620368957520e+00,4.145364284515380859e+00,-7.601074874401092529e-02
-1.335386514663696289e+00,4.150305747985839844e+00,7.610136270523071289e-02
-1.336946606636047363e+00,4.155154228210449219e+00,2.287566661834716797e-01
-1.338715076446533203e+00,4.160650730133056641e+00,3.823876678943634033e-01
-1.340191841125488281e+00,4.165240764617919922e+00,5.372478365898132324e-01
-1.341922998428344727e+00,4.170620918273925781e+00,6.939114332199096680e-01
-1.343566775321960449e+00,4.175729751586914062e+00,8.526591658592224121e-01
-1.345584154129028320e+00,4.181999683380126953e+00,1.014235734939575195e+00
-1.278737902641296387e+00,3.787455558776855469e+00,-1.071124672889709473e+00
-1.375713825225830078e+00,4.074685573577880859e+00,-9.928833842277526855e-01
-1.377309918403625488e+00,4.079412937164306641e+00,-8.369316458702087402e-01
-1.379144787788391113e+00,4.084847450256347656e+00,-6.828548908233642578e-01
-1.380654692649841309e+00,4.089319705963134766e+00,-5.299500226974487305e-01
-1.382371664047241211e+00,4.094405174255371094e+00,-3.780790865421295166e-01
-1.384055376052856445e+00,4.099392414093017578e+00,-2.267541736364364624e-01
-1.385726809501647949e+00,4.104342460632324219e+00,-7.561451196670532227e-02
-1.387388586997985840e+00,4.109264373779296875e+00,7.570518553256988525e-02
-1.389029622077941895e+00,4.114124774932861328e+00,2.275691032409667969e-01
-1.390898942947387695e+00,4.119661808013916016e+00,3.804112970829010010e-01
-1.392472863197326660e+00,4.124323368072509766e+00,5.344862937927246094e-01
-1.394323229789733887e+00,4.129804134368896484e+00,6.903702020645141602e-01
-1.396090507507324219e+00,4.135038375854492188e+00,8.483437895774841309e-01
-1.397678613662719727e+00,4.139742374420166016e+00,1.008735895156860352e+00
-1.338300704956054688e+00,3.784283638000488281e+00,-1.075534939765930176e+00
-1.426416277885437012e+00,4.033446311950683594e+00,-9.877083897590637207e-01
-1.428468346595764160e+00,4.039248943328857422e+00,-8.328010439872741699e-01
-1.430043458938598633e+00,4.043703079223632812e+00,-6.793289780616760254e-01
-1.431868672370910645e+00,4.048863887786865234e+00,-5.273091793060302734e-01
-1.433629155158996582e+00,4.053842067718505859e+00,-3.761897683143615723e-01
-1.435366153717041016e+00,4.058753967285156250e+00,-2.256196141242980957e-01
-1.437098979949951172e+00,4.063653469085693359e+00,-7.523614168167114258e-02
-1.438832879066467285e+00,4.068556308746337891e+00,7.532691955566406250e-02
-1.440553665161132812e+00,4.073422431945800781e+00,2.264350205659866333e-01
-1.442233681678771973e+00,4.078172683715820312e+00,3.784476220607757568e-01
-1.444194316864013672e+00,4.083716869354248047e+00,5.318483114242553711e-01
-1.445713400840759277e+00,4.088012218475341797e+00,6.867728233337402344e-01
-1.447527527809143066e+00,4.093142032623291016e+00,8.439126014709472656e-01
-1.449769020080566406e+00,4.099480152130126953e+00,1.003878831863403320e+00
-1.389195084571838379e+00,3.756281375885009766e+00,-1.073117733001708984e+00
-1.477783441543579102e+00,3.995817661285400391e+00,-9.835729002952575684e-01
-1.479869961738586426e+00,4.001459121704101562e+00,-8.292919993400573730e-01
-1.481467843055725098e+00,4.005780220031738281e+00,-6.764511466026306152e-01
-1.483332753181457520e+00,4.010822772979736328e+00,-5.250661969184875488e-01
-1.485140323638916016e+00,4.015710353851318359e+00,-3.745855093002319336e-01
-1.486931204795837402e+00,4.020552635192871094e+00,-2.246561497449874878e-01
-1.488726139068603516e+00,4.025405883789062500e+00,-7.491485774517059326e-02
-1.490530848503112793e+00,4.030285835266113281e+00,7.500568032264709473e-02
-1.492330670356750488e+00,4.035152435302734375e+00,2.254719585180282593e-01
-1.494096040725708008e+00,4.039925575256347656e+00,3.768443167209625244e-01
-1.496162176132202148e+00,4.045512676239013672e+00,5.296074748039245605e-01
-1.497776031494140625e+00,4.049876213073730469e+00,6.838976144790649414e-01
-1.499706029891967773e+00,4.055094718933105469e+00,8.404077887535095215e-01
-1.501461386680603027e+00,4.059841156005859375e+00,9.993323683738708496e-01
-1.439440846443176270e+00,3.727283239364624023e+00,-1.070609807968139648e+00
-1.527896046638488770e+00,3.956329107284545898e+00,-9.791356921195983887e-01
-1.529612779617309570e+00,3.960774183273315430e+00,-8.253130912780761719e-01
-1.531624794006347656e+00,3.965984106063842773e+00,-6.733639240264892578e-01
-1.533526420593261719e+00,3.970908164978027344e+00,-5.226608514785766602e-01
-1.535376906394958496e+00,3.975699901580810547e+00,-3.728651404380798340e-01
-1.537219166755676270e+00,3.980470418930053711e+00,-2.236230373382568359e-01
-1.539074778556823730e+00,3.985275268554687500e+00,-7.457035034894943237e-02
-1.540949821472167969e+00,3.990130424499511719e+00,7.466119527816772461e-02
-1.542828917503356934e+00,3.994996070861816406e+00,2.244390845298767090e-01
-1.544680237770080566e+00,3.999789953231811523e+00,3.751244544982910156e-01
-1.546455025672912598e+00,4.004385471343994141e+00,5.270672440528869629e-01
-1.548567056655883789e+00,4.009854793548583984e+00,6.808124780654907227e-01
-1.550616264343261719e+00,4.015160560607910156e+00,8.366456627845764160e-01
-1.552492976188659668e+00,4.020020484924316406e+00,9.948983788490295410e-01
-1.499729990959167480e+00,3.723909616470336914e+00,-1.075696468353271484e+00
-1.577549695968627930e+00,3.917139768600463867e+00,-9.749253392219543457e-01
-1.579279780387878418e+00,3.921435594558715820e+00,-8.217421174049377441e-01
-1.581323146820068359e+00,3.926509618759155273e+00,-6.704360842704772949e-01
-1.583261132240295410e+00,3.931321859359741211e+00,-5.203799605369567871e-01
-1.585154891014099121e+00,3.936024188995361328e+00,-3.712339699268341064e-01
-1.587047934532165527e+00,3.940724611282348633e+00,-2.226434946060180664e-01
-1.588964581489562988e+00,3.945483684539794922e+00,-7.424375414848327637e-02
-1.590909004211425781e+00,3.950311660766601562e+00,7.433460652828216553e-02
-1.592866539955139160e+00,3.955172300338745117e+00,2.234597802162170410e-01
-1.594803690910339355e+00,3.959982633590698242e+00,3.734936714172363281e-01
-1.596669554710388184e+00,3.964615583419799805e+00,5.247869491577148438e-01
-1.598894000053405762e+00,3.970139026641845703e+00,6.778855919837951660e-01
-1.600472807884216309e+00,3.974059343338012695e+00,8.327694535255432129e-01
-1.603055477142333984e+00,3.980472087860107422e+00,9.906879067420959473e-01
-1.550196528434753418e+00,3.695683240890502930e+00,-1.073842406272888184e+00
-1.626986384391784668e+00,3.878751277923583984e+00,-9.710674285888671875e-01
-1.629248738288879395e+00,3.884144544601440430e+00,-8.187305927276611328e-01
-1.631329417228698730e+00,3.889104843139648438e+00,-6.679678559303283691e-01
-1.633307695388793945e+00,3.893821239471435547e+00,-5.184574723243713379e-01
-1.635246157646179199e+00,3.898442268371582031e+00,-3.698590695858001709e-01
-1.637192487716674805e+00,3.903082370758056641e+00,-2.218180447816848755e-01
-1.639169931411743164e+00,3.907796859741210938e+00,-7.396850734949111938e-02
-1.641182303428649902e+00,3.912594318389892578e+00,7.405931502580642700e-02
-1.643215894699096680e+00,3.917442321777343750e+00,2.226341366767883301e-01
-1.645236492156982422e+00,3.922259330749511719e+00,3.721186816692352295e-01
-1.647188901901245117e+00,3.926913976669311523e+00,5.228637456893920898e-01
-1.649001598358154297e+00,3.931235551834106445e+00,6.752039194107055664e-01
-1.651189923286437988e+00,3.936452627182006836e+00,8.297564983367919922e-01
-1.653210878372192383e+00,3.941270589828491211e+00,9.867195487022399902e-01
-1.600139379501342773e+00,3.666722774505615234e+00,-1.071972727775573730e+00
-1.675782203674316406e+00,3.840058565139770508e+00,-9.672865867614746094e-01
-1.678076505661010742e+00,3.845315933227539062e+00,-8.155254125595092773e-01
-1.680190086364746094e+00,3.850159168243408203e+00,-6.653411984443664551e-01
-1.682205677032470703e+00,3.854777812957763672e+00,-5.164120197296142578e-01
-1.684188127517700195e+00,3.859320878982543945e+00,-3.683968186378479004e-01
-1.686185121536254883e+00,3.863896846771240234e+00,-2.209400683641433716e-01
-1.688220620155334473e+00,3.868561267852783203e+00,-7.367568463087081909e-02
-1.690301418304443359e+00,3.873329401016235352e+00,7.376649230718612671e-02
-1.692411541938781738e+00,3.878164768218994141e+00,2.217559218406677246e-01
-1.694514513015747070e+00,3.882983684539794922e+00,3.706555962562561035e-01
-1.696555018424987793e+00,3.887659549713134766e+00,5.208170413970947266e-01
-1.698457241058349609e+00,3.892018318176269531e+00,6.725748181343078613e-01
-1.700755476951599121e+00,3.897284746170043945e+00,8.265470862388610840e-01
-1.702887654304504395e+00,3.902170896530151367e+00,9.829322099685668945e-01
-1.650190114974975586e+00,3.638455390930175781e+00,-1.070504307746887207e+00
-1.724896550178527832e+00,3.803173542022705078e+00,-9.641156792640686035e-01
-1.727229475975036621e+00,3.808317422866821289e+00,-8.128386139869689941e-01
-1.729028582572937012e+00,3.812283992767333984e+00,-6.630048155784606934e-01
-1.731438994407653809e+00,3.817598581314086914e+00,-5.146985650062561035e-01
-1.733466744422912598e+00,3.822069406509399414e+00,-3.671717941761016846e-01
-1.735516190528869629e+00,3.826588392257690430e+00,-2.202046364545822144e-01
-1.737611532211303711e+00,3.831208467483520508e+00,-7.343044877052307129e-02
-1.739759445190429688e+00,3.835944175720214844e+00,7.352121919393539429e-02
-1.741943478584289551e+00,3.840759754180908203e+00,2.210201323032379150e-01
-1.743771672248840332e+00,3.844790458679199219e+00,3.693545162677764893e-01
-1.746249675750732422e+00,3.850254297256469727e+00,5.191013216972351074e-01
-1.748237252235412598e+00,3.854636669158935547e+00,6.703705191612243652e-01
-1.750637888908386230e+00,3.859929800033569336e+00,8.238546848297119141e-01
-1.752872943878173828e+00,3.864857912063598633e+00,9.797528982162475586e-01
-1.699814796447753906e+00,3.609623908996582031e+00,-1.069070458412170410e+00
-1.772961735725402832e+00,3.764954328536987305e+00,-9.607618451118469238e-01
-1.775331377983093262e+00,3.769986391067504883e+00,-8.099980950355529785e-01
-1.777156352996826172e+00,3.773861885070800781e+00,-6.606789231300354004e-01
-1.779354214668273926e+00,3.778528928756713867e+00,-5.128123164176940918e-01
-1.781689524650573730e+00,3.783488273620605469e+00,-3.658778369426727295e-01
-1.783788919448852539e+00,3.787946224212646484e+00,-2.194277346134185791e-01
-1.785942912101745605e+00,3.792520284652709961e+00,-7.317139953374862671e-02
-1.788156509399414062e+00,3.797220945358276367e+00,7.326208800077438354e-02
-1.790151834487915039e+00,3.801458120346069336e+00,2.202104479074478149e-01
-1.792309284210205078e+00,3.806039571762084961e+00,3.680586516857147217e-01
-1.794881582260131836e+00,3.811501979827880859e+00,5.172873139381408691e-01
-1.796954035758972168e+00,3.815902948379516602e+00,6.680389046669006348e-01
-1.799456954002380371e+00,3.821218013763427734e+00,8.210054039955139160e-01
-1.801795840263366699e+00,3.826184511184692383e+00,9.763869047164916992e-01
-1.761482000350952148e+00,3.605765819549560547e+00,-1.075284957885742188e+00
-1.820716738700866699e+00,3.727019548416137695e+00,-9.576336741447448730e-01
-1.822648525238037109e+00,3.730973958969116211e+00,-8.071386218070983887e-01
-1.824978351593017578e+00,3.735743284225463867e+00,-6.585112214088439941e-01
-1.827220678329467773e+00,3.740333318710327148e+00,-5.111256837844848633e-01
-1.829609036445617676e+00,3.745222330093383789e+00,-3.646725118160247803e-01
-1.831759452819824219e+00,3.749624252319335938e+00,-2.187042236328125000e-01
-1.833971738815307617e+00,3.754152774810791016e+00,-7.293014228343963623e-02
-1.836250066757202148e+00,3.758816480636596680e+00,7.302074134349822998e-02
-1.838308811187744141e+00,3.763030767440795898e+00,2.194861769676208496e-01
-1.840539813041687012e+00,3.767597675323486328e+00,3.668512105941772461e-01
-1.842722654342651367e+00,3.772066116333007812e+00,5.154620409011840820e-01
-1.845355629920959473e+00,3.777455568313598633e+00,6.658639907836914062e-01
-1.847274661064147949e+00,3.781383991241455078e+00,8.180440664291381836e-01
-1.849614024162292480e+00,3.786172628402709961e+00,9.728326797485351562e-01
-1.811424493789672852e+00,3.577257871627807617e+00,-1.074405550956726074e+00
-1.868800282478332520e+00,3.690565347671508789e+00,-9.550421833992004395e-01
-1.870763778686523438e+00,3.694442987442016602e+00,-8.049460649490356445e-01
-1.873140215873718262e+00,3.699136018753051758e+00,-6.567171812057495117e-01
-1.875430107116699219e+00,3.703658103942871094e+00,-5.097300410270690918e-01
-1.877874016761779785e+00,3.708484411239624023e+00,-3.636752963066101074e-01
-1.880077958106994629e+00,3.712836742401123047e+00,-2.181057780981063843e-01
-1.882348418235778809e+00,3.717320680618286133e+00,-7.273058593273162842e-02
-1.884690999984741211e+00,3.721946716308593750e+00,7.282109558582305908e-02
-1.886811137199401855e+00,3.726133823394775391e+00,2.188868969678878784e-01
-1.889112949371337891e+00,3.730679512023925781e+00,3.658518791198730469e-01
-1.891368508338928223e+00,3.735133647918701172e+00,5.140619874000549316e-01
-1.894090533256530762e+00,3.740509271621704102e+00,6.640622615814208984e-01
-1.896081447601318359e+00,3.744441032409667969e+00,8.158396482467651367e-01
-1.898508548736572266e+00,3.749234199523925781e+00,9.702244400978088379e-01
-1.861105561256408691e+00,3.548428535461425781e+00,-1.073637723922729492e+00
-1.915987372398376465e+00,3.653067588806152344e+00,-9.523378014564514160e-01
-1.917983889579772949e+00,3.656874179840087891e+00,-8.026598095893859863e-01
-1.920406699180603027e+00,3.661493539810180664e+00,-6.548472642898559570e-01
-1.922744631767272949e+00,3.665951013565063477e+00,-5.082760453224182129e-01
-1.925244688987731934e+00,3.670717716217041016e+00,-3.626369237899780273e-01
-1.927499532699584961e+00,3.675016880035400391e+00,-2.174825072288513184e-01
-1.929827570915222168e+00,3.679455518722534180e+00,-7.252275198698043823e-02
-1.932232856750488281e+00,3.684041500091552734e+00,7.261314243078231812e-02
-1.934413313865661621e+00,3.688198804855346680e+00,2.182625979185104370e-01
-1.936783552169799805e+00,3.692718029022216797e+00,3.648103773593902588e-01
-1.939108967781066895e+00,3.697151660919189453e+00,5.126019716262817383e-01
-1.941917419433593750e+00,3.702506303787231445e+00,6.621822714805603027e-01
-1.943977832794189453e+00,3.706434726715087891e+00,8.135380148887634277e-01
-1.946489334106445312e+00,3.711223125457763672e+00,9.674987196922302246e-01
-1.910836458206176758e+00,3.519838094711303711e+00,-1.073152661323547363e+00
-1.963493466377258301e+00,3.616834640502929688e+00,-9.501214027404785156e-01
-1.965528964996337891e+00,3.620584011077880859e+00,-8.007874488830566406e-01
-1.968002676963806152e+00,3.625140666961669922e+00,-6.533166766166687012e-01
-1.970393180847167969e+00,3.629544258117675781e+00,-5.070866942405700684e-01
-1.972950339317321777e+00,3.634254455566406250e+00,-3.617874383926391602e-01
-1.975259304046630859e+00,3.638507604598999023e+00,-2.169728726148605347e-01
-1.977645397186279297e+00,3.642902851104736328e+00,-7.235281914472579956e-02
-1.980112433433532715e+00,3.647447347640991211e+00,7.244307547807693481e-02
-1.982351303100585938e+00,3.651571273803710938e+00,2.177518904209136963e-01
-1.984786391258239746e+00,3.656056880950927734e+00,3.639578521251678467e-01
-1.987177848815917969e+00,3.660461902618408203e+00,5.114062428474426270e-01
-1.990067124366760254e+00,3.665784358978271484e+00,6.606413722038269043e-01
-1.992191076278686523e+00,3.669696569442749023e+00,8.116499781608581543e-01
-1.994779109954833984e+00,3.674463987350463867e+00,9.652603268623352051e-01
-1.960471868515014648e+00,3.491159439086914062e+00,-1.072854518890380859e+00
-2.010089397430419922e+00,3.579517364501953125e+00,-9.477793574333190918e-01
-2.012805461883544922e+00,3.584354162216186523e+00,-7.990645170211791992e-01
-2.015334367752075195e+00,3.588857173919677734e+00,-6.519095897674560547e-01
-2.017777442932128906e+00,3.593208312988281250e+00,-5.059933662414550781e-01
-2.020393848419189453e+00,3.597867488861083984e+00,-3.610070049762725830e-01
-2.022758245468139648e+00,3.602077722549438477e+00,-2.165047973394393921e-01
-2.025200843811035156e+00,3.606427431106567383e+00,-7.219670712947845459e-02
-2.027728557586669922e+00,3.610928773880004883e+00,7.228681445121765137e-02
-2.030023813247680664e+00,3.615015983581542969e+00,2.172824740409851074e-01
-2.032521486282348633e+00,3.619463920593261719e+00,3.631739914417266846e-01
-2.034976005554199219e+00,3.623834848403930664e+00,5.103061795234680176e-01
-2.037296533584594727e+00,3.627967119216918945e+00,6.590138673782348633e-01
-2.040123701095581055e+00,3.633001804351806641e+00,8.099096417427062988e-01
-2.042783260345458984e+00,3.637737512588500977e+00,9.631948471069335938e-01
-2.010024785995483398e+00,3.462379217147827148e+00,-1.072741508483886719e+00
-2.056575059890747070e+00,3.542564630508422852e+00,-9.456924200057983398e-01
-2.059352159500122070e+00,3.547348260879516602e+00,-7.973043322563171387e-01
-2.061937808990478516e+00,3.551802396774291992e+00,-6.504731178283691406e-01
-2.064436674118041992e+00,3.556106805801391602e+00,-5.048781633377075195e-01
-2.067113161087036133e+00,3.560717105865478516e+00,-3.602112829685211182e-01
-2.069531202316284180e+00,3.564882278442382812e+00,-2.160274684429168701e-01
-2.072030782699584961e+00,3.569187879562377930e+00,-7.203754782676696777e-02
-2.074617385864257812e+00,3.573643445968627930e+00,7.212747633457183838e-02
-2.076966524124145508e+00,3.577689647674560547e+00,2.168035954236984253e-01
-2.079523324966430664e+00,3.582094192504882812e+00,3.623738288879394531e-01
-2.082036256790161133e+00,3.586422681808471680e+00,5.091822743415832520e-01
-2.084412574768066406e+00,3.590516090393066406e+00,6.575630903244018555e-01
-2.087307214736938477e+00,3.595502138137817383e+00,8.081274628639221191e-01
-2.090031385421752930e+00,3.600194931030273438e+00,9.610769152641296387e-01
-2.059560775756835938e+00,3.433570861816406250e+00,-1.072839498519897461e+00
-2.103343725204467773e+00,3.506563425064086914e+00,-9.440219998359680176e-01
-2.106187105178833008e+00,3.511303424835205078e+00,-7.958971858024597168e-01
-2.108833789825439453e+00,3.515716075897216797e+00,-6.493257880210876465e-01
-2.111391782760620117e+00,3.519980430603027344e+00,-5.039882063865661621e-01
-2.114130020141601562e+00,3.524545431137084961e+00,-3.595764636993408203e-01
-2.116603851318359375e+00,3.528669834136962891e+00,-2.156468480825424194e-01
-2.119160413742065430e+00,3.532931566238403320e+00,-7.191061973571777344e-02
-2.121804714202880859e+00,3.537340164184570312e+00,7.200035452842712402e-02
-2.124206781387329102e+00,3.541344642639160156e+00,2.164214551448822021e-01
-2.126819849014282227e+00,3.545701026916503906e+00,3.617347478866577148e-01
-2.129387140274047852e+00,3.549980878829956055e+00,5.082836151123046875e-01
-2.131814002990722656e+00,3.554026842117309570e+00,6.564015150070190430e-01
-2.134771585464477539e+00,3.558957576751708984e+00,8.066987991333007812e-01
-2.137552499771118164e+00,3.563594102859497070e+00,9.593755602836608887e-01
-2.109145402908325195e+00,3.404798984527587891e+00,-1.073172569274902344e+00
-2.150179386138916016e+00,3.471040248870849609e+00,-9.426475763320922852e-01
-2.152412414550781250e+00,3.474645137786865234e+00,-7.944898605346679688e-01
-2.155125141143798828e+00,3.479024171829223633e+00,-6.481799483299255371e-01
-2.157744646072387695e+00,3.483253002166748047e+00,-5.031000971794128418e-01
-2.160546541213989258e+00,3.487776041030883789e+00,-3.589434325695037842e-01
-2.163076877593994141e+00,3.491860866546630859e+00,-2.152674198150634766e-01
-2.165689229965209961e+00,3.496078014373779297e+00,-7.178409397602081299e-02
-2.168390512466430664e+00,3.500438690185546875e+00,7.187362760305404663e-02
-2.170841217041015625e+00,3.504394769668579102e+00,2.160401195287704468e-01
-2.173506021499633789e+00,3.508696556091308594e+00,3.610964417457580566e-01
-2.176121950149536133e+00,3.512919664382934570e+00,5.073849558830261230e-01
-2.179282188415527344e+00,3.518021106719970703e+00,6.554455161094665527e-01
-2.181603908538818359e+00,3.521769046783447266e+00,8.052648901939392090e-01
-2.184433460235595703e+00,3.526336908340454102e+00,9.576647877693176270e-01
-2.158651113510131836e+00,3.375816106796264648e+00,-1.073666095733642578e+00
-2.196588754653930664e+00,3.435144901275634766e+00,-9.413414597511291504e-01
-2.198883771896362305e+00,3.438734054565429688e+00,-7.933939099311828613e-01
-2.201665878295898438e+00,3.443084955215454102e+00,-6.472890377044677734e-01
-2.204350471496582031e+00,3.447283267974853516e+00,-5.024105310440063477e-01
-2.207218170166015625e+00,3.451768159866333008e+00,-3.584523200988769531e-01
-2.209806442260742188e+00,3.455815792083740234e+00,-2.149732261896133423e-01
-2.212475538253784180e+00,3.459989547729492188e+00,-7.168598473072052002e-02
-2.215232133865356445e+00,3.464300632476806641e+00,7.177530974149703979e-02
-2.217730760574340820e+00,3.468208074569702148e+00,2.157441079616546631e-01
-2.220443964004516602e+00,3.472451210021972656e+00,3.606001734733581543e-01
-2.223106145858764648e+00,3.476614475250244141e+00,5.066853165626525879e-01
-2.226320505142211914e+00,3.481641054153442383e+00,6.545374989509582520e-01
-2.228676795959472656e+00,3.485326051712036133e+00,8.041437864303588867e-01
-2.231548547744750977e+00,3.489816904067993164e+00,9.563233256340026855e-01
-2.208342790603637695e+00,3.346997737884521484e+00,-1.074443578720092773e+00
-2.242507219314575195e+00,3.398777961730957031e+00,-9.400752782821655273e-01
-2.244872331619262695e+00,3.402362585067749023e+00,-7.923346161842346191e-01
-2.247729539871215820e+00,3.406692981719970703e+00,-6.464296579360961914e-01
-2.250483274459838867e+00,3.410866737365722656e+00,-5.017464160919189453e-01
-2.253419637680053711e+00,3.415317058563232422e+00,-3.579798340797424316e-01
-2.256066799163818359e+00,3.419328927993774414e+00,-2.146902978420257568e-01
-2.258791446685791016e+00,3.423458576202392578e+00,-7.159163802862167358e-02
-2.261601448059082031e+00,3.427717447280883789e+00,7.168070226907730103e-02
-2.264143943786621094e+00,3.431571006774902344e+00,2.154589295387268066e-01
-2.266901254653930664e+00,3.435750007629394531e+00,3.601215481758117676e-01
-2.269601821899414062e+00,3.439842939376831055e+00,5.060089230537414551e-01
-2.272861003875732422e+00,3.444782733917236328e+00,6.536572575569152832e-01
-2.275241613388061523e+00,3.448390483856201172e+00,8.030534982681274414e-01
-2.278143644332885742e+00,3.452789306640625000e+00,9.550144076347351074e-01
-2.257884025573730469e+00,3.317790031433105469e+00,-1.075331926345825195e+00
-2.288614034652709961e+00,3.362945318222045898e+00,-9.391286969184875488e-01
-2.291053056716918945e+00,3.366529226303100586e+00,-7.915454506874084473e-01
-2.293989658355712891e+00,3.370844364166259766e+00,-6.457916498184204102e-01
-2.296814441680908203e+00,3.374995470046997070e+00,-5.012543797492980957e-01
-2.299820899963378906e+00,3.379413127899169922e+00,-3.576302826404571533e-01
-2.302527666091918945e+00,3.383390665054321289e+00,-2.144811451435089111e-01
-2.305309057235717773e+00,3.387477636337280273e+00,-7.152191549539566040e-02
-2.308171987533569336e+00,3.391684293746948242e+00,7.161073386669158936e-02
-2.310757160186767578e+00,3.395483016967773438e+00,2.152477055788040161e-01
-2.313555717468261719e+00,3.399595499038696289e+00,3.597660958766937256e-01
-2.316292047500610352e+00,3.403616189956665039e+00,5.055051445960998535e-01
-2.319592952728271484e+00,3.408466577529907227e+00,6.529993414878845215e-01
-2.321993350982666016e+00,3.411993741989135742e+00,8.022351861000061035e-01
-2.324921131134033203e+00,3.416295766830444336e+00,9.540272355079650879e-01
-2.291838169097900391e+00,3.266182661056518555e+00,-1.069128155708312988e+00
-2.334357976913452148e+00,3.326779365539550781e+00,-9.382637143135070801e-01
-2.337490797042846680e+00,3.331243991851806641e+00,-7.910346984863281250e-01
-2.339903593063354492e+00,3.334682464599609375e+00,-6.452140808105468750e-01
-2.342805862426757812e+00,3.338818788528442383e+00,-5.008105039596557617e-01
-2.345886468887329102e+00,3.343209028244018555e+00,-3.573157191276550293e-01
-2.348654270172119141e+00,3.347153663635253906e+00,-2.142931222915649414e-01
-2.351491689682006836e+00,3.351197242736816406e+00,-7.145922631025314331e-02
-2.354404687881469727e+00,3.355348348617553711e+00,7.154774665832519531e-02
-2.357027769088745117e+00,3.359086751937866211e+00,2.150571197271347046e-01
-2.359862327575683594e+00,3.363126277923583984e+00,3.594444692134857178e-01
-2.363239049911499023e+00,3.367938756942749023e+00,5.051784515380859375e-01
-2.365956544876098633e+00,3.371811628341674805e+00,6.523980498313903809e-01
-2.369238615036010742e+00,3.376488924026489258e+00,8.017785549163818359e-01
-2.372301578521728516e+00,3.380854129791259766e+00,9.535146355628967285e-01
-2.341128587722778320e+00,3.236890792846679688e+00,-1.070399045944213867e+00
-2.380226612091064453e+00,3.290948152542114258e+00,-9.376707077026367188e-01
-2.383456468582153320e+00,3.295413732528686523e+00,-7.905465364456176758e-01
-2.386434555053710938e+00,3.299531459808349609e+00,-6.449559330940246582e-01
-2.389279365539550781e+00,3.303464651107788086e+00,-5.005859732627868652e-01
-2.392084598541259766e+00,3.307343482971191406e+00,-3.571053147315979004e-01
-2.394915103912353516e+00,3.311256885528564453e+00,-2.141676545143127441e-01
-2.397808551788330078e+00,3.315257310867309570e+00,-7.141739130020141602e-02
-2.400770902633666992e+00,3.319353103637695312e+00,7.150562107563018799e-02
-2.403781652450561523e+00,3.323515892028808594e+00,2.149605453014373779e-01
-2.406788110733032227e+00,3.327672719955444336e+00,3.593003451824188232e-01
-2.409712076187133789e+00,3.331715345382690430e+00,5.048668980598449707e-01
-2.412446737289428711e+00,3.335496425628662109e+00,6.519859433174133301e-01
-2.415748596191406250e+00,3.340061664581298828e+00,8.012572526931762695e-01
-2.418820619583129883e+00,3.344309091567993164e+00,9.528745412826538086e-01
-2.390890121459960938e+00,3.207983493804931641e+00,-1.072046756744384766e+00
-2.425863027572631836e+00,3.254908800125122070e+00,-9.371995329856872559e-01
-2.429202556610107422e+00,3.259389400482177734e+00,-7.901647686958312988e-01
-2.432275772094726562e+00,3.263513088226318359e+00,-6.446545124053955078e-01
-2.435204982757568359e+00,3.267443418502807617e+00,-5.003581643104553223e-01
-2.438084125518798828e+00,3.271306276321411133e+00,-3.569456934928894043e-01
-2.440979242324829102e+00,3.275190830230712891e+00,-2.140728235244750977e-01
-2.443928003311157227e+00,3.279147386550903320e+00,-7.138575613498687744e-02
-2.446937322616577148e+00,3.283185243606567383e+00,7.147365808486938477e-02
-2.449985742568969727e+00,3.287275314331054688e+00,2.148626893758773804e-01
-2.453021049499511719e+00,3.291347980499267578e+00,3.591325283050537109e-01
-2.455962419509887695e+00,3.295294761657714844e+00,5.046231746673583984e-01
-2.458701610565185547e+00,3.298969984054565430e+00,6.516584753990173340e-01
-2.462008476257324219e+00,3.303406953811645508e+00,8.008358478546142578e-01
-2.465072870254516602e+00,3.307518482208251953e+00,9.523476958274841309e-01
-2.440824031829833984e+00,3.178993225097656250e+00,-1.073923826217651367e+00
-2.471497297286987305e+00,3.218942880630493164e+00,-9.369335770606994629e-01
-2.474953889846801758e+00,3.223444700241088867e+00,-7.899578809738159180e-01
-2.478129625320434570e+00,3.227581024169921875e+00,-6.444973349571228027e-01
-2.481148004531860352e+00,3.231512069702148438e+00,-5.002430081367492676e-01
-2.484104156494140625e+00,3.235362291336059570e+00,-3.568668067455291748e-01
-2.487065792083740234e+00,3.239219427108764648e+00,-2.140265256166458130e-01
-2.490070104598999023e+00,3.243132591247558594e+00,-7.137031853199005127e-02
-2.493125200271606445e+00,3.247111558914184570e+00,7.145788520574569702e-02
-2.496208190917968750e+00,3.251126766204833984e+00,2.148132771253585815e-01
-2.499266624450683594e+00,3.255110025405883789e+00,3.590450584888458252e-01
-2.502218723297119141e+00,3.258955001831054688e+00,5.044912099838256836e-01
-2.504954814910888672e+00,3.262518644332885742e+00,6.514738202095031738e-01
-2.508256196975708008e+00,3.266818523406982422e+00,8.005873560905456543e-01
-2.511301279067993164e+00,3.270784616470336914e+00,9.520230889320373535e-01
-2.473331212997436523e+00,3.127623558044433594e+00,-1.068420171737670898e+00
-2.517926216125488281e+00,3.184015512466430664e+00,-9.371615648269653320e-01
-2.520711183547973633e+00,3.187537193298339844e+00,-7.899193167686462402e-01
-2.523990392684936523e+00,3.191684007644653320e+00,-6.444772481918334961e-01
-2.527098417282104492e+00,3.195614099502563477e+00,-5.002341270446777344e-01
-2.530132532119750977e+00,3.199450731277465820e+00,-3.568637371063232422e-01
-2.533160686492919922e+00,3.203280210494995117e+00,-2.140256762504577637e-01
-2.536220788955688477e+00,3.207149744033813477e+00,-7.137003540992736816e-02
-2.539320945739746094e+00,3.211070060729980469e+00,7.145727425813674927e-02
-2.542438030242919922e+00,3.215011596679687500e+00,2.148095071315765381e-01
-2.545518636703491211e+00,3.218907356262207031e+00,3.590339124202728271e-01
-2.548480272293090820e+00,3.222652435302734375e+00,5.044665932655334473e-01
-2.552009820938110352e+00,3.227115631103515625e+00,6.516317725181579590e-01
-2.555443525314331055e+00,3.231457710266113281e+00,8.008034229278564453e-01
-2.558600187301635742e+00,3.235449552536010742e+00,9.523002505302429199e-01
-2.523236751556396484e+00,3.098531484603881836e+00,-1.070710062980651855e+00
-2.563549757003784180e+00,3.148035764694213867e+00,-9.372755885124206543e-01
-2.566456556320190430e+00,3.151605606079101562e+00,-7.900373935699462891e-01
-2.569851398468017578e+00,3.155774354934692383e+00,-6.445876359939575195e-01
-2.573058366775512695e+00,3.159712553024291992e+00,-5.003280639648437500e-01
-2.576176166534423828e+00,3.163541078567504883e+00,-3.569347262382507324e-01
-2.579273939132690430e+00,3.167345046997070312e+00,-2.140694558620452881e-01
-2.582390308380126953e+00,3.171172142028808594e+00,-7.138465344905853271e-02
-2.585532426834106445e+00,3.175030708312988281e+00,7.147150486707687378e-02
-2.588677167892456055e+00,3.178892374038696289e+00,2.148498892784118652e-01
-2.591771602630615234e+00,3.182692050933837891e+00,3.590955138206481934e-01
-2.594730615615844727e+00,3.186326026916503906e+00,5.045422315597534180e-01
-2.598252058029174805e+00,3.190649986267089844e+00,6.517112851142883301e-01
-2.601662397384643555e+00,3.194838047027587891e+00,8.008748888969421387e-01
-2.604779243469238281e+00,3.198665618896484375e+00,9.523497223854064941e-01
-2.573351860046386719e+00,3.069290637969970703e+00,-1.073223829269409180e+00
-2.609210252761840820e+00,3.112059593200683594e+00,-9.375876188278198242e-01
-2.612921953201293945e+00,3.116486787796020508e+00,-7.905282974243164062e-01
-2.615765571594238281e+00,3.119878292083740234e+00,-6.448370814323425293e-01
-2.619076967239379883e+00,3.123827934265136719e+00,-5.005307197570800781e-01
-2.622282743453979492e+00,3.127651453018188477e+00,-3.570836782455444336e-01
-2.625452280044555664e+00,3.131431818008422852e+00,-2.141601145267486572e-01
-2.628624200820922852e+00,3.135215044021606445e+00,-7.141487300395965576e-02
-2.631806135177612305e+00,3.139010429382324219e+00,7.150132209062576294e-02
-2.634975910186767578e+00,3.142790794372558594e+00,2.149369567632675171e-01
-2.638077974319458008e+00,3.146490812301635742e+00,3.592345416545867920e-01
-2.641705274581909180e+00,3.150817155838012695e+00,5.048552155494689941e-01
-2.644531488418579102e+00,3.154188156127929688e+00,6.519284844398498535e-01
-2.647907733917236328e+00,3.158215045928955078e+00,8.011130690574645996e-01
-2.650972604751586914e+00,3.161870479583740234e+00,9.525943994522094727e-01
-2.605095863342285156e+00,3.018335342407226562e+00,-1.068335413932800293e+00
-2.655560493469238281e+00,3.076805114746093750e+00,-9.383217096328735352e-01
-2.658582687377929688e+00,3.080306768417358398e+00,-7.909225225448608398e-01
-2.661539316177368164e+00,3.083732366561889648e+00,-6.451740264892578125e-01
-2.664954900741577148e+00,3.087689876556396484e+00,-5.008009076118469238e-01
-2.668247461318969727e+00,3.091504812240600586e+00,-3.572805821895599365e-01
-2.671488523483276367e+00,3.095259904861450195e+00,-2.142794728279113770e-01
-2.674715757369995117e+00,3.098999023437500000e+00,-7.145467400550842285e-02
-2.677938699722290039e+00,3.102733135223388672e+00,7.154077291488647461e-02
-2.681132555007934570e+00,3.106433868408203125e+00,2.150530219078063965e-01
-2.684242486953735352e+00,3.110037088394165039e+00,3.594223260879516602e-01
-2.687869787216186523e+00,3.114239692687988281e+00,5.051071047782897949e-01
-2.691506624221801758e+00,3.118453502655029297e+00,6.524383425712585449e-01
-2.694994211196899414e+00,3.122494220733642578e+00,8.017548918724060059e-01
-2.698144912719726562e+00,3.126144647598266602e+00,9.533686041831970215e-01
-2.655240535736083984e+00,2.988861560821533203e+00,-1.071245551109313965e+00
-2.701272487640380859e+00,3.040677309036254883e+00,-9.389991760253906250e-01
-2.704441785812377930e+00,3.044245004653930664e+00,-7.915213704109191895e-01
-2.708070278167724609e+00,3.048329353332519531e+00,-6.458106040954589844e-01
-2.711057186126708984e+00,3.051691532135009766e+00,-5.012047290802001953e-01
-2.714445352554321289e+00,3.055505275726318359e+00,-3.575737178325653076e-01
-2.717761278152465820e+00,3.059237718582153320e+00,-2.144567817449569702e-01
-2.721044778823852539e+00,3.062933921813964844e+00,-7.151380926370620728e-02
-2.724303960800170898e+00,3.066602706909179688e+00,7.159946113824844360e-02
-2.727515220642089844e+00,3.070217370986938477e+00,2.152264714241027832e-01
-2.731167554855346680e+00,3.074328660964965820e+00,3.597765564918518066e-01
-2.734234809875488281e+00,3.077781200408935547e+00,5.054896473884582520e-01
-2.737838506698608398e+00,3.081837654113769531e+00,6.529096364974975586e-01
-2.741272926330566406e+00,3.085703611373901367e+00,8.023008704185485840e-01
-2.744349718093872070e+00,3.089166879653930664e+00,9.539733529090881348e-01
-2.705621242523193359e+00,2.959167957305908203e+00,-1.074373126029968262e+00
-2.747049570083618164e+00,3.004478454589843750e+00,-9.398666620254516602e-01
-2.750375509262084961e+00,3.008116245269775391e+00,-7.922822833061218262e-01
-2.754146099090576172e+00,3.012239933013916016e+00,-6.464503407478332520e-01
-2.757247924804687500e+00,3.015632390975952148e+00,-5.017128586769104004e-01
-2.760734319686889648e+00,3.019445657730102539e+00,-3.579415380954742432e-01
-2.764127492904663086e+00,3.023156642913818359e+00,-2.146789729595184326e-01
-2.767467260360717773e+00,3.026809692382812500e+00,-7.158790528774261475e-02
-2.770762205123901367e+00,3.030413389205932617e+00,7.167313992977142334e-02
-2.773986816406250000e+00,3.033940076828002930e+00,2.154447138309478760e-01
-2.777637243270874023e+00,3.037932634353637695e+00,3.601330518722534180e-01
-2.780675649642944336e+00,3.041255712509155273e+00,5.059758424758911133e-01
-2.784236431121826172e+00,3.045150041580200195e+00,6.535130739212036133e-01
-2.787606716156005859e+00,3.048836231231689453e+00,8.030071854591369629e-01
-2.791745901107788086e+00,3.053363561630249023e+00,9.551590085029602051e-01
-2.737645626068115234e+00,2.909461021423339844e+00,-1.070443272590637207e+00
-2.793761491775512695e+00,2.969098806381225586e+00,-9.412119984626770020e-01
-2.797103166580200195e+00,2.972650289535522461e+00,-7.934047579765319824e-01
-2.800311088562011719e+00,2.976059436798095703e+00,-6.472213268280029297e-01
-2.803935289382934570e+00,2.979911088943481445e+00,-5.023955702781677246e-01
-2.807122945785522461e+00,2.983298778533935547e+00,-3.583828806877136230e-01
-2.810595750808715820e+00,2.986989736557006836e+00,-2.149454206228256226e-01
-2.813991546630859375e+00,2.990598440170288086e+00,-7.167675346136093140e-02
-2.817319393157958984e+00,2.994135379791259766e+00,7.176151871681213379e-02
-2.820955038070678711e+00,2.997998952865600586e+00,2.157376557588577271e-01
-2.824196815490722656e+00,3.001444339752197266e+00,3.605627119541168213e-01
-2.827915191650390625e+00,3.005396127700805664e+00,5.066921710968017578e-01
-2.831578016281127930e+00,3.009288549423217773e+00,6.544479131698608398e-01
-2.835021734237670898e+00,3.012948513031005859e+00,8.041604161262512207e-01
-2.838053703308105469e+00,3.016170740127563477e+00,9.561339020729064941e-01
-2.788168668746948242e+00,2.879445314407348633e+00,-1.073972940444946289e+00
-2.839697122573852539e+00,2.932660579681396484e+00,-9.424492716789245605e-01
-2.843213319778442383e+00,2.936291694641113281e+00,-7.944810986518859863e-01
-2.846572160720825195e+00,2.939760684967041016e+00,-6.481217741966247559e-01
-2.850326299667358398e+00,2.943637847900390625e+00,-5.031068325042724609e-01
-2.853616952896118164e+00,2.947036027908325195e+00,-3.588965833187103271e-01
-2.857171535491943359e+00,2.950706958770751953e+00,-2.152553498744964600e-01
-2.860623836517333984e+00,2.954272270202636719e+00,-7.178010791540145874e-02
-2.863982915878295898e+00,2.957741260528564453e+00,7.186439633369445801e-02
-2.867628574371337891e+00,2.961506366729736328e+00,2.160431742668151855e-01
-2.870852708816528320e+00,2.964836120605468750e+00,3.610643148422241211e-01
-2.874534368515014648e+00,2.968638181686401367e+00,5.073797702789306641e-01
-2.878136873245239258e+00,2.972358703613281250e+00,6.553085446357727051e-01
