2.872469663619995117e+00,1.599557399749755859e+00,-8.809635043144226074e-01
2.875888586044311523e+00,1.601461172103881836e+00,-7.599520087242126465e-01
2.879768848419189453e+00,1.603621959686279297e+00,-6.407076716423034668e-01
2.883365869522094727e+00,1.605625033378601074e+00,-5.227118134498596191e-01
2.886828422546386719e+00,1.607553243637084961e+00,-4.057091176509857178e-01
2.890269994735717773e+00,1.609469771385192871e+00,-2.894278168678283691e-01
2.893766880035400391e+00,1.611416935920715332e+00,-1.735838502645492554e-01
2.897290945053100586e+00,1.613379359245300293e+00,-5.788467824459075928e-02
2.900845766067504883e+00,1.615358948707580566e+00,5.795570090413093567e-02
2.904486417770385742e+00,1.617386221885681152e+00,1.742268800735473633e-01
2.908146142959594727e+00,1.619424223899841309e+00,2.912178933620452881e-01
2.911724805831909180e+00,1.621416926383972168e+00,4.092079997062683105e-01
2.915109157562255859e+00,1.623301625251770020e+00,5.284664034843444824e-01
2.919070720672607422e+00,1.625507593154907227e+00,6.494517922401428223e-01
2.922740459442138672e+00,1.627551078796386719e+00,7.723326086997985840e-01
2.785284519195556641e+00,1.603656768798828125e+00,-8.611760735511779785e-01
2.788786649703979492e+00,1.605673193931579590e+00,-7.429324388504028320e-01
2.792679786682128906e+00,1.607914686203002930e+00,-6.263878941535949707e-01
2.795748472213745117e+00,1.609681606292724609e+00,-5.109525322914123535e-01
2.799269676208496094e+00,1.611708879470825195e+00,-3.966052532196044922e-01
2.802714824676513672e+00,1.613692522048950195e+00,-2.829441130161285400e-01
2.806158781051635742e+00,1.615675449371337891e+00,-1.696984916925430298e-01
2.809573173522949219e+00,1.617641329765319824e+00,-5.658897012472152710e-02
2.812970876693725586e+00,1.619597554206848145e+00,5.665740743279457092e-02
2.816390275955200195e+00,1.621566295623779297e+00,1.703172177076339722e-01
2.819775819778442383e+00,1.623515486717224121e+00,2.846664786338806152e-01
2.823669433593750000e+00,1.625757217407226562e+00,4.000622332096099854e-01
2.826819658279418945e+00,1.627571105957031250e+00,5.166311264038085938e-01
2.830473661422729492e+00,1.629674911499023438e+00,6.348649263381958008e-01
2.833791255950927734e+00,1.631585121154785156e+00,7.549216747283935547e-01
2.702797651290893555e+00,1.608103036880493164e+00,-8.427025675773620605e-01
2.706381320953369141e+00,1.610235333442687988e+00,-7.270452380180358887e-01
2.710285663604736328e+00,1.612558364868164062e+00,-6.130214929580688477e-01
2.713347911834716797e+00,1.614380240440368652e+00,-5.000648498535156250e-01
2.716787338256835938e+00,1.616426587104797363e+00,-3.881572782993316650e-01
2.720101118087768555e+00,1.618398189544677734e+00,-2.769141793251037598e-01
2.723359823226928711e+00,1.620337009429931641e+00,-1.660768538713455200e-01
2.726676225662231445e+00,1.622310280799865723e+00,-5.538133159279823303e-02
2.730054140090942383e+00,1.624320149421691895e+00,5.544994398951530457e-02
2.733402967453002930e+00,1.626312613487243652e+00,1.666893213987350464e-01
2.736667394638061523e+00,1.628254890441894531e+00,2.786006629467010498e-01
2.740372657775878906e+00,1.630459308624267578e+00,3.915270268917083740e-01
2.743290901184082031e+00,1.632195711135864258e+00,5.055832862854003906e-01
2.746646165847778320e+00,1.634191870689392090e+00,6.212455630302429199e-01
2.750628471374511719e+00,1.636561393737792969e+00,7.389318346977233887e-01
2.620508432388305664e+00,1.610365509986877441e+00,-8.241479396820068359e-01
2.623365402221679688e+00,1.612121224403381348e+00,-7.108697891235351562e-01
2.626719236373901367e+00,1.614182233810424805e+00,-5.992845892906188965e-01
2.630371809005737305e+00,1.616426825523376465e+00,-4.889864921569824219e-01
2.633419275283813477e+00,1.618299603462219238e+00,-3.795167803764343262e-01
2.636746644973754883e+00,1.620344281196594238e+00,-2.707617878913879395e-01
2.639966964721679688e+00,1.622323393821716309e+00,-1.623908132314682007e-01
2.643176078796386719e+00,1.624295473098754883e+00,-5.415203422307968140e-02
2.646397113800048828e+00,1.626274824142456055e+00,5.421802401542663574e-02
2.649527788162231445e+00,1.628198623657226562e+00,1.629789173603057861e-01
2.652980804443359375e+00,1.630320668220520020e+00,2.724288403987884521e-01
2.655877351760864258e+00,1.632100701332092285e+00,3.827533423900604248e-01
2.659144639968872070e+00,1.634108543395996094e+00,4.943353533744812012e-01
2.663023710250854492e+00,1.636492252349853516e+00,6.075674295425415039e-01
2.666727781295776367e+00,1.638768434524536133e+00,7.226199507713317871e-01
2.541953802108764648e+00,1.612660884857177734e+00,-8.066194653511047363e-01
2.545622587203979492e+00,1.614988446235656738e+00,-6.959959864616394043e-01
2.548348903656005859e+00,1.616718053817749023e+00,-5.866239070892333984e-01
2.551994085311889648e+00,1.619030714035034180e+00,-4.786750674247741699e-01
2.554994106292724609e+00,1.620933890342712402e+00,-3.715200722217559814e-01
2.558017730712890625e+00,1.622852206230163574e+00,-2.650354504585266113e-01
2.561195135116577148e+00,1.624868035316467285e+00,-1.589597016572952271e-01
2.564314603805541992e+00,1.626847028732299805e+00,-5.300799757242202759e-02
2.567379474639892578e+00,1.628791332244873047e+00,5.307135358452796936e-02
2.570623159408569336e+00,1.630849361419677734e+00,1.595448553562164307e-01
2.573930501937866211e+00,1.632947564125061035e+00,2.666841745376586914e-01
2.576641321182250977e+00,1.634667277336120605e+00,3.746677935123443604e-01
2.580348491668701172e+00,1.637019276618957520e+00,4.839934706687927246e-01
2.583195924758911133e+00,1.638825774192810059e+00,5.946456789970397949e-01
2.586513042449951172e+00,1.640930175781250000e+00,7.071757912635803223e-01
2.468321323394775391e+00,1.615951299667358398e+00,-7.905128598213195801e-01
2.471324920654296875e+00,1.617917776107788086e+00,-6.819440722465515137e-01
2.474133968353271484e+00,1.619756817817687988e+00,-5.748178958892822266e-01
2.477345466613769531e+00,1.621859312057495117e+00,-4.689795672893524170e-01
2.480427503585815430e+00,1.623877048492431641e+00,-3.640199005603790283e-01
2.483656406402587891e+00,1.625990867614746094e+00,-2.597156465053558350e-01
2.486614704132080078e+00,1.627927541732788086e+00,-1.557611227035522461e-01
2.489641904830932617e+00,1.629909515380859375e+00,-5.194134265184402466e-02
2.492748260498046875e+00,1.631943106651306152e+00,5.200615152716636658e-02
2.495599746704101562e+00,1.633809924125671387e+00,1.563239544630050659e-01
2.498639822006225586e+00,1.635800123214721680e+00,2.612824738025665283e-01
2.501603841781616211e+00,1.637740612030029297e+00,3.671276569366455078e-01
2.505040407180786133e+00,1.639990568161010742e+00,4.742224216461181641e-01
2.508370161056518555e+00,1.642170429229736328e+00,5.827720761299133301e-01
2.511431932449340820e+00,1.644174933433532715e+00,6.930113434791564941e-01
2.397662878036499023e+00,1.619184732437133789e+00,-7.752265930175781250e-01
2.400793313980102539e+00,1.621298789978027344e+00,-6.688165664672851562e-01
2.404202938079833984e+00,1.623601436614990234e+00,-5.639122724533081055e-01
2.406905174255371094e+00,1.625426173210144043e+00,-4.600018858909606934e-01
2.409947156906127930e+00,1.627480506896972656e+00,-3.570585250854492188e-01
2.412898302078247070e+00,1.629473567008972168e+00,-2.547293305397033691e-01
2.415824174880981445e+00,1.631449341773986816e+00,-1.527739167213439941e-01
2.418766260147094727e+00,1.633436203002929688e+00,-5.094522982835769653e-02
2.421726703643798828e+00,1.635435461997985840e+00,5.100758373737335205e-02
2.424686908721923828e+00,1.637434482574462891e+00,1.533343791961669922e-01
2.427594423294067383e+00,1.639398097991943359e+00,2.562807798385620117e-01
2.430896282196044922e+00,1.641627788543701172e+00,3.601623773574829102e-01
2.433546781539916992e+00,1.643417716026306152e+00,4.650935828685760498e-01
2.436573505401611328e+00,1.645461797714233398e+00,5.715048313140869141e-01
2.440130710601806641e+00,1.647863984107971191e+00,6.797752380371093750e-01
2.331152439117431641e+00,1.623327255249023438e+00,-7.611567378044128418e-01
2.334291696548461914e+00,1.625513315200805664e+00,-6.567048430442810059e-01
2.337150573730468750e+00,1.627504110336303711e+00,-5.535922050476074219e-01
2.339884996414184570e+00,1.629408240318298340e+00,-4.516042470932006836e-01
2.342888355255126953e+00,1.631499648094177246e+00,-3.505470752716064453e-01
2.345582008361816406e+00,1.633375406265258789e+00,-2.500652968883514404e-01
2.348483800888061523e+00,1.635396122932434082e+00,-1.499803364276885986e-01
2.351344347000122070e+00,1.637387990951538086e+00,-5.001366510987281799e-02
2.354167699813842773e+00,1.639354109764099121e+00,5.007372051477432251e-02
2.357220888137817383e+00,1.641480326652526855e+00,1.505383104085922241e-01
2.359996318817138672e+00,1.643412947654724121e+00,2.516019940376281738e-01
2.363100528717041016e+00,1.645574569702148438e+00,3.535712361335754395e-01
2.366136550903320312e+00,1.647688865661621094e+00,4.566708803176879883e-01
2.368972301483154297e+00,1.649663567543029785e+00,5.611296892166137695e-01
2.372265815734863281e+00,1.651957035064697266e+00,6.673880219459533691e-01
2.264366149902343750e+00,1.625431776046752930e+00,-7.468699812889099121e-01
2.266964673995971680e+00,1.627297163009643555e+00,-6.442505121231079102e-01
2.269918918609619141e+00,1.629417777061462402e+00,-5.431359410285949707e-01
2.272695779800415039e+00,1.631411194801330566e+00,-4.430979788303375244e-01
2.275406122207641602e+00,1.633356690406799316e+00,-3.439130485057830811e-01
2.278303146362304688e+00,1.635436177253723145e+00,-2.453630864620208740e-01
2.281014680862426758e+00,1.637382745742797852e+00,-1.471532285213470459e-01
2.283791303634643555e+00,1.639375925064086914e+00,-4.907087981700897217e-02
2.286642313003540039e+00,1.641422390937805176e+00,4.913213849067687988e-02
2.289325475692749023e+00,1.643348455429077148e+00,1.476893872022628784e-01
2.292233228683471680e+00,1.645435690879821777e+00,2.468633055686950684e-01
2.295124530792236328e+00,1.647511243820190430e+00,3.468933701515197754e-01
2.297893285751342773e+00,1.649498581886291504e+00,4.480106234550476074e-01
2.301105976104736328e+00,1.651804924011230469e+00,5.505982637405395508e-01
2.304104328155517578e+00,1.653957128524780273e+00,6.548053026199340820e-01
2.200197696685791016e+00,1.627585172653198242e+00,-7.333138585090637207e-01
2.203516960144042969e+00,1.630040526390075684e+00,-6.327850818634033203e-01
2.206003904342651367e+00,1.631880164146423340e+00,-5.333769917488098145e-01
2.208824157714843750e+00,1.633966565132141113e+00,-4.351604580879211426e-01
2.211522817611694336e+00,1.635962843894958496e+00,-3.377621173858642578e-01
2.214188575744628906e+00,1.637934803962707520e+00,-2.409584373235702515e-01
2.216879606246948242e+00,1.639925479888916016e+00,-1.445152312517166138e-01
2.219577074050903320e+00,1.641920924186706543e+00,-4.819116741418838501e-02
2.222291707992553711e+00,1.643929004669189453e+00,4.825010895729064941e-02
2.225052595138549805e+00,1.645971298217773438e+00,1.450480073690414429e-01
2.227812051773071289e+00,1.648012638092041016e+00,2.424410134553909302e-01
2.230497360229492188e+00,1.649999141693115234e+00,3.406600654125213623e-01
2.233583211898803711e+00,1.652281880378723145e+00,4.400382339954376221e-01
2.235899686813354492e+00,1.653995394706726074e+00,5.406053066253662109e-01
2.239292383193969727e+00,1.656505107879638672e+00,6.430587172508239746e-01
2.139683246612548828e+00,1.630712509155273438e+00,-7.208502888679504395e-01
2.142500638961791992e+00,1.632859706878662109e+00,-6.219109892845153809e-01
2.145095825195312500e+00,1.634837746620178223e+00,-5.242545008659362793e-01
2.147957801818847656e+00,1.637018799781799316e+00,-4.277415573596954346e-01
2.150648355484008789e+00,1.639069318771362305e+00,-3.320139646530151367e-01
2.153095483779907227e+00,1.640934348106384277e+00,-2.368417382240295410e-01
2.155768156051635742e+00,1.642971396446228027e+00,-1.420499235391616821e-01
2.158395767211914062e+00,1.644973874092102051e+00,-4.736916348338127136e-02
2.160979509353637695e+00,1.646943092346191406e+00,4.742586985230445862e-02
2.163804054260253906e+00,1.649095654487609863e+00,1.425794214010238647e-01
2.166422367095947266e+00,1.651091217994689941e+00,2.383077144622802734e-01
2.168914079666137695e+00,1.652990221977233887e+00,3.348338007926940918e-01
2.171732425689697266e+00,1.655138134956359863e+00,4.324760138988494873e-01
2.174401998519897461e+00,1.657172679901123047e+00,5.314167737960815430e-01
2.177502155303955078e+00,1.659535408020019531e+00,6.320709586143493652e-01
2.079223632812500000e+00,1.632200598716735840e+00,-7.082799077033996582e-01
2.082122802734375000e+00,1.634476542472839355e+00,-6.111132502555847168e-01
2.084750175476074219e+00,1.636539101600646973e+00,-5.151783227920532227e-01
2.087233304977416992e+00,1.638488173484802246e+00,-4.202761650085449219e-01
2.089683771133422852e+00,1.640411972999572754e+00,-3.261937499046325684e-01
2.092328071594238281e+00,1.642487764358520508e+00,-2.327195405960083008e-01
2.094884395599365234e+00,1.644494414329528809e+00,-1.395748257637023926e-01
2.097437620162963867e+00,1.646498799324035645e+00,-4.654379934072494507e-02
2.099988460540771484e+00,1.648501157760620117e+00,4.660040512681007385e-02
2.102468490600585938e+00,1.650447964668273926e+00,1.400801241397857666e-01
2.105178833007812500e+00,1.652575731277465820e+00,2.341488897800445557e-01
2.107898235321044922e+00,1.654710292816162109e+00,3.290369510650634766e-01
2.110533237457275391e+00,1.656778931617736816e+00,4.249677658081054688e-01
2.112965345382690430e+00,1.658688187599182129e+00,5.221508145332336426e-01
2.115753412246704102e+00,1.660876750946044922e+00,6.209840178489685059e-01
2.024047851562500000e+00,1.636243581771850586e+00,-6.973910927772521973e-01
2.026504278182983398e+00,1.638229370117187500e+00,-6.016096472740173340e-01
2.029230833053588867e+00,1.640433430671691895e+00,-5.072089433670043945e-01
2.031768321990966797e+00,1.642484903335571289e+00,-4.137994349002838135e-01
2.034220218658447266e+00,1.644466876983642578e+00,-3.211773335933685303e-01
2.036667108535766602e+00,1.646444916725158691e+00,-2.291263341903686523e-01
2.039211273193359375e+00,1.648501634597778320e+00,-1.374235451221466064e-01
2.041693687438964844e+00,1.650508522987365723e+00,-4.582634568214416504e-02
2.044123649597167969e+00,1.652472853660583496e+00,4.588088765740394592e-02
2.046668052673339844e+00,1.654529809951782227e+00,1.379260718822479248e-01
2.049236774444580078e+00,1.656606316566467285e+00,2.305404394865036011e-01
2.051763296127319336e+00,1.658648848533630371e+00,3.239471912384033203e-01
2.054155826568603516e+00,1.660582900047302246e+00,4.183589816093444824e-01
2.056892633438110352e+00,1.662795305252075195e+00,5.141230225563049316e-01
2.059414625167846680e+00,1.664834141731262207e+00,6.113797426223754883e-01
1.966570138931274414e+00,1.636867165565490723e+00,-6.855893731117248535e-01
1.969139456748962402e+00,1.639005780220031738e+00,-5.914836525917053223e-01
1.971512198448181152e+00,1.640980720520019531e+00,-4.986019134521484375e-01
1.974127888679504395e+00,1.643157839775085449e+00,-4.068084657192230225e-01
1.976599693298339844e+00,1.645215272903442383e+00,-3.157655000686645508e-01
1.979007244110107422e+00,1.647219181060791016e+00,-2.252689599990844727e-01
1.981404662132263184e+00,1.649214625358581543e+00,-1.351049095392227173e-01
1.983818173408508301e+00,1.651223421096801758e+00,-4.505318775773048401e-02
1.986252188682556152e+00,1.653249502182006836e+00,4.510846734046936035e-02
1.988693952560424805e+00,1.655281782150268555e+00,1.356019377708435059e-01
1.991100072860717773e+00,1.657284498214721680e+00,2.266454845666885376e-01
1.993405938148498535e+00,1.659203886985778809e+00,3.184503316879272461e-01
1.996008396148681641e+00,1.661370038986206055e+00,4.113174080848693848e-01
1.998481988906860352e+00,1.663428902626037598e+00,5.054226517677307129e-01
2.001337289810180664e+00,1.665805459022521973e+00,6.011551618576049805e-01
1.913863420486450195e+00,1.639928579330444336e+00,-6.753286719322204590e-01
1.916523218154907227e+00,1.642207741737365723e+00,-5.826798677444458008e-01
1.918938875198364258e+00,1.644277572631835938e+00,-4.912077486515045166e-01
1.921229600906372070e+00,1.646240472793579102e+00,-4.007223844528198242e-01
1.923716545104980469e+00,1.648371458053588867e+00,-3.110546171665191650e-01
1.925953507423400879e+00,1.650288224220275879e+00,-2.218959629535675049e-01
1.928339362144470215e+00,1.652332663536071777e+00,-1.330855935811996460e-01
1.930688023567199707e+00,1.654345035552978516e+00,-4.437980428338050842e-02
1.933004260063171387e+00,1.656329870223999023e+00,4.443304985761642456e-02
1.935488820075988770e+00,1.658458709716796875e+00,1.335790157318115234e-01
1.937752604484558105e+00,1.660398602485656738e+00,2.232553809881210327e-01
1.940248489379882812e+00,1.662537217140197754e+00,3.137277662754058838e-01
1.942675948143005371e+00,1.664617180824279785e+00,4.051955640316009521e-01
1.944921851158142090e+00,1.666541695594787598e+00,4.978588819503784180e-01
1.947481870651245117e+00,1.668735265731811523e+00,5.920922160148620605e-01
1.861867427825927734e+00,1.642165541648864746e+00,-6.652072072029113770e-01
1.864113450050354004e+00,1.644146442413330078e+00,-5.738418102264404297e-01
1.866219878196716309e+00,1.646004319190979004e+00,-4.836941659450531006e-01
1.868595719337463379e+00,1.648099899291992188e+00,-3.946241140365600586e-01
1.871100425720214844e+00,1.650308966636657715e+00,-3.063350021839141846e-01
1.873308539390563965e+00,1.652256488800048828e+00,-2.185329049825668335e-01
1.875562906265258789e+00,1.654244899749755859e+00,-1.310639232397079468e-01
1.877846479415893555e+00,1.656259059906005859e+00,-4.370562359690666199e-02
1.880167126655578613e+00,1.658305764198303223e+00,4.375963285565376282e-02
1.882547974586486816e+00,1.660405635833740234e+00,1.315520256757736206e-01
1.884662985801696777e+00,1.662271142005920410e+00,2.198574841022491455e-01
1.886944770812988281e+00,1.664283633232116699e+00,3.089290261268615723e-01
1.889551162719726562e+00,1.666582584381103516e+00,3.990496397018432617e-01
1.892082810401916504e+00,1.668815374374389648e+00,4.903973937034606934e-01
1.894405245780944824e+00,1.670863866806030273e+00,5.831667184829711914e-01
1.811550736427307129e+00,1.644476413726806641e+00,-6.555726528167724609e-01
1.813914418220520020e+00,1.646622061729431152e+00,-5.655861496925354004e-01
1.816089630126953125e+00,1.648596644401550293e+00,-4.767683446407318115e-01
1.818470120429992676e+00,1.650757551193237305e+00,-3.889883160591125488e-01
1.820516467094421387e+00,1.652615189552307129e+00,-3.018952310085296631e-01
1.822778463363647461e+00,1.654668569564819336e+00,-2.153791040182113647e-01
1.825028061866760254e+00,1.656710624694824219e+00,-1.291763931512832642e-01
1.827249169349670410e+00,1.658726930618286133e+00,-4.307617247104644775e-02
1.829452276229858398e+00,1.660726904869079590e+00,4.312811046838760376e-02
1.831656098365783691e+00,1.662727475166320801e+00,1.296455413103103638e-01
1.834103822708129883e+00,1.664949417114257812e+00,2.167173027992248535e-01
1.836260080337524414e+00,1.666906833648681641e+00,3.045059740543365479e-01
1.838668704032897949e+00,1.669093370437622070e+00,3.933089971542358398e-01
1.840949296951293945e+00,1.671163678169250488e+00,4.832946360111236572e-01
1.843553185462951660e+00,1.673527359962463379e+00,5.748276114463806152e-01
1.761594176292419434e+00,1.645725131034851074e+00,-6.459524631500244141e-01
1.764092087745666504e+00,1.648058772087097168e+00,-5.573495030403137207e-01
1.766347765922546387e+00,1.650166153907775879e+00,-4.698624908924102783e-01
1.768476009368896484e+00,1.652154326438903809e+00,-3.833133876323699951e-01
1.770568609237670898e+00,1.654109239578247070e+00,-2.975081205368041992e-01
1.772807955741882324e+00,1.656201362609863281e+00,-2.122539430856704712e-01
1.774976015090942383e+00,1.658226847648620605e+00,-1.273006349802017212e-01
1.777135610580444336e+00,1.660244464874267578e+00,-4.245065152645111084e-02
1.779297947883605957e+00,1.662264466285705566e+00,4.250229895114898682e-02
1.781403422355651855e+00,1.664231538772583008e+00,1.277616024017333984e-01
1.783682823181152344e+00,1.666360974311828613e+00,2.135559618473052979e-01
1.785964488983154297e+00,1.668492436408996582e+00,3.000950813293457031e-01
1.788165092468261719e+00,1.670548439025878906e+00,3.875809609889984131e-01
1.790185451507568359e+00,1.672435760498046875e+00,4.762034714221954346e-01
1.792456507682800293e+00,1.674557566642761230e+00,5.663110017776489258e-01
1.714173078536987305e+00,1.647995948791503906e+00,-6.371481418609619141e-01
1.716332435607910156e+00,1.650071859359741211e+00,-5.496659278869628906e-01
1.718343138694763184e+00,1.652005076408386230e+00,-4.633354246616363525e-01
1.720565080642700195e+00,1.654141187667846680e+00,-3.780218958854675293e-01
1.722699046134948730e+00,1.656192660331726074e+00,-2.934178411960601807e-01
1.724915266036987305e+00,1.658323407173156738e+00,-2.093403190374374390e-01
1.726969957351684570e+00,1.660298705101013184e+00,-1.255491822957992554e-01
1.729074001312255859e+00,1.662321567535400391e+00,-4.186666756868362427e-02
1.731231093406677246e+00,1.664395451545715332e+00,4.191889986395835876e-02
1.733240485191345215e+00,1.666327238082885742e+00,1.260050386190414429e-01
1.735359549522399902e+00,1.668364524841308594e+00,2.106078714132308960e-01
1.737426280975341797e+00,1.670351505279541016e+00,2.959262430667877197e-01
1.739755511283874512e+00,1.672590732574462891e+00,3.822381794452667236e-01
1.741992592811584473e+00,1.674741506576538086e+00,4.697122573852539062e-01
1.744016289710998535e+00,1.676687002182006836e+00,5.585318803787231445e-01
1.668587565422058105e+00,1.650769591331481934e+00,-6.289223432540893555e-01
1.670439362525939941e+00,1.652601599693298340e+00,-5.424882769584655762e-01
1.672534465789794922e+00,1.654674410820007324e+00,-4.573228657245635986e-01
1.674779415130615234e+00,1.656895399093627930e+00,-3.731347620487213135e-01
1.676705598831176758e+00,1.658800959587097168e+00,-2.895984053611755371e-01
1.678794622421264648e+00,1.660867691040039062e+00,-2.066069692373275757e-01
1.680852055549621582e+00,1.662903070449829102e+00,-1.239141300320625305e-01
1.682900547981262207e+00,1.664929747581481934e+00,-4.132144525647163391e-02
1.684942722320556641e+00,1.666950106620788574e+00,4.137159138917922974e-02
1.686966419219970703e+00,1.668952226638793945e+00,1.243648901581764221e-01
1.689181089401245117e+00,1.671143293380737305e+00,2.078852206468582153e-01
1.691110134124755859e+00,1.673051714897155762e+00,2.920863330364227295e-01
1.693236470222473145e+00,1.675155282020568848e+00,3.772469460964202881e-01
1.695667028427124023e+00,1.677559971809387207e+00,4.636480510234832764e-01
1.697455644607543945e+00,1.679329514503479004e+00,5.512620806694030762e-01
1.622949242591857910e+00,1.652245521545410156e+00,-6.205707192420959473e-01
1.625323295593261719e+00,1.654662370681762695e+00,-5.354732275009155273e-01
1.627149343490600586e+00,1.656521320343017578e+00,-4.513501524925231934e-01
1.629192233085632324e+00,1.658601164817810059e+00,-3.682296574115753174e-01
1.631170868873596191e+00,1.660615444183349609e+00,-2.858098149299621582e-01
1.633250474929809570e+00,1.662732720375061035e+00,-2.039099931716918945e-01
1.635207056999206543e+00,1.664724588394165039e+00,-1.222932338714599609e-01
1.637198567390441895e+00,1.666751980781555176e+00,-4.078089445829391479e-02
1.639229893684387207e+00,1.668819904327392578e+00,4.083149135112762451e-02
1.641153335571289062e+00,1.670778155326843262e+00,1.227379441261291504e-01
1.643202662467956543e+00,1.672864437103271484e+00,2.051524966955184937e-01
1.645221948623657227e+00,1.674920201301574707e+00,2.882717847824096680e-01
1.647503852844238281e+00,1.677243351936340332e+00,3.723684251308441162e-01
1.649289131164550781e+00,1.679060816764831543e+00,4.574914276599884033e-01
1.651747822761535645e+00,1.681563854217529297e+00,5.441789627075195312e-01
1.578264713287353516e+00,1.653438329696655273e+00,-6.124712228775024414e-01
1.580385684967041016e+00,1.655660390853881836e+00,-5.284216403961181641e-01
1.582329869270324707e+00,1.657697081565856934e+00,-4.454538226127624512e-01
1.584421038627624512e+00,1.659887909889221191e+00,-3.634431958198547363e-01
1.586232542991638184e+00,1.661785721778869629e+00,-2.820746600627899170e-01
1.588209629058837891e+00,1.663856983184814453e+00,-2.012394070625305176e-01
1.590171217918395996e+00,1.665912032127380371e+00,-1.206960603594779968e-01
1.592108011245727539e+00,1.667941093444824219e+00,-4.024828970432281494e-02
1.594024777412414551e+00,1.669949054718017578e+00,4.029674455523490906e-02
1.595939517021179199e+00,1.671955108642578125e+00,1.211338788270950317e-01
1.598046183586120605e+00,1.674162030220031738e+00,2.024857848882675171e-01
1.599903345108032227e+00,1.676107645034790039e+00,2.845056653022766113e-01
1.601954817771911621e+00,1.678256750106811523e+00,3.674651682376861572e-01
1.603880047798156738e+00,1.680273771286010742e+00,4.515205919742584229e-01
1.606042265892028809e+00,1.682539105415344238e+00,5.370002388954162598e-01
1.535305023193359375e+00,1.655228495597839355e+00,-6.049321293830871582e-01
1.537526369094848633e+00,1.657623410224914551e+00,-5.219708681106567383e-01
1.539249420166015625e+00,1.659481048583984375e+00,-4.399677217006683350e-01
1.541170477867126465e+00,1.661552190780639648e+00,-3.589407503604888916e-01
1.543197751045227051e+00,1.663737773895263672e+00,-2.786281108856201172e-01
1.545016884803771973e+00,1.665699005126953125e+00,-1.987671405076980591e-01
1.546919107437133789e+00,1.667749881744384766e+00,-1.192128136754035950e-01
1.548803687095642090e+00,1.669781565666198730e+00,-3.975368663668632507e-02
1.550675392150878906e+00,1.671799540519714355e+00,3.980172798037528992e-02
1.552640676498413086e+00,1.673918247222900391e+00,1.196537464857101440e-01
1.554424166679382324e+00,1.675840973854064941e+00,1.999773830175399780e-01
1.556343436241149902e+00,1.677910208702087402e+00,2.810015976428985596e-01
1.558510184288024902e+00,1.680246233940124512e+00,3.629791736602783203e-01
1.560223340988159180e+00,1.682093262672424316e+00,4.459627568721771240e-01
1.562554836273193359e+00,1.684606790542602539e+00,5.304676890373229980e-01
1.493894100189208984e+00,1.657544136047363281e+00,-5.979024767875671387e-01
1.495892167091369629e+00,1.659761071205139160e+00,-5.158488750457763672e-01
1.497728347778320312e+00,1.661798357963562012e+00,-4.348539412021636963e-01
1.499702215194702148e+00,1.663988471031188965e+00,-3.547934889793395996e-01
1.501572728157043457e+00,1.666063904762268066e+00,-2.753900587558746338e-01
1.503396272659301758e+00,1.668087244033813477e+00,-1.964641660451889038e-01
1.505212426185607910e+00,1.670102357864379883e+00,-1.178288608789443970e-01
1.507046818733215332e+00,1.672137618064880371e+00,-3.929219767451286316e-02
1.508900523185729980e+00,1.674194455146789551e+00,3.934052586555480957e-02
1.510760664939880371e+00,1.676258325576782227e+00,1.182631775736808777e-01
1.512598633766174316e+00,1.678297638893127441e+00,1.976667344570159912e-01
1.514361500740051270e+00,1.680253744125366211e+00,2.777355313301086426e-01
1.516308665275573730e+00,1.682414174079895020e+00,3.587222099304199219e-01
1.518141746520996094e+00,1.684448003768920898e+00,4.407808184623718262e-01
1.520188808441162109e+00,1.686719417572021484e+00,5.242274403572082520e-01
1.452390551567077637e+00,1.658624172210693359e+00,-5.907326936721801758e-01
1.454165577888488770e+00,1.660651206970214844e+00,-5.096043348312377930e-01
1.456079721450805664e+00,1.662837147712707520e+00,-4.296280145645141602e-01
1.457872867584228516e+00,1.664884924888610840e+00,-3.504994511604309082e-01
1.459614396095275879e+00,1.666873693466186523e+00,-2.720426917076110840e-01
1.461449146270751953e+00,1.668969035148620605e+00,-1.940844208002090454e-01
1.463190436363220215e+00,1.670957565307617188e+00,-1.163996830582618713e-01
1.464971661567687988e+00,1.672991752624511719e+00,-3.881556168198585510e-02
1.466801047325134277e+00,1.675080895423889160e+00,3.886403515934944153e-02
1.468547940254211426e+00,1.677075743675231934e+00,1.168258786201477051e-01
1.470409154891967773e+00,1.679201364517211914e+00,1.952743381261825562e-01
1.472253799438476562e+00,1.681307911872863770e+00,2.743984460830688477e-01
1.474011898040771484e+00,1.683315634727478027e+00,3.543795645236968994e-01
1.475965023040771484e+00,1.685546159744262695e+00,4.354953467845916748e-01
1.477753520011901855e+00,1.687588453292846680e+00,5.178706049919128418e-01
1.412918567657470703e+00,1.660920381546020508e+00,-5.842878222465515137e-01
1.414813995361328125e+00,1.663148522377014160e+00,-5.041046142578125000e-01
1.416551470756530762e+00,1.665190815925598145e+00,-4.249539375305175781e-01
1.418405175209045410e+00,1.667369961738586426e+00,-3.467129468917846680e-01
1.420020580291748047e+00,1.669268846511840820e+00,-2.690888345241546631e-01
1.421779513359069824e+00,1.671336531639099121e+00,-1.919735074043273926e-01
1.423529028892517090e+00,1.673393130302429199e+00,-1.151381731033325195e-01
1.425262331962585449e+00,1.675430774688720703e+00,-3.839490190148353577e-02
1.426986098289489746e+00,1.677457094192504883e+00,3.844133764505386353e-02
1.428713321685791016e+00,1.679487466812133789e+00,1.155574917793273926e-01
1.430604100227355957e+00,1.681710004806518555e+00,1.931650191545486450e-01
1.432284951210021973e+00,1.683686017990112305e+00,2.714128792285919189e-01
1.434125185012817383e+00,1.685849189758300781e+00,3.505555391311645508e-01
1.435851812362670898e+00,1.687878847122192383e+00,4.307438731193542480e-01
1.437761545181274414e+00,1.690123915672302246e+00,5.122809410095214844e-01
1.373477339744567871e+00,1.662182927131652832e+00,-5.777570009231567383e-01
1.375191926956176758e+00,1.664258003234863281e+00,-4.984236955642700195e-01
1.377019882202148438e+00,1.666470170021057129e+00,-4.202074408531188965e-01
1.378720402717590332e+00,1.668528199195861816e+00,-3.428151309490203857e-01
1.380365967750549316e+00,1.670519590377807617e+00,-2.660782039165496826e-01
1.382010340690612793e+00,1.672509670257568359e+00,-1.898166686296463013e-01
1.383716225624084473e+00,1.674574136734008789e+00,-1.138450354337692261e-01
1.385401725769042969e+00,1.676613926887512207e+00,-3.796369582414627075e-02
1.387070536613464355e+00,1.678633451461791992e+00,3.800942376255989075e-02
1.388813614845275879e+00,1.680742859840393066e+00,1.142644137144088745e-01
1.390577077865600586e+00,1.682877063751220703e+00,1.909932941198348999e-01
1.392314314842224121e+00,1.684979438781738281e+00,2.683813273906707764e-01
1.393961668014526367e+00,1.686973094940185547e+00,3.466048240661621094e-01
1.395770072937011719e+00,1.689161658287048340e+00,4.259292185306549072e-01
1.397414207458496094e+00,1.691151499748229980e+00,5.064779520034790039e-01
1.335393428802490234e+00,1.664032578468322754e+00,-5.716974735260009766e-01
1.336942315101623535e+00,1.665962696075439453e+00,-4.931526184082031250e-01
1.338635683059692383e+00,1.668072700500488281e+00,-4.157375395298004150e-01
1.340417146682739258e+00,1.670292615890502930e+00,-3.392009735107421875e-01
1.341964483261108398e+00,1.672220826148986816e+00,-2.632627487182617188e-01
1.343627452850341797e+00,1.674292922019958496e+00,-1.878171414136886597e-01
1.345268368721008301e+00,1.676337718963623047e+00,-1.126443147659301758e-01
1.346906781196594238e+00,1.678379297256469727e+00,-3.756329044699668884e-02
1.348547577857971191e+00,1.680423855781555176e+00,3.760904818773269653e-02
1.350178241729736328e+00,1.682455778121948242e+00,1.130554378032684326e-01
1.351944684982299805e+00,1.684656977653503418e+00,1.889797598123550415e-01
1.353502631187438965e+00,1.686598420143127441e+00,2.655262649059295654e-01
1.355189681053161621e+00,1.688700675964355469e+00,3.429392576217651367e-01
1.357069611549377441e+00,1.691043257713317871e+00,4.214625358581542969e-01
1.358822703361511230e+00,1.693227767944335938e+00,5.012235641479492188e-01
1.297874212265014648e+00,1.665563941001892090e+00,-5.657832622528076172e-01
1.299541354179382324e+00,1.667703270912170410e+00,-4.881117045879364014e-01
1.301077604293823242e+00,1.669674873352050781e+00,-4.114532768726348877e-01
1.302732586860656738e+00,1.671798706054687500e+00,-3.356857001781463623e-01
1.304316878318786621e+00,1.673831820487976074e+00,-2.605505287647247314e-01
1.305880188941955566e+00,1.675837993621826172e+00,-1.858746558427810669e-01
1.307462573051452637e+00,1.677868723869323730e+00,-1.114782318472862244e-01
1.309054613113403320e+00,1.679911851882934570e+00,-3.717442974448204041e-02
1.310662984848022461e+00,1.681975841522216797e+00,3.722010552883148193e-02
1.312299132347106934e+00,1.684075474739074707e+00,1.118906140327453613e-01
1.313935518264770508e+00,1.686175465583801270e+00,1.870212256908416748e-01
1.315529108047485352e+00,1.688220381736755371e+00,2.627902626991271973e-01
1.317277669906616211e+00,1.690464377403259277e+00,3.394336700439453125e-01
1.318940639495849609e+00,1.692598462104797363e+00,4.171022772789001465e-01
1.320426344871520996e+00,1.694505214691162109e+00,4.959562122821807861e-01
1.260956168174743652e+00,1.666853189468383789e+00,-5.600328445434570312e-01
1.262503266334533691e+00,1.668898344039916992e+00,-4.831229448318481445e-01
1.264152407646179199e+00,1.671078324317932129e+00,-4.072984457015991211e-01
1.265699267387390137e+00,1.673123002052307129e+00,-3.322798907756805420e-01
1.267209291458129883e+00,1.675119161605834961e+00,-2.579011023044586182e-01
1.268800854682922363e+00,1.677223086357116699e+00,-1.839951276779174805e-01
1.270349264144897461e+00,1.679269909858703613e+00,-1.103519350290298462e-01
1.271896839141845703e+00,1.681315660476684570e+00,-3.679886460304260254e-02
1.273447632789611816e+00,1.683365583419799805e+00,3.684373199939727783e-02
1.274965763092041016e+00,1.685372471809387207e+00,1.107529625296592712e-01
1.276585221290588379e+00,1.687513232231140137e+00,1.851239800453186035e-01
1.278194427490234375e+00,1.689640402793884277e+00,2.601367533206939697e-01
1.279735207557678223e+00,1.691677093505859375e+00,3.359647095203399658e-01
1.281424641609191895e+00,1.693910360336303711e+00,4.128634035587310791e-01
1.282968521118164062e+00,1.695951342582702637e+00,4.909543991088867188e-01
1.224664807319641113e+00,1.667968392372131348e+00,-5.544612407684326172e-01
1.226348638534545898e+00,1.670261740684509277e+00,-4.783872067928314209e-01
1.227881073951721191e+00,1.672348976135253906e+00,-4.032831490039825439e-01
1.229339122772216797e+00,1.674334764480590820e+00,-3.289923071861267090e-01
1.230895280838012695e+00,1.676454186439514160e+00,-2.553679347038269043e-01
1.232405662536621094e+00,1.678511261940002441e+00,-1.821826398372650146e-01
1.233902573585510254e+00,1.680550098419189453e+00,-1.092642694711685181e-01
1.235405564308166504e+00,1.682597160339355469e+00,-3.643615543842315674e-02
1.236918568611145020e+00,1.684657812118530273e+00,3.648078069090843201e-02
1.238428592681884766e+00,1.686714410781860352e+00,1.096650511026382446e-01
1.239912152290344238e+00,1.688735008239746094e+00,1.832922995090484619e-01
1.241519451141357422e+00,1.690924048423767090e+00,2.575720846652984619e-01
1.243086814880371094e+00,1.693058729171752930e+00,3.326714038848876953e-01
1.244544386863708496e+00,1.695044040679931641e+00,4.087560176849365234e-01
1.246118426322937012e+00,1.697187781333923340e+00,4.860992133617401123e-01
1.189761757850646973e+00,1.670017123222351074e+00,-5.494250655174255371e-01
1.191311717033386230e+00,1.672192811965942383e+00,-4.740078449249267578e-01
1.192738533020019531e+00,1.674195647239685059e+00,-3.995706140995025635e-01
1.194257497787475586e+00,1.676327705383300781e+00,-3.259916901588439941e-01
1.195711731910705566e+00,1.678368806838989258e+00,-2.530266344547271729e-01
1.197147607803344727e+00,1.680384397506713867e+00,-1.805076152086257935e-01
1.198596119880676270e+00,1.682417631149291992e+00,-1.082591637969017029e-01
1.200056552886962891e+00,1.684467554092407227e+00,-3.610099852085113525e-02
1.201530337333679199e+00,1.686536192893981934e+00,3.614533320069313049e-02
1.203030705451965332e+00,1.688642263412475586e+00,1.086596995592117310e-01
1.204528570175170898e+00,1.690744757652282715e+00,1.816205233335494995e-01
1.205986022949218750e+00,1.692790389060974121e+00,2.552008032798767090e-01
1.207572221755981445e+00,1.695016980171203613e+00,3.296261727809906006e-01
1.209073901176452637e+00,1.697124719619750977e+00,4.050429761409759521e-01
1.210705399513244629e+00,1.699414968490600586e+00,4.817243516445159912e-01
1.154944181442260742e+00,1.671254038810729980e+00,-5.443375706672668457e-01
1.156399846076965332e+00,1.673360347747802734e+00,-4.695987701416015625e-01
1.157749295234680176e+00,1.675313115119934082e+00,-3.958418071269989014e-01
1.159205079078674316e+00,1.677419781684875488e+00,-3.229443132877349854e-01
1.160713434219360352e+00,1.679602384567260742e+00,-2.506822645664215088e-01
1.162086725234985352e+00,1.681589603424072266e+00,-1.788319796323776245e-01
1.163512110710144043e+00,1.683652162551879883e+00,-1.072559803724288940e-01
1.164929747581481934e+00,1.685703516006469727e+00,-3.576646745204925537e-02
1.166342496871948242e+00,1.687747836112976074e+00,3.580984473228454590e-02
1.167816996574401855e+00,1.689881443977355957e+00,1.076528131961822510e-01
1.169175028800964355e+00,1.691846609115600586e+00,1.799227744340896606e-01
1.170609712600708008e+00,1.693922638893127441e+00,2.528195977210998535e-01
1.172184109687805176e+00,1.696200847625732422e+00,3.265601396560668945e-01
1.173691987991333008e+00,1.698382854461669922e+00,4.012926816940307617e-01
1.175053596496582031e+00,1.700353145599365234e+00,4.771738052368164062e-01
1.120751023292541504e+00,1.672457098960876465e+00,-5.394492149353027344e-01
1.122131705284118652e+00,1.674517393112182617e+00,-4.653683900833129883e-01
1.123587012290954590e+00,1.676689147949218750e+00,-3.923267722129821777e-01
1.124957799911499023e+00,1.678734779357910156e+00,-3.200646638870239258e-01
1.126297950744628906e+00,1.680734515190124512e+00,-2.484196871519088745e-01
1.127710819244384766e+00,1.682842969894409180e+00,-1.772305220365524292e-01
1.129096031188964844e+00,1.684910058975219727e+00,-1.062956899404525757e-01
1.130471348762512207e+00,1.686962485313415527e+00,-3.544622659683227539e-02
1.131840348243713379e+00,1.689005255699157715e+00,3.548915311694145203e-02
1.133192420005798340e+00,1.691022992134094238e+00,1.066813245415687561e-01
1.134631514549255371e+00,1.693170547485351562e+00,1.783181875944137573e-01
1.136068820953369141e+00,1.695315241813659668e+00,2.505747973918914795e-01
1.137448072433471680e+00,1.697373509407043457e+00,3.236183226108551025e-01
1.138943195343017578e+00,1.699604511260986328e+00,3.976887464523315430e-01
1.140309214591979980e+00,1.701643109321594238e+00,4.729069769382476807e-01
1.087171673774719238e+00,1.673657536506652832e+00,-5.347623825073242188e-01
1.088686943054199219e+00,1.675990104675292969e+00,-4.613997638225555420e-01
1.089903593063354492e+00,1.677863121032714844e+00,-3.889113664627075195e-01
1.091357111930847168e+00,1.680100798606872559e+00,-3.173143267631530762e-01
1.092727422714233398e+00,1.682210206985473633e+00,-2.463008165359497070e-01
1.094001054763793945e+00,1.684170961380004883e+00,-1.757032424211502075e-01
1.095350623130798340e+00,1.686248540878295898e+00,-1.053802371025085449e-01
1.096684098243713379e+00,1.688301444053649902e+00,-3.514093533158302307e-02
1.098007559776306152e+00,1.690338969230651855e+00,3.518334403634071350e-02
1.099415063858032227e+00,1.692505598068237305e+00,1.057712659239768982e-01
1.100744009017944336e+00,1.694551587104797363e+00,1.767862141132354736e-01
1.102009654045104980e+00,1.696499943733215332e+00,2.483930438756942749e-01
1.103546023368835449e+00,1.698865175247192383e+00,3.208582699298858643e-01
1.104820132255554199e+00,1.700826644897460938e+00,3.942340612411499023e-01
1.106169223785400391e+00,1.702903389930725098e+00,4.688089787960052490e-01
1.054404020309448242e+00,1.675218582153320312e+00,-5.303846001625061035e-01
1.055661320686340332e+00,1.677216172218322754e+00,-4.575306177139282227e-01
1.056997179985046387e+00,1.679338574409484863e+00,-3.857070207595825195e-01
1.058386087417602539e+00,1.681545138359069824e+00,-3.146936893463134766e-01
1.059702754020690918e+00,1.683637142181396484e+00,-2.442638874053955078e-01
1.060988545417785645e+00,1.685680031776428223e+00,-1.742584854364395142e-01
1.062269806861877441e+00,1.687715530395507812e+00,-1.045110076665878296e-01
1.063563108444213867e+00,1.689770340919494629e+00,-3.485107421875000000e-02
1.064872860908508301e+00,1.691851258277893066e+00,3.489399328827857971e-02
1.066188931465148926e+00,1.693942308425903320e+00,1.048965975642204285e-01
1.067489266395568848e+00,1.696008086204528809e+00,1.753261685371398926e-01
1.068738698959350586e+00,1.697993278503417969e+00,2.463466972112655640e-01
1.070070385932922363e+00,1.700109004974365234e+00,3.181678652763366699e-01
1.071521162986755371e+00,1.702413916587829590e+00,3.910069167613983154e-01
1.072863340377807617e+00,1.704546451568603516e+00,4.649860560894012451e-01
1.022197008132934570e+00,1.676812052726745605e+00,-5.262029170989990234e-01
1.023402452468872070e+00,1.678789615631103516e+00,-4.539173543453216553e-01
1.024684906005859375e+00,1.680893182754516602e+00,-3.826562464237213135e-01
1.026021122932434082e+00,1.683085083961486816e+00,-3.122015297412872314e-01
1.027293205261230469e+00,1.685171842575073242e+00,-2.423284500837326050e-01
1.028542160987854004e+00,1.687220811843872070e+00,-1.728781610727310181e-01
1.029793500900268555e+00,1.689273357391357422e+00,-1.036840900778770447e-01
1.031048297882080078e+00,1.691331744194030762e+00,-3.457536175847053528e-02
1.032308459281921387e+00,1.693399071693420410e+00,3.461762145161628723e-02
1.033581614494323730e+00,1.695487499237060547e+00,1.040655001997947693e-01
1.034845829010009766e+00,1.697561264038085938e+00,1.739376783370971680e-01
1.036068081855773926e+00,1.699566245079040527e+00,2.443983554840087891e-01
1.037372231483459473e+00,1.701705574989318848e+00,3.156554996967315674e-01
1.038790464401245117e+00,1.704031944274902344e+00,3.879238069057464600e-01
1.040107846260070801e+00,1.706193089485168457e+00,4.613268375396728516e-01
9.902611970901489258e-01,1.677997708320617676e+00,-5.220735073089599609e-01
9.915999174118041992e-01,1.680266141891479492e+00,-4.504328370094299316e-01
9.928224682807922363e-01,1.682337760925292969e+00,-3.797111511230468750e-01
9.939921498298645020e-01,1.684319853782653809e+00,-3.097597360610961914e-01
9.952324628829956055e-01,1.686421513557434082e+00,-2.404350489377975464e-01
9.964523911476135254e-01,1.688488721847534180e+00,-1.715291142463684082e-01
9.976923465728759766e-01,1.690589904785156250e+00,-1.028778553009033203e-01
9.989076852798461914e-01,1.692649245262145996e+00,-3.430649265646934509e-02
1.000101685523986816e+00,1.694672584533691406e+00,3.434750065207481384e-02
1.001324057579040527e+00,1.696743726730346680e+00,1.032523438334465027e-01
1.002541542053222656e+00,1.698806762695312500e+00,1.725772917270660400e-01
1.003852009773254395e+00,1.701027274131774902e+00,2.425174117088317871e-01
1.005136370658874512e+00,1.703203797340393066e+00,3.132326304912567139e-01
1.006336569786071777e+00,1.705237388610839844e+00,3.848796784877777100e-01
1.007600545883178711e+00,1.707379221916198730e+00,4.577011168003082275e-01
9.587064385414123535e-01,1.678972721099853516e+00,-5.180543661117553711e-01
9.600610733032226562e-01,1.681345105171203613e+00,-4.469924867153167725e-01
9.611579179763793945e-01,1.683265924453735352e+00,-3.767769038677215576e-01
9.624369144439697266e-01,1.685505867004394531e+00,-3.074128627777099609e-01
9.635677933692932129e-01,1.687486290931701660e+00,-2.385960817337036133e-01
9.647590517997741699e-01,1.689572572708129883e+00,-1.702189445495605469e-01
9.659354090690612793e-01,1.691632747650146484e+00,-1.020895093679428101e-01
9.671116471290588379e-01,1.693692564964294434e+00,-3.404359146952629089e-02
9.682916402816772461e-01,1.695759057998657227e+00,3.408512845635414124e-02
9.694672226905822754e-01,1.697817921638488770e+00,1.024627834558486938e-01
9.707164764404296875e-01,1.700005769729614258e+00,1.712700575590133667e-01
9.718374609947204590e-01,1.701968908309936523e+00,2.406437844038009644e-01
9.731690287590026855e-01,1.704300880432128906e+00,3.108408153057098389e-01
9.742723703384399414e-01,1.706233143806457520e+00,3.819178044795989990e-01
9.756267666816711426e-01,1.708605170249938965e+00,4.542396664619445801e-01
9.279655814170837402e-01,1.680545210838317871e+00,-5.143885612487792969e-01
9.291175603866577148e-01,1.682631373405456543e+00,-4.437534213066101074e-01
9.303198456764221191e-01,1.684808850288391113e+00,-3.741033077239990234e-01
9.314539432525634766e-01,1.686862707138061523e+00,-3.051974475383758545e-01
9.326371550559997559e-01,1.689005374908447266e+00,-2.368991225957870483e-01
9.337801337242126465e-01,1.691075325012207031e+00,-1.690064966678619385e-01
9.348919987678527832e-01,1.693089008331298828e+00,-1.013594418764114380e-01
9.360312819480895996e-01,1.695152163505554199e+00,-3.380016610026359558e-02
9.372002482414245605e-01,1.697269201278686523e+00,3.384237736463546753e-02
9.383472204208374023e-01,1.699346423149108887e+00,1.017340496182441711e-01
9.394667148590087891e-01,1.701373696327209473e+00,1.700357198715209961e-01
9.406569600105285645e-01,1.703529238700866699e+00,2.389362305402755737e-01
9.418021440505981445e-01,1.705603241920471191e+00,3.085880875587463379e-01
9.430322051048278809e-01,1.707830905914306641e+00,3.792152404785156250e-01
9.441525340080261230e-01,1.709859728813171387e+00,4.509342610836029053e-01
8.975092768669128418e-01,1.681831121444702148e+00,-5.107977390289306641e-01
8.986262083053588867e-01,1.683924198150634766e+00,-4.406570792198181152e-01
8.997922539710998535e-01,1.686109185218811035e+00,-3.714942634105682373e-01
9.008893370628356934e-01,1.688165068626403809e+00,-3.030690252780914307e-01
9.019615650177001953e-01,1.690174221992492676e+00,-2.352281957864761353e-01
9.030896425247192383e-01,1.692288160324096680e+00,-1.678186506032943726e-01
9.041972756385803223e-01,1.694363713264465332e+00,-1.006506383419036865e-01
9.052985906600952148e-01,1.696427464485168457e+00,-3.356378525495529175e-02
9.063972234725952148e-01,1.698486089706420898e+00,3.360451385378837585e-02
9.074839949607849121e-01,1.700522661209106445e+00,1.010165065526962280e-01
9.086390733718872070e-01,1.702687144279479980e+00,1.688498854637145996e-01
9.097891449928283691e-01,1.704842329025268555e+00,2.372696101665496826e-01
9.108951687812805176e-01,1.706914782524108887e+00,3.064350783824920654e-01
9.120820760726928711e-01,1.709138989448547363e+00,3.765683174133300781e-01
9.131618142127990723e-01,1.711162328720092773e+00,4.477848708629608154e-01
8.673492670059204102e-01,1.682867050170898438e+00,-5.072898268699645996e-01
8.684428334236145020e-01,1.684988856315612793e+00,-4.376379847526550293e-01
8.695830702781677246e-01,1.687201142311096191e+00,-3.689546883106231689e-01
8.706511855125427246e-01,1.689273476600646973e+00,-3.009999394416809082e-01
8.716916441917419434e-01,1.691292285919189453e+00,-2.336234003305435181e-01
8.727794289588928223e-01,1.693402767181396484e+00,-1.666732728481292725e-01
8.738424777984619141e-01,1.695465445518493652e+00,-9.996285289525985718e-02
8.749073147773742676e-01,1.697531461715698242e+00,-3.333444520831108093e-02
8.759763240814208984e-01,1.699605703353881836e+00,3.337517380714416504e-02
8.770278096199035645e-01,1.701645731925964355e+00,1.003272309899330139e-01
8.781406879425048828e-01,1.703805088996887207e+00,1.676971167325973511e-01
8.792452216148376465e-01,1.705948114395141602e+00,2.356478571891784668e-01
8.802992701530456543e-01,1.707993149757385254e+00,3.043354451656341553e-01
8.814322948455810547e-01,1.710191488265991211e+00,3.739821910858154297e-01
8.826604485511779785e-01,1.712574362754821777e+00,4.448027312755584717e-01
8.378246426582336426e-01,1.684351444244384766e+00,-5.040706992149353027e-01
8.388913273811340332e-01,1.686495900154113770e+00,-4.348662197589874268e-01
8.398760557174682617e-01,1.688475489616394043e+00,-3.665669858455657959e-01
8.409315347671508789e-01,1.690597414970397949e+00,-2.990604639053344727e-01
8.419506549835205078e-01,1.692646265029907227e+00,-2.321219742298126221e-01
