-2.507704198360443115e-01,-2.587673425674438477e+00,4.537954181432723999e-02
-2.510573267936706543e-01,-2.590633869171142578e+00,1.364052146673202515e-01
-2.513656914234161377e-01,-2.593816041946411133e+00,2.279922664165496826e-01
-2.516671717166900635e-01,-2.596926927566528320e+00,3.203558325767517090e-01
-2.520231306552886963e-01,-2.600600004196166992e+00,4.138236045837402344e-01
-2.523720860481262207e-01,-2.604200839996337891e+00,5.085760354995727539e-01
-2.526959478855133057e-01,-2.607542753219604492e+00,6.048179864883422852e-01
-2.093881368637084961e-01,-2.538599967956542969e+00,-6.825246810913085938e-01
-2.096435278654098511e-01,-2.541696310043334961e+00,-5.887885689735412598e-01
-2.098820507526397705e-01,-2.544588088989257812e+00,-4.962967038154602051e-01
-2.101562768220901489e-01,-2.547912836074829102e+00,-4.049195349216461182e-01
-2.104166001081466675e-01,-2.551069021224975586e+00,-3.142951130867004395e-01
-2.106710970401763916e-01,-2.554154396057128906e+00,-2.242180556058883667e-01
-2.109254598617553711e-01,-2.557238340377807617e+00,-1.344740986824035645e-01
-2.111828923225402832e-01,-2.560359477996826172e+00,-4.484293982386589050e-02
-2.114440202713012695e-01,-2.563525438308715820e+00,4.489838704466819763e-02
-2.117069214582443237e-01,-2.566712617874145508e+00,1.349723041057586670e-01
-2.119671851396560669e-01,-2.569868087768554688e+00,2.255974858999252319e-01
-2.122178673744201660e-01,-2.572907447814941406e+00,3.169856369495391846e-01
-2.125105559825897217e-01,-2.576455831527709961e+00,4.094556570053100586e-01
-2.127935737371444702e-01,-2.579887151718139648e+00,5.031814575195312500e-01
-2.130519747734069824e-01,-2.583019971847534180e+00,5.983612537384033203e-01
-1.714412122964859009e-01,-2.517939805984497070e+00,-6.762409806251525879e-01
-1.716581583023071289e-01,-2.521126031875610352e+00,-5.833945274353027344e-01
-1.718585342168807983e-01,-2.524068832397460938e+00,-4.917644858360290527e-01
-1.720535606145858765e-01,-2.526933193206787109e+00,-4.011529386043548584e-01
-1.722748875617980957e-01,-2.530183792114257812e+00,-3.113863170146942139e-01
-1.724887937307357788e-01,-2.533325433731079102e+00,-2.221500873565673828e-01
-1.726998388767242432e-01,-2.536425113677978516e+00,-1.332359760999679565e-01
-1.729106158018112183e-01,-2.539520740509033203e+00,-4.443006590008735657e-02
-1.731216162443161011e-01,-2.542619705200195312e+00,4.448428377509117126e-02
-1.733312904834747314e-01,-2.545699357986450195e+00,1.337231397628784180e-01
-1.735361069440841675e-01,-2.548707246780395508e+00,2.234989255666732788e-01
-1.737711727619171143e-01,-2.552159786224365234e+00,3.140908777713775635e-01
-1.740056872367858887e-01,-2.555603981018066406e+00,4.057044386863708496e-01
-1.742294728755950928e-01,-2.558890581130981445e+00,4.985488057136535645e-01
-1.744304597377777100e-01,-2.561842679977416992e+00,5.928164124488830566e-01
-1.340707093477249146e-01,-2.495635271072387695e+00,-6.696666479110717773e-01
-1.342101246118545532e-01,-2.498230218887329102e+00,-5.775927305221557617e-01
-1.344101279973983765e-01,-2.501953363418579102e+00,-4.870310127735137939e-01
-1.345655024051666260e-01,-2.504845380783081055e+00,-3.973000347614288330e-01
-1.347388923168182373e-01,-2.508073091506958008e+00,-3.083962500095367432e-01
-1.348933577537536621e-01,-2.510948181152343750e+00,-2.199959605932235718e-01
-1.350608468055725098e-01,-2.514065980911254883e+00,-1.319463998079299927e-01
-1.352256834506988525e-01,-2.517134189605712891e+00,-4.400003328919410706e-02
-1.353882551193237305e-01,-2.520160436630249023e+00,4.405293241143226624e-02
-1.355651468038558960e-01,-2.523453235626220703e+00,1.324390769004821777e-01
-1.357250064611434937e-01,-2.526428937911987305e+00,2.213522940874099731e-01
-1.359059810638427734e-01,-2.529797554016113281e+00,3.110675215721130371e-01
-1.360455304384231567e-01,-2.532395124435424805e+00,4.016697704792022705e-01
-1.362511813640594482e-01,-2.536223411560058594e+00,4.937020242214202881e-01
-1.363982856273651123e-01,-2.538961648941040039e+00,5.870098471641540527e-01
-9.751024097204208374e-02,-2.476240634918212891e+00,-6.640199422836303711e-01
-9.761666506528854370e-02,-2.478943347930908203e+00,-5.727518796920776367e-01
-9.774257242679595947e-02,-2.482140779495239258e+00,-4.828524887561798096e-01
-9.787986427545547485e-02,-2.485627174377441406e+00,-3.939891755580902100e-01
-9.799305349588394165e-02,-2.488501548767089844e+00,-3.057859241962432861e-01
-9.811643511056900024e-02,-2.491634845733642578e+00,-2.181584239006042480e-01
-9.823217988014221191e-02,-2.494574069976806641e+00,-1.308362185955047607e-01
-9.835205972194671631e-02,-2.497618436813354492e+00,-4.362981393933296204e-02
-9.847640991210937500e-02,-2.500776290893554688e+00,4.368497803807258606e-02
-9.859395772218704224e-02,-2.503761291503906250e+00,1.313180774450302124e-01
-9.872326999902725220e-02,-2.507045269012451172e+00,2.195076942443847656e-01
-9.883035719394683838e-02,-2.509764671325683594e+00,3.083987236022949219e-01
-9.895162284374237061e-02,-2.512844085693359375e+00,3.983032703399658203e-01
-9.909609705209732056e-02,-2.516513109207153320e+00,4.895389676094055176e-01
-9.923381358385086060e-02,-2.520010232925415039e+00,5.822402238845825195e-01
-6.150778010487556458e-02,-2.455326318740844727e+00,-6.581080555915832520e-01
-6.157882884144783020e-02,-2.458162307739257812e+00,-5.676887035369873047e-01
-6.166090816259384155e-02,-2.461438894271850586e+00,-4.786046445369720459e-01
-6.173782795667648315e-02,-2.464509487152099609e+00,-3.904618322849273682e-01
-6.181274354457855225e-02,-2.467499971389770508e+00,-3.030655086040496826e-01
-6.189285218715667725e-02,-2.470697879791259766e+00,-2.162255495786666870e-01
-6.196706742048263550e-02,-2.473660469055175781e+00,-1.296795308589935303e-01
-6.204269081354141235e-02,-2.476679325103759766e+00,-4.324409738183021545e-02
-6.211992353200912476e-02,-2.479762315750122070e+00,4.329792782664299011e-02
-6.219178810715675354e-02,-2.482631206512451172e+00,1.301498115062713623e-01
-6.226980313658714294e-02,-2.485745429992675781e+00,2.175424546003341675e-01
-6.234713271260261536e-02,-2.488832235336303711e+00,3.056855797767639160e-01
-6.242094561457633972e-02,-2.491778850555419922e+00,3.947822153568267822e-01
-6.250811368227005005e-02,-2.495258331298828125e+00,4.851805269718170166e-01
-6.258988380432128906e-02,-2.498522758483886719e+00,5.770094990730285645e-01
-2.613682299852371216e-02,-2.435081958770751953e+00,-6.525148153305053711e-01
-2.616872265934944153e-02,-2.438053846359252930e+00,-5.629006624221801758e-01
-2.620477788150310516e-02,-2.441412925720214844e+00,-4.745892286300659180e-01
-2.623815089464187622e-02,-2.444522380828857422e+00,-3.871960043907165527e-01
-2.627016417682170868e-02,-2.447504758834838867e+00,-3.005326390266418457e-01
-2.630183473229408264e-02,-2.450455427169799805e+00,-2.143990993499755859e-01
-2.633388526737689972e-02,-2.453441381454467773e+00,-1.285866349935531616e-01
-2.636602334678173065e-02,-2.456435680389404297e+00,-4.287965223193168640e-02
-2.639832906424999237e-02,-2.459445476531982422e+00,4.293219000101089478e-02
-2.643125690519809723e-02,-2.462513208389282227e+00,1.290620863437652588e-01
-2.646424248814582825e-02,-2.465586423873901367e+00,2.157229632139205933e-01
-2.649640850722789764e-02,-2.468583345413208008e+00,3.031209111213684082e-01
-2.652659080922603607e-02,-2.471395254135131836e+00,3.914525210857391357e-01
-2.656189352273941040e-02,-2.474684238433837891e+00,4.810568690299987793e-01
-2.659442462027072906e-02,-2.477715253829956055e+00,5.720576643943786621e-01
8.642302826046943665e-03,-2.414413452148437500e+00,-6.469432711601257324e-01
8.653120137751102448e-03,-2.417435407638549805e+00,-5.581116676330566406e-01
8.663145825266838074e-03,-2.420236349105834961e+00,-4.704486131668090820e-01
8.674481883645057678e-03,-2.423403263092041016e+00,-3.838312327861785889e-01
8.684079162776470184e-03,-2.426084518432617188e+00,-2.978871762752532959e-01
8.694918826222419739e-03,-2.429112672805786133e+00,-2.125208824872970581e-01
8.705697953701019287e-03,-2.432124137878417969e+00,-1.274628490209579468e-01
8.716321550309658051e-03,-2.435092210769653320e+00,-4.250489920377731323e-02
8.726817555725574493e-03,-2.438024520874023438e+00,4.255608469247817993e-02
8.737330324947834015e-03,-2.440961360931396484e+00,1.279259920120239258e-01
8.749226108193397522e-03,-2.444284677505493164e+00,2.138482481241226196e-01
8.759556338191032410e-03,-2.447170734405517578e+00,3.004762530326843262e-01
8.771453984081745148e-03,-2.450494527816772461e+00,3.881220817565917969e-01
8.782854303717613220e-03,-2.453679561614990234e+00,4.769493341445922852e-01
8.793151006102561951e-03,-2.456556081771850586e+00,5.671433806419372559e-01
4.286343976855278015e-02,-2.395429849624633789e+00,-6.419552564620971680e-01
4.292006790637969971e-02,-2.398594617843627930e+00,-5.538470149040222168e-01
4.297196865081787109e-02,-2.401494979858398438e+00,-4.668773710727691650e-01
4.302188381552696228e-02,-2.404284715652465820e+00,-3.808616697788238525e-01
4.307749494910240173e-02,-2.407392263412475586e+00,-2.956374883651733398e-01
4.313080385327339172e-02,-2.410371780395507812e+00,-2.109136432409286499e-01
4.318294301629066467e-02,-2.413285493850708008e+00,-1.264949887990951538e-01
4.323564842343330383e-02,-2.416230916976928711e+00,-4.218215495347976685e-02
4.328903928399085999e-02,-2.419214725494384766e+00,4.223424568772315979e-02
4.334165155887603760e-02,-2.422154664993286133e+00,1.269598901271820068e-01
4.339258745312690735e-02,-2.425001382827758789e+00,2.121937870979309082e-01
4.345019161701202393e-02,-2.428220510482788086e+00,2.981952726840972900e-01
4.350700974464416504e-02,-2.431396007537841797e+00,3.851563632488250732e-01
4.356053471565246582e-02,-2.434387207031250000e+00,4.732719361782073975e-01
4.360779747366905212e-02,-2.437028408050537109e+00,5.627215504646301270e-01
7.652276009321212769e-02,-2.375336170196533203e+00,-6.367986202239990234e-01
7.663009315729141235e-02,-2.378667831420898438e+00,-5.494427680969238281e-01
7.672742754220962524e-02,-2.381689071655273438e+00,-4.631929397583007812e-01
7.681956142187118530e-02,-2.384549140930175781e+00,-3.778708279132843018e-01
7.691048830747604370e-02,-2.387371540069580078e+00,-2.932839989662170410e-01
7.700899988412857056e-02,-2.390429258346557617e+00,-2.092436552047729492e-01
7.710379362106323242e-02,-2.393371820449829102e+00,-1.254961788654327393e-01
7.719788700342178345e-02,-2.396292686462402344e+00,-4.184908047318458557e-02
7.729152590036392212e-02,-2.399199247360229492e+00,4.189984127879142761e-02
7.738210260868072510e-02,-2.402010679244995117e+00,1.259491741657257080e-01
7.748148590326309204e-02,-2.405095577239990234e+00,2.105274498462677002e-01
7.758130133152008057e-02,-2.408194065093994141e+00,2.958420217037200928e-01
7.767802476882934570e-02,-2.411196470260620117e+00,3.820935487747192383e-01
7.776726037263870239e-02,-2.413966417312622070e+00,4.694702327251434326e-01
7.787169516086578369e-02,-2.417208194732666016e+00,5.583451390266418457e-01
1.138115674257278442e-01,-2.444906711578369141e+00,-6.558191776275634766e-01
1.139772683382034302e-01,-2.448466062545776367e+00,-5.658842325210571289e-01
1.141600906848907471e-01,-2.452393531799316406e+00,-4.772124886512756348e-01
1.143328323960304260e-01,-2.456104278564453125e+00,-3.894293904304504395e-01
1.145012751221656799e-01,-2.459722995758056641e+00,-3.023425936698913574e-01
1.146699562668800354e-01,-2.463346481323242188e+00,-2.157479524612426758e-01
1.148435771465301514e-01,-2.467076301574707031e+00,-1.294338107109069824e-01
1.150149703025817871e-01,-2.470758199691772461e+00,-4.317387938499450684e-02
1.151819825172424316e-01,-2.474345922470092773e+00,4.323657602071762085e-02
1.153574809432029724e-01,-2.478116035461425781e+00,1.300130039453506470e-01
1.155349761247634888e-01,-2.481929063796997070e+00,2.173754721879959106e-01
1.157106012105941772e-01,-2.485701799392700195e+00,3.055358529090881348e-01
1.158791780471801758e-01,-2.489323139190673828e+00,3.946964144706726074e-01
1.160717085003852844e-01,-2.493458986282348633e+00,4.852034449577331543e-01
1.162532567977905273e-01,-2.497359037399291992e+00,5.771842598915100098e-01
1.540045142173767090e-01,-2.528622150421142578e+00,-6.787967085838317871e-01
1.542433053255081177e-01,-2.532542943954467773e+00,-5.857660770416259766e-01
1.545016020536422729e-01,-2.536783933639526367e+00,-4.940137863159179688e-01
1.547429263591766357e-01,-2.540746212005615234e+00,-4.031597375869750977e-01
1.549750119447708130e-01,-2.544556856155395508e+00,-3.130107522010803223e-01
1.552038043737411499e-01,-2.548313379287719727e+00,-2.233613282442092896e-01
1.554335504770278931e-01,-2.552085638046264648e+00,-1.339967846870422363e-01
1.556666344404220581e-01,-2.555912733078002930e+00,-4.469622299075126648e-02
1.559034734964370728e-01,-2.559801578521728516e+00,4.476422816514968872e-02
1.561427265405654907e-01,-2.563729763031005859e+00,1.346081495285034180e-01
1.563810408115386963e-01,-2.567642688751220703e+00,2.250555306673049927e-01
1.566133052110671997e-01,-2.571456193923950195e+00,3.163197040557861328e-01
1.568326205015182495e-01,-2.575057268142700195e+00,4.086041450500488281e-01
1.570806056261062622e-01,-2.579128980636596680e+00,5.022600889205932617e-01
1.573677510023117065e-01,-2.583843469619750977e+00,5.976316928863525391e-01
1.970496624708175659e-01,-2.617431163787841797e+00,-7.033221721649169922e-01
1.973654031753540039e-01,-2.621625185012817383e+00,-6.069616675376892090e-01
1.976606398820877075e-01,-2.625546932220458984e+00,-5.117980241775512695e-01
1.979481279850006104e-01,-2.629365444183349609e+00,-4.176284372806549072e-01
1.982599049806594849e-01,-2.633507013320922852e+00,-3.242685496807098389e-01
1.985631734132766724e-01,-2.637535333633422852e+00,-2.314070910215377808e-01
1.988631486892700195e-01,-2.641520023345947266e+00,-1.388277411460876465e-01
1.991628259420394897e-01,-2.645500421524047852e+00,-4.630798846483230591e-02
1.994627267122268677e-01,-2.649484395980834961e+00,4.637772217392921448e-02
1.997611224651336670e-01,-2.653447866439819336e+00,1.394546180963516235e-01
2.000538855791091919e-01,-2.657336711883544922e+00,2.331443727016448975e-01
2.003801017999649048e-01,-2.661669731140136719e+00,3.277362585067749023e-01
2.007040530443191528e-01,-2.665972948074340820e+00,4.234428703784942627e-01
2.010141164064407349e-01,-2.670091390609741211e+00,5.204811096191406250e-01
2.012965381145477295e-01,-2.673842906951904297e+00,6.190511584281921387e-01
2.430816590785980225e-01,-2.710130214691162109e+00,-7.290912270545959473e-01
2.434949427843093872e-01,-2.714738130569458008e+00,-6.292617321014404297e-01
2.438778132200241089e-01,-2.719006538391113281e+00,-5.306422710418701172e-01
2.442455440759658813e-01,-2.723106384277343750e+00,-4.330284595489501953e-01
2.446372807025909424e-01,-2.727473974227905273e+00,-3.362355828285217285e-01
2.449980676174163818e-01,-2.731496334075927734e+00,-2.399339675903320312e-01
2.453757077455520630e-01,-2.735706806182861328e+00,-1.439476609230041504e-01
2.457473725080490112e-01,-2.739850521087646484e+00,-4.801618307828903198e-02
2.461137324571609497e-01,-2.743934869766235352e+00,4.808776453137397766e-02
2.465050369501113892e-01,-2.748297691345214844e+00,1.446101665496826172e-01
2.468630522489547729e-01,-2.752289295196533203e+00,2.417604029178619385e-01
2.472563534975051880e-01,-2.756674289703369141e+00,3.398353159427642822e-01
2.476412206888198853e-01,-2.760964870452880859e+00,4.390487074851989746e-01
2.480035573244094849e-01,-2.765004634857177734e+00,5.396192669868469238e-01
2.484153509140014648e-01,-2.769595861434936523e+00,6.419774889945983887e-01
2.933963835239410400e-01,-2.817302703857421875e+00,-7.589752674102783203e-01
2.939151227474212646e-01,-2.822283983230590820e+00,-6.550983190536499023e-01
2.943310737609863281e-01,-2.826278209686279297e+00,-5.523430109024047852e-01
2.947935461997985840e-01,-2.830718994140625000e+00,-4.507658183574676514e-01
2.952456176280975342e-01,-2.835059881210327148e+00,-3.499836027622222900e-01
2.957163751125335693e-01,-2.839580297470092773e+00,-2.497742325067520142e-01
2.961646318435668945e-01,-2.843884468078613281e+00,-1.498474776744842529e-01
2.966158390045166016e-01,-2.848217248916625977e+00,-4.998461157083511353e-02
2.970781028270721436e-01,-2.852656126022338867e+00,5.006250739097595215e-02
2.975132167339324951e-01,-2.856834173202514648e+00,1.505298018455505371e-01
2.979787588119506836e-01,-2.861304521560668945e+00,2.516851425170898438e-01
2.984401881694793701e-01,-2.865735054016113281e+00,3.537704050540924072e-01
2.989643812179565430e-01,-2.870768785476684570e+00,4.571433663368225098e-01
2.993870377540588379e-01,-2.874827384948730469e+00,5.618310570716857910e-01
2.998613715171813965e-01,-2.879381895065307617e+00,6.683517098426818848e-01
3.477107286453247070e-01,-2.931023359298706055e+00,-7.908712029457092285e-01
3.482657074928283691e-01,-2.935701608657836914e+00,-6.825115680694580078e-01
3.487908840179443359e-01,-2.940128326416015625e+00,-5.755096077919006348e-01
3.493614494800567627e-01,-2.944938182830810547e+00,-4.697023332118988037e-01
3.499109745025634766e-01,-2.949570178985595703e+00,-3.647006452083587646e-01
3.504529297351837158e-01,-2.954138755798339844e+00,-2.602655589580535889e-01
3.509966731071472168e-01,-2.958722114562988281e+00,-1.561471074819564819e-01
3.515347540378570557e-01,-2.963258028030395508e+00,-5.208647623658180237e-02
3.520769476890563965e-01,-2.967828273773193359e+00,5.216681212186813354e-02
3.526241779327392578e-01,-2.972441196441650391e+00,1.568711400032043457e-01
3.531690239906311035e-01,-2.977033853530883789e+00,2.622826695442199707e-01
3.536999523639678955e-01,-2.981509447097778320e+00,3.686497807502746582e-01
3.542956709861755371e-01,-2.986531019210815430e+00,4.763361811637878418e-01
3.548733294010162354e-01,-2.991400480270385742e+00,5.855457782745361328e-01
3.554082810878753662e-01,-2.995909690856933594e+00,6.965091824531555176e-01
4.077439010143280029e-01,-3.061812400817871094e+00,-8.276516795158386230e-01
4.084304571151733398e-01,-3.066967964172363281e+00,-7.143152356147766113e-01
4.090708792209625244e-01,-3.071777105331420898e+00,-6.023633480072021484e-01
4.096912145614624023e-01,-3.076435089111328125e+00,-4.915603697299957275e-01
4.103552103042602539e-01,-3.081421136856079102e+00,-3.816905617713928223e-01
4.109990000724792480e-01,-3.086255550384521484e+00,-2.723957002162933350e-01
4.116334319114685059e-01,-3.091019630432128906e+00,-1.634233593940734863e-01
4.122796654701232910e-01,-3.095872163772583008e+00,-5.451563745737075806e-02
4.129281044006347656e-01,-3.100741624832153320e+00,5.460138246417045593e-02
4.135709106922149658e-01,-3.105568408966064453e+00,1.641925573348999023e-01
4.141995012760162354e-01,-3.110288858413696289e+00,2.745169103145599365e-01
4.148918390274047852e-01,-3.115487575531005859e+00,3.859103024005889893e-01
4.155754148960113525e-01,-3.120620727539062500e+00,4.986204504966735840e-01
4.162263274192810059e-01,-3.125508546829223633e+00,6.128998398780822754e-01
4.169612824916839600e-01,-3.131027221679687500e+00,7.292350530624389648e-01
4.715470075607299805e-01,-3.191176652908325195e+00,-8.643565773963928223e-01
4.722664058208465576e-01,-3.196045160293579102e+00,-7.458760738372802734e-01
4.730519950389862061e-01,-3.201361417770385742e+00,-6.290376782417297363e-01
4.738025665283203125e-01,-3.206440925598144531e+00,-5.133640170097351074e-01
4.745907187461853027e-01,-3.211774587631225586e+00,-3.986378312110900879e-01
4.753166139125823975e-01,-3.216687202453613281e+00,-2.844790518283843994e-01
4.760680794715881348e-01,-3.221772670745849609e+00,-1.706791073083877563e-01
4.768209755420684814e-01,-3.226867914199829102e+00,-5.693670734763145447e-02
4.775638878345489502e-01,-3.231895685195922852e+00,5.702541768550872803e-02
4.783496558666229248e-01,-3.237213134765625000e+00,1.714970916509628296e-01
4.790669977664947510e-01,-3.242067813873291016e+00,2.867236733436584473e-01
4.798452854156494141e-01,-3.247334718704223633e+00,4.030514657497406006e-01
4.806012511253356934e-01,-3.252450942993164062e+00,5.207304358482360840e-01
4.814541339874267578e-01,-3.258222579956054688e+00,6.402103900909423828e-01
4.822650253772735596e-01,-3.263710498809814453e+00,7.616674304008483887e-01
5.425953865051269531e-01,-3.340634346008300781e+00,-9.068491458892822266e-01
5.434746146202087402e-01,-3.346047401428222656e+00,-7.826181054115295410e-01
5.443110466003417969e-01,-3.351197004318237305e+00,-6.599422097206115723e-01
5.452184677124023438e-01,-3.356783628463745117e+00,-5.386287569999694824e-01
5.460983514785766602e-01,-3.362201213836669922e+00,-4.182357490062713623e-01
5.470020174980163574e-01,-3.367764472961425781e+00,-2.985019683837890625e-01
5.478590726852416992e-01,-3.373041391372680664e+00,-1.790899187326431274e-01
5.487328767776489258e-01,-3.378421306610107422e+00,-5.974326655268669128e-02
5.496250987052917480e-01,-3.383914232254028320e+00,5.984040349721908569e-02
5.504601597785949707e-01,-3.389055728912353516e+00,1.799401789903640747e-01
5.513424277305603027e-01,-3.394487857818603516e+00,3.008705973625183105e-01
5.522086620330810547e-01,-3.399820804595947266e+00,4.229153692722320557e-01
5.531776547431945801e-01,-3.405786514282226562e+00,5.464918017387390137e-01
5.541220903396606445e-01,-3.411601305007934570e+00,6.718374490737915039e-01
5.550032258033752441e-01,-3.417026281356811523e+00,7.992195487022399902e-01
6.202626824378967285e-01,-3.501377820968627930e+00,-9.527970552444458008e-01
6.213282346725463867e-01,-3.507392644882202148e+00,-8.223515152931213379e-01
6.223273873329162598e-01,-3.513033151626586914e+00,-6.934952735900878906e-01
6.233001351356506348e-01,-3.518524169921875000e+00,-5.659552216529846191e-01
6.243398189544677734e-01,-3.524393081665039062e+00,-4.394779801368713379e-01
6.253548264503479004e-01,-3.530122995376586914e+00,-3.136538565158843994e-01
6.263616681098937988e-01,-3.535806655883789062e+00,-1.881885826587677002e-01
6.273697614669799805e-01,-3.541497230529785156e+00,-6.277943402528762817e-02
6.283808946609497070e-01,-3.547204971313476562e+00,6.288061290979385376e-02
6.293894648551940918e-01,-3.552898406982421875e+00,1.890982687473297119e-01
6.303824782371520996e-01,-3.558503866195678711e+00,3.161755204200744629e-01
6.314750313758850098e-01,-3.564671277999877930e+00,4.445005059242248535e-01
6.325582265853881836e-01,-3.570786237716674805e+00,5.743615627288818359e-01
6.335956454277038574e-01,-3.576642274856567383e+00,7.060521245002746582e-01
6.347586512565612793e-01,-3.583207607269287109e+00,8.401272296905517578e-01
7.079438567161560059e-01,-3.688199996948242188e+00,-1.006289601325988770e+00
7.092397212982177734e-01,-3.694951295852661133e+00,-8.686181306838989258e-01
7.103092074394226074e-01,-3.700522899627685547e+00,-7.324389815330505371e-01
7.115866541862487793e-01,-3.707178115844726562e+00,-5.978772640228271484e-01
7.127188444137573242e-01,-3.713076591491699219e+00,-4.642305970191955566e-01
7.138641476631164551e-01,-3.719043016433715820e+00,-3.313134610652923584e-01
7.150471210479736328e-01,-3.725206136703491211e+00,-1.987935006618499756e-01
7.162099480628967285e-01,-3.731264352798461914e+00,-6.631833314895629883e-02
7.173546552658081055e-01,-3.737227678298950195e+00,6.642432510852813721e-02
7.185652852058410645e-01,-3.743534803390502930e+00,1.997715979814529419e-01
7.198002338409423828e-01,-3.749968528747558594e+00,3.340684771537780762e-01
7.208816409111022949e-01,-3.755602598190307617e+00,4.695474505424499512e-01
7.222373485565185547e-01,-3.762665271759033203e+00,6.068260073661804199e-01
7.233658432960510254e-01,-3.768544435501098633e+00,7.459023594856262207e-01
7.246147990226745605e-01,-3.775051116943359375e+00,8.874481916427612305e-01
8.048908710479736328e-01,-3.891556501388549805e+00,-1.064807772636413574e+00
8.062776923179626465e-01,-3.898261785507202148e+00,-9.190317392349243164e-01
8.077435493469238281e-01,-3.905349016189575195e+00,-7.751888632774353027e-01
8.091272711753845215e-01,-3.912039041519165039e+00,-6.327193379402160645e-01
8.104693293571472168e-01,-3.918527841567993164e+00,-4.913173913955688477e-01
8.118013143539428711e-01,-3.924967765808105469e+00,-3.506576418876647949e-01
8.131452202796936035e-01,-3.931465625762939453e+00,-2.103999704122543335e-01
8.144824504852294922e-01,-3.937930822372436523e+00,-7.019157707691192627e-02
8.158411383628845215e-01,-3.944499969482421875e+00,7.030866295099258423e-02
8.172193765640258789e-01,-3.951163530349731445e+00,2.114541381597518921e-01
8.185995817184448242e-01,-3.957836866378784180e+00,3.535941541194915771e-01
8.199550509452819824e-01,-3.964390516281127930e+00,4.970677793025970459e-01
8.212495446205139160e-01,-3.970649003982543945e+00,6.421987414360046387e-01
8.226779103279113770e-01,-3.977555036544799805e+00,7.895213365554809570e-01
8.242832422256469727e-01,-3.985316514968872070e+00,9.395552873611450195e-01
8.685971498489379883e-01,-3.916125297546386719e+00,-1.074821949005126953e+00
9.141058325767517090e-01,-4.121304035186767578e+00,-9.745996594429016113e-01
9.158472418785095215e-01,-4.129155635833740234e+00,-8.221309781074523926e-01
9.173451662063598633e-01,-4.135908603668212891e+00,-6.709821820259094238e-01
9.189305305480957031e-01,-4.143056869506835938e+00,-5.210652947425842285e-01
9.204766154289245605e-01,-4.150027275085449219e+00,-3.719035089015960693e-01
9.220077395439147949e-01,-4.156930446624755859e+00,-2.231495529413223267e-01
9.235730171203613281e-01,-4.163987636566162109e+00,-7.444892078638076782e-02
9.251447916030883789e-01,-4.171073913574218750e+00,7.457562536001205444e-02
9.267100095748901367e-01,-4.178131103515625000e+00,2.242876291275024414e-01
9.282494783401489258e-01,-4.185071468353271484e+00,3.750439882278442383e-01
9.299276471138000488e-01,-4.192637920379638672e+00,5.273010134696960449e-01
9.313530921936035156e-01,-4.199064254760742188e+00,6.812281608581542969e-01
9.331716895103454590e-01,-4.207263469696044922e+00,8.376826047897338867e-01
9.349272251129150391e-01,-4.215178489685058594e+00,9.967989921569824219e-01
9.268366098403930664e-01,-3.912922143936157227e+00,-1.077473521232604980e+00
1.038641571998596191e+00,-4.384940624237060547e+00,-1.040353178977966309e+00
1.040323615074157715e+00,-4.392042160034179688e+00,-8.773476481437683105e-01
1.042144179344177246e+00,-4.399728298187255859e+00,-7.161290645599365234e-01
1.044027924537658691e+00,-4.407680511474609375e+00,-5.561690926551818848e-01
1.045784235000610352e+00,-4.415095806121826172e+00,-3.969582617282867432e-01
1.047583937644958496e+00,-4.422693729400634766e+00,-2.381966114044189453e-01
1.049389123916625977e+00,-4.430315017700195312e+00,-7.947106659412384033e-02
1.051166176795959473e+00,-4.437817096710205078e+00,7.960563898086547852e-02
1.053032636642456055e+00,-4.445697307586669922e+00,2.394355386495590210e-01
1.054749965667724609e+00,-4.452947139739990234e+00,4.003615081310272217e-01
1.056589603424072266e+00,-4.460713863372802734e+00,5.628609061241149902e-01
1.058636307716369629e+00,-4.469354629516601562e+00,7.274619340896606445e-01
1.060346841812133789e+00,-4.476576328277587891e+00,8.942340612411499023e-01
1.062215447425842285e+00,-4.484465122222900391e+00,1.063965916633605957e+00
9.803688526153564453e-01,-3.889835119247436523e+00,-1.074870109558105469e+00
1.165866971015930176e+00,-4.625840663909912109e+00,-1.101354479789733887e+00
1.180703997611999512e+00,-4.684710025787353516e+00,-9.390902519226074219e-01
1.182859659194946289e+00,-4.693263053894042969e+00,-7.665840387344360352e-01
1.184942364692687988e+00,-4.701526641845703125e+00,-5.953262448310852051e-01
1.186997771263122559e+00,-4.709681987762451172e+00,-4.249283671379089355e-01
1.189057588577270508e+00,-4.717854499816894531e+00,-2.549838423728942871e-01
1.191139936447143555e+00,-4.726116657257080078e+00,-8.507428318262100220e-02
1.193248629570007324e+00,-4.734483718872070312e+00,8.522488921880722046e-02
1.195372581481933594e+00,-4.742910861968994141e+00,2.563380599021911621e-01
1.197486877441406250e+00,-4.751299858093261719e+00,4.286833107471466064e-01
1.199552178382873535e+00,-4.759494304656982422e+00,6.026663184165954590e-01
1.201811313629150391e+00,-4.768457889556884766e+00,7.788661718368530273e-01
1.203996300697326660e+00,-4.777127265930175781e+00,9.576160907745361328e-01
1.206024050712585449e+00,-4.785172939300537109e+00,1.139289498329162598e+00
1.034519076347351074e+00,-3.870090961456298828e+00,-1.073395967483520508e+00
1.234065413475036621e+00,-4.616585254669189453e+00,-1.103243350982666016e+00
1.345726966857910156e+00,-5.034306526184082031e+00,-1.012927293777465820e+00
1.348135590553283691e+00,-5.043316841125488281e+00,-8.268279433250427246e-01
1.350639343261718750e+00,-5.052683353424072266e+00,-6.421732306480407715e-01
1.353007435798645020e+00,-5.061542034149169922e+00,-4.583750963211059570e-01
1.355448365211486816e+00,-5.070673465728759766e+00,-2.750729024410247803e-01
1.357867836952209473e+00,-5.079724788665771484e+00,-9.177999198436737061e-02
1.360269904136657715e+00,-5.088710784912109375e+00,9.194235503673553467e-02
1.362810254096984863e+00,-5.098214149475097656e+00,2.765669226646423340e-01
1.365180969238281250e+00,-5.107082843780517578e+00,4.624992907047271729e-01
1.367729544639587402e+00,-5.116616725921630859e+00,6.502988934516906738e-01
1.370225787162780762e+00,-5.125955104827880859e+00,8.403760790824890137e-01
1.372978925704956055e+00,-5.136254787445068359e+00,1.033439874649047852e+00
1.375611782073974609e+00,-5.146103858947753906e+00,1.229784488677978516e+00
1.093863487243652344e+00,-3.869255304336547852e+00,-1.077396512031555176e+00
1.302434325218200684e+00,-4.607020378112792969e+00,-1.105299472808837891e+00
1.535229682922363281e+00,-5.430472850799560547e+00,-1.096946954727172852e+00
1.538128614425659180e+00,-5.440727233886718750e+00,-8.954991698265075684e-01
1.540952324867248535e+00,-5.450715065002441406e+00,-6.954933404922485352e-01
1.543759346008300781e+00,-5.460644721984863281e+00,-4.964681863784790039e-01
1.546593904495239258e+00,-5.470670700073242188e+00,-2.979422211647033691e-01
1.549413919448852539e+00,-5.480645656585693359e+00,-9.941431879997253418e-02
1.552288055419921875e+00,-5.490812301635742188e+00,9.959873557090759277e-02
1.555203199386596680e+00,-5.501123905181884766e+00,2.996007800102233887e-01
1.558125853538513184e+00,-5.511462211608886719e+00,5.010883808135986328e-01
1.561004757881164551e+00,-5.521645545959472656e+00,7.045438289642333984e-01
1.563770771026611328e+00,-5.531429290771484375e+00,9.104280471801757812e-01
1.566774606704711914e+00,-5.542054653167724609e+00,1.119486331939697266e+00
1.570086002349853516e+00,-5.553768157958984375e+00,1.332439661026000977e+00
1.148896217346191406e+00,-3.852426052093505859e+00,-1.077179074287414551e+00
1.364157557487487793e+00,-4.574230194091796875e+00,-1.102004289627075195e+00
1.677399396896362305e+00,-5.624578475952148438e+00,-1.140889048576354980e+00
1.766811370849609375e+00,-5.924390792846679688e+00,-9.791682958602905273e-01
1.770263433456420898e+00,-5.935966014862060547e+00,-7.605649828910827637e-01
1.773633718490600586e+00,-5.947267055511474609e+00,-5.429632067680358887e-01
1.776968479156494141e+00,-5.958448886871337891e+00,-3.258593082427978516e-01
1.780371069908142090e+00,-5.969858646392822266e+00,-1.087393313646316528e-01
1.783766269683837891e+00,-5.981243133544921875e+00,1.089466959238052368e-01
1.787142038345336914e+00,-5.992562294006347656e+00,3.277249336242675781e-01
1.790461182594299316e+00,-6.003692150115966797e+00,5.481145977973937988e-01
1.794028639793395996e+00,-6.015654563903808594e+00,7.707753181457519531e-01
1.797542095184326172e+00,-6.027435779571533203e+00,9.961993098258972168e-01
1.800899267196655273e+00,-6.038692474365234375e+00,1.224887847900390625e+00
1.203913092613220215e+00,-3.835584163665771484e+00,-1.077177762985229492e+00
1.433771133422851562e+00,-4.567895889282226562e+00,-1.105309128761291504e+00
1.758372783660888672e+00,-5.602054119110107422e+00,-1.141308426856994629e+00
2.036665678024291992e+00,-6.488676548004150391e+00,-1.077139854431152344e+00
2.040668487548828125e+00,-6.501429080963134766e+00,-8.366735577583312988e-01
2.044663429260253906e+00,-6.514156341552734375e+00,-5.973287820816040039e-01
2.048697948455810547e+00,-6.527010440826416016e+00,-3.585201203823089600e-01
2.052739858627319336e+00,-6.539887428283691406e+00,-1.196451783180236816e-01
2.056694269180297852e+00,-6.552486419677734375e+00,1.198756769299507141e-01
2.060806751251220703e+00,-6.565587997436523438e+00,3.606391549110412598e-01
2.064943313598632812e+00,-6.578767299652099609e+00,6.032533645629882812e-01
2.069035291671752930e+00,-6.591804027557373047e+00,8.483039736747741699e-01
2.072991371154785156e+00,-6.604407787322998047e+00,1.096351623535156250e+00
2.077266454696655273e+00,-6.618027687072753906e+00,1.348293066024780273e+00
1.254068851470947266e+00,-3.803959846496582031e+00,-1.073227643966674805e+00
1.496422410011291504e+00,-4.539089202880859375e+00,-1.103408455848693848e+00
1.840859532356262207e+00,-5.583868503570556641e+00,-1.142854571342468262e+00
2.367700815200805664e+00,-7.181933403015136719e+00,-1.197725772857666016e+00
2.377409219741821289e+00,-7.211381435394287109e+00,-9.323215484619140625e-01
2.382327795028686523e+00,-7.226301670074462891e+00,-6.656889915466308594e-01
2.387211084365844727e+00,-7.241113662719726562e+00,-3.995808064937591553e-01
2.392093896865844727e+00,-7.255924701690673828e+00,-1.333575844764709473e-01
2.396984338760375977e+00,-7.270759105682373047e+00,1.336302310228347778e-01
2.401860952377319336e+00,-7.285550594329833984e+00,4.020329415798187256e-01
2.407064914703369141e+00,-7.301335811614990234e+00,6.726011633872985840e-01
2.411826372146606445e+00,-7.315779209136962891e+00,9.458186030387878418e-01
2.416913747787475586e+00,-7.331210613250732422e+00,1.222620606422424316e+00
1.309952974319458008e+00,-3.790165662765502930e+00,-1.074515700340270996e+00
1.558936476707458496e+00,-4.510564327239990234e+00,-1.101785778999328613e+00
1.923480749130249023e+00,-5.565321922302246094e+00,-1.144576191902160645e+00
2.486233234405517578e+00,-7.193567276000976562e+00,-1.205477237701416016e+00
2.789855480194091797e+00,-8.072055816650390625e+00,-1.048648834228515625e+00
2.795980453491210938e+00,-8.089777946472167969e+00,-7.488425970077514648e-01
2.801986694335937500e+00,-8.107155799865722656e+00,-4.495380520820617676e-01
2.807966232299804688e+00,-8.124456405639648438e+00,-1.500437706708908081e-01
2.814093351364135742e+00,-8.142185211181640625e+00,1.503711789846420288e-01
2.819960832595825195e+00,-8.159161567687988281e+00,4.524217247962951660e-01
2.826108932495117188e+00,-8.176950454711914062e+00,7.569118738174438477e-01
2.832199335098266602e+00,-8.194572448730468750e+00,1.064565062522888184e+00
1.366963386535644531e+00,-3.779045581817626953e+00,-1.076799869537353516e+00
1.622607469558715820e+00,-4.485787868499755859e+00,-1.101293921470642090e+00
1.994333982467651367e+00,-5.513446331024169922e+00,-1.139661431312561035e+00
2.584901094436645508e+00,-7.146101474761962891e+00,-1.203599929809570312e+00
3.329157590866088867e+00,-9.203639984130859375e+00,-1.201721549034118652e+00
3.336788177490234375e+00,-9.224735260009765625e+00,-8.582348227500915527e-01
3.344365358352661133e+00,-9.245682716369628906e+00,-5.152704119682312012e-01
3.352114200592041016e+00,-9.267105102539062500e+00,-1.720148772001266479e-01
3.359822273254394531e+00,-9.288414001464843750e+00,1.724104136228561401e-01
3.367510080337524414e+00,-9.309667587280273438e+00,5.188363194465637207e-01
3.375104904174804688e+00,-9.330663681030273438e+00,8.680900335311889648e-01
3.383180379867553711e+00,-9.352989196777343750e+00,1.221222043037414551e+00
1.418920278549194336e+00,-3.753833293914794922e+00,-1.075292825698852539e+00
1.687559247016906738e+00,-4.464532852172851562e+00,-1.101893067359924316e+00
2.080214738845825195e+00,-5.503324985504150391e+00,-1.143606781959533691e+00
2.685541868209838867e+00,-7.104752063751220703e+00,-1.202986478805541992e+00
3.783590555191040039e+00,-1.000970172882080078e+01,-1.313905715942382812e+00
4.072994709014892578e+00,-1.077533626556396484e+01,-1.007817625999450684e+00
4.083083629608154297e+00,-1.080202770233154297e+01,-6.052020192146301270e-01
4.093235969543457031e+00,-1.082888603210449219e+01,-2.020712643861770630e-01
4.103148937225341797e+00,-1.085511112213134766e+01,2.025606483221054077e-01
4.113408088684082031e+00,-1.088225173950195312e+01,6.096967458724975586e-01
4.123694896697998047e+00,-1.090946674346923828e+01,1.020362854003906250e+00
1.470789432525634766e+00,-3.728805065155029297e+00,-1.074043869972229004e+00
1.752542853355407715e+00,-4.443117618560791016e+00,-1.102685809135437012e+00
2.152346611022949219e+00,-5.456716537475585938e+00,-1.140206575393676758e+00
2.786128759384155273e+00,-7.063506603240966797e+00,-1.202631950378417969e+00
3.897696018218994141e+00,-9.881597518920898438e+00,-1.304279923439025879e+00
5.083647251129150391e+00,-1.288826847076416016e+01,-1.212121844291687012e+00
5.097537994384765625e+00,-1.292348480224609375e+01,-7.280735969543457031e-01
5.111391544342041016e+00,-1.295860767364501953e+01,-2.431530505418777466e-01
5.125222206115722656e+00,-1.299367141723632812e+01,2.438109815120697021e-01
5.139688014984130859e+00,-1.303034496307373047e+01,7.340938448905944824e-01
1.524916529655456543e+00,-3.709589719772338867e+00,-1.074685931205749512e+00
1.811056971549987793e+00,-4.405669689178466797e+00,-1.099712729454040527e+00
2.227750778198242188e+00,-5.419339656829833984e+00,-1.138942718505859375e+00
2.891225814819335938e+00,-7.033343315124511719e+00,-1.204418897628784180e+00
4.064897060394287109e+00,-9.888476371765136719e+00,-1.312732934951782227e+00
6.401017189025878906e+00,-1.557143974304199219e+01,-1.472935795783996582e+00
6.417172431945800781e+00,-1.561074066162109375e+01,-8.845502734184265137e-01
6.433080673217773438e+00,-1.564943981170654297e+01,-2.953408360481262207e-01
6.449193000793457031e+00,-1.568863582611083984e+01,2.960805594921112061e-01
6.465229511260986328e+00,-1.572764682769775391e+01,8.911745548248291016e-01
1.579070091247558594e+00,-3.690231561660766602e+00,-1.075515508651733398e+00
1.878866553306579590e+00,-4.390845775604248047e+00,-1.102612495422363281e+00
2.303086757659912109e+00,-5.382233142852783203e+00,-1.137955784797668457e+00
2.972122430801391602e+00,-6.945746421813964844e+00,-1.196580886840820312e+00
4.184535980224609375e+00,-9.779114723205566406e+00,-1.306032299995422363e+00
7.055856704711914062e+00,-1.648929214477539062e+01,-1.569149851799011230e+00
8.064032554626464844e+00,-1.884536170959472656e+01,-1.074263691902160645e+00
8.085578918457031250e+00,-1.889571571350097656e+01,-3.587529361248016357e-01
8.108645439147949219e+00,-1.894962310791015625e+01,3.597764074802398682e-01
1.627783179283142090e+00,-3.658399581909179688e+00,-1.072918772697448730e+00
1.938695788383483887e+00,-4.357167720794677734e+00,-1.101010918617248535e+00
2.380188941955566406e+00,-5.349411964416503906e+00,-1.138103008270263672e+00
3.079478740692138672e+00,-6.921046733856201172e+00,-1.199796438217163086e+00
4.307084560394287109e+00,-9.680059432983398438e+00,-1.300903320312500000e+00
7.286373615264892578e+00,-1.637593269348144531e+01,-1.568126440048217773e+00
1.062230873107910156e+01,-2.387335777282714844e+01,-1.369406938552856445e+00
1.065777683258056641e+01,-2.395307159423828125e+01,-4.576210081577301025e-01
1.069330883026123047e+01,-2.403292846679687500e+01,4.591466486454010010e-01
1.684391021728515625e+00,-3.644281625747680664e+00,-1.075738787651062012e+00
1.999954700469970703e+00,-4.327022552490234375e+00,-1.100514292716979980e+00
2.459161758422851562e+00,-5.320544719696044922e+00,-1.139333486557006836e+00
3.164639949798583984e+00,-6.846889495849609375e+00,-1.194670915603637695e+00
4.482030391693115234e+00,-9.697142601013183594e+00,-1.311686515808105469e+00
7.522493362426757812e+00,-1.627536773681640625e+01,-1.568646430969238281e+00
2.316828536987304688e+01,-5.012598037719726562e+01,-2.894017219543457031e+00
2.332474899291992188e+01,-5.046450042724609375e+01,-9.703980684280395508e-01
1.735532879829406738e+00,-3.618044614791870117e+00,-1.075216770172119141e+00
2.062723636627197266e+00,-4.300135612487792969e+00,-1.101072430610656738e+00
2.540103435516357422e+00,-5.295323371887207031e+00,-1.141601204872131348e+00
3.277044773101806641e+00,-6.831616401672363281e+00,-1.200067400932312012e+00
4.611227035522460938e+00,-9.612970352172851562e+00,-1.309094548225402832e+00
7.764514923095703125e+00,-1.618659210205078125e+01,-1.570640802383422852e+00
2.309308815002441406e+01,-4.814188385009765625e+01,-2.798262834548950195e+00
1.781073689460754395e+00,-3.580646514892578125e+00,-1.071569085121154785e+00
2.117223262786865234e+00,-4.256437301635742188e+00,-1.097530603408813477e+00
2.607983827590942383e+00,-5.243055820465087891e+00,-1.138264060020446777e+00
3.366933345794677734e+00,-6.768837451934814453e+00,-1.197382569313049316e+00
4.743847846984863281e+00,-9.536968231201171875e+00,-1.307857394218444824e+00
7.870784759521484375e+00,-1.582332038879394531e+01,-1.546164512634277344e+00
2.423595809936523438e+01,-4.872364425659179688e+01,-2.851949453353881836e+00
1.834732294082641602e+00,-3.559823751449584961e+00,-1.073086738586425781e+00
2.183085203170776367e+00,-4.235712528228759766e+00,-1.100131154060363770e+00
2.677738666534423828e+00,-5.195459365844726562e+00,-1.136135458946228027e+00
3.459286212921142578e+00,-6.711850643157958984e+00,-1.195938110351562500e+00
4.880004405975341797e+00,-9.468386650085449219e+00,-1.307897329330444336e+00
8.123514175415039062e+00,-1.576157951354980469e+01,-1.551334500312805176e+00
2.410646057128906250e+01,-4.677235412597656250e+01,-2.757648468017578125e+00
2.935037422180175781e+01,-5.694681549072265625e+01,-1.118265271186828613e+00
1.884142160415649414e+00,-3.530669927597045898e+00,-1.072318196296691895e+00
2.242270946502685547e+00,-4.201762676239013672e+00,-1.099536776542663574e+00
2.751434326171875000e+00,-5.155877590179443359e+00,-1.135975599288940430e+00
3.556786060333251953e+00,-6.665016174316406250e+00,-1.196541666984558105e+00
5.023513317108154297e+00,-9.413497924804687500e+00,-1.310113549232482910e+00
8.388935089111328125e+00,-1.571991920471191406e+01,-1.558892726898193359e+00
2.090596199035644531e+01,-3.917541503906250000e+01,-2.327145338058471680e+00
2.086679840087890625e+01,-3.910202789306640625e+01,-7.736328244209289551e-01
1.934878230094909668e+00,-3.504063606262207031e+00,-1.072538852691650391e+00
2.303065061569213867e+00,-4.170849800109863281e+00,-1.099960923194885254e+00
2.827140331268310547e+00,-5.119949817657470703e+00,-1.136859059333801270e+00
3.656939744949340820e+00,-6.622715950012207031e+00,-1.198222041130065918e+00
5.119765281677246094e+00,-9.271892547607421875e+00,-1.300471425056457520e+00
8.518357276916503906e+00,-1.542674160003662109e+01,-1.541752457618713379e+00
1.658992958068847656e+01,-3.004435348510742188e+01,-1.798652529716491699e+00
1.661027145385742188e+01,-3.008119201660156250e+01,-5.997982025146484375e-01
1.986961126327514648e+00,-3.479744434356689453e+00,-1.073690414428710938e+00
2.355518579483032227e+00,-4.125195503234863281e+00,-1.096700072288513184e+00
2.904894113540649414e+00,-5.087311267852783203e+00,-1.138727545738220215e+00
3.734144926071166992e+00,-6.539569377899169922e+00,-1.192726731300354004e+00
5.270567893981933594e+00,-9.230291366577148438e+00,-1.305083870887756348e+00
8.795642852783203125e+00,-1.540371894836425781e+01,-1.551874756813049316e+00
1.282012271881103516e+01,-2.245174789428710938e+01,-1.354956030845642090e+00
1.281020450592041016e+01,-2.243437957763671875e+01,-4.509359002113342285e-01
1.280136394500732422e+01,-2.241889572143554688e+01,4.506246745586395264e-01
2.034808397293090820e+00,-3.447983264923095703e+00,-1.072767138481140137e+00
2.415317535400390625e+00,-4.092756271362304688e+00,-1.097154617309570312e+00
2.968682050704956055e+00,-5.030432224273681641e+00,-1.135390996932983398e+00
3.847935676574707031e+00,-6.520327568054199219e+00,-1.199139833450317383e+00
5.408394813537597656e+00,-9.164525985717773438e+00,-1.306596875190734863e+00
9.082363128662109375e+00,-1.539006614685058594e+01,-1.563436150550842285e+00
1.026739883422851562e+01,-1.739810943603515625e+01,-1.058731198310852051e+00
1.026473522186279297e+01,-1.739359474182128906e+01,-3.525321483612060547e-01
1.026222610473632812e+01,-1.738934326171875000e+01,3.524459600448608398e-01
2.081036806106567383e+00,-3.413733005523681641e+00,-1.071268677711486816e+00
2.480190515518188477e+00,-4.068504810333251953e+00,-1.100057363510131836e+00
3.050238847732543945e+00,-5.003612041473388672e+00,-1.139075040817260742e+00
3.929423332214355469e+00,-6.445826530456542969e+00,-1.195659637451171875e+00
5.514531612396240234e+00,-9.046038627624511719e+00,-1.300824165344238281e+00
8.659053802490234375e+00,-1.420431232452392578e+01,-1.455420374870300293e+00
8.658440589904785156e+00,-1.420330715179443359e+01,-8.717694878578186035e-01
8.658335685729980469e+00,-1.420313549041748047e+01,-2.903502285480499268e-01
8.658407211303710938e+00,-1.420325279235839844e+01,2.903526127338409424e-01
8.658584594726562500e+00,-1.420354461669921875e+01,8.717840909957885742e-01
2.130122423171997070e+00,-3.384300947189331055e+00,-1.071490764617919922e+00
2.538161993026733398e+00,-4.032587051391601562e+00,-1.100056171417236328e+00
3.120169878005981445e+00,-4.957271099090576172e+00,-1.138575792312622070e+00
4.016049861907958984e+00,-6.380629539489746094e+00,-1.194106459617614746e+00
5.627313613891601562e+00,-8.940576553344726562e+00,-1.297108530998229980e+00
7.552098751068115234e+00,-1.199864196777343750e+01,-1.240368962287902832e+00
7.552955150604248047e+00,-1.200000190734863281e+01,-7.430946230888366699e-01
7.553898334503173828e+00,-1.200150108337402344e+01,-2.475278377532958984e-01
7.554990291595458984e+00,-1.200323581695556641e+01,2.475636303424835205e-01
7.556535243988037109e+00,-1.200568962097167969e+01,7.434468269348144531e-01
2.180859565734863281e+00,-3.357346296310424805e+00,-1.072729945182800293e+00
2.586265087127685547e+00,-3.981451988220214844e+00,-1.096092939376831055e+00
3.192430257797241211e+00,-4.914618968963623047e+00,-1.139157891273498535e+00
4.105421066284179688e+00,-6.320132255554199219e+00,-1.193659663200378418e+00
5.743219375610351562e+00,-8.841457366943359375e+00,-1.294522047042846680e+00
6.719871044158935547e+00,-1.034497356414794922e+01,-1.079252362251281738e+00
6.721780300140380859e+00,-1.034791278839111328e+01,-6.466813683509826660e-01
6.723765373229980469e+00,-1.035096836090087891e+01,-2.154489159584045410e-01
6.725509643554687500e+00,-1.035365390777587891e+01,2.155047953128814697e-01
6.727601528167724609e+00,-1.035687351226806641e+01,6.472414135932922363e-01
6.729651451110839844e+00,-1.036002922058105469e+01,1.080823063850402832e+00
2.224889278411865234e+00,-3.320123434066772461e+00,-1.070902228355407715e+00
2.647902488708496094e+00,-3.951371192932128906e+00,-1.098133325576782227e+00
3.248498678207397461e+00,-4.847620010375976562e+00,-1.134289622306823730e+00
4.197981834411621094e+00,-6.264499664306640625e+00,-1.194378733634948730e+00
5.925610065460205078e+00,-8.842577934265136719e+00,-1.306970596313476562e+00
6.072964668273925781e+00,-9.062470436096191406e+00,-9.544243812561035156e-01
6.075356483459472656e+00,-9.066040039062500000e+00,-5.719479918479919434e-01
6.077690124511718750e+00,-9.069521903991699219e+00,-1.905675828456878662e-01
6.079982280731201172e+00,-9.072942733764648438e+00,1.906394511461257935e-01
6.082180023193359375e+00,-9.076221466064453125e+00,5.725903511047363281e-01
6.084712505340576172e+00,-9.080000877380371094e+00,9.562706351280212402e-01
2.270335197448730469e+00,-3.285272836685180664e+00,-1.070033192634582520e+00
2.699229955673217773e+00,-3.905902147293090820e+00,-1.096121907234191895e+00
3.325668573379516602e+00,-4.812385559082031250e+00,-1.137066960334777832e+00
4.294237136840820312e+00,-6.213945865631103516e+00,-1.196336507797241211e+00
5.861397266387939453e+00,-8.481694221496582031e+00,-1.265901088714599609e+00
5.868068218231201172e+00,-8.491347312927246094e+00,-9.030292034149169922e-01
5.875009536743164062e+00,-8.501392364501953125e+00,-5.415757298469543457e-01
5.881899833679199219e+00,-8.511362075805664062e+00,-1.805901080369949341e-01
