-1.147421240806579590e+00,1.586447238922119141e+00,-1.712941974401473999e-01
-1.148806452751159668e+00,1.588362455368041992e+00,-1.027331501245498657e-01
-1.150220036506652832e+00,1.590316891670227051e+00,-3.425865992903709412e-02
-1.151668548583984375e+00,1.592319726943969727e+00,3.430180624127388000e-02
-1.153138399124145508e+00,1.594351768493652344e+00,1.031205356121063232e-01
-1.154608130455017090e+00,1.596383929252624512e+00,1.723670959472656250e-01
-1.156036972999572754e+00,1.598359465599060059e+00,2.422051876783370972e-01
-1.157374978065490723e+00,1.600209355354309082e+00,3.127912282943725586e-01
-1.158987402915954590e+00,1.602438926696777344e+00,3.844138085842132568e-01
-1.160488963127136230e+00,1.604514837265014648e+00,4.571651220321655273e-01
-1.171949744224548340e+00,1.572466850280761719e+00,-5.254883170127868652e-01
-1.173361539840698242e+00,1.574361205101013184e+00,-4.533124268054962158e-01
-1.175003409385681152e+00,1.576564192771911621e+00,-3.822020888328552246e-01
-1.176522612571716309e+00,1.578602671623229980e+00,-3.118275403976440430e-01
-1.177966356277465820e+00,1.580539703369140625e+00,-2.420350909233093262e-01
-1.179386377334594727e+00,1.582445144653320312e+00,-1.726671010255813599e-01
-1.180814146995544434e+00,1.584360837936401367e+00,-1.035568937659263611e-01
-1.182267904281616211e+00,1.586311340332031250e+00,-3.453337773680686951e-02
-1.183750271797180176e+00,1.588300347328186035e+00,3.457667678594589233e-02
-1.185253143310546875e+00,1.590316772460937500e+00,1.039461866021156311e-01
-1.186747908592224121e+00,1.592322468757629395e+00,1.737448573112487793e-01
-1.188197493553161621e+00,1.594267368316650391e+00,2.441372573375701904e-01
-1.189551353454589844e+00,1.596083998680114746e+00,3.152807056903839111e-01
-1.191180109977722168e+00,1.598269343376159668e+00,3.874640166759490967e-01
-1.192691922187805176e+00,1.600297808647155762e+00,4.607804715633392334e-01
-1.204113245010375977e+00,1.568268537521362305e+00,-5.297906994819641113e-01
-1.205596804618835449e+00,1.570200800895690918e+00,-4.570363461971282959e-01
-1.207310318946838379e+00,1.572432637214660645e+00,-3.853503465652465820e-01
-1.208892583847045898e+00,1.574493288993835449e+00,-3.144016265869140625e-01
-1.210394144058227539e+00,1.576449036598205566e+00,-2.440367043018341064e-01
-1.211863398551940918e+00,1.578362703323364258e+00,-1.740965098142623901e-01
-1.213335752487182617e+00,1.580280184745788574e+00,-1.044146195054054260e-01
-1.214830160140991211e+00,1.582226514816284180e+00,-3.481942415237426758e-02
-1.216348409652709961e+00,1.584203958511352539e+00,3.486294299364089966e-02
-1.217880010604858398e+00,1.586198687553405762e+00,1.048056855797767639e-01
-1.219400644302368164e+00,1.588179230690002441e+00,1.751792877912521362e-01
-1.220869541168212891e+00,1.590092301368713379e+00,2.461487203836441040e-01
-1.222231864929199219e+00,1.591866731643676758e+00,3.178708255290985107e-01
-1.223872900009155273e+00,1.594004034996032715e+00,3.906368017196655273e-01
-1.225388407707214355e+00,1.595977902412414551e+00,4.645392596721649170e-01
-1.236069440841674805e+00,1.563057899475097656e+00,-5.339525938034057617e-01
-1.237557888031005859e+00,1.564939975738525391e+00,-4.606138467788696289e-01
-1.238957285881042480e+00,1.566709637641906738e+00,-3.882540464401245117e-01
-1.240602493286132812e+00,1.568790078163146973e+00,-3.167762160301208496e-01
-1.242159485816955566e+00,1.570758938789367676e+00,-2.458830028772354126e-01
-1.243678212165832520e+00,1.572679400444030762e+00,-1.754151880741119385e-01
-1.245196580886840820e+00,1.574599504470825195e+00,-1.052061319351196289e-01
-1.246728897094726562e+00,1.576537251472473145e+00,-3.508333861827850342e-02
-1.248281478881835938e+00,1.578500509262084961e+00,3.512702882289886475e-02
-1.249843478202819824e+00,1.580475687980651855e+00,1.055987477302551270e-01
-1.251385807991027832e+00,1.582425951957702637e+00,1.765023022890090942e-01
-1.252871751785278320e+00,1.584305047988891602e+00,2.480034679174423218e-01
-1.254637122154235840e+00,1.586537361145019531e+00,3.203597962856292725e-01
-1.256356120109558105e+00,1.588711142539978027e+00,3.937063515186309814e-01
-1.257937669754028320e+00,1.590711116790771484e+00,4.681991338729858398e-01
-1.269209146499633789e+00,1.558587312698364258e+00,-5.385761260986328125e-01
-1.270780682563781738e+00,1.560517072677612305e+00,-4.646181464195251465e-01
-1.272252321243286133e+00,1.562324285507202148e+00,-3.916399478912353516e-01
-1.273970007896423340e+00,1.564433455467224121e+00,-3.195458352565765381e-01
-1.275590062141418457e+00,1.566423058509826660e+00,-2.480369359254837036e-01
-1.277164816856384277e+00,1.568356752395629883e+00,-1.769539266824722290e-01
-1.278731346130371094e+00,1.570280551910400391e+00,-1.061296090483665466e-01
-1.280305027961730957e+00,1.572213053703308105e+00,-3.539128974080085754e-02
-1.281891942024230957e+00,1.574161648750305176e+00,3.543515503406524658e-02
-1.283482193946838379e+00,1.576114535331726074e+00,1.065239086747169495e-01
-1.285045146942138672e+00,1.578033804893493652e+00,1.780457645654678345e-01
-1.286541581153869629e+00,1.579871416091918945e+00,2.501664459705352783e-01
-1.288319706916809082e+00,1.582054972648620605e+00,3.231451213359832764e-01
-1.290040850639343262e+00,1.584168553352355957e+00,3.971157968044281006e-01
-1.291618227958679199e+00,1.586105585098266602e+00,4.722366929054260254e-01
-1.302891016006469727e+00,1.553985476493835449e+00,-5.433744788169860840e-01
-1.304550170898437500e+00,1.555964350700378418e+00,-4.687740504741668701e-01
-1.306436300277709961e+00,1.558213949203491211e+00,-3.952566683292388916e-01
-1.307895541191101074e+00,1.559954404830932617e+00,-3.224217295646667480e-01
-1.309582233428955078e+00,1.561966180801391602e+00,-2.502737343311309814e-01
-1.311215162277221680e+00,1.563913822174072266e+00,-1.785518974065780640e-01
-1.312830328941345215e+00,1.565840125083923340e+00,-1.070885509252548218e-01
-1.314446926116943359e+00,1.567768335342407227e+00,-3.571109846234321594e-02
-1.316067934036254883e+00,1.569701671600341797e+00,3.575513884425163269e-02
-1.317683815956115723e+00,1.571629166603088379e+00,1.074844673275947571e-01
-1.319266080856323242e+00,1.573516130447387695e+00,1.796481907367706299e-01
-1.321111559867858887e+00,1.575717449188232422e+00,2.524770796298980713e-01
-1.322555184364318848e+00,1.577439188957214355e+00,3.260355889797210693e-01
-1.324277281761169434e+00,1.579493284225463867e+00,4.006543755531311035e-01
-1.325841665267944336e+00,1.581359028816223145e+00,4.764249026775360107e-01
-1.336244940757751465e+00,1.548209905624389648e+00,-5.479866862297058105e-01
-1.337920546531677246e+00,1.550151467323303223e+00,-4.727438688278198242e-01
-1.339476108551025391e+00,1.551953673362731934e+00,-3.984911739826202393e-01
-1.341004014015197754e+00,1.553723931312561035e+00,-3.250678777694702148e-01
-1.342755675315856934e+00,1.555753469467163086e+00,-2.523319423198699951e-01
-1.344446420669555664e+00,1.557712435722351074e+00,-1.800224930047988892e-01
-1.346111178398132324e+00,1.559641242027282715e+00,-1.079712584614753723e-01
-1.347768545150756836e+00,1.561561584472656250e+00,-3.600545600056648254e-02
-1.349423646926879883e+00,1.563479185104370117e+00,3.604966774582862854e-02
-1.351065039634704590e+00,1.565381050109863281e+00,1.083686202764511108e-01
-1.352661848068237305e+00,1.567231059074401855e+00,1.811225414276123047e-01
-1.354524850845336914e+00,1.569389581680297852e+00,2.545436322689056396e-01
-1.356389760971069336e+00,1.571550369262695312e+00,3.287974894046783447e-01
-1.358180165290832520e+00,1.573624849319458008e+00,4.040556252002716064e-01
-1.359800934791564941e+00,1.575502753257751465e+00,4.804751574993133545e-01
-1.370989799499511719e+00,1.543249487876892090e+00,-5.531200170516967773e-01
-1.372766256332397461e+00,1.545249223709106445e+00,-4.771922528743743896e-01
-1.374410033226013184e+00,1.547099471092224121e+00,-4.022548496723175049e-01
-1.376293301582336426e+00,1.549219489097595215e+00,-3.282133638858795166e-01
-1.377845287322998047e+00,1.550966501235961914e+00,-2.547281682491302490e-01
-1.379598855972290039e+00,1.552940249443054199e+00,-1.817344874143600464e-01
-1.381316781044006348e+00,1.554874062538146973e+00,-1.089988127350807190e-01
-1.383018136024475098e+00,1.556789278984069824e+00,-3.634813055396080017e-02
-1.384705781936645508e+00,1.558688879013061523e+00,3.639248386025428772e-02
-1.386370182037353516e+00,1.560562491416931152e+00,1.093975827097892761e-01
-1.388260841369628906e+00,1.562690615653991699e+00,1.828755289316177368e-01
-1.389853119850158691e+00,1.564482927322387695e+00,2.569480836391448975e-01
-1.391718268394470215e+00,1.566582441329956055e+00,3.318918347358703613e-01
-1.393497467041015625e+00,1.568585157394409180e+00,4.078412652015686035e-01
-1.395095586776733398e+00,1.570384144783020020e+00,4.849542677402496338e-01
-1.406320095062255859e+00,1.538107752799987793e+00,-5.584345459938049316e-01
-1.408204197883605957e+00,1.540168404579162598e+00,-4.817984402179718018e-01
-1.409943699836730957e+00,1.542070984840393066e+00,-4.061530530452728271e-01
-1.411916732788085938e+00,1.544229030609130859e+00,-3.314036428928375244e-01
-1.413542866706848145e+00,1.546007513999938965e+00,-2.572103440761566162e-01
-1.415362715721130371e+00,1.547997951507568359e+00,-1.835080981254577637e-01
-1.417135000228881836e+00,1.549936175346374512e+00,-1.100633367896080017e-01
-1.418881535530090332e+00,1.551846385002136230e+00,-3.670314699411392212e-02
-1.420601725578308105e+00,1.553727865219116211e+00,3.674764186143875122e-02
-1.422289490699768066e+00,1.555573701858520508e+00,1.104636639356613159e-01
-1.424196124076843262e+00,1.557659029960632324e+00,1.846533864736557007e-01
-1.425786018371582031e+00,1.559397935867309570e+00,2.594381272792816162e-01
-1.427647352218627930e+00,1.561433792114257812e+00,3.350959122180938721e-01
-1.429410338401794434e+00,1.563361883163452148e+00,4.117606580257415771e-01
-1.431569814682006836e+00,1.565723657608032227e+00,4.897926747798919678e-01
-1.442771196365356445e+00,1.533319950103759766e+00,-5.641361474990844727e-01
-1.444696664810180664e+00,1.535366296768188477e+00,-4.867150783538818359e-01
-1.446461200714111328e+00,1.537241578102111816e+00,-4.102920293807983398e-01
-1.448162198066711426e+00,1.539049386978149414e+00,-3.347062170505523682e-01
-1.450070381164550781e+00,1.541077256202697754e+00,-2.598165869712829590e-01
-1.451755404472351074e+00,1.542868018150329590e+00,-1.853443235158920288e-01
-1.453584790229797363e+00,1.544812202453613281e+00,-1.111655384302139282e-01
-1.455374240875244141e+00,1.546714067459106445e+00,-3.707065060734748840e-02
-1.457130432128906250e+00,1.548580288887023926e+00,3.711538016796112061e-02
-1.459045767784118652e+00,1.550615906715393066e+00,1.115831732749938965e-01
-1.460757255554199219e+00,1.552434802055358887e+00,1.864935755729675293e-01
-1.462715864181518555e+00,1.554516315460205078e+00,2.620823383331298828e-01
-1.464646339416503906e+00,1.556567907333374023e+00,3.385160863399505615e-01
-1.466463685035705566e+00,1.558499455451965332e+00,4.159657955169677734e-01
-1.468067646026611328e+00,1.560204029083251953e+00,4.945887029170989990e-01
-1.479328989982604980e+00,1.527757883071899414e+00,-5.698218345642089844e-01
-1.481376290321350098e+00,1.529872298240661621e+00,-4.916447103023529053e-01
-1.483247876167297363e+00,1.531805038452148438e+00,-4.144650101661682129e-01
-1.485044360160827637e+00,1.533660411834716797e+00,-3.381223082542419434e-01
-1.487036943435668945e+00,1.535718083381652832e+00,-2.624746561050415039e-01
-1.488791704177856445e+00,1.537530303001403809e+00,-1.872438639402389526e-01
-1.490679621696472168e+00,1.539480090141296387e+00,-1.123057380318641663e-01
-1.492515206336975098e+00,1.541375875473022461e+00,-3.745088726282119751e-02
-1.494303703308105469e+00,1.543222784996032715e+00,3.749576583504676819e-02
-1.496243119239807129e+00,1.545225739479064941e+00,1.127248853445053101e-01
-1.497958898544311523e+00,1.546997666358947754e+00,1.883968114852905273e-01
-1.499917268753051758e+00,1.549020290374755859e+00,2.647481560707092285e-01
-1.501834154129028320e+00,1.550999760627746582e+00,3.419450819492340088e-01
-1.503622770309448242e+00,1.552846908569335938e+00,4.201583564281463623e-01
-1.505801439285278320e+00,1.555096864700317383e+00,4.997509717941284180e-01
-1.517060756683349609e+00,1.522504806518554688e+00,-5.759025812149047852e-01
-1.518695235252380371e+00,1.524145126342773438e+00,-4.967390298843383789e-01
-1.520681619644165039e+00,1.526138544082641602e+00,-4.187782704830169678e-01
-1.522876262664794922e+00,1.528341174125671387e+00,-3.417202532291412354e-01
-1.524662494659423828e+00,1.530133843421936035e+00,-2.652229368686676025e-01
-1.526616811752319336e+00,1.532095074653625488e+00,-1.892236471176147461e-01
-1.528436779975891113e+00,1.533921599388122559e+00,-1.134845763444900513e-01
-1.530320882797241211e+00,1.535812497138977051e+00,-3.784404695034027100e-02
-1.532271146774291992e+00,1.537769794464111328e+00,3.789227828383445740e-02
-1.534100890159606934e+00,1.539606094360351562e+00,1.139051243662834167e-01
-1.536123752593994141e+00,1.541636228561401367e+00,1.904020309448242188e-01
-1.537773847579956055e+00,1.543292164802551270e+00,2.675037086009979248e-01
-1.539670467376708984e+00,1.545195579528808594e+00,3.454887270927429199e-01
-1.541976809501647949e+00,1.547510266304016113e+00,4.246427118778228760e-01
-1.544196009635925293e+00,1.549737334251403809e+00,5.050798654556274414e-01
-1.554906249046325684e+00,1.516446471214294434e+00,-5.819699168205261230e-01
-1.557142019271850586e+00,1.518627047538757324e+00,-5.021531581878662109e-01
-1.559166550636291504e+00,1.520601391792297363e+00,-4.233393669128417969e-01
-1.561083555221557617e+00,1.522471070289611816e+00,-3.453683555126190186e-01
-1.562959194183349609e+00,1.524300217628479004e+00,-2.680620253086090088e-01
-1.564991235733032227e+00,1.526282072067260742e+00,-1.912527084350585938e-01
-1.566871762275695801e+00,1.528116106986999512e+00,-1.147025600075721741e-01
-1.568803191184997559e+00,1.529999732971191406e+00,-3.825021162629127502e-02
-1.570788502693176270e+00,1.531935930252075195e+00,3.829861804842948914e-02
-1.572634100914001465e+00,1.533735871315002441e+00,1.151243895292282104e-01
-1.574665069580078125e+00,1.535716652870178223e+00,1.924349218606948853e-01
-1.576694130897521973e+00,1.537695527076721191e+00,2.704176902770996094e-01
-1.578652024269104004e+00,1.539604902267456055e+00,3.492551445960998535e-01
-1.580446481704711914e+00,1.541355013847351074e+00,4.291172027587890625e-01
-1.582617998123168945e+00,1.543472766876220703e+00,5.103687644004821777e-01
-1.593976736068725586e+00,1.510647535324096680e+00,-5.884400606155395508e-01
-1.595793485641479492e+00,1.512369275093078613e+00,-5.075847506523132324e-01
-1.597944974899291992e+00,1.514408349990844727e+00,-4.279389977455139160e-01
-1.599973917007446289e+00,1.516331195831298828e+00,-3.491348624229431152e-01
-1.601940512657165527e+00,1.518194913864135742e+00,-2.709929049015045166e-01
-1.604056358337402344e+00,1.520200133323669434e+00,-1.933477818965911865e-01
-1.606000900268554688e+00,1.522043108940124512e+00,-1.159602999687194824e-01
-1.607982039451599121e+00,1.523920655250549316e+00,-3.866967186331748962e-02
-1.609999656677246094e+00,1.525832891464233398e+00,3.871819376945495605e-02
-1.611858367919921875e+00,1.527594327926635742e+00,1.163832396268844604e-01
-1.613892912864685059e+00,1.529522538185119629e+00,1.945334523916244507e-01
-1.615910768508911133e+00,1.531434893608093262e+00,2.733561992645263672e-01
-1.617838978767395020e+00,1.533262252807617188e+00,3.530332446098327637e-01
-1.620161652565002441e+00,1.535463571548461914e+00,4.338887631893157959e-01
-1.622361063957214355e+00,1.537547945976257324e+00,5.160352587699890137e-01
-1.633744716644287109e+00,1.504542589187622070e+00,-5.951099395751953125e-01
-1.635621070861816406e+00,1.506270527839660645e+00,-5.133426785469055176e-01
-1.637822508811950684e+00,1.508297801017761230e+00,-4.327924549579620361e-01
-1.639871239662170410e+00,1.510184645652770996e+00,-3.530879020690917969e-01
-1.641857266426086426e+00,1.512013554573059082e+00,-2.740562856197357178e-01
-1.643829464912414551e+00,1.513829827308654785e+00,-1.955100744962692261e-01
-1.645838737487792969e+00,1.515680193901062012e+00,-1.172583103179931641e-01
-1.647866845130920410e+00,1.517547965049743652e+00,-3.910246863961219788e-02
-1.649918556213378906e+00,1.519437313079833984e+00,3.915115445852279663e-02
-1.652023196220397949e+00,1.521375536918640137e+00,1.176989302039146423e-01
-1.654149532318115234e+00,1.523333787918090820e+00,1.967374980449676514e-01
-1.656240344047546387e+00,1.525259137153625488e+00,2.764570713043212891e-01
-1.658218383789062500e+00,1.527080774307250977e+00,3.570383191108703613e-01
-1.660586953163146973e+00,1.529262065887451172e+00,4.388079643249511719e-01
-1.662809252738952637e+00,1.531308650970458984e+00,5.218757390975952148e-01
-1.675724625587463379e+00,1.499452114105224609e+00,-6.025219559669494629e-01
-1.678273797035217285e+00,1.501733064651489258e+00,-5.199298262596130371e-01
-1.680124163627624512e+00,1.503388881683349609e+00,-4.382394254207611084e-01
-1.682305097579956055e+00,1.505340337753295898e+00,-3.575486242771148682e-01
-1.684403061866760254e+00,1.507217645645141602e+00,-2.775284945964813232e-01
-1.686467528343200684e+00,1.509065032005310059e+00,-1.979919821023941040e-01
-1.688551068305969238e+00,1.510929226875305176e+00,-1.187484040856361389e-01
-1.690632939338684082e+00,1.512792229652404785e+00,-3.959940373897552490e-02
-1.692715287208557129e+00,1.514655590057373047e+00,3.964817896485328674e-02
-1.694835901260375977e+00,1.516553044319152832e+00,1.191903948783874512e-01
-1.696955561637878418e+00,1.518449664115905762e+00,1.992232650518417358e-01
-1.699018478393554688e+00,1.520295619964599609e+00,2.799366116523742676e-01
-1.701465010643005371e+00,1.522484779357910156e+00,3.616207540035247803e-01
-1.703260779380798340e+00,1.524091720581054688e+00,4.442743659019470215e-01
-1.705401778221130371e+00,1.526007413864135742e+00,5.283340811729431152e-01
-1.717005252838134766e+00,1.492695927619934082e+00,-6.096201539039611816e-01
-1.719125509262084961e+00,1.494539141654968262e+00,-5.259045362472534180e-01
-1.721543669700622559e+00,1.496641397476196289e+00,-4.434100985527038574e-01
-1.723428606986999512e+00,1.498280167579650879e+00,-3.616938292980194092e-01
-1.725634098052978516e+00,1.500197529792785645e+00,-2.807551622390747070e-01
-1.727788090705871582e+00,1.502070069313049316e+00,-2.002984285354614258e-01
-1.729943633079528809e+00,1.503944039344787598e+00,-1.201331838965415955e-01
-1.732074141502380371e+00,1.505796194076538086e+00,-4.006113484501838684e-02
-1.734189510345458984e+00,1.507635235786437988e+00,4.011005908250808716e-02
-1.736324667930603027e+00,1.509491443634033203e+00,1.205763071775436401e-01
-1.738438367843627930e+00,1.511328935623168945e+00,2.015330791473388672e-01
-1.740906476974487305e+00,1.513474702835083008e+00,2.832399308681488037e-01
-1.742883801460266113e+00,1.515193700790405273e+00,3.657768666744232178e-01
-1.745223045349121094e+00,1.517227292060852051e+00,4.495090544223785400e-01
-1.747372984886169434e+00,1.519096493721008301e+00,5.345458984375000000e-01
-1.761309027671813965e+00,1.487491726875305176e+00,-6.177275180816650391e-01
-1.763530850410461426e+00,1.489368200302124023e+00,-5.329127311706542969e-01
-1.765593051910400391e+00,1.491109728813171387e+00,-4.492124617099761963e-01
-1.767957925796508789e+00,1.493107080459594727e+00,-3.665163815021514893e-01
-1.770195007324218750e+00,1.494996309280395508e+00,-2.844944596290588379e-01
-1.772204995155334473e+00,1.496693849563598633e+00,-2.029432803392410278e-01
-1.774436831474304199e+00,1.498578667640686035e+00,-1.217209249734878540e-01
-1.776625394821166992e+00,1.500427007675170898e+00,-4.059067368507385254e-02
-1.778772473335266113e+00,1.502240300178527832e+00,4.063972830772399902e-02
-1.781162977218627930e+00,1.504259109497070312e+00,1.221823170781135559e-01
-1.783358335494995117e+00,1.506113171577453613e+00,2.042205035686492920e-01
-1.785455703735351562e+00,1.507884502410888672e+00,2.869470417499542236e-01
-1.787905812263488770e+00,1.509953737258911133e+00,3.706517815589904785e-01
-1.790262699127197266e+00,1.511944293975830078e+00,4.554890692234039307e-01
-1.792399406433105469e+00,1.513748764991760254e+00,5.416363477706909180e-01
-1.803553581237792969e+00,1.479469537734985352e+00,-6.250525116920471191e-01
-1.805952072143554688e+00,1.481437087059020996e+00,-5.392688512802124023e-01
-1.808615803718566895e+00,1.483622193336486816e+00,-4.547090828418731689e-01
-1.810680270195007324e+00,1.485315680503845215e+00,-3.709277212619781494e-01
-1.813036561012268066e+00,1.487248539924621582e+00,-2.879289686679840088e-01
-1.815290689468383789e+00,1.489097595214843750e+00,-2.054153978824615479e-01
-1.817498087882995605e+00,1.490908384323120117e+00,-1.231983155012130737e-01
-1.819740176200866699e+00,1.492747545242309570e+00,-4.108335450291633606e-02
-1.822019338607788086e+00,1.494617223739624023e+00,4.113480821251869202e-02
-1.824270129203796387e+00,1.496463537216186523e+00,1.236573457717895508e-01
-1.826454401016235352e+00,1.498255372047424316e+00,2.066786736249923706e-01
-1.828964114189147949e+00,1.500313997268676758e+00,2.904584407806396484e-01
-1.830916166305541992e+00,1.501915335655212402e+00,3.750731647014617920e-01
-1.833201289176940918e+00,1.503789782524108887e+00,4.608901739120483398e-01
-1.835970520973205566e+00,1.506061434745788574e+00,5.482325553894042969e-01
-1.849660992622375488e+00,1.473515629768371582e+00,-6.336574554443359375e-01
-1.852176070213317871e+00,1.475519180297851562e+00,-5.467091202735900879e-01
-1.854485511779785156e+00,1.477359056472778320e+00,-4.608776867389678955e-01
-1.857057332992553711e+00,1.479407787322998047e+00,-3.760519027709960938e-01
-1.859196305274963379e+00,1.481111764907836914e+00,-2.918629646301269531e-01
-1.861559867858886719e+00,1.482994675636291504e+00,-2.082278281450271606e-01
-1.863847732543945312e+00,1.484817266464233398e+00,-1.248866915702819824e-01
-1.866148352622985840e+00,1.486650109291076660e+00,-4.164641350507736206e-02
-1.868461251258850098e+00,1.488492608070373535e+00,4.169803112745285034e-02
-1.870716929435729980e+00,1.490289568901062012e+00,1.253469586372375488e-01
-1.873241424560546875e+00,1.492300748825073242e+00,2.095344811677932739e-01
-1.875352501869201660e+00,1.493982553482055664e+00,2.943992316722869873e-01
-1.877784967422485352e+00,1.495920300483703613e+00,3.802492320537567139e-01
-1.880070686340332031e+00,1.497741222381591797e+00,4.672361016273498535e-01
-1.882826209068298340e+00,1.499936342239379883e+00,5.557561516761779785e-01
-1.896754264831542969e+00,1.467153310775756836e+00,-6.425306200981140137e-01
-1.899396300315856934e+00,1.469197034835815430e+00,-5.543831586837768555e-01
-1.901799678802490234e+00,1.471056103706359863e+00,-4.673555195331573486e-01
-1.904084563255310059e+00,1.472823500633239746e+00,-3.812668919563293457e-01
-1.906360626220703125e+00,1.474583983421325684e+00,-2.959233224391937256e-01
-1.908834815025329590e+00,1.476497888565063477e+00,-2.111302614212036133e-01
-1.911209344863891602e+00,1.478334546089172363e+00,-1.266293525695800781e-01
-1.913569331169128418e+00,1.480159997940063477e+00,-4.222756251692771912e-02
-1.915912270545959473e+00,1.481972336769104004e+00,4.227926954627037048e-02
-1.918173670768737793e+00,1.483721494674682617e+00,1.270907819271087646e-01
-1.920677304267883301e+00,1.485658049583435059e+00,2.124401330947875977e-01
-1.923203468322753906e+00,1.487612128257751465e+00,2.985378205776214600e-01
-1.925662517547607422e+00,1.489514112472534180e+00,3.855876028537750244e-01
-1.927943944931030273e+00,1.491278886795043945e+00,4.737803339958190918e-01
-1.930675029754638672e+00,1.493391394615173340e+00,5.635125637054443359e-01
-1.944852828979492188e+00,1.460352063179016113e+00,-6.516765952110290527e-01
-1.947631955146789551e+00,1.462438821792602539e+00,-5.622946023941040039e-01
-1.949669480323791504e+00,1.463968753814697266e+00,-4.739212691783905029e-01
-1.952125430107116699e+00,1.465812921524047852e+00,-3.866457045078277588e-01
-1.954807281494140625e+00,1.467826604843139648e+00,-3.001515865325927734e-01
-1.957138180732727051e+00,1.469576835632324219e+00,-2.141244262456893921e-01
-1.959602713584899902e+00,1.471427440643310547e+00,-1.284271180629730225e-01
-1.962021827697753906e+00,1.473243951797485352e+00,-4.282705858349800110e-02
-1.964394927024841309e+00,1.475025892257690430e+00,4.287885874509811401e-02
-1.966925024986267090e+00,1.476925611495971680e+00,1.289070099592208862e-01
-1.969139456748962402e+00,1.478588342666625977e+00,2.154374420642852783e-01
-1.971612811088562012e+00,1.480445623397827148e+00,3.027320206165313721e-01
-1.974569797515869141e+00,1.482665896415710449e+00,3.910911083221435547e-01
-1.976840138435363770e+00,1.484370708465576172e+00,4.805258512496948242e-01
-1.979541301727294922e+00,1.486398935317993164e+00,5.715070366859436035e-01
-1.993975639343261719e+00,1.453079462051391602e+00,-6.610996723175048828e-01
-1.996321558952331543e+00,1.454788923263549805e+00,-5.702814459800720215e-01
-1.999037384986877441e+00,1.456768155097961426e+00,-4.808037579059600830e-01
-2.001571655273437500e+00,1.458614945411682129e+00,-3.922638595104217529e-01
-2.004035949707031250e+00,1.460410833358764648e+00,-3.044696152210235596e-01
-2.006486654281616211e+00,1.462196707725524902e+00,-2.172114551067352295e-01
-2.009044885635375977e+00,1.464061021804809570e+00,-1.302807033061981201e-01
-2.011525392532348633e+00,1.465868592262268066e+00,-4.344518482685089111e-02
-2.013928890228271484e+00,1.467620134353637695e+00,4.349709674715995789e-02
-2.016460418701171875e+00,1.469464898109436035e+00,1.307615786790847778e-01
-2.019020318984985352e+00,1.471330285072326660e+00,2.185682803392410278e-01
-2.021541833877563477e+00,1.473167896270751953e+00,3.071292340755462646e-01
-2.023935794830322266e+00,1.474912524223327637e+00,3.966467678546905518e-01
-2.026775598526000977e+00,1.476981878280639648e+00,4.874752461910247803e-01
-2.029436588287353516e+00,1.478921055793762207e+00,5.797412991523742676e-01
-2.044139862060546875e+00,1.445301651954650879e+00,-6.708040237426757812e-01
-2.046632528305053711e+00,1.447064042091369629e+00,-5.786774158477783203e-01
-2.049465179443359375e+00,1.449066877365112305e+00,-4.878939092159271240e-01
-2.051701545715332031e+00,1.450648069381713867e+00,-3.979782164096832275e-01
-2.054327011108398438e+00,1.452504396438598633e+00,-3.089199364185333252e-01
-2.057065963745117188e+00,1.454440951347351074e+00,-2.204106748104095459e-01
-2.059554815292358398e+00,1.456200718879699707e+00,-1.321909427642822266e-01
-2.062096357345581055e+00,1.457997679710388184e+00,-4.408217594027519226e-02
-2.064697980880737305e+00,1.459837079048156738e+00,4.413779079914093018e-02
-2.067062854766845703e+00,1.461509346961975098e+00,1.326728612184524536e-01
-2.069592237472534180e+00,1.463297724723815918e+00,2.217528373003005981e-01
-2.072544336318969727e+00,1.465384840965270996e+00,3.116593658924102783e-01
-2.074947595596313477e+00,1.467084169387817383e+00,4.024873673915863037e-01
-2.077773571014404297e+00,1.469082117080688477e+00,4.946329593658447266e-01
-2.080381393432617188e+00,1.470926046371459961e+00,5.882198214530944824e-01
-2.095367193222045898e+00,1.436987042427062988e+00,-6.807953119277954102e-01
-2.098012924194335938e+00,1.438801407814025879e+00,-5.873219370841979980e-01
-2.100481271743774414e+00,1.440494298934936523e+00,-4.950796663761138916e-01
-2.103294372558593750e+00,1.442423462867736816e+00,-4.039397239685058594e-01
-2.105971336364746094e+00,1.444259285926818848e+00,-3.135452270507812500e-01
-2.108570098876953125e+00,1.446041464805603027e+00,-2.236885726451873779e-01
-2.111153364181518555e+00,1.447813034057617188e+00,-1.341589093208312988e-01
-2.113760948181152344e+00,1.449601411819458008e+00,-4.473849385976791382e-02
-2.116393089294433594e+00,1.451406359672546387e+00,4.479420185089111328e-02
-2.119032144546508789e+00,1.453216195106506348e+00,1.346595883369445801e-01
-2.121636390686035156e+00,1.455002307891845703e+00,2.250747382640838623e-01
-2.124135255813598633e+00,1.456715941429138184e+00,3.162495493888854980e-01
-2.127043008804321289e+00,1.458710074424743652e+00,4.085006713867187500e-01
-2.129848241806030273e+00,1.460633873939514160e+00,5.020013451576232910e-01
-2.132398128509521484e+00,1.462382555007934570e+00,5.969477891921997070e-01
-2.150846719741821289e+00,1.430209517478942871e+00,-6.920988559722900391e-01
-2.153681039810180664e+00,1.432094097137451172e+00,-5.971063375473022461e-01
-2.156299591064453125e+00,1.433835268020629883e+00,-5.033470988273620605e-01
-2.159228563308715820e+00,1.435782909393310547e+00,-4.106930196285247803e-01
-2.161696195602416992e+00,1.437423825263977051e+00,-3.187459111213684082e-01
-2.164438724517822266e+00,1.439247488975524902e+00,-2.274067252874374390e-01
-2.167132377624511719e+00,1.441038489341735840e+00,-1.363915205001831055e-01
-2.169806241989135742e+00,1.442816495895385742e+00,-4.548294842243194580e-02
-2.172471284866333008e+00,1.444588661193847656e+00,4.553881660103797913e-02
-2.175105333328247070e+00,1.446340203285217285e+00,1.368933171033859253e-01
-2.178061962127685547e+00,1.448306202888488770e+00,2.288380265235900879e-01
-2.180587530136108398e+00,1.449985623359680176e+00,3.215314745903015137e-01
-2.183490037918090820e+00,1.451915621757507324e+00,4.153076410293579102e-01
-2.186247825622558594e+00,1.453749418258666992e+00,5.103379487991333008e-01
-2.188707113265991211e+00,1.455384731292724609e+00,6.068173050880432129e-01
-2.204370975494384766e+00,1.420726180076599121e+00,-7.027062773704528809e-01
-2.207382202148437500e+00,1.422666907310485840e+00,-6.062871217727661133e-01
-2.210135221481323242e+00,1.424441218376159668e+00,-5.111022591590881348e-01
-2.212768316268920898e+00,1.426138281822204590e+00,-4.169511497020721436e-01
-2.215698480606079102e+00,1.428026795387268066e+00,-3.236615955829620361e-01
-2.218294620513916016e+00,1.429699897766113281e+00,-2.308913767337799072e-01
-2.221088409423828125e+00,1.431500673294067383e+00,-1.384835988283157349e-01
-2.223832845687866211e+00,1.433269381523132324e+00,-4.618068411946296692e-02
-2.226524591445922852e+00,1.435004353523254395e+00,4.623658210039138794e-02
-2.229444742202758789e+00,1.436886310577392578e+00,1.390046179294586182e-01
-2.232071638107299805e+00,1.438579320907592773e+00,2.323253750801086426e-01
-2.235037565231323242e+00,1.440490961074829102e+00,3.264865875244140625e-01
-2.237942457199096680e+00,1.442363142967224121e+00,4.216947257518768311e-01
-2.240658998489379883e+00,1.444113850593566895e+00,5.181609988212585449e-01
-2.243881940841674805e+00,1.446191191673278809e+00,6.163122653961181641e-01
-2.262444734573364258e+00,1.412738800048828125e+00,-7.146996259689331055e-01
-2.265671968460083008e+00,1.414754033088684082e+00,-6.166720986366271973e-01
-2.268593549728393555e+00,1.416578292846679688e+00,-5.198788046836853027e-01
-2.271348237991333008e+00,1.418298602104187012e+00,-4.241206645965576172e-01
-2.274056196212768555e+00,1.419989347457885742e+00,-3.291835486888885498e-01
-2.276997089385986328e+00,1.421825885772705078e+00,-2.348591238260269165e-01
-2.279733657836914062e+00,1.423534631729125977e+00,-1.408552527427673340e-01
-2.282548427581787109e+00,1.425292253494262695e+00,-4.697152599692344666e-02
-2.285451412200927734e+00,1.427104949951171875e+00,4.703126475214958191e-02
-2.288183450698852539e+00,1.428810834884643555e+00,1.413773298263549805e-01
-2.291170358657836914e+00,1.430675983428955078e+00,2.363210022449493408e-01
-2.294159412384033203e+00,1.432542443275451660e+00,3.320935964584350586e-01
-2.297044038772583008e+00,1.434343814849853516e+00,4.289187490940093994e-01
-2.299695014953613281e+00,1.435999035835266113e+00,5.270061492919921875e-01
-2.302821397781372070e+00,1.437951326370239258e+00,6.267834901809692383e-01
-2.321917295455932617e+00,1.404091238975524902e+00,-7.270636558532714844e-01
-2.325375795364379883e+00,1.406182646751403809e+00,-6.273797750473022461e-01
-2.327943801879882812e+00,1.407735466957092285e+00,-5.288079977035522461e-01
-2.330948352813720703e+00,1.409552454948425293e+00,-4.314380586147308350e-01
-2.334156990051269531e+00,1.411492705345153809e+00,-3.349246382713317871e-01
-2.336965322494506836e+00,1.413190960884094238e+00,-2.389336526393890381e-01
-2.339818000793457031e+00,1.414916038513183594e+00,-1.433016359806060791e-01
-2.342707872390747070e+00,1.416663527488708496e+00,-4.778734222054481506e-02
-2.345644474029541016e+00,1.418439388275146484e+00,4.784724861383438110e-02
-2.348662376403808594e+00,1.420264244079589844e+00,1.438432931900024414e-01
-2.351292610168457031e+00,1.421854853630065918e+00,2.403984963893890381e-01
-2.354182243347167969e+00,1.423602342605590820e+00,3.377980589866638184e-01
-2.357580661773681641e+00,1.425657272338867188e+00,4.363674521446228027e-01
-2.360155820846557617e+00,1.427214622497558594e+00,5.361252427101135254e-01
-2.363171577453613281e+00,1.429038286209106445e+00,6.375769972801208496e-01
-2.383586645126342773e+00,1.395190000534057617e+00,-7.400452494621276855e-01
-2.386520147323608398e+00,1.396906971931457520e+00,-6.384164690971374512e-01
-2.389271736145019531e+00,1.398517608642578125e+00,-5.381367802619934082e-01
-2.392416715621948242e+00,1.400358557701110840e+00,-4.390603899955749512e-01
-2.395423889160156250e+00,1.402118682861328125e+00,-3.408011198043823242e-01
-2.398397445678710938e+00,1.403859138488769531e+00,-2.431351989507675171e-01
-2.401372671127319336e+00,1.405600666999816895e+00,-1.458244025707244873e-01
-2.404339313507080078e+00,1.407337188720703125e+00,-4.862863942980766296e-02
-2.407305955886840820e+00,1.409073591232299805e+00,4.868864268064498901e-02
-2.410309553146362305e+00,1.410831689834594727e+00,1.463671028614044189e-01
-2.413303136825561523e+00,1.412583947181701660e+00,2.446462363004684448e-01
-2.416205883026123047e+00,1.414283037185668945e+00,3.437578380107879639e-01
-2.419579744338989258e+00,1.416257858276367188e+00,4.440453648567199707e-01
-2.422851800918579102e+00,1.418173193931579590e+00,5.457000732421875000e-01
-2.425853967666625977e+00,1.419930458068847656e+00,6.489386558532714844e-01
-2.445954561233520508e+00,1.385081529617309570e+00,-7.531765699386596680e-01
-2.449134588241577148e+00,1.386882305145263672e+00,-6.497895121574401855e-01
-2.452078342437744141e+00,1.388549208641052246e+00,-5.477502346038818359e-01
-2.455376625061035156e+00,1.390416860580444336e+00,-4.469166994094848633e-01
-2.458482027053833008e+00,1.392175436019897461e+00,-3.469019532203674316e-01
-2.461322069168090820e+00,1.393783688545227051e+00,-2.474663704633712769e-01
-2.464423894882202148e+00,1.395540118217468262e+00,-1.484250277280807495e-01
-2.467467069625854492e+00,1.397263526916503906e+00,-4.949585348367691040e-02
-2.470464706420898438e+00,1.398960947990417480e+00,4.955598339438438416e-02
-2.473766565322875977e+00,1.400830745697021484e+00,1.489877104759216309e-01
-2.476817131042480469e+00,1.402558088302612305e+00,2.490242719650268555e-01
-2.479728221893310547e+00,1.404206633567810059e+00,3.498998880386352539e-01
-2.483068227767944336e+00,1.406097888946533203e+00,4.519569873809814453e-01
-2.486258506774902344e+00,1.407904505729675293e+00,5.553854703903198242e-01
-2.489123344421386719e+00,1.409526824951171875e+00,6.603990793228149414e-01
-2.513822555541992188e+00,1.376375913619995117e+00,-7.679299116134643555e-01
-2.517293930053710938e+00,1.378276586532592773e+00,-6.625711917877197266e-01
-2.520467996597290039e+00,1.380014419555664062e+00,-5.585576295852661133e-01
-2.523952007293701172e+00,1.381922006607055664e+00,-4.557515382766723633e-01
-2.526867389678955078e+00,1.383518218994140625e+00,-3.537209033966064453e-01
-2.530086994171142578e+00,1.385280966758728027e+00,-2.523607313632965088e-01
-2.533204317092895508e+00,1.386987924575805664e+00,-1.513563096523284912e-01
-2.536335468292236328e+00,1.388702154159545898e+00,-5.047341436147689819e-02
-2.539488792419433594e+00,1.390428662300109863e+00,5.053616687655448914e-02
-2.542579650878906250e+00,1.392120957374572754e+00,1.519164592027664185e-01
-2.545999288558959961e+00,1.393993377685546875e+00,2.539478838443756104e-01
-2.548898220062255859e+00,1.395580530166625977e+00,3.568048775196075439e-01
-2.552179813385009766e+00,1.397377371788024902e+00,4.608486294746398926e-01
-2.555253267288208008e+00,1.399060130119323730e+00,5.662663578987121582e-01
-2.558868169784545898e+00,1.401039361953735352e+00,6.735138297080993652e-01
-2.584325790405273438e+00,1.367272138595581055e+00,-7.834087610244750977e-01
-2.587292671203613281e+00,1.368841767311096191e+00,-6.757692098617553711e-01
-2.590717554092407227e+00,1.370653867721557617e+00,-5.697194933891296387e-01
-2.593946933746337891e+00,1.372362256050109863e+00,-4.647959470748901367e-01
-2.597437620162963867e+00,1.374209046363830566e+00,-3.608092069625854492e-01
-2.600539445877075195e+00,1.375850200653076172e+00,-2.573972940444946289e-01
-2.603802919387817383e+00,1.377576828002929688e+00,-1.543805599212646484e-01
-2.607019901275634766e+00,1.379278779029846191e+00,-5.148189887404441833e-02
-2.610205888748168945e+00,1.380964279174804688e+00,5.154481157660484314e-02
-2.613593816757202148e+00,1.382756829261779785e+00,1.549610644578933716e-01
-2.616609096527099609e+00,1.384352087974548340e+00,2.589878439903259277e-01
-2.619945287704467773e+00,1.386117100715637207e+00,3.639357686042785645e-01
-2.623159885406494141e+00,1.387817859649658203e+00,4.700304865837097168e-01
-2.626930236816406250e+00,1.389812588691711426e+00,5.776829123497009277e-01
-2.630487918853759766e+00,1.391694784164428711e+00,6.870512366294860840e-01
-2.655893564224243164e+00,1.356845974922180176e+00,-7.991345524787902832e-01
-2.659878730773925781e+00,1.358881950378417969e+00,-6.895769834518432617e-01
-2.662861108779907227e+00,1.360405564308166504e+00,-5.812427997589111328e-01
-2.666288375854492188e+00,1.362156510353088379e+00,-4.742162525653839111e-01
-2.669598102569580078e+00,1.363847374916076660e+00,-3.680835962295532227e-01
-2.672906875610351562e+00,1.365537762641906738e+00,-2.625986337661743164e-01
-2.676318883895874023e+00,1.367280840873718262e+00,-1.575035750865936279e-01
-2.679628610610961914e+00,1.368971705436706543e+00,-5.252340435981750488e-02
-2.682843446731567383e+00,1.370614171028137207e+00,5.258642509579658508e-02
-2.686203479766845703e+00,1.372330665588378906e+00,1.580853015184402466e-01
-2.689590454101562500e+00,1.374061107635498047e+00,2.642376720905303955e-01
-2.692909002304077148e+00,1.375756502151489258e+00,3.712977170944213867e-01
-2.696765899658203125e+00,1.377726793289184570e+00,4.796368777751922607e-01
-2.699689388275146484e+00,1.379220485687255859e+00,5.892816185951232910e-01
-2.703055620193481445e+00,1.380940079689025879e+00,7.007706165313720703e-01
-2.730203866958618164e+00,1.345889210700988770e+00,-8.156138658523559570e-01
-2.733691692352294922e+00,1.347608566284179688e+00,-7.036402821540832520e-01
-2.736939668655395508e+00,1.349209785461425781e+00,-5.931364297866821289e-01
-2.740580320358276367e+00,1.351004362106323242e+00,-4.839406609535217285e-01
-2.744033336639404297e+00,1.352706670761108398e+00,-3.756386339664459229e-01
-2.747426033020019531e+00,1.354379057884216309e+00,-2.679876983165740967e-01
-2.750795602798461914e+00,1.356040239334106445e+00,-1.607278734445571899e-01
-2.754197835922241211e+00,1.357717394828796387e+00,-5.359863117337226868e-02
-2.757646083831787109e+00,1.359417200088500977e+00,5.366573482751846313e-02
-2.761110782623291016e+00,1.361125230789184570e+00,1.613305807113647461e-01
-2.764536619186401367e+00,1.362813949584960938e+00,2.696566879749298096e-01
-2.767834901809692383e+00,1.364439964294433594e+00,3.788968920707702637e-01
-2.771613597869873047e+00,1.366302728652954102e+00,4.894206523895263672e-01
-2.775240898132324219e+00,1.368090867996215820e+00,6.014368534088134766e-01
-2.778521537780761719e+00,1.369708061218261719e+00,7.151793241500854492e-01
-2.805632829666137695e+00,1.333505392074584961e+00,-8.323600292205810547e-01
-2.809473276138305664e+00,1.335330724716186523e+00,-7.181529402732849121e-01
-2.812996864318847656e+00,1.337005496025085449e+00,-6.054098010063171387e-01
-2.816859483718872070e+00,1.338841319084167480e+00,-4.939757585525512695e-01
-2.820128917694091797e+00,1.340395331382751465e+00,-3.833899199962615967e-01
-2.823745965957641602e+00,1.342114448547363281e+00,-2.735302448272705078e-01
-2.827274084091186523e+00,1.343791365623474121e+00,-1.640558093786239624e-01
-2.830771207809448242e+00,1.345453619956970215e+00,-5.470842495560646057e-02
-2.834249734878540039e+00,1.347106814384460449e+00,5.477564781904220581e-02
-2.837683200836181641e+00,1.348738789558410645e+00,1.646598130464553833e-01
-2.841492176055908203e+00,1.350549101829528809e+00,2.752492725849151611e-01
-2.844762086868286133e+00,1.352103352546691895e+00,3.867387175559997559e-01
-2.848451852798461914e+00,1.353857159614562988e+00,4.995159208774566650e-01
-2.851925134658813477e+00,1.355507969856262207e+00,6.137879490852355957e-01
-2.855981588363647461e+00,1.357435941696166992e+00,7.300412654876708984e-01
-2.888812541961669922e+00,1.322693109512329102e+00,-8.513334393501281738e-01
-2.892932891845703125e+00,1.324579596519470215e+00,-7.345651388168334961e-01
-2.896042108535766602e+00,1.326003193855285645e+00,-6.191344857215881348e-01
-2.900170803070068359e+00,1.327893614768981934e+00,-5.052007436752319336e-01
-2.903617382049560547e+00,1.329471707344055176e+00,-3.921128213405609131e-01
-2.907350778579711914e+00,1.331181049346923828e+00,-2.797544896602630615e-01
-2.910845756530761719e+00,1.332781314849853516e+00,-1.677810251712799072e-01
-2.914449930191040039e+00,1.334431529045104980e+00,-5.595075339078903198e-02
-2.918170928955078125e+00,1.336135268211364746e+00,5.602218955755233765e-02
-2.921697854995727539e+00,1.337750077247619629e+00,1.684065312147140503e-01
-2.925539493560791016e+00,1.339509010314941406e+00,2.815046906471252441e-01
-2.928753376007080078e+00,1.340980648994445801e+00,3.955072462558746338e-01
-2.933087825775146484e+00,1.342965245246887207e+00,5.109347701072692871e-01
-2.936496496200561523e+00,1.344525933265686035e+00,6.277831196784973145e-01
-2.940423250198364258e+00,1.346323847770690918e+00,7.466237545013427734e-01
-2.969349861145019531e+00,1.308491349220275879e+00,-8.694592118263244629e-01
-2.972964763641357422e+00,1.310084223747253418e+00,-7.500483393669128418e-01
-2.976998805999755859e+00,1.311861991882324219e+00,-6.323628425598144531e-01
-2.980750083923339844e+00,1.313514947891235352e+00,-5.159094333648681641e-01
-2.984367609024047852e+00,1.315109133720397949e+00,-4.004344940185546875e-01
-2.987989425659179688e+00,1.316705107688903809e+00,-2.856710851192474365e-01
-2.991654157638549805e+00,1.318320035934448242e+00,-1.713336110115051270e-01
-2.995357036590576172e+00,1.319951891899108887e+00,-5.713543295860290527e-02
-2.999110698699951172e+00,1.321605920791625977e+00,5.720702931284904480e-02
-3.002957820892333984e+00,1.323301196098327637e+00,1.719809770584106445e-01
-3.006834506988525391e+00,1.325009584426879883e+00,2.874727845191955566e-01
-3.010640621185302734e+00,1.326686739921569824e+00,4.039597511291503906e-01
-3.014241218566894531e+00,1.328273415565490723e+00,5.217061042785644531e-01
-3.018375158309936523e+00,1.330095052719116211e+00,6.411518454551696777e-01
-3.022191047668457031e+00,1.331776618957519531e+00,7.624676227569580078e-01
-3.062583208084106445e+00,1.297555565834045410e+00,-8.912294507026672363e-01
-3.066544055938720703e+00,1.299233794212341309e+00,-7.688869833946228027e-01
-3.070206403732299805e+00,1.300785422325134277e+00,-6.481403112411499023e-01
-3.073769569396972656e+00,1.302295088768005371e+00,-5.287288427352905273e-01
-3.077754259109497070e+00,1.303983330726623535e+00,-4.104184806346893311e-01
-3.081661701202392578e+00,1.305638790130615234e+00,-2.928100526332855225e-01
-3.085526943206787109e+00,1.307276487350463867e+00,-1.756201386451721191e-01
-3.089347362518310547e+00,1.308895111083984375e+00,-5.856490507721900940e-02
-3.093134164810180664e+00,1.310499429702758789e+00,5.863668769598007202e-02
-3.096932172775268555e+00,1.312108635902404785e+00,1.762692928314208984e-01
-3.100676298141479492e+00,1.313694953918457031e+00,2.946167290210723877e-01
-3.104912281036376953e+00,1.315489649772644043e+00,4.140399992465972900e-01
-3.109137773513793945e+00,1.317279934883117676e+00,5.348126888275146484e-01
-3.113168239593505859e+00,1.318987488746643066e+00,6.572098731994628906e-01
-3.116790533065795898e+00,1.320522189140319824e+00,7.814854979515075684e-01
-3.152374744415283203e+00,1.282698392868041992e+00,-9.119230508804321289e-01
-3.156790018081665039e+00,1.284495115280151367e+00,-7.868242859840393066e-01
-3.160824537277221680e+00,1.286136627197265625e+00,-6.633161902427673340e-01
-3.164679050445556641e+00,1.287705063819885254e+00,-5.411406159400939941e-01
-3.168879508972167969e+00,1.289414167404174805e+00,-4.200659096240997314e-01
-3.172893285751342773e+00,1.291047453880310059e+00,-2.996920347213745117e-01
-3.176832437515258789e+00,1.292650222778320312e+00,-1.797454953193664551e-01
-3.180769920349121094e+00,1.294252395629882812e+00,-5.994068458676338196e-02
-3.184736251831054688e+00,1.295866370201110840e+00,6.001542881131172180e-02
-3.188630819320678711e+00,1.297451019287109375e+00,1.804130524396896362e-01
-3.192388534545898438e+00,1.298979997634887695e+00,3.015334308147430420e-01
-3.196566820144653320e+00,1.300680160522460938e+00,4.237361550331115723e-01
-3.200651168823242188e+00,1.302342176437377930e+00,5.472916364669799805e-01
-3.204456090927124023e+00,1.303890347480773926e+00,6.724724769592285156e-01
-3.208842754364013672e+00,1.305675148963928223e+00,7.997982501983642578e-01
-3.251458644866943359e+00,1.269084692001342773e+00,-9.352356195449829102e-01
-3.256267309188842773e+00,1.270961523056030273e+00,-8.070017695426940918e-01
-3.260593652725219727e+00,1.272650241851806641e+00,-6.803608536720275879e-01
-3.264642715454101562e+00,1.274230480194091797e+00,-5.550582408905029297e-01
-3.268574953079223633e+00,1.275765419006347656e+00,-4.308167695999145508e-01
-3.272528171539306641e+00,1.277308344841003418e+00,-3.073445856571197510e-01
-3.276682615280151367e+00,1.278929829597473145e+00,-1.843404024839401245e-01
-3.280743360519409180e+00,1.280514836311340332e+00,-6.147295609116554260e-02
-3.284745216369628906e+00,1.282076835632324219e+00,6.154794245958328247e-02
-3.288959503173828125e+00,1.283721685409545898e+00,1.850310713052749634e-01
-3.293244123458862305e+00,1.285394072532653809e+00,3.092901408672332764e-01
-3.297479152679443359e+00,1.287047028541564941e+00,4.346264898777008057e-01
-3.301529169082641602e+00,1.288627862930297852e+00,5.613297224044799805e-01
-3.305201768875122070e+00,1.290061354637145996e+00,6.896688938140869141e-01
-3.310466766357421875e+00,1.292116284370422363e+00,8.204340934753417969e-01
-3.353721141815185547e+00,1.253989934921264648e+00,-9.593889117240905762e-01
-3.358948707580566406e+00,1.255944490432739258e+00,-8.279093503952026367e-01
-3.362906932830810547e+00,1.257424592971801758e+00,-6.978827118873596191e-01
-3.367311477661132812e+00,1.259071469306945801e+00,-5.693916678428649902e-01
-3.371504783630371094e+00,1.260639429092407227e+00,-4.419599175453186035e-01
-3.375619411468505859e+00,1.262177944183349609e+00,-3.152975440025329590e-01
-3.379769325256347656e+00,1.263729572296142578e+00,-1.891028881072998047e-01
-3.383962154388427734e+00,1.265297412872314453e+00,-6.306121498346328735e-02
-3.388231992721557617e+00,1.266893863677978516e+00,6.314077973365783691e-02
-3.392539024353027344e+00,1.268504381179809570e+00,1.898173689842224121e-01
-3.396824121475219727e+00,1.270106554031372070e+00,3.172781467437744141e-01
-3.400966167449951172e+00,1.271655321121215820e+00,4.458218812942504883e-01
-3.405657768249511719e+00,1.273409485816955566e+00,5.758758187294006348e-01
-3.409177780151367188e+00,1.274725675582885742e+00,7.074850201606750488e-01
-3.414228677749633789e+00,1.276614308357238770e+00,8.415346741676330566e-01
-3.460238218307495117e+00,1.237665772438049316e+00,-9.846913218498229980e-01
-3.464091062545776367e+00,1.239043951034545898e+00,-8.493664264678955078e-01
