-5.103702545166015625e+00,-3.832270622253417969e+00,7.836498618125915527e-01
-5.111145973205566406e+00,-3.837859630584716797e+00,1.012333750724792480e+00
-5.116824150085449219e+00,-3.842123508453369141e+00,1.243786096572875977e+00
-3.162371635437011719e+00,-2.446117639541625977e+00,-1.071261882781982422e+00
-3.749771118164062500e+00,-2.900475740432739258e+00,-1.094458341598510742e+00
-4.601735591888427734e+00,-3.559476375579833984e+00,-1.130848169326782227e+00
-4.968503475189208984e+00,-3.843173980712890625e+00,-9.948748350143432617e-01
-4.974217414855957031e+00,-3.847594022750854492e+00,-7.721450328826904297e-01
-4.980488777160644531e+00,-3.852444648742675781e+00,-5.508763194084167480e-01
-4.986501693725585938e+00,-3.857095956802368164e+00,-3.303863704204559326e-01
-4.992458820343017578e+00,-3.861703872680664062e+00,-1.101707592606544495e-01
-4.998384952545166016e+00,-3.866287708282470703e+00,1.103015318512916565e-01
-5.004096984863281250e+00,-3.870705842971801758e+00,3.315521478652954102e-01
-5.010433197021484375e+00,-3.875607013702392578e+00,5.541883707046508789e-01
-5.016825675964355469e+00,-3.880551815032958984e+00,7.787591218948364258e-01
-5.023044109344482422e+00,-3.885361671447753906e+00,1.005795836448669434e+00
-5.028801441192626953e+00,-3.889815092086791992e+00,1.235796928405761719e+00
-3.129841566085815430e+00,-2.493359804153442383e+00,-1.072222113609313965e+00
-3.715748310089111328e+00,-2.960117101669311523e+00,-1.096782088279724121e+00
-4.568232059478759766e+00,-3.639240503311157227e+00,-1.135299324989318848e+00
-4.882887840270996094e+00,-3.889908075332641602e+00,-9.887789487838745117e-01
-4.888291835784912109e+00,-3.894212961196899414e+00,-7.673806548118591309e-01
-4.894317626953125000e+00,-3.899013519287109375e+00,-5.474619269371032715e-01
-4.900157451629638672e+00,-3.903665781021118164e+00,-3.283339142799377441e-01
-4.906011104583740234e+00,-3.908329248428344727e+00,-1.094863489270210266e-01
-4.911904335021972656e+00,-3.913023948669433594e+00,1.096178740262985229e-01
-4.917654991149902344e+00,-3.917605161666870117e+00,3.295063674449920654e-01
-4.924095630645751953e+00,-3.922735929489135742e+00,5.507927536964416504e-01
-4.929462432861328125e+00,-3.927011489868164062e+00,7.738437652587890625e-01
-4.935663700103759766e+00,-3.931951284408569336e+00,9.994660019874572754e-01
-4.941483497619628906e+00,-3.936587810516357422e+00,1.228060007095336914e+00
-3.097278833389282227e+00,-2.540722846984863281e+00,-1.073415279388427734e+00
-3.681676864624023438e+00,-3.020109176635742188e+00,-1.099372267723083496e+00
-4.490857601165771484e+00,-3.683886766433715820e+00,-1.129058837890625000e+00
-4.797074317932128906e+00,-3.935078859329223633e+00,-9.827069044113159180e-01
-4.803108692169189453e+00,-3.940028905868530273e+00,-7.627833485603332520e-01
-4.808897972106933594e+00,-3.944777965545654297e+00,-5.441672205924987793e-01
-4.814568996429443359e+00,-3.949429988861083984e+00,-3.263534605503082275e-01
-4.820321083068847656e+00,-3.954148054122924805e+00,-1.088259443640708923e-01
-4.826178550720214844e+00,-3.958953142166137695e+00,1.089581921696662903e-01
-4.831961154937744141e+00,-3.963696718215942383e+00,3.275323808193206787e-01
-4.837569236755371094e+00,-3.968297004699707031e+00,5.474116206169128418e-01
-4.844027519226074219e+00,-3.973595142364501953e+00,7.692817449569702148e-01
-4.849018573760986328e+00,-3.977689027786254883e+00,9.933478832244873047e-01
-4.854880332946777344e+00,-3.982497692108154297e+00,1.220578908920288086e+00
-3.046305894851684570e+00,-2.572719812393188477e+00,-1.068402409553527832e+00
-3.620843172073364258e+00,-3.057938337326049805e+00,-1.094164848327636719e+00
-4.459514141082763672e+00,-3.766227722167968750e+00,-1.134615659713745117e+00
-4.715621471405029297e+00,-3.982519865036010742e+00,-9.775981903076171875e-01
-4.721385955810546875e+00,-3.987388134002685547e+00,-7.587910294532775879e-01
-4.726563453674316406e+00,-3.991760730743408203e+00,-5.412603616714477539e-01
-4.732341766357421875e+00,-3.996640682220458984e+00,-3.246241509914398193e-01
-4.738005638122558594e+00,-4.001423835754394531e+00,-1.082495227456092834e-01
-4.743558406829833984e+00,-4.006113529205322266e+00,1.083763912320137024e-01
-4.749746799468994141e+00,-4.011340141296386719e+00,3.258180618286132812e-01
-4.755428791046142578e+00,-4.016138553619384766e+00,5.445658564567565918e-01
-4.760840892791748047e+00,-4.020709037780761719e+00,7.651319503784179688e-01
-4.767190933227539062e+00,-4.026072025299072266e+00,9.882890582084655762e-01
-4.773288726806640625e+00,-4.031221866607666016e+00,1.214447975158691406e+00
-3.013697147369384766e+00,-2.619988203048706055e+00,-1.070008635520935059e+00
-3.586640834808349609e+00,-3.118082523345947266e+00,-1.097203612327575684e+00
-4.382497787475585938e+00,-3.809968948364257812e+00,-1.128779888153076172e+00
-4.631187438964843750e+00,-4.026169776916503906e+00,-9.719415307044982910e-01
-4.636921882629394531e+00,-4.031155109405517578e+00,-7.544123530387878418e-01
-4.642534732818603516e+00,-4.036034584045410156e+00,-5.381981730461120605e-01
-4.648151397705078125e+00,-4.040917396545410156e+00,-3.227834701538085938e-01
-4.653714656829833984e+00,-4.045753955841064453e+00,-1.076357364654541016e-01
-4.659227848052978516e+00,-4.050547122955322266e+00,1.077632531523704529e-01
-4.664786338806152344e+00,-4.055379390716552734e+00,3.239386677742004395e-01
-4.670292854309082031e+00,-4.060166358947753906e+00,5.414161086082458496e-01
-4.676745891571044922e+00,-4.065776824951171875e+00,7.608916759490966797e-01
-4.681884288787841797e+00,-4.070243358612060547e+00,9.825811982154846191e-01
-4.687989234924316406e+00,-4.075551033020019531e+00,1.207463860511779785e+00
-2.982490539550781250e+00,-2.668756961822509766e+00,-1.072381496429443359e+00
-3.526024341583251953e+00,-3.155115604400634766e+00,-1.092363595962524414e+00
-4.350683689117431641e+00,-3.893027305603027344e+00,-1.134821653366088867e+00
-4.550834655761718750e+00,-4.072124481201171875e+00,-9.672114253044128418e-01
-4.556318283081054688e+00,-4.077031135559082031e+00,-7.507159709930419922e-01
-4.561731338500976562e+00,-4.081874847412109375e+00,-5.355491638183593750e-01
-4.567199230194091797e+00,-4.086767196655273438e+00,-3.211911320686340332e-01
-4.572665691375732422e+00,-4.091658592224121094e+00,-1.071047559380531311e-01
-4.578134059906005859e+00,-4.096551895141601562e+00,1.072328463196754456e-01
-4.583698272705078125e+00,-4.101531028747558594e+00,3.223514556884765625e-01
-4.589262485504150391e+00,-4.106509208679199219e+00,5.387812852859497070e-01
-4.594674587249755859e+00,-4.111352443695068359e+00,7.570356726646423340e-01
-4.601112842559814453e+00,-4.117113590240478516e+00,9.778972268104553223e-01
-4.605796813964843750e+00,-4.121304988861083984e+00,1.201364755630493164e+00
-4.611410140991210938e+00,-4.126327514648437500e+00,1.428616404533386230e+00
-2.930319786071777344e+00,-2.698580026626586914e+00,-1.067402005195617676e+00
-3.491707801818847656e+00,-3.215571403503417969e+00,-1.095878839492797852e+00
-4.274054050445556641e+00,-3.936047077178955078e+00,-1.129413247108459473e+00
-4.468677997589111328e+00,-4.115279674530029297e+00,-9.621708393096923828e-01
-4.473901748657226562e+00,-4.120090007781982422e+00,-7.467767000198364258e-01
-4.479109287261962891e+00,-4.124885559082031250e+00,-5.327261686325073242e-01
-4.484423637390136719e+00,-4.129780292510986328e+00,-3.194942176342010498e-01
-4.489790916442871094e+00,-4.134722709655761719e+00,-1.065388917922973633e-01
-4.495214462280273438e+00,-4.139717578887939453e+00,1.066675931215286255e-01
-4.500787258148193359e+00,-4.144849300384521484e+00,3.206600248813629150e-01
-4.506412029266357422e+00,-4.150029659271240234e+00,5.359734296798706055e-01
-4.511939525604248047e+00,-4.155119895935058594e+00,7.531259655952453613e-01
-4.517167568206787109e+00,-4.159934520721435547e+00,9.726113080978393555e-01
-4.523443698883056641e+00,-4.165714263916015625e+00,1.195314049720764160e+00
-4.529320716857910156e+00,-4.171126365661621094e+00,1.421535730361938477e+00
-2.898934364318847656e+00,-2.747385263442993164e+00,-1.070184350013732910e+00
-3.458890914916992188e+00,-3.278068542480468750e+00,-1.100192666053771973e+00
-4.241775512695312500e+00,-4.020025730133056641e+00,-1.135972261428833008e+00
-4.388562202453613281e+00,-4.159139156341552734e+00,-9.576406478881835938e-01
-4.393800258636474609e+00,-4.164103031158447266e+00,-7.432789802551269531e-01
-4.399446010589599609e+00,-4.169454097747802734e+00,-5.302950739860534668e-01
-4.404620647430419922e+00,-4.174357891082763672e+00,-3.180329203605651855e-01
-4.409892559051513672e+00,-4.179354190826416016e+00,-1.060516089200973511e-01
-4.415266036987304688e+00,-4.184446334838867188e+00,1.061808317899703979e-01
-4.420213699340820312e+00,-4.189136028289794922e+00,3.191588222980499268e-01
-4.425629615783691406e+00,-4.194268226623535156e+00,5.334511399269104004e-01
-4.430998325347900391e+00,-4.199356555938720703e+00,7.495716214179992676e-01
-4.436121940612792969e+00,-4.204212188720703125e+00,9.680188298225402832e-01
-4.442324161529541016e+00,-4.210090160369873047e+00,1.189680337905883789e+00
-4.448184967041015625e+00,-4.215644359588623047e+00,1.414864063262939453e+00
-2.867391586303710938e+00,-2.796468257904052734e+00,-1.073206543922424316e+00
-3.398335456848144531e+00,-3.314279556274414062e+00,-1.095908284187316895e+00
-4.167325973510742188e+00,-4.064249515533447266e+00,-1.131497621536254883e+00
-4.309813022613525391e+00,-4.203211784362792969e+00,-9.534870982170104980e-01
-4.314828872680664062e+00,-4.208103656768798828e+00,-7.400332093238830566e-01
-4.320290565490722656e+00,-4.213430881500244141e+00,-5.279692411422729492e-01
-4.325327873229980469e+00,-4.218343734741210938e+00,-3.166348338127136230e-01
-4.330504894256591797e+00,-4.223392486572265625e+00,-1.055854111909866333e-01
-4.335825443267822266e+00,-4.228580951690673828e+00,1.057151332497596741e-01
-4.340767383575439453e+00,-4.233401298522949219e+00,3.177650868892669678e-01
-4.346214771270751953e+00,-4.238713741302490234e+00,5.311374068260192871e-01
-4.351658344268798828e+00,-4.244022369384765625e+00,7.463498115539550781e-01
-4.356900215148925781e+00,-4.249134540557861328e+00,9.639045000076293945e-01
-4.361695766448974609e+00,-4.253811359405517578e+00,1.184272170066833496e+00
-4.367522239685058594e+00,-4.259494304656982422e+00,1.408455491065979004e+00
-2.816712617874145508e+00,-2.826820373535156250e+00,-1.069272875785827637e+00
-3.365141630172729492e+00,-3.377217531204223633e+00,-1.100679874420166016e+00
-4.134476661682128906e+00,-4.149313449859619141e+00,-1.138587474822998047e+00
-4.231551170349121094e+00,-4.246736526489257812e+00,-9.495234489440917969e-01
-4.236354351043701172e+00,-4.251556396484375000e+00,-7.369357347488403320e-01
-4.241638660430908203e+00,-4.256860256195068359e+00,-5.257497429847717285e-01
-4.246542930603027344e+00,-4.261781692504882812e+00,-3.153006434440612793e-01
-4.251626014709472656e+00,-4.266882896423339844e+00,-1.051405146718025208e-01
-4.256890773773193359e+00,-4.272166728973388672e+00,1.052707135677337646e-01
-4.261821746826171875e+00,-4.277115821838378906e+00,3.164350986480712891e-01
-4.267292499542236328e+00,-4.282605648040771484e+00,5.289294719696044922e-01
-4.271722793579101562e+00,-4.287051677703857422e+00,7.430882453918457031e-01
-4.276837825775146484e+00,-4.292185306549072266e+00,9.596853256225585938e-01
-4.283084392547607422e+00,-4.298454284667968750e+00,1.179512262344360352e+00
-4.289082050323486328e+00,-4.304473400115966797e+00,1.402884721755981445e+00
-2.784918069839477539e+00,-2.876088142395019531e+00,-1.072720766067504883e+00
-3.304727792739868164e+00,-3.412914991378784180e+00,-1.096785426139831543e+00
-4.060084819793701172e+00,-4.193000316619873047e+00,-1.134512424468994141e+00
-4.152941703796386719e+00,-4.288897037506103516e+00,-9.455624818801879883e-01
-4.158372879028320312e+00,-4.294506072998046875e+00,-7.339881658554077148e-01
-4.163124561309814453e+00,-4.299413204193115234e+00,-5.235920548439025879e-01
-4.168261528015136719e+00,-4.304718017578125000e+00,-3.140310347080230713e-01
-4.173250675201416016e+00,-4.309870243072509766e+00,-1.047171428799629211e-01
-4.178103446960449219e+00,-4.314882278442382812e+00,1.048389226198196411e-01
-4.183372020721435547e+00,-4.320323467254638672e+00,3.151694536209106445e-01
-4.188028812408447266e+00,-4.325132369995117188e+00,5.267242193222045898e-01
-4.193349838256835938e+00,-4.330627918243408203e+00,7.401618957519531250e-01
-4.198555946350097656e+00,-4.336004257202148438e+00,9.559481143951416016e-01
-4.203405857086181641e+00,-4.341012954711914062e+00,1.174560666084289551e+00
-4.209335803985595703e+00,-4.347136974334716797e+00,1.397009968757629395e+00
-2.734400749206542969e+00,-2.906012773513793945e+00,-1.069174647331237793e+00
-3.244627952575683594e+00,-3.448261976242065430e+00,-1.093107938766479492e+00
-3.986093282699584961e+00,-4.236261844635009766e+00,-1.130664467811584473e+00
-4.075649738311767578e+00,-4.331439018249511719e+00,-9.419837594032287598e-01
-4.080878734588623047e+00,-4.336996078491210938e+00,-7.311921119689941406e-01
-4.085469722747802734e+00,-4.341875076293945312e+00,-5.215882658958435059e-01
-4.090477466583251953e+00,-4.347197055816650391e+00,-3.128267228603363037e-01
-4.095373630523681641e+00,-4.352400302886962891e+00,-1.043155491352081299e-01
-4.100170135498046875e+00,-4.357498168945312500e+00,1.044377237558364868e-01
-4.105412006378173828e+00,-4.363068580627441406e+00,3.139688372611999512e-01
-4.110084056854248047e+00,-4.368033885955810547e+00,5.247307419776916504e-01
-4.115447521209716797e+00,-4.373733997344970703e+00,7.373859286308288574e-01
-4.120728969573974609e+00,-4.379347324371337891e+00,9.524027109146118164e-01
-4.125692844390869141e+00,-4.384622573852539062e+00,1.170262217521667480e+00
-4.130056381225585938e+00,-4.389260292053222656e+00,1.391406774520874023e+00
-2.702338457107543945e+00,-2.955577373504638672e+00,-1.073069453239440918e+00
-3.210854768753051758e+00,-3.511747360229492188e+00,-1.098551511764526367e+00
-3.952283143997192383e+00,-4.322655677795410156e+00,-1.138507723808288574e+00
-3.998826980590820312e+00,-4.373561382293701172e+00,-9.386005401611328125e-01
-4.003283977508544922e+00,-4.378436088562011719e+00,-7.284434437751770020e-01
-4.008300781250000000e+00,-4.383923053741455078e+00,-5.196940898895263672e-01
-4.013182163238525391e+00,-4.389261722564697266e+00,-3.116881549358367920e-01
-4.017985343933105469e+00,-4.394515037536621094e+00,-1.039358824491500854e-01
-4.022722721099853516e+00,-4.399696350097656250e+00,1.040584295988082886e-01
-4.027359485626220703e+00,-4.404767990112304688e+00,3.127892613410949707e-01
-4.032611846923828125e+00,-4.410511970520019531e+00,5.228461027145385742e-01
-4.036978244781494141e+00,-4.415287494659423828e+00,7.345744967460632324e-01
-4.042100429534912109e+00,-4.420889854431152344e+00,9.487575888633728027e-01
-4.046946048736572266e+00,-4.426189899444580078e+00,1.165776729583740234e+00
-4.052906513214111328e+00,-4.432708263397216797e+00,1.386648297309875488e+00
-2.651967287063598633e+00,-2.985177278518676758e+00,-1.069924950599670410e+00
-3.150873422622680664e+00,-3.546768903732299805e+00,-1.095286607742309570e+00
-3.878318548202514648e+00,-4.365614891052246094e+00,-1.135085225105285645e+00
-3.922462701797485352e+00,-4.415305614471435547e+00,-9.354144334793090820e-01
-3.926743745803833008e+00,-4.420124530792236328e+00,-7.259538769721984863e-01
-3.931606531143188477e+00,-4.425598144531250000e+00,-5.179103016853332520e-01
-3.936365127563476562e+00,-4.430954933166503906e+00,-3.106160461902618408e-01
-3.941076517105102539e+00,-4.436258316040039062e+00,-1.035783737897872925e-01
-3.945753097534179688e+00,-4.441522121429443359e+00,1.037012785673141479e-01
-3.950359582901000977e+00,-4.446707725524902344e+00,3.117203116416931152e-01
-3.955603361129760742e+00,-4.452610015869140625e+00,5.210714340209960938e-01
-3.960001230239868164e+00,-4.457560539245605469e+00,7.321023344993591309e-01
-3.965173959732055664e+00,-4.463383197784423828e+00,9.456000328063964844e-01
-3.970102310180664062e+00,-4.468930721282958984e+00,1.161947965621948242e+00
-3.974512100219726562e+00,-4.473894596099853516e+00,1.381594657897949219e+00
-2.601833343505859375e+00,-3.014555454254150391e+00,-1.066997528076171875e+00
-3.091186761856079102e+00,-3.581533670425415039e+00,-1.092246890068054199e+00
-3.804729938507080078e+00,-4.408264636993408203e+00,-1.131898760795593262e+00
-3.845767974853515625e+00,-4.455811977386474609e+00,-9.322386384010314941e-01
-3.850660324096679688e+00,-4.461480617523193359e+00,-7.236198186874389648e-01
-3.855375051498413086e+00,-4.466943264007568359e+00,-5.162379145622253418e-01
-3.860014438629150391e+00,-4.472318649291992188e+00,-3.096108734607696533e-01
-3.864634990692138672e+00,-4.477672100067138672e+00,-1.032431945204734802e-01
-3.869247436523437500e+00,-4.483016014099121094e+00,1.033664196729660034e-01
-3.873818635940551758e+00,-4.488312721252441406e+00,3.107180893421173096e-01
-3.878268957138061523e+00,-4.493468761444091797e+00,5.193034410476684570e-01
-3.883464574813842773e+00,-4.499488353729248047e+00,7.297844290733337402e-01
-3.888674020767211914e+00,-4.505524158477783203e+00,9.426392912864685059e-01
-3.893667459487915039e+00,-4.511310100555419922e+00,1.158357501029968262e+00
-3.898175477981567383e+00,-4.516532897949218750e+00,1.377390146255493164e+00
-2.570060729980468750e+00,-3.065365314483642578e+00,-1.071851253509521484e+00
-3.057610034942626953e+00,-3.646875381469726562e+00,-1.098714590072631836e+00
-3.732549428939819336e+00,-4.451889991760253906e+00,-1.129266738891601562e+00
-3.771511554718017578e+00,-4.498360633850097656e+00,-9.297509789466857910e-01
-3.776244878768920898e+00,-4.504006385803222656e+00,-7.216765880584716797e-01
-3.780824661254882812e+00,-4.509468555450439453e+00,-5.148456096649169922e-01
-3.785351991653442383e+00,-4.514868259429931641e+00,-3.087739944458007812e-01
-3.789882659912109375e+00,-4.520272254943847656e+00,-1.029641255736351013e-01
-3.794428825378417969e+00,-4.525694370269775391e+00,1.030876338481903076e-01
-3.798955440521240234e+00,-4.531093597412109375e+00,3.098836541175842285e-01
-3.803385257720947266e+00,-4.536376953125000000e+00,5.179177522659301758e-01
-3.808571100234985352e+00,-4.542562484741210938e+00,7.278544306755065918e-01
-3.812603473663330078e+00,-4.547371864318847656e+00,9.398809671401977539e-01
-3.817427158355712891e+00,-4.553125381469726562e+00,1.154946088790893555e+00
-3.821801900863647461e+00,-4.558343410491943359e+00,1.373317599296569824e+00
-2.519960165023803711e+00,-3.094507694244384766e+00,-1.069319605827331543e+00
-2.997905015945434570e+00,-3.681423425674438477e+00,-1.096082925796508789e+00
-3.691504955291748047e+00,-4.533163547515869141e+00,-1.136363267898559570e+00
-3.696346759796142578e+00,-4.539109230041503906e+00,-9.271429181098937988e-01
-3.700918912887573242e+00,-4.544723987579345703e+00,-7.196391820907592773e-01
-3.705362558364868164e+00,-4.550180435180664062e+00,-5.133858919143676758e-01
-3.709776639938354492e+00,-4.555601119995117188e+00,-3.078966736793518066e-01
-3.714216947555541992e+00,-4.561053752899169922e+00,-1.026715710759162903e-01
-3.718695163726806641e+00,-4.566553115844726562e+00,1.027953624725341797e-01
-3.723176956176757812e+00,-4.572056770324707031e+00,3.090088367462158203e-01
-3.727585315704345703e+00,-4.577470302581787109e+00,5.164649486541748047e-01
-3.731800079345703125e+00,-4.582645893096923828e+00,7.256439924240112305e-01
-3.736821413040161133e+00,-4.588811874389648438e+00,9.372950196266174316e-01
-3.741683244705200195e+00,-4.594782352447509766e+00,1.151809692382812500e+00
-3.746123075485229492e+00,-4.600234031677246094e+00,1.369643568992614746e+00
-2.470070838928222656e+00,-3.123500585556030273e+00,-1.067011833190917969e+00
-2.938462734222412109e+00,-3.715800523757934570e+00,-1.093683481216430664e+00
-3.616919279098510742e+00,-4.573735237121582031e+00,-1.133439779281616211e+00
-3.621584653854370117e+00,-4.579634666442871094e+00,-9.247376322746276855e-01
-3.626004219055175781e+00,-4.585223197937011719e+00,-7.177603244781494141e-01
-3.630317211151123047e+00,-4.590677261352539062e+00,-5.120398402214050293e-01
-3.634621381759643555e+00,-4.596119880676269531e+00,-3.070876300334930420e-01
-3.638972043991088867e+00,-4.601621627807617188e+00,-1.024018004536628723e-01
-3.643379926681518555e+00,-4.607195377349853516e+00,1.025258377194404602e-01
-3.647811889648437500e+00,-4.612800121307373047e+00,3.082020878791809082e-01
-3.652191638946533203e+00,-4.618338108062744141e+00,5.151250958442687988e-01
-3.656400442123413086e+00,-4.623660564422607422e+00,7.237771749496459961e-01
-3.661422252655029297e+00,-4.630011081695556641e+00,9.349098205566406250e-01
-3.666306257247924805e+00,-4.636187076568603516e+00,1.148916363716125488e+00
-3.670793056488037109e+00,-4.641860485076904297e+00,1.366253733634948730e+00
-2.437539815902709961e+00,-3.174715518951416016e+00,-1.072478771209716797e+00
-2.903812170028686523e+00,-3.782001018524169922e+00,-1.100822210311889648e+00
-3.543598890304565430e+00,-4.615275859832763672e+00,-1.131048917770385742e+00
-3.548107147216796875e+00,-4.621147632598876953e+00,-9.227707386016845703e-01
-3.552389383316040039e+00,-4.626725196838378906e+00,-7.162240743637084961e-01
-3.556582927703857422e+00,-4.632186412811279297e+00,-5.109393000602722168e-01
-3.560783386230468750e+00,-4.637657165527343750e+00,-3.064261972904205322e-01
-3.565045595169067383e+00,-4.643208503723144531e+00,-1.021812334656715393e-01
-3.569380283355712891e+00,-4.648854255676269531e+00,1.023054718971252441e-01
-3.573754549026489258e+00,-4.654551506042480469e+00,3.075424432754516602e-01
-3.578093767166137695e+00,-4.660202980041503906e+00,5.140295624732971191e-01
-3.582280158996582031e+00,-4.665655136108398438e+00,7.222505211830139160e-01
-3.586158514022827148e+00,-4.670706748962402344e+00,9.326669573783874512e-01
-3.590843677520751953e+00,-4.676808834075927734e+00,1.146128535270690918e+00
-3.595162630081176758e+00,-4.682433605194091797e+00,1.362910032272338867e+00
-2.387625694274902344e+00,-3.203603506088256836e+00,-1.070582985877990723e+00
-2.844279766082763672e+00,-3.816320419311523438e+00,-1.098849177360534668e+00
-3.469635963439941406e+00,-4.655394077301025391e+00,-1.128594279289245605e+00
-3.473987817764282227e+00,-4.661233425140380859e+00,-9.207516312599182129e-01
-3.478132963180541992e+00,-4.666794776916503906e+00,-7.146471142768859863e-01
-3.482206821441650391e+00,-4.672260761260986328e+00,-5.098096132278442383e-01
-3.486303329467773438e+00,-4.677757740020751953e+00,-3.057473003864288330e-01
-3.490476369857788086e+00,-4.683356761932373047e+00,-1.019548401236534119e-01
-3.494736909866333008e+00,-4.689073085784912109e+00,1.020792871713638306e-01
-3.499052047729492188e+00,-4.694862842559814453e+00,3.068653345108032227e-01
-3.503347873687744141e+00,-4.700627326965332031e+00,5.129047632217407227e-01
-3.507509946823120117e+00,-4.706211566925048828e+00,7.206831574440002441e-01
-3.511384010314941406e+00,-4.711409568786621094e+00,9.306632280349731445e-01
-3.516066312789916992e+00,-4.717691898345947266e+00,1.143697023391723633e+00
-3.520402908325195312e+00,-4.723510742187500000e+00,1.360060214996337891e+00
-2.337886095046997070e+00,-3.232407331466674805e+00,-1.068916440010070801e+00
-2.784966707229614258e+00,-3.850549936294555664e+00,-1.097114801406860352e+00
-3.396005153656005859e+00,-4.695383548736572266e+00,-1.126389503479003906e+00
-3.400210857391357422e+00,-4.701198577880859375e+00,-9.189382791519165039e-01
-3.404226779937744141e+00,-4.706750869750976562e+00,-7.132310271263122559e-01
-3.408186197280883789e+00,-4.712225437164306641e+00,-5.087953209877014160e-01
-3.412181854248046875e+00,-4.717750072479248047e+00,-3.051377236843109131e-01
-3.416266441345214844e+00,-4.723397254943847656e+00,-1.017515882849693298e-01
-3.420449972152709961e+00,-4.729181766510009766e+00,1.018761917948722839e-01
-3.424701452255249023e+00,-4.735059738159179688e+00,3.062573075294494629e-01
-3.428947687149047852e+00,-4.740930557250976562e+00,5.118947029113769531e-01
-3.433075666427612305e+00,-4.746638298034667969e+00,7.192752957344055176e-01
-3.436934232711791992e+00,-4.751973152160644531e+00,9.288631081581115723e-01
-3.441599607467651367e+00,-4.758423328399658203e+00,1.141512274742126465e+00
-3.445936918258666992e+00,-4.764420509338378906e+00,1.357498645782470703e+00
-2.288623332977294922e+00,-3.261600971221923828e+00,-1.067628383636474609e+00
-2.726238489151000977e+00,-3.885262489318847656e+00,-1.095774769783020020e+00
-3.323287725448608398e+00,-4.736139297485351562e+00,-1.124640107154846191e+00
-3.326679944992065430e+00,-4.740973472595214844e+00,-9.173116087913513184e-01
-3.330769777297973633e+00,-4.746802330017089844e+00,-7.120028734207153320e-01
-3.335114479064941406e+00,-4.752994537353515625e+00,-5.079908967018127441e-01
-3.339014053344726562e+00,-4.758551597595214844e+00,-3.046543300151824951e-01
-3.343010902404785156e+00,-4.764247417449951172e+00,-1.015903949737548828e-01
-3.347115755081176758e+00,-4.770097732543945312e+00,1.017151400446891785e-01
-3.350809812545776367e+00,-4.775362014770507812e+00,3.057306110858917236e-01
-3.354802608489990234e+00,-4.781052589416503906e+00,5.109897255897521973e-01
-3.359565019607543945e+00,-4.787839889526367188e+00,7.181583046913146973e-01
-3.363391160964965820e+00,-4.793292522430419922e+00,9.274345636367797852e-01
-3.368018865585327148e+00,-4.799887657165527344e+00,1.139777660369873047e+00
-3.372334718704223633e+00,-4.806038379669189453e+00,1.355464458465576172e+00
-2.254648208618164062e+00,-3.313035249710083008e+00,-1.073790788650512695e+00
-2.667233467102050781e+00,-3.919298171997070312e+00,-1.094494581222534180e+00
-3.249304056167602539e+00,-4.774606704711914062e+00,-1.122615694999694824e+00
-3.253432750701904297e+00,-4.780673503875732422e+00,-9.158889651298522949e-01
-3.257403612136840820e+00,-4.786508560180664062e+00,-7.108923196792602539e-01
-3.261633872985839844e+00,-4.792724609375000000e+00,-5.071955919265747070e-01
-3.265437841415405273e+00,-4.798314094543457031e+00,-3.041764795780181885e-01
-3.269346475601196289e+00,-4.804057598114013672e+00,-1.014310419559478760e-01
-3.273370981216430664e+00,-4.809971332550048828e+00,1.015559062361717224e-01
-3.277002811431884766e+00,-4.815308094024658203e+00,3.052537739276885986e-01
-3.280936717987060547e+00,-4.821088790893554688e+00,5.101972818374633789e-01
-3.284780979156494141e+00,-4.826737880706787109e+00,7.168671488761901855e-01
-3.289424180984497070e+00,-4.833560466766357422e+00,9.260210990905761719e-01
-3.292793035507202148e+00,-4.838510513305664062e+00,1.137640833854675293e+00
-3.296908140182495117e+00,-4.844557285308837891e+00,1.352880358695983887e+00
-2.205138921737670898e+00,-3.342142105102539062e+00,-1.072884798049926758e+00
-2.608636856079101562e+00,-3.953689575195312500e+00,-1.093559503555297852e+00
-3.176878452301025391e+00,-4.814925193786621094e+00,-1.121289014816284180e+00
-3.180887937545776367e+00,-4.821002006530761719e+00,-9.147987961769104004e-01
-3.184749603271484375e+00,-4.826854705810546875e+00,-7.100415825843811035e-01
-3.188872337341308594e+00,-4.833103179931640625e+00,-5.065864920616149902e-01
-3.192583799362182617e+00,-4.838728427886962891e+00,-3.038104772567749023e-01
-3.196405410766601562e+00,-4.844520568847656250e+00,-1.013090014457702637e-01
-3.200347423553466797e+00,-4.850494861602783203e+00,1.014339402318000793e-01
-3.203911542892456055e+00,-4.855896949768066406e+00,3.048884570598602295e-01
-3.207778692245483398e+00,-4.861758232116699219e+00,5.095899701118469238e-01
-3.211565017700195312e+00,-4.867496490478515625e+00,7.160200476646423340e-01
-3.216140508651733398e+00,-4.874431133270263672e+00,9.249371886253356934e-01
-3.219474077224731445e+00,-4.879483699798583984e+00,1.136323332786560059e+00
-3.223544836044311523e+00,-4.885653495788574219e+00,1.351333379745483398e+00
-2.155476331710815430e+00,-3.370851039886474609e+00,-1.072086930274963379e+00
-2.549864292144775391e+00,-3.987616300582885742e+00,-1.092736601829528809e+00
-3.104166984558105469e+00,-4.854465484619140625e+00,-1.120035171508789062e+00
-3.108061313629150391e+00,-4.860555171966552734e+00,-9.137690067291259766e-01
-3.111816644668579102e+00,-4.866428375244140625e+00,-7.092381715774536133e-01
-3.115833282470703125e+00,-4.872709274291992188e+00,-5.060114264488220215e-01
-3.119453191757202148e+00,-4.878370761871337891e+00,-3.034649789333343506e-01
-3.123187541961669922e+00,-4.884210586547851562e+00,-1.011937931180000305e-01
-3.127045392990112305e+00,-4.890243530273437500e+00,1.013187915086746216e-01
-3.130539655685424805e+00,-4.895708560943603516e+00,3.045434951782226562e-01
-3.134336471557617188e+00,-4.901645660400390625e+00,5.090163350105285645e-01
-3.138060331344604492e+00,-4.907469272613525391e+00,7.152195572853088379e-01
-3.142561674118041992e+00,-4.914508819580078125e+00,9.239121079444885254e-01
-3.145853281021118164e+00,-4.919656753540039062e+00,1.135076403617858887e+00
-3.149872064590454102e+00,-4.925941467285156250e+00,1.349868178367614746e+00
-2.106005668640136719e+00,-3.399730443954467773e+00,-1.071574926376342773e+00
-2.491328954696655273e+00,-4.021759033203125000e+00,-1.092209100723266602e+00
-3.031927824020385742e+00,-4.894449234008789062e+00,-1.119132995605468750e+00
-3.035716772079467773e+00,-4.900565624237060547e+00,-9.130285382270812988e-01
-3.039373159408569336e+00,-4.906468391418457031e+00,-7.086607813835144043e-01
-3.043289184570312500e+00,-4.912789821624755859e+00,-5.055983066558837891e-01
-3.046821117401123047e+00,-4.918491840362548828e+00,-3.032168447971343994e-01
-3.050468444824218750e+00,-4.924379348754882812e+00,-1.011110469698905945e-01
-3.054240226745605469e+00,-4.930468559265136719e+00,1.012360677123069763e-01
-3.057660579681396484e+00,-4.935989856719970703e+00,3.042955696582794189e-01
-3.061380624771118164e+00,-4.941994667053222656e+00,5.086039304733276367e-01
-3.065032482147216797e+00,-4.947890281677246094e+00,7.146434783935546875e-01
-3.069448947906494141e+00,-4.955019950866699219e+00,9.231739044189453125e-01
-3.072686195373535156e+00,-4.960245609283447266e+00,1.134177565574645996e+00
-3.076637506484985352e+00,-4.966624259948730469e+00,1.348810791969299316e+00
-2.056453943252563477e+00,-3.428391456604003906e+00,-1.071221232414245605e+00
-2.453103065490722656e+00,-4.089660167694091797e+00,-1.101000785827636719e+00
-2.959515094757080078e+00,-4.933918476104736328e+00,-1.118357300758361816e+00
-2.963203191757202148e+00,-4.940066814422607422e+00,-9.123924374580383301e-01
-2.966764450073242188e+00,-4.946003913879394531e+00,-7.081651687622070312e-01
-2.970581769943237305e+00,-4.952368259429931641e+00,-5.052438974380493164e-01
-2.974027156829833984e+00,-4.958111763000488281e+00,-3.030040562152862549e-01
-2.977587223052978516e+00,-4.964046955108642578e+00,-1.010400876402854919e-01
-2.981271743774414062e+00,-4.970189571380615234e+00,1.011651158332824707e-01
-2.984615325927734375e+00,-4.975763797760009766e+00,3.040828108787536621e-01
-2.988254308700561523e+00,-4.981831073760986328e+00,5.082497000694274902e-01
-2.991829156875610352e+00,-4.987790584564208984e+00,7.141481637954711914e-01
-2.995207548141479492e+00,-4.993422985076904297e+00,9.222468733787536621e-01
-2.999328374862670898e+00,-5.000292778015136719e+00,1.133402109146118164e+00
-3.003202915191650391e+00,-5.006752014160156250e+00,1.347896456718444824e+00
-2.006957530975341797e+00,-3.457095384597778320e+00,-1.071104407310485840e+00
-2.394060373306274414e+00,-4.123901367187500000e+00,-1.100881099700927734e+00
-2.887365579605102539e+00,-4.973647117614746094e+00,-1.117880225181579590e+00
-2.890960216522216797e+00,-4.979839324951171875e+00,-9.120022058486938477e-01
-2.894432067871093750e+00,-4.985819816589355469e+00,-7.078616023063659668e-01
-2.898154497146606445e+00,-4.992231845855712891e+00,-5.050269961357116699e-01
-2.901515007019042969e+00,-4.998020172119140625e+00,-3.028738796710968018e-01
-2.904988288879394531e+00,-5.004003047943115234e+00,-1.009966805577278137e-01
-2.908583879470825195e+00,-5.010196685791015625e+00,1.011216863989830017e-01
-2.911847829818725586e+00,-5.015819072723388672e+00,3.039524555206298828e-01
-2.915400743484497070e+00,-5.021939754486083984e+00,5.080322623252868652e-01
-2.918892145156860352e+00,-5.027953624725341797e+00,7.138435840606689453e-01
-2.922192096710205078e+00,-5.033638000488281250e+00,9.218547940254211426e-01
-2.926218032836914062e+00,-5.040572643280029297e+00,1.132922530174255371e+00
-2.930004596710205078e+00,-5.047095298767089844e+00,1.347328901290893555e+00
-1.957440853118896484e+00,-3.485762119293212891e+00,-1.071195840835571289e+00
-2.335000514984130859e+00,-4.158111095428466797e+00,-1.100978612899780273e+00
-2.815136909484863281e+00,-5.013125896453857422e+00,-1.117582440376281738e+00
-2.818643808364868164e+00,-5.019371032714843750e+00,-9.117599129676818848e-01
-2.822030544281005859e+00,-5.025402069091796875e+00,-7.076740264892578125e-01
-2.825661182403564453e+00,-5.031867504119873047e+00,-5.048933625221252441e-01
-2.828938007354736328e+00,-5.037702560424804688e+00,-3.027938008308410645e-01
-2.832324266433715820e+00,-5.043733119964599609e+00,-1.009699776768684387e-01
-2.835829734802246094e+00,-5.049974918365478516e+00,1.010949388146400452e-01
-2.839010953903198242e+00,-5.055640220642089844e+00,3.038719594478607178e-01
-2.842473506927490234e+00,-5.061806201934814453e+00,5.078974366188049316e-01
-2.845875263214111328e+00,-5.067863941192626953e+00,7.136535048484802246e-01
-2.849090576171875000e+00,-5.073589801788330078e+00,9.216086268424987793e-01
-2.853012084960937500e+00,-5.080573081970214844e+00,1.132618546485900879e+00
-2.856699943542480469e+00,-5.087140083312988281e+00,1.346965551376342773e+00
-1.907848596572875977e+00,-3.514334201812744141e+00,-1.071474552154541016e+00
-2.256929874420166016e+00,-4.157356262207031250e+00,-1.092113375663757324e+00
-2.742972135543823242e+00,-5.052665710449218750e+00,-1.117530107498168945e+00
-2.746395826339721680e+00,-5.058972358703613281e+00,-9.117193818092346191e-01
-2.749701023101806641e+00,-5.065060615539550781e+00,-7.076439261436462402e-01
-2.753242015838623047e+00,-5.071583271026611328e+00,-5.048725008964538574e-01
-2.756436586380004883e+00,-5.077467918395996094e+00,-3.027814924716949463e-01
-2.759736299514770508e+00,-5.083546161651611328e+00,-1.009658724069595337e-01
-2.763149738311767578e+00,-5.089833736419677734e+00,1.010907590389251709e-01
-2.766246318817138672e+00,-5.095537662506103516e+00,3.038590252399444580e-01
-2.769614458084106445e+00,-5.101742267608642578e+00,5.078747868537902832e-01
-2.772922515869140625e+00,-5.107835292816162109e+00,7.136200070381164551e-01
-2.776923179626464844e+00,-5.115204811096191406e+00,9.218535423278808594e-01
-2.779857397079467773e+00,-5.120609760284423828e+00,1.132557630538940430e+00
-2.783438682556152344e+00,-5.127206802368164062e+00,1.346887350082397461e+00
-1.858162045478820801e+00,-3.542816400527954102e+00,-1.071939587593078613e+00
-2.198169946670532227e+00,-4.191083431243896484e+00,-1.092596054077148438e+00
-2.670728206634521484e+00,-5.092074394226074219e+00,-1.117676854133605957e+00
-2.674073219299316406e+00,-5.098452091217041016e+00,-9.118430614471435547e-01
-2.677300214767456055e+00,-5.104604721069335938e+00,-7.077422738075256348e-01
-2.680753469467163086e+00,-5.111188888549804688e+00,-5.049436688423156738e-01
-2.683866977691650391e+00,-5.117125034332275391e+00,-3.028245270252227783e-01
-2.687079906463623047e+00,-5.123250961303710938e+00,-1.009802296757698059e-01
-2.690400600433349609e+00,-5.129582405090332031e+00,1.011050269007682800e-01
-2.693409919738769531e+00,-5.135319709777832031e+00,3.039012551307678223e-01
-2.696680784225463867e+00,-5.141556262969970703e+00,5.079437494277954102e-01
-2.699889898300170898e+00,-5.147674560546875000e+00,7.137138247489929199e-01
-2.703770399093627930e+00,-5.155073642730712891e+00,9.219695925712585449e-01
-2.706610679626464844e+00,-5.160488605499267578e+00,1.132693290710449219e+00
-2.710077524185180664e+00,-5.167098522186279297e+00,1.347038745880126953e+00
-1.808523178100585938e+00,-3.571528196334838867e+00,-1.072684645652770996e+00
-2.139473676681518555e+00,-4.225099563598632812e+00,-1.093368530273437500e+00
-2.598513126373291016e+00,-5.131625175476074219e+00,-1.118079543113708496e+00
-2.601785659790039062e+00,-5.138087749481201172e+00,-9.121779799461364746e-01
-2.604939222335815430e+00,-5.144315719604492188e+00,-7.080059647560119629e-01
-2.608307838439941406e+00,-5.150968074798583984e+00,-5.051335096359252930e-01
-2.611341953277587891e+00,-5.156960010528564453e+00,-3.029389083385467529e-01
-2.614468097686767578e+00,-5.163133621215820312e+00,-1.010183766484260559e-01
-2.617694139480590820e+00,-5.169504642486572266e+00,1.011430323123931885e-01
-2.620613574981689453e+00,-5.175269603729248047e+00,3.040145039558410645e-01
-2.623782396316528320e+00,-5.181527614593505859e+00,5.081303715705871582e-01
-2.626886606216430664e+00,-5.187657833099365234e+00,7.139711380004882812e-01
-2.630638837814331055e+00,-5.195068359375000000e+00,9.222938418388366699e-01
-2.633376121520996094e+00,-5.200473308563232422e+00,1.133080363273620605e+00
-2.636718273162841797e+00,-5.207073688507080078e+00,1.347483277320861816e+00
-1.758629918098449707e+00,-3.599927663803100586e+00,-1.073544025421142578e+00
-2.080478191375732422e+00,-4.258753299713134766e+00,-1.094259142875671387e+00
-2.526087522506713867e+00,-5.170918941497802734e+00,-1.118648409843444824e+00
-2.529289007186889648e+00,-5.177472114562988281e+00,-9.126492738723754883e-01
-2.532369852066040039e+00,-5.183778762817382812e+00,-7.083760499954223633e-01
-2.535654783248901367e+00,-5.190502643585205078e+00,-5.053995251655578613e-01
-2.538609504699707031e+00,-5.196551322937011719e+00,-3.030990660190582275e-01
-2.541648864746093750e+00,-5.202772617340087891e+00,-1.010717973113059998e-01
-2.544779539108276367e+00,-5.209181308746337891e+00,1.011962890625000000e-01
-2.547607421875000000e+00,-5.214970111846923828e+00,3.041734099388122559e-01
-2.550673007965087891e+00,-5.221245288848876953e+00,5.083929896354675293e-01
-2.553670644760131836e+00,-5.227381229400634766e+00,7.143344283103942871e-01
-2.557291984558105469e+00,-5.234794139862060547e+00,9.227536916732788086e-01
-2.559923410415649414e+00,-5.240180969238281250e+00,1.133632302284240723e+00
-2.563137054443359375e+00,-5.246759414672851562e+00,1.348121047019958496e+00
-1.697048425674438477e+00,-3.603749275207519531e+00,-1.067330598831176758e+00
-2.021584510803222656e+00,-4.292914390563964844e+00,-1.095489621162414551e+00
-2.454384565353393555e+00,-5.211982727050781250e+00,-1.119817256927490234e+00
-2.456879615783691406e+00,-5.217280864715576172e+00,-9.133740067481994629e-01
-2.459892749786376953e+00,-5.223679542541503906e+00,-7.089444994926452637e-01
-2.463096857070922852e+00,-5.230483531951904297e+00,-5.058078765869140625e-01
-2.465974092483520508e+00,-5.236593723297119141e+00,-3.033448159694671631e-01
-2.468926429748535156e+00,-5.242862701416015625e+00,-1.011537313461303711e-01
-2.471960783004760742e+00,-5.249306201934814453e+00,1.012780517339706421e-01
-2.474694728851318359e+00,-5.255111694335937500e+00,3.044175505638122559e-01
-2.477651596069335938e+00,-5.261390686035156250e+00,5.087966918945312500e-01
-2.481179714202880859e+00,-5.268882751464843750e+00,7.150793671607971191e-01
-2.484018564224243164e+00,-5.274911403656005859e+00,9.234632849693298340e-01
-2.487451791763305664e+00,-5.282201766967773438e+00,1.134904265403747559e+00
-2.490656852722167969e+00,-5.289008140563964844e+00,1.349678277969360352e+00
-1.647471904754638672e+00,-3.632462024688720703e+00,-1.068740963935852051e+00
-1.962570428848266602e+00,-4.327213287353515625e+00,-1.096961379051208496e+00
-2.385141134262084961e+00,-5.258927345275878906e+00,-1.122453451156616211e+00
-2.387584924697875977e+00,-5.264315605163574219e+00,-9.155316352844238281e-01
-2.390877008438110352e+00,-5.271574020385742188e+00,-7.107273340225219727e-01
-2.393640995025634766e+00,-5.277668476104736328e+00,-5.070056915283203125e-01
-2.396432876586914062e+00,-5.283823966979980469e+00,-3.040626049041748047e-01
-2.399288415908813477e+00,-5.290120124816894531e+00,-1.013925299048423767e-01
-2.402216196060180664e+00,-5.296575546264648438e+00,1.015162542462348938e-01
-2.405193090438842773e+00,-5.303139209747314453e+00,3.051741421222686768e-01
-2.407681226730346680e+00,-5.308625221252441406e+00,5.099796056747436523e-01
-2.411062955856323242e+00,-5.316081523895263672e+00,7.167279720306396484e-01
-2.413769483566284180e+00,-5.322049140930175781e+00,9.255722761154174805e-01
-2.417043685913085938e+00,-5.329267978668212891e+00,1.137466907501220703e+00
-2.420089483261108398e+00,-5.335983753204345703e+00,1.352687597274780273e+00
-1.597475647926330566e+00,-3.660619020462036133e+00,-1.070188283920288086e+00
-1.903054356575012207e+00,-4.360853195190429688e+00,-1.098471403121948242e+00
-2.327544212341308594e+00,-5.333572387695312500e+00,-1.131159067153930664e+00
-2.335207462310791016e+00,-5.351132869720458984e+00,-9.247225522994995117e-01
-2.337971210479736328e+00,-5.357466220855712891e+00,-7.177222371101379395e-01
-2.340689659118652344e+00,-5.363695621490478516e+00,-5.119990110397338867e-01
-2.343427419662475586e+00,-5.369969367980957031e+00,-3.070582449436187744e-01
-2.346219778060913086e+00,-5.376367568969726562e+00,-1.023914366960525513e-01
-2.349073648452758789e+00,-5.382907390594482422e+00,1.025159806013107300e-01
-2.351967811584472656e+00,-5.389539718627929688e+00,3.081772923469543457e-01
-2.354852676391601562e+00,-5.396150112152099609e+00,5.150969624519348145e-01
-2.357650279998779297e+00,-5.402560710906982422e+00,7.237634062767028809e-01
-2.360257148742675781e+00,-5.408534049987792969e+00,9.346420168876647949e-01
-2.363409757614135742e+00,-5.415758609771728516e+00,1.148589253425598145e+00
-2.366332769393920898e+00,-5.422456741333007812e+00,1.365882635116577148e+00
-1.547584891319274902e+00,-3.689456939697265625e+00,-1.072033286094665527e+00
-1.843671798706054688e+00,-4.395330905914306641e+00,-1.100396156311035156e+00
-2.254969596862792969e+00,-5.375868797302246094e+00,-1.133168101310729980e+00
-2.284045457839965820e+00,-5.445186138153076172e+00,-9.352304339408874512e-01
-2.286778211593627930e+00,-5.451700687408447266e+00,-7.258872389793395996e-01
-2.289456844329833984e+00,-5.458086967468261719e+00,-5.178281068801879883e-01
-2.292144298553466797e+00,-5.464493751525878906e+00,-3.105553984642028809e-01
-2.294874668121337891e+00,-5.471003055572509766e+00,-1.035575568675994873e-01
-2.297655105590820312e+00,-5.477632045745849609e+00,1.036830395460128784e-01
-2.300465345382690430e+00,-5.484331130981445312e+00,3.116827905178070068e-01
-2.303255558013916016e+00,-5.490983486175537109e+00,5.209491252899169922e-01
-2.305951595306396484e+00,-5.497410774230957031e+00,7.319734692573547363e-01
-2.308452367782592773e+00,-5.503372192382812500e+00,9.452241063117980957e-01
-2.311475276947021484e+00,-5.510579586029052734e+00,1.161563396453857422e+00
-2.314265251159667969e+00,-5.517230510711669922e+00,1.381270051002502441e+00
-1.497177124023437500e+00,-3.717570543289184570e+00,-1.073865413665771484e+00
-1.768960237503051758e+00,-4.392422676086425781e+00,-1.093217015266418457e+00
-2.181630849838256836e+00,-5.417105197906494141e+00,-1.135161757469177246e+00
-2.228724956512451172e+00,-5.534042835235595703e+00,-9.449160099029541016e-01
-2.231420040130615234e+00,-5.540734767913818359e+00,-7.334141731262207031e-01
-2.234052896499633789e+00,-5.547272205352783203e+00,-5.232020616531372070e-01
-2.236684560775756836e+00,-5.553806781768798828e+00,-3.137796223163604736e-01
-2.239348173141479492e+00,-5.560420989990234375e+00,-1.046326756477355957e-01
-2.242051362991333008e+00,-5.567132949829101562e+00,1.047589778900146484e-01
-2.244772911071777344e+00,-5.573890686035156250e+00,3.149143159389495850e-01
-2.247466087341308594e+00,-5.580578327178955078e+00,5.263434052467346191e-01
-2.250058174133300781e+00,-5.587014198303222656e+00,7.395401000976562500e-01
-2.253153562545776367e+00,-5.594700336456298828e+00,9.552730917930603027e-01
-2.255342006683349609e+00,-5.600134372711181641e+00,1.173515677452087402e+00
-2.258940458297729492e+00,-5.609069347381591797e+00,1.396024703979492188e+00
-1.436983704566955566e+00,-3.720920801162719727e+00,-1.068782329559326172e+00
-1.709585428237915039e+00,-4.426795005798339844e+00,-1.095569372177124023e+00
-2.108466863632202148e+00,-5.459656715393066406e+00,-1.137637734413146973e+00
-2.174984455108642578e+00,-5.631897449493408203e+00,-9.562107920646667480e-01
-2.177648544311523438e+00,-5.638796329498291016e+00,-7.421924471855163574e-01
-2.180240869522094727e+00,-5.645508766174316406e+00,-5.294699072837829590e-01
-2.182820796966552734e+00,-5.652188777923583984e+00,-3.175402581691741943e-01
-2.185419559478759766e+00,-5.658918380737304688e+00,-1.058866679668426514e-01
-2.188045024871826172e+00,-5.665716648101806641e+00,1.060138717293739319e-01
-2.190676689147949219e+00,-5.672530651092529297e+00,3.186830878257751465e-01
-2.193269252777099609e+00,-5.679244518280029297e+00,5.326338410377502441e-01
-2.195751667022705078e+00,-5.685672283172607422e+00,7.483624219894409180e-01
-2.198712587356567383e+00,-5.693338871002197266e+00,9.666426181793212891e-01
-2.201582908630371094e+00,-5.700771808624267578e+00,1.187879204750061035e+00
-2.204208612442016602e+00,-5.707570552825927734e+00,1.412543177604675293e+00
-1.386796712875366211e+00,-3.749796390533447266e+00,-1.071264982223510742e+00
-1.649938821792602539e+00,-4.461313247680664062e+00,-1.098154902458190918e+00
-2.014258861541748047e+00,-5.446407794952392578e+00,-1.128753781318664551e+00
-2.119841098785400391e+00,-5.731894493103027344e+00,-9.679379463195800781e-01
-2.122474193572998047e+00,-5.739014148712158203e+00,-7.513077855110168457e-01
-2.125025510787963867e+00,-5.745912551879882812e+00,-5.359787940979003906e-01
-2.127552032470703125e+00,-5.752743721008300781e+00,-3.214457035064697266e-01
-2.130084514617919922e+00,-5.759592056274414062e+00,-1.071889474987983704e-01
-2.132630109786987305e+00,-5.766474723815917969e+00,1.073170378804206848e-01
-2.135169029235839844e+00,-5.773340225219726562e+00,3.225965499877929688e-01
-2.137658119201660156e+00,-5.780070304870605469e+00,5.391650199890136719e-01
-2.140576124191284180e+00,-5.787960052490234375e+00,7.577154040336608887e-01
-2.142849206924438477e+00,-5.794106483459472656e+00,9.784436225891113281e-01
-2.145571708679199219e+00,-5.801467895507812500e+00,1.202339053153991699e+00
-2.148044824600219727e+00,-5.808155059814453125e+00,1.429680824279785156e+00
-1.335966467857360840e+00,-3.777683258056640625e+00,-1.073659062385559082e+00
-1.589519619941711426e+00,-4.494649887084960938e+00,-1.100647807121276855e+00
-1.940555334091186523e+00,-5.487266063690185547e+00,-1.131349205970764160e+00
-2.060316562652587891e+00,-5.825911998748779297e+00,-9.787343144416809082e-01
-2.062909603118896484e+00,-5.833244323730468750e+00,-7.597003579139709473e-01
-2.065412282943725586e+00,-5.840321063995361328e+00,-5.419721007347106934e-01
-2.067878723144531250e+00,-5.847295761108398438e+00,-3.250418007373809814e-01
-2.070339918136596680e+00,-5.854255199432373047e+00,-1.083880811929702759e-01
-2.072801828384399414e+00,-5.861216545104980469e+00,1.085169613361358643e-01
-2.075245380401611328e+00,-5.868126392364501953e+00,3.261997401714324951e-01
-2.077629089355468750e+00,-5.874866485595703125e+00,5.451778173446655273e-01
-2.080416202545166016e+00,-5.882747650146484375e+00,7.661474347114562988e-01
-2.082568645477294922e+00,-5.888833999633789062e+00,9.893050193786621094e-01
-2.085144519805908203e+00,-5.896117210388183594e+00,1.215645074844360352e+00
-1.276501893997192383e+00,-3.780832529067993164e+00,-1.069251656532287598e+00
-1.516711235046386719e+00,-4.492301464080810547e+00,-1.094644427299499512e+00
-1.866999506950378418e+00,-5.529809474945068359e+00,-1.134494781494140625e+00
-2.002527475357055664e+00,-5.931225776672363281e+00,-9.915098547935485840e-01
-2.004682540893554688e+00,-5.937609195709228516e+00,-7.694766521453857422e-01
-2.007141351699829102e+00,-5.944891452789306641e+00,-5.489537715911865234e-01
-2.009551525115966797e+00,-5.952030181884765625e+00,-3.292311728000640869e-01
