-1.014639472961425781e+01,-2.829298496246337891e+00,-5.520356297492980957e-01
-1.015860557556152344e+01,-2.832703590393066406e+00,-1.840836256742477417e-01
-1.017089366912841797e+01,-2.836130142211914062e+00,1.843062937259674072e-01
-1.018316745758056641e+01,-2.839552640914916992e+00,5.540363192558288574e-01
-1.019521713256835938e+01,-2.842912673950195312e+00,9.259933233261108398e-01
-3.846464872360229492e+00,-1.132152676582336426e+00,-1.074373126029968262e+00
-4.581094741821289062e+00,-1.348380565643310547e+00,-1.102488994598388672e+00
-5.616159439086914062e+00,-1.653037309646606445e+00,-1.137974619865417480e+00
-7.249175548553466797e+00,-2.133692741394042969e+00,-1.196856379508972168e+00
-9.986042976379394531e+00,-2.939250946044921875e+00,-1.278138995170593262e+00
-9.997865676879882812e+00,-2.942730665206909180e+00,-9.118008017539978027e-01
-1.001015663146972656e+01,-2.946348428726196289e+00,-5.468617677688598633e-01
-1.002220249176025391e+01,-2.949894189834594727e+00,-1.823583096265792847e-01
-1.003404235839843750e+01,-2.953378915786743164e+00,1.825737357139587402e-01
-1.004643154144287109e+01,-2.957025527954101562e+00,5.488435029983520508e-01
-1.005895042419433594e+01,-2.960710048675537109e+00,9.173717498779296875e-01
-3.822359085083007812e+00,-1.184760093688964844e+00,-1.072266817092895508e+00
-4.561124801635742188e+00,-1.413744330406188965e+00,-1.102440118789672852e+00
-5.607258796691894531e+00,-1.737998962402343750e+00,-1.141095042228698730e+00
-5.695057392120361328e+00,-1.765212655067443848e+00,-9.443425536155700684e-01
-5.701732635498046875e+00,-1.767281651496887207e+00,-7.329418659210205078e-01
-5.708086967468261719e+00,-1.769251108169555664e+00,-5.228309631347656250e-01
-5.714268684387207031e+00,-1.771167278289794922e+00,-3.135272860527038574e-01
-5.720458984375000000e+00,-1.773085951805114746e+00,-1.045373007655143738e-01
-5.726729869842529297e+00,-1.775029778480529785e+00,1.046519055962562561e-01
-5.732879638671875000e+00,-1.776935815811157227e+00,3.145484328269958496e-01
-5.738790988922119141e+00,-1.778768062591552734e+00,5.256432890892028809e-01
-5.745353221893310547e+00,-1.780802130699157715e+00,7.385492324829101562e-01
-5.751716613769531250e+00,-1.782774448394775391e+00,9.537376165390014648e-01
-5.759094238281250000e+00,-1.785061120986938477e+00,1.171993970870971680e+00
-5.764237403869628906e+00,-1.786655306816101074e+00,1.393236637115478516e+00
-3.814656496047973633e+00,-1.242485880851745605e+00,-1.074984908103942871e+00
-4.537335872650146484e+00,-1.477872490882873535e+00,-1.101690173149108887e+00
-5.386895656585693359e+00,-1.754585742950439453e+00,-1.101248383522033691e+00
-5.393278598785400391e+00,-1.756664752960205078e+00,-8.983795046806335449e-01
-5.399331569671630859e+00,-1.758636116981506348e+00,-6.972334384918212891e-01
-5.405253887176513672e+00,-1.760565280914306641e+00,-4.973502755165100098e-01
-5.411190986633300781e+00,-1.762498974800109863e+00,-2.982518076896667480e-01
-5.417129039764404297e+00,-1.764433026313781738e+00,-9.944549202919006348e-02
-5.423034667968750000e+00,-1.766356706619262695e+00,9.955391287803649902e-02
-5.429004669189453125e+00,-1.768301248550415039e+00,2.992336750030517578e-01
-5.434924602508544922e+00,-1.770229339599609375e+00,5.000803470611572266e-01
-5.440617561340332031e+00,-1.772083640098571777e+00,7.025648355484008789e-01
-5.447101593017578125e+00,-1.774195551872253418e+00,9.073449969291687012e-01
-5.453259944915771484e+00,-1.776201486587524414e+00,1.114815354347229004e+00
-5.460409641265869141e+00,-1.778530120849609375e+00,1.325817584991455078e+00
-3.790316104888916016e+00,-1.294847130775451660e+00,-1.073238492012023926e+00
-4.517229557037353516e+00,-1.543175220489501953e+00,-1.102058529853820801e+00
-5.122715950012207031e+00,-1.750021219253540039e+00,-1.052254796028137207e+00
-5.128405094146728516e+00,-1.751964926719665527e+00,-8.583477139472961426e-01
-5.133934020996093750e+00,-1.753853559494018555e+00,-6.661353111267089844e-01
-5.139860630035400391e+00,-1.755878329277038574e+00,-4.751946628093719482e-01
-5.145368099212646484e+00,-1.757759690284729004e+00,-2.849578261375427246e-01
-5.151034832000732422e+00,-1.759695649147033691e+00,-9.501329064369201660e-02
-5.156831741333007812e+00,-1.761675953865051270e+00,9.512022137641906738e-02
-5.162299156188964844e+00,-1.763543605804443359e+00,2.858954966068267822e-01
-5.168199062347412109e+00,-1.765559315681457520e+00,4.778146147727966309e-01
-5.174038887023925781e+00,-1.767554163932800293e+00,6.713389754295349121e-01
-5.179586887359619141e+00,-1.769449591636657715e+00,8.669140338897705078e-01
-5.185976505279541016e+00,-1.771632313728332520e+00,1.065249204635620117e+00
-5.191848754882812500e+00,-1.773638367652893066e+00,1.266643762588500977e+00
-3.765873432159423828e+00,-1.346986174583435059e+00,-1.071666955947875977e+00
-4.497133731842041016e+00,-1.608544945716857910e+00,-1.102659821510314941e+00
-4.874759674072265625e+00,-1.743615150451660156e+00,-1.006345629692077637e+00
-4.880804061889648438e+00,-1.745777010917663574e+00,-8.210045695304870605e-01
-4.885849475860595703e+00,-1.747581720352172852e+00,-6.371263265609741211e-01
-4.891427993774414062e+00,-1.749577045440673828e+00,-4.544950425624847412e-01
-4.896887302398681641e+00,-1.751529693603515625e+00,-2.725571393966674805e-01
-4.902298927307128906e+00,-1.753465294837951660e+00,-9.087887406349182129e-02
-4.907676696777343750e+00,-1.755388975143432617e+00,9.097857773303985596e-02
-4.912978649139404297e+00,-1.757285237312316895e+00,2.734527587890625000e-01
-4.918848514556884766e+00,-1.759384870529174805e+00,4.570428729057312012e-01
-4.923851013183593750e+00,-1.761174082756042480e+00,6.420817971229553223e-01
-4.929471015930175781e+00,-1.763184428215026855e+00,8.291909098625183105e-01
-4.936058044433593750e+00,-1.765540480613708496e+00,1.019000053405761719e+00
-4.940721035003662109e+00,-1.767208337783813477e+00,1.211423873901367188e+00
-3.764500141143798828e+00,-1.407584309577941895e+00,-1.076899290084838867e+00
-4.451815128326416016e+00,-1.664578199386596680e+00,-1.097277641296386719e+00
-4.656766414642333984e+00,-1.741211533546447754e+00,-9.663891196250915527e-01
-4.662239551544189453e+00,-1.743258118629455566e+00,-7.883561253547668457e-01
-4.667429924011230469e+00,-1.745198845863342285e+00,-6.118386387825012207e-01
-4.672510147094726562e+00,-1.747098326683044434e+00,-4.364327788352966309e-01
-4.677606582641601562e+00,-1.749004006385803223e+00,-2.617187201976776123e-01
-4.682791233062744141e+00,-1.750942587852478027e+00,-8.726530522108078003e-02
-4.688077449798583984e+00,-1.752919077873229980e+00,8.736381679773330688e-02
-4.693423271179199219e+00,-1.754917860031127930e+00,2.626036703586578369e-01
-4.698728561401367188e+00,-1.756901621818542480e+00,4.388816952705383301e-01
-4.703840732574462891e+00,-1.758813023567199707e+00,6.166115999221801758e-01
-4.709684848785400391e+00,-1.760998368263244629e+00,7.963787913322448730e-01
-4.713932991027832031e+00,-1.762586832046508789e+00,9.782525897026062012e-01
-4.720247268676757812e+00,-1.764947772026062012e+00,1.163440585136413574e+00
-3.743006944656372070e+00,-1.460942029953002930e+00,-1.076622486114501953e+00
-4.435182094573974609e+00,-1.731106638908386230e+00,-1.099172711372375488e+00
-4.451369762420654297e+00,-1.737424850463867188e+00,-9.288302063941955566e-01
-4.456321716308593750e+00,-1.739357709884643555e+00,-7.576688528060913086e-01
-4.461119174957275391e+00,-1.741230130195617676e+00,-5.880008339881896973e-01
-4.465937614440917969e+00,-1.743110895156860352e+00,-4.194255173206329346e-01
-4.471022129058837891e+00,-1.745095372200012207e+00,-2.515318393707275391e-01
-4.475991249084472656e+00,-1.747035026550292969e+00,-8.386892825365066528e-02
-4.480894565582275391e+00,-1.748948812484741211e+00,8.396080136299133301e-02
-4.486067771911621094e+00,-1.750967979431152344e+00,2.523782849311828613e-01
-4.491332054138183594e+00,-1.753022670745849609e+00,4.218104481697082520e-01
-4.496535778045654297e+00,-1.755053639411926270e+00,5.926689505577087402e-01
-4.501477718353271484e+00,-1.756982564926147461e+00,7.653462886810302734e-01
-4.505905628204345703e+00,-1.758710861206054688e+00,9.402097463607788086e-01
-4.512461185455322266e+00,-1.761269688606262207e+00,1.118324875831604004e+00
-3.721478939056396484e+00,-1.514266490936279297e+00,-1.076554298400878906e+00
-4.251824855804443359e+00,-1.730063676834106445e+00,-1.059759736061096191e+00
-4.256718635559082031e+00,-1.732054948806762695e+00,-8.932954668998718262e-01
-4.261372566223144531e+00,-1.733948588371276855e+00,-7.286684513092041016e-01
-4.266511440277099609e+00,-1.736039638519287109e+00,-5.655677318572998047e-01
-4.271402835845947266e+00,-1.738029956817626953e+00,-4.034504890441894531e-01
-4.276158332824707031e+00,-1.739964962005615234e+00,-2.419454604387283325e-01
-4.280923366546630859e+00,-1.741903901100158691e+00,-8.067275583744049072e-02
-4.285744190216064453e+00,-1.743865370750427246e+00,8.076359331607818604e-02
-4.290467262268066406e+00,-1.745787262916564941e+00,2.427550703287124634e-01
-4.295004844665527344e+00,-1.747633576393127441e+00,4.056798219680786133e-01
-4.300088405609130859e+00,-1.749702095985412598e+00,5.700187087059020996e-01
-4.305043220520019531e+00,-1.751718163490295410e+00,7.361358404159545898e-01
-4.309624195098876953e+00,-1.753582239151000977e+00,9.043980836868286133e-01
-4.314960956573486328e+00,-1.755753636360168457e+00,1.075496196746826172e+00
-3.682330369949340820e+00,-1.560130238533020020e+00,-1.071579456329345703e+00
-4.080292701721191406e+00,-1.728738903999328613e+00,-1.023068308830261230e+00
-4.084658145904541016e+00,-1.730588555335998535e+00,-8.622976541519165039e-01
-4.088898181915283203e+00,-1.732384920120239258e+00,-7.033444046974182129e-01
-4.093713760375976562e+00,-1.734425187110900879e+00,-5.458967089653015137e-01
-4.098396778106689453e+00,-1.736409306526184082e+00,-3.894170820713043213e-01
-4.103055477142333984e+00,-1.738383054733276367e+00,-2.335352152585983276e-01
-4.107669353485107422e+00,-1.740337967872619629e+00,-7.786928117275238037e-02
-4.112219333648681641e+00,-1.742265701293945312e+00,7.795553654432296753e-02
-4.116782665252685547e+00,-1.744199037551879883e+00,2.343165278434753418e-01
-4.121272563934326172e+00,-1.746101260185241699e+00,3.915906846523284912e-01
-4.126399993896484375e+00,-1.748273611068725586e+00,5.502553582191467285e-01
-4.131509780883789062e+00,-1.750438570976257324e+00,7.106741070747375488e-01
-4.136360645294189453e+00,-1.752493739128112793e+00,8.732123374938964844e-01
-4.140666484832763672e+00,-1.754318118095397949e+00,1.038205981254577637e+00
-3.660706043243408203e+00,-1.613148450851440430e+00,-1.071896195411682129e+00
-3.906159639358520508e+00,-1.721311569213867188e+00,-9.854838252067565918e-01
-3.911004066467285156e+00,-1.723446249961853027e+00,-8.307607173919677734e-01
-3.915480136871337891e+00,-1.725418686866760254e+00,-6.776928901672363281e-01
-3.919779062271118164e+00,-1.727313041687011719e+00,-5.259455442428588867e-01
-3.924055337905883789e+00,-1.729197502136230469e+00,-3.751650154590606689e-01
-3.928417682647705078e+00,-1.731119751930236816e+00,-2.249825447797775269e-01
-3.932844877243041992e+00,-1.733070731163024902e+00,-7.501769065856933594e-02
-3.937319755554199219e+00,-1.735042691230773926e+00,7.510305196046829224e-02
-3.941917181015014648e+00,-1.737068653106689453e+00,2.257556766271591187e-01
-3.946550846099853516e+00,-1.739110469818115234e+00,3.773157298564910889e-01
-3.951091527938842773e+00,-1.741111397743225098e+00,5.301469564437866211e-01
-3.955361366271972656e+00,-1.742992997169494629e+00,6.845955848693847656e-01
-3.960313081741333008e+00,-1.745175123214721680e+00,8.412347435951232910e-01
-3.964847087860107422e+00,-1.747172951698303223e+00,1.000290036201477051e+00
-3.644739151000976562e+00,-1.668807148933410645e+00,-1.074105024337768555e+00
-3.761565208435058594e+00,-1.722297906875610352e+00,-9.551257491111755371e-01
-3.765158891677856445e+00,-1.723943471908569336e+00,-8.049398660659790039e-01
-3.770115137100219727e+00,-1.726212739944458008e+00,-6.567423343658447266e-01
-3.774172782897949219e+00,-1.728070616722106934e+00,-5.096750855445861816e-01
-3.778586626052856445e+00,-1.730091452598571777e+00,-3.635875880718231201e-01
-3.782703876495361328e+00,-1.731976628303527832e+00,-2.180348783731460571e-01
-3.786974906921386719e+00,-1.733932256698608398e+00,-7.270123064517974854e-02
-3.791382551193237305e+00,-1.735950350761413574e+00,7.278584688901901245e-02
-3.795554876327514648e+00,-1.737860798835754395e+00,2.187756150960922241e-01
-3.800114631652832031e+00,-1.739948511123657227e+00,3.656590878963470459e-01
-3.803876638412475586e+00,-1.741670966148376465e+00,5.136864185333251953e-01
-3.809059143066406250e+00,-1.744043946266174316e+00,6.635262370109558105e-01
-3.813055276870727539e+00,-1.745873570442199707e+00,8.151794672012329102e-01
-3.817709207534790039e+00,-1.748004436492919922e+00,9.693816304206848145e-01
-3.608815431594848633e+00,-1.715254664421081543e+00,-1.070643901824951172e+00
-3.613350391387939453e+00,-1.717410087585449219e+00,-9.236386418342590332e-01
-3.617476463317871094e+00,-1.719371199607849121e+00,-7.785489559173583984e-01
-3.622059106826782227e+00,-1.721549272537231445e+00,-6.351788043975830078e-01
-3.625862360000610352e+00,-1.723357081413269043e+00,-4.929274916648864746e-01
-3.630101919174194336e+00,-1.725372076034545898e+00,-3.516402244567871094e-01
-3.634250402450561523e+00,-1.727343797683715820e+00,-2.108815312385559082e-01
-3.638360500335693359e+00,-1.729297399520874023e+00,-7.031616568565368652e-02
-3.642444372177124023e+00,-1.731238365173339844e+00,7.039508968591690063e-02
-3.646468400955200195e+00,-1.733150959014892578e+00,2.115904986858367920e-01
-3.650960445404052734e+00,-1.735285997390747070e+00,3.536607325077056885e-01
-3.654770851135253906e+00,-1.737097144126892090e+00,4.968575239181518555e-01
-3.659110784530639648e+00,-1.739159941673278809e+00,6.416763663291931152e-01
-3.663168668746948242e+00,-1.741088509559631348e+00,7.883827686309814453e-01
-3.667958021163940430e+00,-1.743364810943603516e+00,9.375973343849182129e-01
-3.477715253829956055e+00,-1.714384675025939941e+00,-1.038923382759094238e+00
-3.481781482696533203e+00,-1.716389060020446777e+00,-8.961952924728393555e-01
-3.485529184341430664e+00,-1.718236565589904785e+00,-7.553671002388000488e-01
-3.489800691604614258e+00,-1.720342278480529785e+00,-6.162404417991638184e-01
-3.493835210800170898e+00,-1.722331166267395020e+00,-4.782811403274536133e-01
-3.497766971588134766e+00,-1.724269390106201172e+00,-3.411769866943359375e-01
-3.501689672470092773e+00,-1.726203083992004395e+00,-2.046023011207580566e-01
-3.505656480789184570e+00,-1.728158593177795410e+00,-6.822254508733749390e-02
-3.509678125381469727e+00,-1.730141162872314453e+00,6.830080598592758179e-02
-3.513722658157348633e+00,-1.732135057449340820e+00,2.053053826093673706e-01
-3.517716646194458008e+00,-1.734103918075561523e+00,3.431229293346405029e-01
-3.521545886993408203e+00,-1.735991477966308594e+00,4.820745289325714111e-01
-3.525971889495849609e+00,-1.738173365592956543e+00,6.226276755332946777e-01
-3.530203104019165039e+00,-1.740259289741516113e+00,7.650486230850219727e-01
-3.533995151519775391e+00,-1.742128491401672363e+00,9.096348881721496582e-01
-3.351233005523681641e+00,-1.712081789970397949e+00,-1.008355975151062012e+00
-3.355918169021606445e+00,-1.714475393295288086e+00,-8.700260519981384277e-01
-3.359313964843750000e+00,-1.716210126876831055e+00,-7.332628369331359863e-01
-3.363295316696166992e+00,-1.718244194984436035e+00,-5.981833338737487793e-01
-3.367123842239379883e+00,-1.720200061798095703e+00,-4.642582833766937256e-01
-3.370930433273315430e+00,-1.722144842147827148e+00,-3.311756551265716553e-01
-3.374901056289672852e+00,-1.724173307418823242e+00,-1.986157298088073730e-01
-3.378730535507202148e+00,-1.726129770278930664e+00,-6.622650474309921265e-02
-3.382451057434082031e+00,-1.728030443191528320e+00,6.629943102598190308e-02
-3.386343002319335938e+00,-1.730018854141235352e+00,1.992890983819961548e-01
-3.390264272689819336e+00,-1.732022166252136230e+00,3.330751061439514160e-01
-3.394102811813354492e+00,-1.733983159065246582e+00,4.679781198501586914e-01
-3.398600101470947266e+00,-1.736280679702758789e+00,6.044625043869018555e-01
-3.401937007904052734e+00,-1.737985491752624512e+00,7.425664663314819336e-01
-3.405818462371826172e+00,-1.739968538284301758e+00,8.829628229141235352e-01
-3.231198072433471680e+00,-1.709508538246154785e+00,-9.795007109642028809e-01
-3.234570503234863281e+00,-1.711292743682861328e+00,-8.448302149772644043e-01
-3.238518238067626953e+00,-1.713381409645080566e+00,-7.121760249137878418e-01
-3.242229938507080078e+00,-1.715345144271850586e+00,-5.809584259986877441e-01
-3.246281385421752930e+00,-1.717488527297973633e+00,-4.509398937225341797e-01
-3.249809980392456055e+00,-1.719355344772338867e+00,-3.216610550880432129e-01
-3.253571271896362305e+00,-1.721345424652099609e+00,-1.929056048393249512e-01
-3.257268667221069336e+00,-1.723301529884338379e+00,-6.432262808084487915e-02
-3.260932207107543945e+00,-1.725239753723144531e+00,6.439497321844100952e-02
-3.264837503433227539e+00,-1.727306008338928223e+00,1.935735791921615601e-01
-3.268288135528564453e+00,-1.729131579399108887e+00,3.234899938106536865e-01
-3.272127389907836914e+00,-1.731162667274475098e+00,4.545301496982574463e-01
-3.275813102722167969e+00,-1.733112692832946777e+00,5.869760513305664062e-01
-3.280179262161254883e+00,-1.735422730445861816e+00,7.213376164436340332e-01
-3.284278392791748047e+00,-1.737591385841369629e+00,8.578132987022399902e-01
-3.115241527557373047e+00,-1.705666661262512207e+00,-9.516531229019165039e-01
-3.119231939315795898e+00,-1.707851529121398926e+00,-8.210059404373168945e-01
-3.122853517532348633e+00,-1.709834456443786621e+00,-6.920514702796936035e-01
-3.126872301101684570e+00,-1.712034702301025391e+00,-5.646212100982666016e-01
-3.130175352096557617e+00,-1.713843226432800293e+00,-4.381743669509887695e-01
-3.133846282958984375e+00,-1.715853095054626465e+00,-3.125820159912109375e-01
-3.137409448623657227e+00,-1.717804074287414551e+00,-1.874569207429885864e-01
-3.140979528427124023e+00,-1.719758749008178711e+00,-6.250591576099395752e-02
-3.144586563110351562e+00,-1.721733689308166504e+00,6.257769465446472168e-02
-3.148113489151000977e+00,-1.723664879798889160e+00,1.880964934825897217e-01
-3.152037858963012695e+00,-1.725813508033752441e+00,3.143965303897857666e-01
-3.155328035354614258e+00,-1.727614879608154297e+00,4.416953325271606445e-01
-3.159080028533935547e+00,-1.729669213294982910e+00,5.704369544982910156e-01
-3.162572383880615234e+00,-1.731581449508666992e+00,7.008535265922546387e-01
-3.166722536087036133e+00,-1.733853697776794434e+00,8.335058093070983887e-01
-3.005120515823364258e+00,-1.701722860336303711e+00,-9.253590703010559082e-01
-3.008733034133911133e+00,-1.703768610954284668e+00,-7.982587814331054688e-01
-3.012051820755004883e+00,-1.705647826194763184e+00,-6.728382110595703125e-01
-3.015821933746337891e+00,-1.707782745361328125e+00,-5.489264726638793945e-01
-3.019356727600097656e+00,-1.709784388542175293e+00,-4.260437190532684326e-01
-3.022530317306518555e+00,-1.711581587791442871e+00,-3.038914203643798828e-01
-3.026058197021484375e+00,-1.713579297065734863e+00,-1.822506189346313477e-01
-3.029525995254516602e+00,-1.715543150901794434e+00,-6.077040731906890869e-02
-3.032922506332397461e+00,-1.717466354370117188e+00,6.083853542804718018e-02
-3.036682605743408203e+00,-1.719595670700073242e+00,1.828904896974563599e-01
-3.040145397186279297e+00,-1.721556544303894043e+00,3.056624531745910645e-01
-3.043434858322143555e+00,-1.723419308662414551e+00,4.294412434101104736e-01
-3.047240018844604492e+00,-1.725574016571044922e+00,5.546450614929199219e-01
-3.050858259201049805e+00,-1.727622985839843750e+00,6.815069317817687988e-01
-3.054078817367553711e+00,-1.729446649551391602e+00,8.102896213531494141e-01
-2.906085968017578125e+00,-1.701025724411010742e+00,-9.022684693336486816e-01
-2.909384965896606445e+00,-1.702956557273864746e+00,-7.782877087593078613e-01
-2.912455081939697266e+00,-1.704753756523132324e+00,-6.559736728668212891e-01
-2.916022300720214844e+00,-1.706841707229614258e+00,-5.351533293724060059e-01
-2.919418811798095703e+00,-1.708829879760742188e+00,-4.153508245944976807e-01
-2.922756433486938477e+00,-1.710783481597900391e+00,-2.962915897369384766e-01
-2.926115512847900391e+00,-1.712749481201171875e+00,-1.776896417140960693e-01
-2.929472208023071289e+00,-1.714714407920837402e+00,-5.924964696168899536e-02
-2.932816982269287109e+00,-1.716672182083129883e+00,5.931729450821876526e-02
-2.936209440231323242e+00,-1.718657851219177246e+00,1.783026009798049927e-01
-2.939587116241455078e+00,-1.720634937286376953e+00,2.979977726936340332e-01
-2.942853927612304688e+00,-1.722547054290771484e+00,4.186849594116210938e-01
-2.946682453155517578e+00,-1.724788069725036621e+00,5.407801270484924316e-01
-2.950386285781860352e+00,-1.726956009864807129e+00,6.645168662071228027e-01
-2.953758478164672852e+00,-1.728929877281188965e+00,7.901580333709716797e-01
-2.809796810150146484e+00,-1.699117779731750488e+00,-8.798337578773498535e-01
-2.813726186752319336e+00,-1.701493978500366211e+00,-7.591353058815002441e-01
-2.816565752029418945e+00,-1.703211069107055664e+00,-6.398017406463623047e-01
-2.819945096969604492e+00,-1.705254673957824707e+00,-5.219470858573913574e-01
-2.823584794998168945e+00,-1.707455635070800781e+00,-4.051519036293029785e-01
-2.826706647872924805e+00,-1.709343314170837402e+00,-2.890052795410156250e-01
-2.829903602600097656e+00,-1.711276650428771973e+00,-1.733168065547943115e-01
-2.833153247833251953e+00,-1.713241815567016602e+00,-5.779161676764488220e-02
-2.836447238922119141e+00,-1.715233683586120605e+00,5.785880610346794128e-02
-2.839842319488525391e+00,-1.717286705970764160e+00,1.739255040884017944e-01
-2.842775821685791016e+00,-1.719060659408569336e+00,2.906482219696044922e-01
-2.846014261245727539e+00,-1.721018910408020020e+00,4.083702564239501953e-01
-2.849855422973632812e+00,-1.723341703414916992e+00,5.274831652641296387e-01
-2.852712392807006836e+00,-1.725069403648376465e+00,6.480126976966857910e-01
-2.856087684631347656e+00,-1.727110505104064941e+00,7.705643773078918457e-01
-2.717955589294433594e+00,-1.697173714637756348e+00,-8.585942387580871582e-01
-2.721591949462890625e+00,-1.699444293975830078e+00,-7.407646775245666504e-01
-2.724854230880737305e+00,-1.701481223106384277e+00,-6.244370937347412109e-01
-2.727921724319458008e+00,-1.703396677970886230e+00,-5.093749165534973145e-01
-2.730931043624877930e+00,-1.705275893211364746e+00,-3.953189849853515625e-01
-2.734212398529052734e+00,-1.707324862480163574e+00,-2.820182442665100098e-01
-2.737254858016967773e+00,-1.709224700927734375e+00,-1.691235899925231934e-01
-2.740401506423950195e+00,-1.711189627647399902e+00,-5.639347434043884277e-02
-2.743644475936889648e+00,-1.713214516639709473e+00,5.646020919084548950e-02
-2.746688127517700195e+00,-1.715115070343017578e+00,1.697064340114593506e-01
-2.750030755996704102e+00,-1.717202425003051758e+00,2.836498320102691650e-01
-2.753373384475708008e+00,-1.719289660453796387e+00,3.985676467418670654e-01
-2.756591796875000000e+00,-1.721299290657043457e+00,5.147284269332885742e-01
-2.759529352188110352e+00,-1.723133563995361328e+00,6.323833465576171875e-01
-2.763024330139160156e+00,-1.725315928459167480e+00,7.520418167114257812e-01
-2.629461526870727539e+00,-1.694698810577392578e+00,-8.382160663604736328e-01
-2.632824420928955078e+00,-1.696866273880004883e+00,-7.231405973434448242e-01
-2.635872364044189453e+00,-1.698830604553222656e+00,-6.095556616783142090e-01
-2.638780832290649414e+00,-1.700705051422119141e+00,-4.972245395183563232e-01
-2.642035484313964844e+00,-1.702802777290344238e+00,-3.859394192695617676e-01
-2.644899845123291016e+00,-1.704648852348327637e+00,-2.752946317195892334e-01
-2.648012399673461914e+00,-1.706654906272888184e+00,-1.651020646095275879e-01
-2.651059150695800781e+00,-1.708618521690368652e+00,-5.505257472395896912e-02
-2.654048204421997070e+00,-1.710545063018798828e+00,5.511464551091194153e-02
-2.657295703887939453e+00,-1.712638020515441895e+00,1.656808704137802124e-01
-2.660204648971557617e+00,-1.714512825012207031e+00,2.768876254558563232e-01
-2.663504838943481445e+00,-1.716639757156372070e+00,3.890755772590637207e-01
-2.666733741760253906e+00,-1.718720793724060059e+00,5.024917125701904297e-01
-2.669738531112670898e+00,-1.720657467842102051e+00,6.173872947692871094e-01
-2.673336505889892578e+00,-1.722976446151733398e+00,7.342677712440490723e-01
-2.549511671066284180e+00,-1.695302367210388184e+00,-8.203811049461364746e-01
-2.552652120590209961e+00,-1.697390675544738770e+00,-7.077207565307617188e-01
-2.555527925491333008e+00,-1.699302911758422852e+00,-5.965393781661987305e-01
-2.558788299560546875e+00,-1.701470971107482910e+00,-4.866907596588134766e-01
-2.561475753784179688e+00,-1.703257918357849121e+00,-3.776941299438476562e-01
-2.564514160156250000e+00,-1.705278277397155762e+00,-2.694406211376190186e-01
-2.567492246627807617e+00,-1.707258701324462891e+00,-1.615887582302093506e-01
-2.570449352264404297e+00,-1.709224939346313477e+00,-5.388113483786582947e-02
-2.573392391204833984e+00,-1.711181879043579102e+00,5.394282564520835876e-02
-2.576299190521240234e+00,-1.713114857673645020e+00,1.621430367231369019e-01
-2.579581499099731445e+00,-1.715297341346740723e+00,2.710236608982086182e-01
-2.582357406616210938e+00,-1.717143177986145020e+00,3.807731568813323975e-01
-2.585573434829711914e+00,-1.719281673431396484e+00,4.917853474617004395e-01
-2.588614463806152344e+00,-1.721303939819335938e+00,6.042627692222595215e-01
-2.591303348541259766e+00,-1.723091721534729004e+00,7.184367179870605469e-01
-2.467014074325561523e+00,-1.691859722137451172e+00,-8.015452623367309570e-01
-2.469918489456176758e+00,-1.693851590156555176e+00,-6.914339661598205566e-01
-2.472609758377075195e+00,-1.695697188377380371e+00,-5.827896595001220703e-01
-2.475718975067138672e+00,-1.697829365730285645e+00,-4.754642248153686523e-01
-2.478653669357299805e+00,-1.699841976165771484e+00,-3.690316379070281982e-01
-2.481508016586303711e+00,-1.701799511909484863e+00,-2.632518708705902100e-01
-2.484348058700561523e+00,-1.703747153282165527e+00,-1.578745692968368530e-01
-2.487212181091308594e+00,-1.705711364746093750e+00,-5.264271795749664307e-02
-2.490107059478759766e+00,-1.707696676254272461e+00,5.270398780703544617e-02
-2.493010997772216797e+00,-1.709688067436218262e+00,1.584250777959823608e-01
-2.495871067047119141e+00,-1.711649656295776367e+00,2.647755742073059082e-01
-2.498607158660888672e+00,-1.713526010513305664e+00,3.720023930072784424e-01
-2.501816987991333008e+00,-1.715727329254150391e+00,4.804763793945312500e-01
-2.504901885986328125e+00,-1.717842817306518555e+00,5.904008746147155762e-01
-2.507686614990234375e+00,-1.719752669334411621e+00,7.020068764686584473e-01
-2.392301321029663086e+00,-1.691467881202697754e+00,-7.850565314292907715e-01
-2.395014762878417969e+00,-1.693386435508728027e+00,-6.771811842918395996e-01
-2.398135423660278320e+00,-1.695592880249023438e+00,-5.708980560302734375e-01
-2.400551080703735352e+00,-1.697300791740417480e+00,-4.656462073326110840e-01
-2.403410911560058594e+00,-1.699322938919067383e+00,-3.614135384559631348e-01
-2.406432390213012695e+00,-1.701459169387817383e+00,-2.578445971012115479e-01
-2.409149885177612305e+00,-1.703380703926086426e+00,-1.546294391155242920e-01
-2.411929607391357422e+00,-1.705346107482910156e+00,-5.156068876385688782e-02
-2.414778232574462891e+00,-1.707360148429870605e+00,5.162158608436584473e-02
-2.417357683181762695e+00,-1.709183812141418457e+00,1.551562547683715820e-01
-2.420120716094970703e+00,-1.711137533187866211e+00,2.593112885951995850e-01
-2.423370361328125000e+00,-1.713435173034667969e+00,3.644149303436279297e-01
-2.425985336303710938e+00,-1.715283989906311035e+00,4.705797731876373291e-01
-2.429085493087768555e+00,-1.717476010322570801e+00,5.782660245895385742e-01
-2.431932210922241211e+00,-1.719488739967346191e+00,6.876194477081298828e-01
-2.319936275482177734e+00,-1.690618276596069336e+00,-7.691714167594909668e-01
-2.322473049163818359e+00,-1.692466974258422852e+00,-6.634519100189208984e-01
-2.325443506240844727e+00,-1.694631576538085938e+00,-5.593101382255554199e-01
-2.328205585479736328e+00,-1.696644425392150879e+00,-4.562768936157226562e-01
-2.330874204635620117e+00,-1.698589086532592773e+00,-3.541255295276641846e-01
-2.333540678024291992e+00,-1.700532197952270508e+00,-2.526165544986724854e-01
-2.336337089538574219e+00,-1.702570199966430664e+00,-1.515046507120132446e-01
-2.339034557342529297e+00,-1.704535841941833496e+00,-5.051876977086067200e-02
-2.341653347015380859e+00,-1.706444382667541504e+00,5.057533457875251770e-02
-2.344410419464111328e+00,-1.708453416824340820e+00,1.520281583070755005e-01
-2.347200632095336914e+00,-1.710486769676208496e+00,2.540953159332275391e-01
-2.349946498870849609e+00,-1.712487816810607910e+00,3.570231795310974121e-01
-2.352543115615844727e+00,-1.714380025863647461e+00,4.610465168952941895e-01
-2.355649471282958984e+00,-1.716643810272216797e+00,5.665752291679382324e-01
-2.358545780181884766e+00,-1.718754410743713379e+00,6.737566590309143066e-01
-2.249831438064575195e+00,-1.689354538917541504e+00,-7.538681030273437500e-01
-2.252868413925170898e+00,-1.691634893417358398e+00,-6.504184007644653320e-01
-2.255036830902099609e+00,-1.693263053894042969e+00,-5.481492280960083008e-01
-2.257700681686401367e+00,-1.695263385772705078e+00,-4.471691250801086426e-01
-2.260619163513183594e+00,-1.697454810142517090e+00,-3.471075892448425293e-01
-2.263138294219970703e+00,-1.699346423149108887e+00,-2.476029545068740845e-01
-2.265819072723388672e+00,-1.701359272003173828e+00,-1.484957188367843628e-01
-2.268437147140502930e+00,-1.703325271606445312e+00,-4.951550066471099854e-02
-2.271012306213378906e+00,-1.705258846282958984e+00,4.957171157002449036e-02
-2.273757696151733398e+00,-1.707320213317871094e+00,1.490159928798675537e-01
-2.276147365570068359e+00,-1.709114551544189453e+00,2.490262240171432495e-01
-2.278828859329223633e+00,-1.711128115653991699e+00,3.499036133289337158e-01
-2.282058954238891602e+00,-1.713553547859191895e+00,4.519936144351959229e-01
-2.284505128860473633e+00,-1.715390324592590332e+00,5.553123354911804199e-01
-2.287439346313476562e+00,-1.717593550682067871e+00,6.603993177413940430e-01
-2.181902170181274414e+00,-1.687717437744140625e+00,-7.391252517700195312e-01
-2.184772253036499023e+00,-1.689937472343444824e+00,-6.376768350601196289e-01
-2.187363624572753906e+00,-1.691941857337951660e+00,-5.375311374664306641e-01
-2.189821481704711914e+00,-1.693843007087707520e+00,-4.384818077087402344e-01
-2.192256450653076172e+00,-1.695726513862609863e+00,-3.403027653694152832e-01
-2.194940090179443359e+00,-1.697802424430847168e+00,-2.427754849195480347e-01
-2.197510480880737305e+00,-1.699790477752685547e+00,-1.455985605716705322e-01
-2.200051784515380859e+00,-1.701756238937377930e+00,-4.854949563741683960e-02
-2.202582836151123047e+00,-1.703714132308959961e+00,4.860535264015197754e-02
-2.205018997192382812e+00,-1.705598473548889160e+00,1.460960507392883301e-01
-2.207726716995239258e+00,-1.707692980766296387e+00,2.441897690296173096e-01
-2.210458755493164062e+00,-1.709806203842163086e+00,3.431282937526702881e-01
-2.213113546371459961e+00,-1.711859703063964844e+00,4.431457221508026123e-01
-2.215565681457519531e+00,-1.713756442070007324e+00,5.444616079330444336e-01
-2.218527078628540039e+00,-1.716047048568725586e+00,6.475289463996887207e-01
-2.116067647933959961e+00,-1.685745954513549805e+00,-7.249231338500976562e-01
-2.118783712387084961e+00,-1.687909722328186035e+00,-6.254040598869323730e-01
-2.121259450912475586e+00,-1.689882040023803711e+00,-5.271764397621154785e-01
-2.124047517776489258e+00,-1.692103028297424316e+00,-4.301171004772186279e-01
-2.126319169998168945e+00,-1.693912744522094727e+00,-3.337967991828918457e-01
-2.128863573074340820e+00,-1.695939779281616211e+00,-2.381275147199630737e-01
-2.131327629089355469e+00,-1.697902679443359375e+00,-1.428091228008270264e-01
-2.133794307708740234e+00,-1.699867844581604004e+00,-4.761940985918045044e-02
-2.136281490325927734e+00,-1.701849102973937988e+00,4.767491295933723450e-02
-2.138706207275390625e+00,-1.703780770301818848e+00,1.433035135269165039e-01
-2.141427040100097656e+00,-1.705948352813720703e+00,2.395328283309936523e-01
-2.143684387207031250e+00,-1.707746624946594238e+00,3.365228474140167236e-01
-2.146300315856933594e+00,-1.709830522537231445e+00,4.346232712268829346e-01
-2.148750782012939453e+00,-1.711782813072204590e+00,5.340086221694946289e-01
-2.151728391647338867e+00,-1.714154839515686035e+00,6.351283788681030273e-01
-2.052250146865844727e+00,-1.683477282524108887e+00,-7.112425565719604492e-01
-2.054824829101562500e+00,-1.685589313507080078e+00,-6.135838031768798828e-01
-2.057703495025634766e+00,-1.687950730323791504e+00,-5.173328518867492676e-01
-2.059896945953369141e+00,-1.689750075340270996e+00,-4.219811260700225830e-01
-2.062416076660156250e+00,-1.691816568374633789e+00,-3.275330364704132080e-01
-2.064829826354980469e+00,-1.693796634674072266e+00,-2.336528599262237549e-01
-2.067192792892456055e+00,-1.695734858512878418e+00,-1.401237547397613525e-01
-2.069586992263793945e+00,-1.697698831558227539e+00,-4.672401770949363708e-02
-2.072029829025268555e+00,-1.699702739715576172e+00,4.677916690707206726e-02
-2.074439764022827148e+00,-1.701679706573486328e+00,1.406149864196777344e-01
-2.076774358749389648e+00,-1.703594803810119629e+00,2.350044846534729004e-01
-2.079471111297607422e+00,-1.705806970596313477e+00,3.302415311336517334e-01
-2.081540584564208984e+00,-1.707504630088806152e+00,4.264149665832519531e-01
-2.083980798721313477e+00,-1.709506392478942871e+00,5.239393711090087891e-01
-2.086965084075927734e+00,-1.711954355239868164e+00,6.231811642646789551e-01
-1.994699954986572266e+00,-1.684599161148071289e+00,-6.995825171470642090e-01
-1.997063875198364258e+00,-1.686595559120178223e+00,-6.034829020500183105e-01
-1.999249219894409180e+00,-1.688441157341003418e+00,-5.086606144905090332e-01
-2.001783609390258789e+00,-1.690581440925598145e+00,-4.149908721446990967e-01
-2.004162073135375977e+00,-1.692590236663818359e+00,-3.220961391925811768e-01
-2.006287574768066406e+00,-1.694385409355163574e+00,-2.297491580247879028e-01
-2.008671760559082031e+00,-1.696398854255676270e+00,-1.377887278795242310e-01
-2.011010408401489258e+00,-1.698373913764953613e+00,-4.594568163156509399e-02
-2.013298273086547852e+00,-1.700306057929992676e+00,4.599795490503311157e-02
-2.015852689743041992e+00,-1.702463388442993164e+00,1.382813155651092529e-01
-2.018194437026977539e+00,-1.704441189765930176e+00,2.311126589775085449e-01
-2.020421981811523438e+00,-1.706322431564331055e+00,3.247093558311462402e-01
-2.023043870925903320e+00,-1.708536744117736816e+00,4.193983972072601318e-01
-2.025559186935424805e+00,-1.710661053657531738e+00,5.153545737266540527e-01
-2.027826547622680664e+00,-1.712575793266296387e+00,6.127789020538330078e-01
-1.934500098228454590e+00,-1.681777238845825195e+00,-6.868413686752319336e-01
-1.936746239662170410e+00,-1.683730006217956543e+00,-5.924777984619140625e-01
-1.939329743385314941e+00,-1.685975909233093262e+00,-4.995042383670806885e-01
-1.941309452056884766e+00,-1.687697052955627441e+00,-4.074201881885528564e-01
-1.943648099899291992e+00,-1.689730167388916016e+00,-3.162253499031066895e-01
-1.945935845375061035e+00,-1.691719055175781250e+00,-2.255877852439880371e-01
-1.948224782943725586e+00,-1.693708896636962891e+00,-1.352913677692413330e-01
-1.950494050979614258e+00,-1.695681810379028320e+00,-4.511296376585960388e-02
-1.952739596366882324e+00,-1.697633981704711914e+00,4.516490176320075989e-02
-1.955003619194030762e+00,-1.699602246284484863e+00,1.357621252536773682e-01
-1.957245707511901855e+00,-1.701551437377929688e+00,2.268989086151123047e-01
-1.959881305694580078e+00,-1.703842759132385254e+00,3.188664317131042480e-01
-1.961968541145324707e+00,-1.705657243728637695e+00,4.117558896541595459e-01
-1.964458107948303223e+00,-1.707821488380432129e+00,5.059764385223388672e-01
-1.966732144355773926e+00,-1.709798455238342285e+00,6.016508936882019043e-01
-1.879398107528686523e+00,-1.681700825691223145e+00,-6.757546663284301758e-01
-1.882125616073608398e+00,-1.684141397476196289e+00,-5.830831527709960938e-01
-1.884061098098754883e+00,-1.685873270034790039e+00,-4.914338588714599609e-01
-1.886374235153198242e+00,-1.687943100929260254e+00,-4.009204208850860596e-01
-1.888584852218627930e+00,-1.689921259880065918e+00,-3.111702799797058105e-01
-1.890766620635986328e+00,-1.691873550415039062e+00,-2.219767868518829346e-01
-1.892970681190490723e+00,-1.693845629692077637e+00,-1.331243366003036499e-01
-1.895177125930786133e+00,-1.695819973945617676e+00,-4.439040273427963257e-02
-1.897381186485290527e+00,-1.697792172431945801e+00,4.444202780723571777e-02
-1.899625182151794434e+00,-1.699800133705139160e+00,1.335923224687576294e-01
-1.901867985725402832e+00,-1.701807022094726562e+00,2.232800722122192383e-01
-1.904048204421997070e+00,-1.703757882118225098e+00,3.137180507183074951e-01
-1.906650543212890625e+00,-1.706086516380310059e+00,4.052298367023468018e-01
-1.908528566360473633e+00,-1.707767009735107422e+00,4.978158771991729736e-01
-1.910788297653198242e+00,-1.709789037704467773e+00,5.919628739356994629e-01
-1.823235392570495605e+00,-1.679047703742980957e+00,-6.641340851783752441e-01
-1.825199723243713379e+00,-1.680856585502624512e+00,-5.728422999382019043e-01
-1.827527046203613281e+00,-1.682999968528747559e+00,-4.829216599464416504e-01
-1.829685926437377930e+00,-1.684988021850585938e+00,-3.939577341079711914e-01
-1.831765413284301758e+00,-1.686903119087219238e+00,-3.057554364204406738e-01
-1.833838701248168945e+00,-1.688812494277954102e+00,-2.181089669466018677e-01
-1.835955619812011719e+00,-1.690761923789978027e+00,-1.308032423257827759e-01
-1.838096618652343750e+00,-1.692733645439147949e+00,-4.361645877361297607e-02
-1.840257644653320312e+00,-1.694723725318908691e+00,4.366773739457130432e-02
-1.842479944229125977e+00,-1.696770310401916504e+00,1.312680691480636597e-01
-1.844723105430603027e+00,-1.698836088180541992e+00,2.194035053253173828e-01
-1.846926331520080566e+00,-1.700865030288696289e+00,3.082861006259918213e-01
-1.849007010459899902e+00,-1.702781200408935547e+00,3.981178700923919678e-01
-1.851513266563415527e+00,-1.705089211463928223e+00,4.892599582672119141e-01
-1.853856325149536133e+00,-1.707247018814086914e+00,5.818362236022949219e-01
-1.771067261695861816e+00,-1.678480148315429688e+00,-6.538155674934387207e-01
-1.772957682609558105e+00,-1.680271744728088379e+00,-5.639365315437316895e-01
-1.775226831436157227e+00,-1.682422280311584473e+00,-4.754161238670349121e-01
-1.777348399162292480e+00,-1.684432983398437500e+00,-3.878402411937713623e-01
-1.779414057731628418e+00,-1.686390638351440430e+00,-3.010152876377105713e-01
-1.781646847724914551e+00,-1.688506603240966797e+00,-2.147539705038070679e-01
-1.783686041831970215e+00,-1.690439224243164062e+00,-1.287899464368820190e-01
-1.785766959190368652e+00,-1.692411422729492188e+00,-4.294514283537864685e-02
-1.787886738777160645e+00,-1.694420337677001953e+00,4.299611970782279968e-02
-1.789836406707763672e+00,-1.696268200874328613e+00,1.292340308427810669e-01
-1.791972875595092773e+00,-1.698292851448059082e+00,2.159986346960067749e-01
-1.794089913368225098e+00,-1.700299263000488281e+00,3.034979403018951416e-01
-1.796107649803161621e+00,-1.702211499214172363e+00,3.919337689876556396e-01
-1.798559427261352539e+00,-1.704535126686096191e+00,4.816647469997406006e-01
-1.800872325897216797e+00,-1.706727147102355957e+00,5.728155374526977539e-01
-1.720227360725402832e+00,-1.677678465843200684e+00,-6.438462138175964355e-01
-1.722582340240478516e+00,-1.679975271224975586e+00,-5.555049777030944824e-01
-1.724705100059509277e+00,-1.682045459747314453e+00,-4.682857990264892578e-01
-1.726700186729431152e+00,-1.683991193771362305e+00,-3.820087611675262451e-01
-1.728655934333801270e+00,-1.685898542404174805e+00,-2.964805364608764648e-01
-1.730793237686157227e+00,-1.687983036041259766e+00,-2.115148603916168213e-01
-1.732757449150085449e+00,-1.689898610115051270e+00,-1.268461942672729492e-01
-1.734780430793762207e+00,-1.691871643066406250e+00,-4.229703173041343689e-02
-1.736858010292053223e+00,-1.693897843360900879e+00,4.234768822789192200e-02
-1.738786220550537109e+00,-1.695778369903564453e+00,1.272875219583511353e-01
-1.740914821624755859e+00,-1.697854280471801758e+00,2.127517759799957275e-01
-1.743040919303894043e+00,-1.699927806854248047e+00,2.989477217197418213e-01
-1.745086550712585449e+00,-1.701922893524169922e+00,3.860765099525451660e-01
-1.746953129768371582e+00,-1.703743219375610352e+00,4.743264913558959961e-01
-1.749229907989501953e+00,-1.705963730812072754e+00,5.640984177589416504e-01
-1.671274304389953613e+00,-1.677271723747253418e+00,-6.344446539878845215e-01
-1.672955989837646484e+00,-1.678959488868713379e+00,-5.471950769424438477e-01
-1.675030469894409180e+00,-1.681041359901428223e+00,-4.612841606140136719e-01
-1.677333831787109375e+00,-1.683352947235107422e+00,-3.763791918754577637e-01
-1.679186582565307617e+00,-1.685212373733520508e+00,-2.921032011508941650e-01
-1.681232213973999023e+00,-1.687265396118164062e+00,-2.083881795406341553e-01
-1.683125257492065430e+00,-1.689165234565734863e+00,-1.249700039625167847e-01
-1.685091018676757812e+00,-1.691138029098510742e+00,-4.167143255472183228e-02
-1.687127232551574707e+00,-1.693181514739990234e+00,4.172178357839584351e-02
-1.689032435417175293e+00,-1.695093512535095215e+00,1.254086047410964966e-01
-1.691148757934570312e+00,-1.697217583656311035e+00,2.096173316240310669e-01
-1.692855834960937500e+00,-1.698930740356445312e+00,2.944810390472412109e-01
-1.694831132888793945e+00,-1.700913071632385254e+00,3.803054392337799072e-01
-1.697252392768859863e+00,-1.703343033790588379e+00,4.674038589000701904e-01
-1.699574708938598633e+00,-1.705673694610595703e+00,5.559015870094299316e-01
-1.622944474220275879e+00,-1.676074981689453125e+00,-6.251410245895385742e-01
-1.625080227851867676e+00,-1.678280591964721680e+00,-5.393376946449279785e-01
-1.627024531364440918e+00,-1.680288553237915039e+00,-4.546405971050262451e-01
-1.628878712654113770e+00,-1.682203531265258789e+00,-3.708712160587310791e-01
-1.630962371826171875e+00,-1.684355378150939941e+00,-2.878787219524383545e-01
-1.632777452468872070e+00,-1.686229825019836426e+00,-2.053528130054473877e-01
-1.634745955467224121e+00,-1.688262701034545898e+00,-1.231594979763031006e-01
-1.636656165122985840e+00,-1.690235495567321777e+00,-4.106773808598518372e-02
-1.638512372970581055e+00,-1.692152500152587891e+00,4.111431539058685303e-02
-1.640530109405517578e+00,-1.694236278533935547e+00,1.235952749848365784e-01
-1.642309427261352539e+00,-1.696073889732360840e+00,2.065516412258148193e-01
-1.644347310066223145e+00,-1.698178529739379883e+00,2.902413010597229004e-01
-1.646339297294616699e+00,-1.700235605239868164e+00,3.748467266559600830e-01
-1.648192048072814941e+00,-1.702149033546447754e+00,4.605554640293121338e-01
-1.650465488433837891e+00,-1.704496860504150391e+00,5.477626323699951172e-01
-1.576387763023376465e+00,-1.675322413444519043e+00,-6.163814067840576172e-01
-1.578385114669799805e+00,-1.677445054054260254e+00,-5.317544341087341309e-01
-1.580208063125610352e+00,-1.679382443428039551e+00,-4.482296407222747803e-01
-1.581956028938293457e+00,-1.681240081787109375e+00,-3.656292855739593506e-01
-1.583941340446472168e+00,-1.683349967002868652e+00,-2.838029563426971436e-01
-1.585677027702331543e+00,-1.685194611549377441e+00,-2.024419754743576050e-01
-1.587576150894165039e+00,-1.687212944030761719e+00,-1.214127689599990845e-01
-1.589432477951049805e+00,-1.689185857772827148e+00,-4.048532247543334961e-02
-1.591249346733093262e+00,-1.691116690635681152e+00,4.053160175681114197e-02
-1.593237400054931641e+00,-1.693229556083679199e+00,1.218457296490669250e-01
-1.595006227493286133e+00,-1.695109248161315918e+00,2.036330252885818481e-01
-1.597040653228759766e+00,-1.697271466255187988e+00,2.861500084400177002e-01
-1.599043607711791992e+00,-1.699400067329406738e+00,3.695786297321319580e-01
-1.600922703742980957e+00,-1.701397061347961426e+00,4.541053771972656250e-01
-1.602568864822387695e+00,-1.703146576881408691e+00,5.399018526077270508e-01
-1.530403375625610352e+00,-1.673819065093994141e+00,-6.077066659927368164e-01
-1.532351851463317871e+00,-1.675950169563293457e+00,-5.242739319801330566e-01
-1.534145116806030273e+00,-1.677911520004272461e+00,-4.419309198856353760e-01
-1.536188960075378418e+00,-1.680146813392639160e+00,-3.605726659297943115e-01
-1.537857174873352051e+00,-1.681971311569213867e+00,-2.798307538032531738e-01
-1.539742350578308105e+00,-1.684033155441284180e+00,-1.996344625949859619e-01
-1.541575193405151367e+00,-1.686037778854370117e+00,-1.197281107306480408e-01
-1.543378233909606934e+00,-1.688009858131408691e+00,-3.992358222603797913e-02
-1.545156002044677734e+00,-1.689954161643981934e+00,3.996957093477249146e-02
-1.546894431114196777e+00,-1.691855549812316895e+00,1.201412454247474670e-01
-1.548867702484130859e+00,-1.694013714790344238e+00,2.008175998926162720e-01
-1.550502181053161621e+00,-1.695801377296447754e+00,2.821316421031951904e-01
-1.552424669265747070e+00,-1.697903990745544434e+00,3.643835186958312988e-01
-1.554241061210632324e+00,-1.699890613555908203e+00,4.477198123931884766e-01
-1.556483268737792969e+00,-1.702342867851257324e+00,5.325301289558410645e-01
-1.486082077026367188e+00,-1.672802686691284180e+00,-5.995535254478454590e-01
-1.487909913063049316e+00,-1.674860239028930664e+00,-5.172177553176879883e-01
-1.489596247673034668e+00,-1.676758527755737305e+00,-4.359669387340545654e-01
-1.491538047790527344e+00,-1.678944230079650879e+00,-3.556964993476867676e-01
-1.493123888969421387e+00,-1.680729389190673828e+00,-2.760401964187622070e-01
-1.494932889938354492e+00,-1.682765603065490723e+00,-1.969274282455444336e-01
-1.496702075004577637e+00,-1.684757113456726074e+00,-1.181037947535514832e-01
-1.498453378677368164e+00,-1.686728477478027344e+00,-3.938196972012519836e-02
-1.500191092491149902e+00,-1.688684582710266113e+00,3.942764177918434143e-02
-1.501902341842651367e+00,-1.690610766410827637e+00,1.185141429305076599e-01
-1.503853559494018555e+00,-1.692807197570800781e+00,1.981025487184524536e-01
-1.505485415458679199e+00,-1.694644093513488770e+00,2.783255279064178467e-01
-1.507409691810607910e+00,-1.696810007095336914e+00,3.594814836978912354e-01
-1.509240388870239258e+00,-1.698870778083801270e+00,4.417162835597991943e-01
-1.510874390602111816e+00,-1.700710058212280273e+00,5.252005457878112793e-01
-1.442814946174621582e+00,-1.671684980392456055e+00,-5.916904807090759277e-01
-1.444530606269836426e+00,-1.673672676086425781e+00,-5.104137063026428223e-01
-1.446117758750915527e+00,-1.675511717796325684e+00,-4.302168488502502441e-01
-1.447669267654418945e+00,-1.677309393882751465e+00,-3.509242534637451172e-01
-1.449472784996032715e+00,-1.679398894309997559e+00,-2.723863422870635986e-01
-1.451209664344787598e+00,-1.681411266326904297e+00,-1.943181902170181274e-01
-1.452917218208312988e+00,-1.683389663696289062e+00,-1.165381520986557007e-01
-1.454618215560913086e+00,-1.685360431671142578e+00,-3.885992616415023804e-02
-1.456316232681274414e+00,-1.687327861785888672e+00,3.890528902411460876e-02
-1.457998275756835938e+00,-1.689276695251464844e+00,1.169457063078880310e-01
-1.459634661674499512e+00,-1.691172719001770020e+00,1.954462975263595581e-01
-1.461549997329711914e+00,-1.693391799926757812e+00,2.746559083461761475e-01
-1.463470339775085449e+00,-1.695616841316223145e+00,3.547545373439788818e-01
-1.465308785438537598e+00,-1.697746992111206055e+00,4.359261393547058105e-01
-1.466964721679687500e+00,-1.699665546417236328e+00,5.183406472206115723e-01
-1.402034521102905273e+00,-1.672235965728759766e+00,-5.847225189208984375e-01
-1.403729081153869629e+00,-1.674256920814514160e+00,-5.044127702713012695e-01
-1.405673742294311523e+00,-1.676576495170593262e+00,-4.252805411815643311e-01
