-4.506707191467285156e-01,1.551642298698425293e+00,-2.559117078781127930e-01
-4.512621760368347168e-01,1.553678750991821289e+00,-1.986511200666427612e-01
-4.517812430858612061e-01,1.555465817451477051e+00,-1.417092829942703247e-01
-4.523433148860931396e-01,1.557400941848754883e+00,-8.499281853437423706e-02
-4.528905749320983887e-01,1.559285163879394531e+00,-2.834216877818107605e-02
-4.534243047237396240e-01,1.561122775077819824e+00,2.837556973099708557e-02
-4.540049135684967041e-01,1.563121795654296875e+00,8.530502766370773315e-02
-4.545199573040008545e-01,1.564895153045654297e+00,1.425683349370956421e-01
-4.551089107990264893e-01,1.566922783851623535e+00,2.003445029258728027e-01
-4.556864202022552490e-01,1.568911194801330566e+00,2.587598860263824463e-01
-4.562266170978546143e-01,1.570771098136901855e+00,3.179444074630737305e-01
-4.568856060504913330e-01,1.573039889335632324e+00,3.781724572181701660e-01
-4.731687605381011963e-01,1.546134948730468750e+00,-4.332510530948638916e-01
-4.736350476741790771e-01,1.547658562660217285e+00,-3.736620843410491943e-01
-4.743429124355316162e-01,1.549971699714660645e+00,-3.150763511657714844e-01
-4.748825430870056152e-01,1.551734924316406250e+00,-2.570217251777648926e-01
-4.754940271377563477e-01,1.553732991218566895e+00,-1.995078325271606445e-01
-4.760326445102691650e-01,1.555492997169494629e+00,-1.423179358243942261e-01
-4.766209721565246582e-01,1.557415485382080078e+00,-8.535717427730560303e-02
-4.771975576877593994e-01,1.559299468994140625e+00,-2.846366353332996368e-02
-4.777638614177703857e-01,1.561149954795837402e+00,2.849744260311126709e-02
-4.783839583396911621e-01,1.563176155090332031e+00,8.567290008068084717e-02
-4.789382219314575195e-01,1.564987301826477051e+00,1.431866139173507690e-01
-4.795748591423034668e-01,1.567067623138427734e+00,2.012200653553009033e-01
-4.800552427768707275e-01,1.568637371063232422e+00,2.598213553428649902e-01
-4.807957410812377930e-01,1.571056962013244629e+00,3.193625509738922119e-01
-4.813193678855895996e-01,1.572767972946166992e+00,3.797244429588317871e-01
-4.974008202552795410e-01,1.545893669128417969e+00,-4.351338446140289307e-01
-4.980482757091522217e-01,1.547905921936035156e+00,-3.754045069217681885e-01
-4.986461102962493896e-01,1.549763917922973633e+00,-3.164525926113128662e-01
-4.993254244327545166e-01,1.551875233650207520e+00,-2.582023143768310547e-01
-4.998846650123596191e-01,1.553613305091857910e+00,-2.003906816244125366e-01
-5.005149841308593750e-01,1.555572271347045898e+00,-1.429660171270370483e-01
-5.011295676231384277e-01,1.557482361793518066e+00,-8.574518561363220215e-02
-5.017358064651489258e-01,1.559366464614868164e+00,-2.859305217862129211e-02
-5.023350715637207031e-01,1.561228990554809570e+00,2.862720377743244171e-02
-5.029230713844299316e-01,1.563056468963623047e+00,8.605206012725830078e-02
-5.035896897315979004e-01,1.565128326416015625e+00,1.438442617654800415e-01
-5.041463375091552734e-01,1.566858291625976562e+00,2.020990699529647827e-01
-5.047990083694458008e-01,1.568886756896972656e+00,2.610327303409576416e-01
-5.054184198379516602e-01,1.570811867713928223e+00,3.207504451274871826e-01
-5.061787366867065430e-01,1.573174953460693359e+00,3.815328776836395264e-01
-5.220531821250915527e-01,1.546253561973571777e+00,-4.372937083244323730e-01
-5.227102041244506836e-01,1.548199653625488281e+00,-3.772515952587127686e-01
-5.233182907104492188e-01,1.550000786781311035e+00,-3.179979026317596436e-01
-5.240163803100585938e-01,1.552068352699279785e+00,-2.594558000564575195e-01
-5.245912671089172363e-01,1.553771138191223145e+00,-2.013589143753051758e-01
-5.252450108528137207e-01,1.555707454681396484e+00,-1.436546742916107178e-01
-5.258861184120178223e-01,1.557606339454650879e+00,-8.615758270025253296e-02
-5.265222191810607910e-01,1.559490323066711426e+00,-2.873056754469871521e-02
-5.271549820899963379e-01,1.561364412307739258e+00,2.876509539783000946e-02
-5.277796983718872070e-01,1.563214778900146484e+00,8.646781742572784424e-02
-5.284911394119262695e-01,1.565322160720825195e+00,1.445425003767013550e-01
-5.290902853012084961e-01,1.567096590995788574e+00,2.030858248472213745e-01
-5.297947525978088379e-01,1.569183111190795898e+00,2.623168528079986572e-01
-5.304676294326782227e-01,1.571176171302795410e+00,3.223422169685363770e-01
-5.310723185539245605e-01,1.572967171669006348e+00,3.832867443561553955e-01
-5.467715859413146973e-01,1.546094059944152832e+00,-4.394168853759765625e-01
-5.474667549133300781e-01,1.548059701919555664e+00,-3.790881335735321045e-01
-5.482560396194458008e-01,1.550291657447814941e+00,-3.196347951889038086e-01
-5.488615632057189941e-01,1.552003860473632812e+00,-2.607316374778747559e-01
-5.495629906654357910e-01,1.553987264633178711e+00,-2.023856043815612793e-01
-5.502403974533081055e-01,1.555902838706970215e+00,-1.443851888179779053e-01
-5.509083271026611328e-01,1.557791471481323242e+00,-8.659513294696807861e-02
-5.515745878219604492e-01,1.559675455093383789e+00,-2.887647040188312531e-02
-5.522411465644836426e-01,1.561560273170471191e+00,2.891136519610881805e-02
-5.529028773307800293e-01,1.563431501388549805e+00,8.690865337848663330e-02
-5.535488128662109375e-01,1.565257906913757324e+00,1.452533304691314697e-01
-5.543026328086853027e-01,1.567389488220214844e+00,2.041310667991638184e-01
-5.548868775367736816e-01,1.569041609764099121e+00,2.635938823223114014e-01
-5.555843710899353027e-01,1.571013927459716797e+00,3.239072561264038086e-01
-5.564459562301635742e-01,1.573450088500976562e+00,3.853057324886322021e-01
-5.716081261634826660e-01,1.545586347579956055e+00,-4.415526688098907471e-01
-5.723156332969665527e-01,1.547499418258666992e+00,-3.809179067611694336e-01
-5.731247663497924805e-01,1.549687147140502930e+00,-3.211686313152313232e-01
-5.737448930740356445e-01,1.551363945007324219e+00,-2.619768977165222168e-01
-5.744684338569641113e-01,1.553320407867431641e+00,-2.033488005399703979e-01
-5.751699209213256836e-01,1.555217146873474121e+00,-1.450706720352172852e-01
-5.758646130561828613e-01,1.557095527648925781e+00,-8.700572699308395386e-02
-5.765611529350280762e-01,1.558979034423828125e+00,-2.901339530944824219e-02
-5.772611498832702637e-01,1.560871601104736328e+00,2.904861792922019958e-02
-5.779595971107482910e-01,1.562760114669799805e+00,8.732225000858306885e-02
-5.786442160606384277e-01,1.564611434936523438e+00,1.459469795227050781e-01
-5.794456601142883301e-01,1.566778540611267090e+00,2.051106393337249756e-01
-5.800720453262329102e-01,1.568472027778625488e+00,2.648659348487854004e-01
-5.808206796646118164e-01,1.570496320724487305e+00,3.254812657833099365e-01
-5.815017819404602051e-01,1.572337985038757324e+00,3.870319426059722900e-01
-5.970670580863952637e-01,1.546043515205383301e+00,-4.440793097019195557e-01
-5.977852940559387207e-01,1.547903299331665039e+00,-3.830842375755310059e-01
-5.984581708908081055e-01,1.549645662307739258e+00,-3.229022324085235596e-01
-5.992464423179626465e-01,1.551686763763427734e+00,-2.634528875350952148e-01
-5.999917387962341309e-01,1.553616642951965332e+00,-2.044909000396728516e-01
-6.007171869277954102e-01,1.555495142936706543e+00,-1.458837091922760010e-01
-6.014391779899597168e-01,1.557364583015441895e+00,-8.749282360076904297e-02
-6.021665334701538086e-01,1.559248089790344238e+00,-2.917582169175148010e-02
-6.029011607170104980e-01,1.561150312423706055e+00,2.921141311526298523e-02
-6.036376357078552246e-01,1.563057422637939453e+00,8.781264722347259521e-02
-6.043633222579956055e-01,1.564936280250549316e+00,1.467691659927368164e-01
-6.050586700439453125e-01,1.566736936569213867e+00,2.062178403139114380e-01
-6.058862805366516113e-01,1.568879961967468262e+00,2.663720250129699707e-01
-6.066891551017761230e-01,1.570958852767944336e+00,3.273432850837707520e-01
-6.074246764183044434e-01,1.572863459587097168e+00,3.892615437507629395e-01
-6.226144433021545410e-01,1.545984864234924316e+00,-4.465765058994293213e-01
-6.235728859901428223e-01,1.548364758491516113e+00,-3.853679001331329346e-01
-6.242578029632568359e-01,1.550065398216247559e+00,-3.248182833194732666e-01
-6.250669956207275391e-01,1.552074670791625977e+00,-2.650106251239776611e-01
-6.258342266082763672e-01,1.553979635238647461e+00,-2.056966722011566162e-01
-6.265842318534851074e-01,1.555841922760009766e+00,-1.467423439025878906e-01
-6.273337602615356445e-01,1.557703137397766113e+00,-8.800728619098663330e-02
-6.280924677848815918e-01,1.559587001800537109e+00,-2.934737503528594971e-02
-6.288620233535766602e-01,1.561497807502746582e+00,2.938333339989185333e-02
-6.296368837356567383e-01,1.563421964645385742e+00,8.833038806915283203e-02
-6.304038763046264648e-01,1.565326452255249023e+00,1.476368904113769531e-01
-6.311424970626831055e-01,1.567160367965698242e+00,2.074413895606994629e-01
-6.320228576660156250e-01,1.569346427917480469e+00,2.679597139358520508e-01
-6.326481699943542480e-01,1.570899128913879395e+00,3.291840255260467529e-01
-6.336706280708312988e-01,1.573437809944152832e+00,3.916082680225372314e-01
-6.482581496238708496e-01,1.545453667640686035e+00,-4.490573406219482422e-01
-6.490354537963867188e-01,1.547306776046752930e+00,-3.873770534992218018e-01
-6.499389410018920898e-01,1.549460649490356445e+00,-3.266075253486633301e-01
-6.507701873779296875e-01,1.551442265510559082e+00,-2.664658129215240479e-01
-6.515605449676513672e-01,1.553326487541198730e+00,-2.068235129117965698e-01
-6.523353457450866699e-01,1.555173754692077637e+00,-1.475448608398437500e-01
-6.531128883361816406e-01,1.557027459144592285e+00,-8.848820626735687256e-02
-6.539025306701660156e-01,1.558909893035888672e+00,-2.950773574411869049e-02
-6.547067761421203613e-01,1.560827255249023438e+00,2.954402752220630646e-02
-6.555191874504089355e-01,1.562763929367065430e+00,8.881422132253646851e-02
-6.563261747360229492e-01,1.564687848091125488e+00,1.484474986791610718e-01
-6.571062207221984863e-01,1.566547393798828125e+00,2.085838615894317627e-01
-6.578305959701538086e-01,1.568274497985839844e+00,2.693568170070648193e-01
-6.587045192718505859e-01,1.570357799530029297e+00,3.310123980045318604e-01
-6.595120429992675781e-01,1.572282910346984863e+00,3.936299979686737061e-01
-6.746771931648254395e-01,1.546024203300476074e+00,-4.519828259944915771e-01
-6.754686236381530762e-01,1.547837853431701660e+00,-3.898906111717224121e-01
-6.763945221900939941e-01,1.549959540367126465e+00,-3.287197649478912354e-01
-6.772478818893432617e-01,1.551915049552917480e+00,-2.681844830513000488e-01
-6.780613660812377930e-01,1.553779006004333496e+00,-2.081547081470489502e-01
-6.788617968559265137e-01,1.555613279342651367e+00,-1.484932303428649902e-01
-6.796675920486450195e-01,1.557459831237792969e+00,-8.905653655529022217e-02
-6.804895997047424316e-01,1.559343338012695312e+00,-2.969726361334323883e-02
-6.813292503356933594e-01,1.561267495155334473e+00,2.973390929400920868e-02
-6.821808218955993652e-01,1.563218712806701660e+00,8.938584476709365845e-02
-6.830294728279113770e-01,1.565163493156433105e+00,1.494048535823822021e-01
-6.838530898094177246e-01,1.567050814628601074e+00,2.099326699972152710e-01
-6.846211552619934082e-01,1.568810939788818359e+00,2.711042463779449463e-01
-6.855484247207641602e-01,1.570935726165771484e+00,3.331684470176696777e-01
-6.864090561866760254e-01,1.572907924652099609e+00,3.962055742740631104e-01
-7.009326219558715820e-01,1.545465707778930664e+00,-4.547060430049896240e-01
-7.017405033111572266e-01,1.547246813774108887e+00,-3.922316431999206543e-01
-7.026907205581665039e-01,1.549342036247253418e+00,-3.306880593299865723e-01
-7.034240961074829102e-01,1.550958991050720215e+00,-2.697315514087677002e-01
-7.044054269790649414e-01,1.553122758865356445e+00,-2.093960493803024292e-01
-7.052318453788757324e-01,1.554944872856140137e+00,-1.493776887655258179e-01
-7.060666084289550781e-01,1.556785464286804199e+00,-8.958668261766433716e-02
-7.069202661514282227e-01,1.558667659759521484e+00,-2.987403795123100281e-02
-7.077950835227966309e-01,1.560596466064453125e+00,2.991100586950778961e-02
-7.086846232414245605e-01,1.562557697296142578e+00,8.991885930299758911e-02
-7.094293832778930664e-01,1.564199924468994141e+00,1.502667814493179321e-01
-7.104386687278747559e-01,1.566425323486328125e+00,2.111895382404327393e-01
-7.112484574317932129e-01,1.568210721015930176e+00,2.727318704128265381e-01
-7.122262120246887207e-01,1.570366621017456055e+00,3.351754844188690186e-01
-7.131367921829223633e-01,1.572374224662780762e+00,3.986015319824218750e-01
-7.280763387680053711e-01,1.546098828315734863e+00,-4.579115808010101318e-01
-7.289009690284729004e-01,1.547850012779235840e+00,-3.949889242649078369e-01
-7.298759222030639648e-01,1.549920439720153809e+00,-3.330071866512298584e-01
-7.306275367736816406e-01,1.551516413688659668e+00,-2.716194391250610352e-01
-7.315322160720825195e-01,1.553437590599060059e+00,-2.108286023139953613e-01
-7.324932813644409180e-01,1.555478334426879883e+00,-1.504207402467727661e-01
-7.333574891090393066e-01,1.557313680648803711e+00,-9.021189063787460327e-02
-7.342441082000732422e-01,1.559196352958679199e+00,-3.008252196013927460e-02
-7.351554632186889648e-01,1.561131596565246582e+00,3.011986054480075836e-02
-7.359766364097595215e-01,1.562875509262084961e+00,9.053407609462738037e-02
-7.368646860122680664e-01,1.564761281013488770e+00,1.513184309005737305e-01
-7.379231452941894531e-01,1.567008972167968750e+00,2.126704603433609009e-01
-7.387762069702148438e-01,1.568820357322692871e+00,2.746487855911254883e-01
-7.398064136505126953e-01,1.571008205413818359e+00,3.375380039215087891e-01
-7.407687306404113770e-01,1.573051691055297852e+00,4.014200270175933838e-01
-7.553530931472778320e-01,1.546213030815124512e+00,-4.611003100872039795e-01
-7.564765214920043945e-01,1.548512697219848633e+00,-3.978803455829620361e-01
-7.572799324989318848e-01,1.550157189369201660e+00,-3.353525698184967041e-01
-7.582491040229797363e-01,1.552141189575195312e+00,-2.736008167266845703e-01
-7.591816186904907227e-01,1.554050087928771973e+00,-2.123647332191467285e-01
-7.601747512817382812e-01,1.556082963943481445e+00,-1.515158861875534058e-01
-7.610696554183959961e-01,1.557914853096008301e+00,-9.086845070123672485e-02
-7.619895935058593750e-01,1.559797883033752441e+00,-3.030145354568958282e-02
-7.629374861717224121e-01,1.561738252639770508e+00,3.033914789557456970e-02
-7.637936472892761230e-01,1.563490867614746094e+00,9.119368344545364380e-02
-7.647216916084289551e-01,1.565390467643737793e+00,1.524221599102020264e-01
-7.656294703483581543e-01,1.567248821258544922e+00,2.141683846712112427e-01
-7.667247056961059570e-01,1.569490671157836914e+00,2.766590714454650879e-01
-7.675224542617797852e-01,1.571123838424682617e+00,3.398883640766143799e-01
-7.684954404830932617e-01,1.573115468025207520e+00,4.042018651962280273e-01
-7.826620340347290039e-01,1.545625448226928711e+00,-4.642182886600494385e-01
-7.838170528411865234e-01,1.547906517982482910e+00,-4.005662798881530762e-01
-7.846414446830749512e-01,1.549534440040588379e+00,-3.376129269599914551e-01
-7.856385111808776855e-01,1.551503539085388184e+00,-2.754424214363098145e-01
-7.866007685661315918e-01,1.553403854370117188e+00,-2.137930989265441895e-01
-7.876266837120056152e-01,1.555429816246032715e+00,-1.525343805551528931e-01
-7.885520458221435547e-01,1.557257294654846191e+00,-9.147906303405761719e-02
-7.895053029060363770e-01,1.559139847755432129e+00,-3.050507418811321259e-02
-7.904886603355407715e-01,1.561081767082214355e+00,3.054307028651237488e-02
-7.913789749145507812e-01,1.562840104103088379e+00,9.180700778961181641e-02
-7.923452854156494141e-01,1.564748287200927734e+00,1.534482091665267944e-01
-7.932919859886169434e-01,1.566617846488952637e+00,2.156117409467697144e-01
-7.944348454475402832e-01,1.568874835968017578e+00,2.785263955593109131e-01
-7.952707409858703613e-01,1.570525527000427246e+00,3.421864807605743408e-01
-7.962896227836608887e-01,1.572537779808044434e+00,4.069403111934661865e-01
-8.110496997833251953e-01,1.546366810798645020e+00,-4.678796827793121338e-01
-8.122382760047912598e-01,1.548632979393005371e+00,-4.037214517593383789e-01
-8.130852580070495605e-01,1.550247788429260254e+00,-3.402691781520843506e-01
-8.141130208969116211e-01,1.552207350730895996e+00,-2.776077091693878174e-01
-8.151055574417114258e-01,1.554099798202514648e+00,-2.154725342988967896e-01
-8.161659240722656250e-01,1.556121468544006348e+00,-1.537320911884307861e-01
-8.171231746673583984e-01,1.557946681976318359e+00,-9.219716489315032959e-02
-8.181109428405761719e-01,1.559829950332641602e+00,-3.074453771114349365e-02
-8.191314339637756348e-01,1.561775684356689453e+00,3.078288771212100983e-02
-8.200567364692687988e-01,1.563539862632751465e+00,9.252817183732986450e-02
-8.210620880126953125e-01,1.565456628799438477e+00,1.546543240547180176e-01
-8.220487833023071289e-01,1.567337870597839355e+00,2.173079550266265869e-01
-8.232403397560119629e-01,1.569609761238098145e+00,2.807200551033020020e-01
-8.241145014762878418e-01,1.571276426315307617e+00,3.448848426342010498e-01
-8.251801133155822754e-01,1.573308229446411133e+00,4.101541638374328613e-01
-8.391422033309936523e-01,1.545734047889709473e+00,-4.712740778923034668e-01
-8.403669595718383789e-01,1.547989964485168457e+00,-4.066479802131652832e-01
-8.412383198738098145e-01,1.549595117568969727e+00,-3.427337408065795898e-01
-8.422979116439819336e-01,1.551546931266784668e+00,-2.796171307563781738e-01
-8.433222770690917969e-01,1.553433775901794434e+00,-2.170315533876419067e-01
-8.444174528121948242e-01,1.555451154708862305e+00,-1.548440456390380859e-01
-8.454068899154663086e-01,1.557273745536804199e+00,-9.286393225193023682e-02
-8.464285731315612793e-01,1.559155702590942383e+00,-3.096687234938144684e-02
-8.474852442741394043e-01,1.561102151870727539e+00,3.100553154945373535e-02
-8.484443426132202148e-01,1.562868833541870117e+00,9.319758415222167969e-02
-8.494873642921447754e-01,1.564790129661560059e+00,1.557737439870834351e-01
-8.505116701126098633e-01,1.566676974296569824e+00,2.188817709684371948e-01
-8.517490029335021973e-01,1.568956136703491211e+00,2.827546000480651855e-01
-8.526588678359985352e-01,1.570632219314575195e+00,3.473866581916809082e-01
-8.537675738334655762e-01,1.572674393653869629e+00,4.131324291229248047e-01
-8.676284551620483398e-01,1.545051217079162598e+00,-4.748035967350006104e-01
-8.686156272888183594e-01,1.546809196472167969e+00,-4.095618724822998047e-01
-8.697896599769592285e-01,1.548899888992309570e+00,-3.452982008457183838e-01
-8.708828091621398926e-01,1.550846457481384277e+00,-2.817085385322570801e-01
-8.719401955604553223e-01,1.552729368209838867e+00,-2.186544090509414673e-01
-8.730713129043579102e-01,1.554743766784667969e+00,-1.560016870498657227e-01
-8.740938305854797363e-01,1.556564569473266602e+00,-9.355814754962921143e-02
-8.751499652862548828e-01,1.558445334434509277e+00,-3.119835816323757172e-02
-8.762431144714355469e-01,1.560392022132873535e+00,3.123732842504978180e-02
-8.772354722023010254e-01,1.562159180641174316e+00,9.389441460371017456e-02
-8.783153891563415527e-01,1.564082264900207520e+00,1.569387167692184448e-01
-8.793767690658569336e-01,1.565972328186035156e+00,2.205192744731903076e-01
-8.803804516792297363e-01,1.567759633064270020e+00,2.847808003425598145e-01
-8.816028237342834473e-01,1.569936513900756836e+00,3.499878942966461182e-01
-8.827528953552246094e-01,1.571984410285949707e+00,4.162277281284332275e-01
-8.974022269248962402e-01,1.545825123786926270e+00,-4.789396822452545166e-01
-8.984219431877136230e-01,1.547581553459167480e+00,-4.131290018558502197e-01
-8.996356129646301270e-01,1.549672245979309082e+00,-3.483053445816040039e-01
-9.007654786109924316e-01,1.551618456840515137e+00,-2.841616570949554443e-01
-9.018585681915283203e-01,1.553501367568969727e+00,-2.205583155155181885e-01
-9.030280113220214844e-01,1.555515766143798828e+00,-1.573599576950073242e-01
-9.040850996971130371e-01,1.557336688041687012e+00,-9.437268972396850586e-02
-9.051776528358459473e-01,1.559218645095825195e+00,-3.146998584270477295e-02
-9.063081741333007812e-01,1.561166048049926758e+00,3.150929138064384460e-02
-9.073351025581359863e-01,1.562934994697570801e+00,9.471193701028823853e-02
-9.084525704383850098e-01,1.564859867095947266e+00,1.583052277565002441e-01
-9.095507860183715820e-01,1.566751718521118164e+00,2.224395275115966797e-01
-9.105895161628723145e-01,1.568540930747985840e+00,2.872608304023742676e-01
-9.118549227714538574e-01,1.570720672607421875e+00,3.530361950397491455e-01
-9.130454063415527344e-01,1.572771310806274414e+00,4.198534190654754639e-01
-9.267811775207519531e-01,1.545071601867675781e+00,-4.827668070793151855e-01
-9.278361201286315918e-01,1.546830415725708008e+00,-4.164310693740844727e-01
-9.290903210639953613e-01,1.548921346664428711e+00,-3.510895967483520508e-01
-9.302583336830139160e-01,1.550868511199951172e+00,-2.864335179328918457e-01
-9.313880205154418945e-01,1.552751779556274414e+00,-2.223218530416488647e-01
-9.325964450836181641e-01,1.554766416549682617e+00,-1.586183011531829834e-01
-9.336884617805480957e-01,1.556586980819702148e+00,-9.512737393379211426e-02
-9.348164796829223633e-01,1.558467507362365723e+00,-3.172163665294647217e-02
-9.359839558601379395e-01,1.560413956642150879e+00,3.176125138998031616e-02
-9.370436668395996094e-01,1.562180638313293457e+00,9.546921402215957642e-02
-9.381967782974243164e-01,1.564103007316589355e+00,1.595708131790161133e-01
-9.393296837806701660e-01,1.565991759300231934e+00,2.242175340652465820e-01
-9.404007792472839355e-01,1.567777276039123535e+00,2.895564436912536621e-01
-9.417058229446411133e-01,1.569953083992004395e+00,3.558568060398101807e-01
-9.429332017898559570e-01,1.571999311447143555e+00,4.232069253921508789e-01
-9.576027989387512207e-01,1.545860767364501953e+00,-4.872461557388305664e-01
-9.590015411376953125e-01,1.548118710517883301e+00,-4.204302728176116943e-01
-9.599973559379577637e-01,1.549726247787475586e+00,-3.543503582477569580e-01
-9.612075686454772949e-01,1.551679968833923340e+00,-2.890948057174682617e-01
-9.623773097991943359e-01,1.553568363189697266e+00,-2.243880629539489746e-01
-9.636272788047790527e-01,1.555586099624633789e+00,-1.600926816463470459e-01
-9.647563099861145020e-01,1.557408809661865234e+00,-9.601166099309921265e-02
-9.659220576286315918e-01,1.559290647506713867e+00,-3.201652318239212036e-02
-9.671272039413452148e-01,1.561236023902893066e+00,3.205646947026252747e-02
-9.682204127311706543e-01,1.563000917434692383e+00,9.635640680789947510e-02
-9.694091677665710449e-01,1.564919829368591309e+00,1.610532552003860474e-01
-9.705763459205627441e-01,1.566804051399230957e+00,2.262997478246688843e-01
-9.719864726066589355e-01,1.569080352783203125e+00,2.923367023468017578e-01
-9.730222821235656738e-01,1.570752501487731934e+00,3.591580986976623535e-01
-9.742848873138427734e-01,1.572790741920471191e+00,4.271305799484252930e-01
-9.879523515701293945e-01,1.545013666152954102e+00,-4.913859963417053223e-01
-9.894025325775146484e-01,1.547281503677368164e+00,-4.240054488182067871e-01
-9.904361963272094727e-01,1.548897981643676758e+00,-3.573659062385559082e-01
-9.916895627975463867e-01,1.550858139991760254e+00,-2.915564179420471191e-01
-9.928997755050659180e-01,1.552750706672668457e+00,-2.262994647026062012e-01
-9.941917657852172852e-01,1.554771184921264648e+00,-1.614567786455154419e-01
-9.953580498695373535e-01,1.556595087051391602e+00,-9.682988375425338745e-02
-9.965603947639465332e-01,1.558475375175476074e+00,-3.228935971856117249e-02
-9.978024363517761230e-01,1.560417652130126953e+00,3.232960402965545654e-02
-9.989280104637145996e-01,1.562178015708923340e+00,9.717718511819839478e-02
-1.000150561332702637e+00,1.564089894294738770e+00,1.624244898557662964e-01
-1.001349806785583496e+00,1.565965414047241211e+00,2.282253801822662354e-01
-1.002797842025756836e+00,1.568229913711547852e+00,2.948222458362579346e-01
-1.003859639167785645e+00,1.569890379905700684e+00,3.622093200683593750e-01
-1.005153417587280273e+00,1.571913599967956543e+00,4.307554662227630615e-01
-1.019911050796508789e+00,1.545792698860168457e+00,-4.962258934974670410e-01
-1.021419286727905273e+00,1.548078417778015137e+00,-4.281863570213317871e-01
-1.022496223449707031e+00,1.549710869789123535e+00,-3.608931899070739746e-01
-1.023797988891601562e+00,1.551683664321899414e+00,-2.944363653659820557e-01
-1.025051951408386230e+00,1.553584218025207520e+00,-2.285358458757400513e-01
-1.026390671730041504e+00,1.555613279342651367e+00,-1.630531400442123413e-01
-1.027596473693847656e+00,1.557440757751464844e+00,-9.778743982315063477e-02
-1.028837800025939941e+00,1.559322118759155273e+00,-3.260866925120353699e-02
-1.030117750167846680e+00,1.561262011528015137e+00,3.264923766255378723e-02
-1.031275868415832520e+00,1.563017368316650391e+00,9.813757985830307007e-02
-1.032532095909118652e+00,1.564921379089355469e+00,1.640287786722183228e-01
-1.033762097358703613e+00,1.566785454750061035e+00,2.304777801036834717e-01
-1.035246849060058594e+00,1.569035887718200684e+00,2.977289855480194092e-01
-1.036331295967102051e+00,1.570679426193237305e+00,3.657763302326202393e-01
-1.037653446197509766e+00,1.572683334350585938e+00,4.349918663501739502e-01
-1.051312088966369629e+00,1.544823646545410156e+00,-5.006941556930541992e-01
-1.052879810333251953e+00,1.547127366065979004e+00,-4.320473670959472656e-01
-1.054001808166503906e+00,1.548776030540466309e+00,-3.641514778137207031e-01
-1.055352210998535156e+00,1.550760388374328613e+00,-2.970970869064331055e-01
-1.056651473045349121e+00,1.552669525146484375e+00,-2.306024879217147827e-01
-1.058036208152770996e+00,1.554704308509826660e+00,-1.645283699035644531e-01
-1.059281706809997559e+00,1.556534409523010254e+00,-9.867240488529205322e-02
-1.060561060905456543e+00,1.558414340019226074e+00,-3.290376812219619751e-02
-1.061878085136413574e+00,1.560349702835083008e+00,3.294463083148002625e-02
-1.063067317008972168e+00,1.562097191810607910e+00,9.902504086494445801e-02
-1.064354896545410156e+00,1.563989162445068359e+00,1.655109524726867676e-01
-1.065613746643066406e+00,1.565838932991027832e+00,2.325584143400192261e-01
-1.067132234573364258e+00,1.568070173263549805e+00,3.004133403301239014e-01
-1.068236470222473145e+00,1.569692850112915039e+00,3.690694868564605713e-01
-1.069583654403686523e+00,1.571672439575195312e+00,4.389017522335052490e-01
-1.084902048110961914e+00,1.546133875846862793e+00,-5.060999989509582520e-01
-1.086136221885681152e+00,1.547892570495605469e+00,-4.365577995777130127e-01
-1.087593674659729004e+00,1.549969673156738281e+00,-3.680546283721923828e-01
-1.088715672492980957e+00,1.551568746566772461e+00,-3.002066910266876221e-01
-1.090065598487854004e+00,1.553492546081542969e+00,-2.330181598663330078e-01
-1.091500282287597656e+00,1.555537104606628418e+00,-1.662528216838836670e-01
-1.092788219451904297e+00,1.557372570037841797e+00,-9.970688074827194214e-02
-1.094108223915100098e+00,1.559253811836242676e+00,-3.324873745441436768e-02
-1.095463156700134277e+00,1.561184763908386230e+00,3.328990936279296875e-02
-1.096683621406555176e+00,1.562924027442932129e+00,1.000622957944869995e-01
-1.098002076148986816e+00,1.564803123474121094e+00,1.672431528568267822e-01
-1.099573254585266113e+00,1.567042231559753418e+00,2.350505590438842773e-01
-1.100837230682373047e+00,1.568843603134155273e+00,3.035491406917572021e-01
-1.102364540100097656e+00,1.571020126342773438e+00,3.730532824993133545e-01
-1.103789329528808594e+00,1.573050737380981445e+00,4.436532258987426758e-01
-1.117449522018432617e+00,1.545007705688476562e+00,-5.109146237373352051e-01
-1.118741512298583984e+00,1.546794176101684570e+00,-4.407190680503845215e-01
-1.120259046554565430e+00,1.548892259597778320e+00,-3.715683519840240479e-01
-1.121658086776733398e+00,1.550826549530029297e+00,-3.031384050846099854e-01
-1.122994542121887207e+00,1.552674531936645508e+00,-2.352823913097381592e-01
-1.124314427375793457e+00,1.554499268531799316e+00,-1.678446680307388306e-01
-1.125644803047180176e+00,1.556338787078857422e+00,-1.006619036197662354e-01
-1.127003908157348633e+00,1.558217763900756836e+00,-3.356718271970748901e-02
-1.128396153450012207e+00,1.560142755508422852e+00,3.360864892601966858e-02
-1.129810571670532227e+00,1.562098383903503418e+00,1.010344251990318298e-01
-1.131223559379577637e+00,1.564052104949951172e+00,1.688761115074157715e-01
-1.132597684860229492e+00,1.565951943397521973e+00,2.372943609952926636e-01
-1.133882761001586914e+00,1.567728638648986816e+00,3.064422309398651123e-01
-1.135434150695800781e+00,1.569873690605163574e+00,3.766016364097595215e-01
-1.136878013610839844e+00,1.571869969367980957e+00,4.478637576103210449e-01
-1.151975750923156738e+00,1.545666694641113281e+00,-5.165322422981262207e-01
-1.153334856033325195e+00,1.547490477561950684e+00,-4.455754160881042480e-01
-1.154921650886535645e+00,1.549619436264038086e+00,-3.756699562072753906e-01
-1.156382203102111816e+00,1.551579117774963379e+00,-3.064894974231719971e-01
-1.157774090766906738e+00,1.553446650505065918e+00,-2.378862202167510986e-01
-1.159144163131713867e+00,1.555284976959228516e+00,-1.697035431861877441e-01
-1.160519838333129883e+00,1.557130813598632812e+00,-1.017770841717720032e-01
-1.161921501159667969e+00,1.559011459350585938e+00,-3.393907099962234497e-02
-1.163351655006408691e+00,1.560930371284484863e+00,3.398084267973899841e-02
-1.164800524711608887e+00,1.562874436378479004e+00,1.021524965763092041e-01
-1.166242837905883789e+00,1.564809679985046387e+00,1.707428246736526489e-01
-1.167640805244445801e+00,1.566685438156127930e+00,2.399135082960128784e-01
-1.168942451477050781e+00,1.568431973457336426e+00,3.098185062408447266e-01
-1.170514345169067383e+00,1.570541024208068848e+00,3.807419240474700928e-01
-1.171971082687377930e+00,1.572495579719543457e+00,4.527752399444580078e-01
-1.187243580818176270e+00,1.546297073364257812e+00,-5.223683118820190430e-01
-1.188676238059997559e+00,1.548163056373596191e+00,-4.506218433380126953e-01
-1.190337300300598145e+00,1.550326466560363770e+00,-3.799328804016113281e-01
-1.191864013671875000e+00,1.552314758300781250e+00,-3.099729418754577637e-01
-1.193314790725708008e+00,1.554204344749450684e+00,-2.405932098627090454e-01
-1.194737315177917480e+00,1.556057214736938477e+00,-1.716361641883850098e-01
-1.196161150932312012e+00,1.557911634445190430e+00,-1.029366478323936462e-01
-1.197605371475219727e+00,1.559792518615722656e+00,-3.432573005557060242e-02
-1.199074149131774902e+00,1.561705470085144043e+00,3.436782583594322205e-02
-1.200556039810180664e+00,1.563635587692260742e+00,1.033148542046546936e-01
-1.202026367187500000e+00,1.565550565719604492e+00,1.726832985877990723e-01
-1.203445196151733398e+00,1.567398428916931152e+00,2.426356673240661621e-01
-1.204760909080505371e+00,1.569112181663513184e+00,3.133271038532257080e-01
-1.206348061561584473e+00,1.571179151535034180e+00,3.850431740283966064e-01
-1.207812070846557617e+00,1.573086142539978027e+00,4.578761756420135498e-01
-1.222145795822143555e+00,1.545450806617736816e+00,-5.279378890991210938e-01
-1.223586916923522949e+00,1.547273159027099609e+00,-4.554139077663421631e-01
-1.224938988685607910e+00,1.548983097076416016e+00,-3.838611245155334473e-01
-1.226531267166137695e+00,1.550996541976928711e+00,-3.131832480430603027e-01
-1.228040695190429688e+00,1.552905201911926270e+00,-2.430882155895233154e-01
-1.229516029357910156e+00,1.554770827293395996e+00,-1.734176725149154663e-01
-1.230986595153808594e+00,1.556630373001098633e+00,-1.040055304765701294e-01
-1.232472777366638184e+00,1.558509707450866699e+00,-3.468216210603713989e-02
-1.233978271484375000e+00,1.560413479804992676e+00,3.472452983260154724e-02
-1.235491991043090820e+00,1.562327742576599121e+00,1.043862029910087585e-01
-1.236988186836242676e+00,1.564219594001770020e+00,1.744715869426727295e-01
-1.238426923751831055e+00,1.566038966178894043e+00,2.451441437005996704e-01
-1.240140795707702637e+00,1.568206310272216797e+00,3.166583180427551270e-01
-1.241808652877807617e+00,1.570315241813659668e+00,3.891475498676300049e-01
-1.243341803550720215e+00,1.572254061698913574e+00,4.627665877342224121e-01
-1.258904695510864258e+00,1.545933365821838379e+00,-5.342034697532653809e-01
-1.260430216789245605e+00,1.547806739807128906e+00,-4.608338475227355957e-01
-1.261858463287353516e+00,1.549560546875000000e+00,-3.884403705596923828e-01
-1.263525724411010742e+00,1.551607966423034668e+00,-3.169261515140533447e-01
-1.265101671218872070e+00,1.553543210029602051e+00,-2.459974735975265503e-01
-1.266633510589599609e+00,1.555424332618713379e+00,-1.754947900772094727e-01
-1.268157362937927246e+00,1.557295560836791992e+00,-1.052520051598548889e-01
-1.269688010215759277e+00,1.559175252914428711e+00,-3.509780392050743103e-02
-1.271231770515441895e+00,1.561071038246154785e+00,3.514048084616661072e-02
-1.272777080535888672e+00,1.562968611717224121e+00,1.056354194879531860e-01
-1.274297356605529785e+00,1.564835429191589355e+00,1.765566170215606689e-01
-1.275751352310180664e+00,1.566621065139770508e+00,2.480682879686355591e-01
-1.277481555938720703e+00,1.568745732307434082e+00,3.204266428947448730e-01
-1.279157400131225586e+00,1.570803642272949219e+00,3.937655389308929443e-01
-1.280688285827636719e+00,1.572683691978454590e+00,4.682405292987823486e-01
-1.296489596366882324e+00,1.546350240707397461e+00,-5.407047271728515625e-01
-1.298106431961059570e+00,1.548278689384460449e+00,-4.664585888385772705e-01
-1.299951434135437012e+00,1.550479173660278320e+00,-3.932946920394897461e-01
-1.301364541053771973e+00,1.552164673805236816e+00,-3.208116888999938965e-01
-1.303010702133178711e+00,1.554128170013427734e+00,-2.490178346633911133e-01
-1.304604053497314453e+00,1.556028604507446289e+00,-1.776516437530517578e-01
-1.306181311607360840e+00,1.557909846305847168e+00,-1.065461933612823486e-01
-1.307757973670959473e+00,1.559790253639221191e+00,-3.552937135100364685e-02
-1.309339761734008789e+00,1.561676859855651855e+00,3.557234629988670349e-02
-1.310915112495422363e+00,1.563555836677551270e+00,1.069323346018791199e-01
-1.312457323074340820e+00,1.565395355224609375e+00,1.787210404872894287e-01
-1.314260721206665039e+00,1.567546367645263672e+00,2.511678338050842285e-01
-1.315665125846862793e+00,1.569221377372741699e+00,3.243370652198791504e-01
-1.317343831062316895e+00,1.571223497390747070e+00,3.985566794872283936e-01
-1.318867087364196777e+00,1.573040246963500977e+00,4.739186465740203857e-01
-1.333559155464172363e+00,1.545098185539245605e+00,-5.468852519989013672e-01
-1.335196971893310547e+00,1.546995759010314941e+00,-4.717814922332763672e-01
-1.336715102195739746e+00,1.548754811286926270e+00,-3.976698219776153564e-01
-1.338199496269226074e+00,1.550474643707275391e+00,-3.243880867958068848e-01
-1.339915037155151367e+00,1.552462220191955566e+00,-2.517981231212615967e-01
-1.341568827629089355e+00,1.554378390312194824e+00,-1.796371787786483765e-01
-1.343198657035827637e+00,1.556266784667968750e+00,-1.077376529574394226e-01
-1.344820141792297363e+00,1.558145523071289062e+00,-3.592668846249580383e-02
-1.346438765525817871e+00,1.560020804405212402e+00,3.596992790699005127e-02
-1.348042964935302734e+00,1.561879515647888184e+00,1.081262081861495972e-01
-1.349604964256286621e+00,1.563689351081848145e+00,1.807132363319396973e-01
-1.351427316665649414e+00,1.565800786018371582e+00,2.539615631103515625e-01
-1.353254079818725586e+00,1.567917227745056152e+00,3.280373811721801758e-01
-1.355006098747253418e+00,1.569947242736816406e+00,4.031113386154174805e-01
-1.356589078903198242e+00,1.571781277656555176e+00,4.793402552604675293e-01
-1.372796297073364258e+00,1.545283079147338867e+00,-5.538488626480102539e-01
-1.374539256095886230e+00,1.547245025634765625e+00,-4.778085947036743164e-01
-1.376149773597717285e+00,1.549057841300964355e+00,-4.027640521526336670e-01
-1.377993822097778320e+00,1.551133632659912109e+00,-3.286188840866088867e-01
-1.379511952400207520e+00,1.552842497825622559e+00,-2.550362646579742432e-01
-1.381233572959899902e+00,1.554780364036560059e+00,-1.819498240947723389e-01
-1.382920980453491211e+00,1.556679844856262207e+00,-1.091253980994224548e-01
-1.384590268135070801e+00,1.558558940887451172e+00,-3.638945147395133972e-02
-1.386246681213378906e+00,1.560423374176025391e+00,3.643298149108886719e-02
-1.387879133224487305e+00,1.562260866165161133e+00,1.095166429877281189e-01
-1.389735579490661621e+00,1.564350724220275879e+00,1.830697953701019287e-01
-1.391294956207275391e+00,1.566105961799621582e+00,2.572146356105804443e-01
-1.393126606941223145e+00,1.568167805671691895e+00,3.322276771068572998e-01
-1.394872426986694336e+00,1.570132970809936523e+00,4.082436859607696533e-01
-1.396436095237731934e+00,1.571893095970153809e+00,4.854202270507812500e-01
-1.412947177886962891e+00,1.545356035232543945e+00,-5.610660910606384277e-01
-1.414802908897399902e+00,1.547385573387145996e+00,-4.840560853481292725e-01
-1.416513204574584961e+00,1.549256205558776855e+00,-4.080454707145690918e-01
-1.418452858924865723e+00,1.551377534866333008e+00,-3.329377770423889160e-01
-1.420047879219055176e+00,1.553122043609619141e+00,-2.583940029144287109e-01
-1.421841502189636230e+00,1.555083751678466797e+00,-1.843480914831161499e-01
-1.423588752746582031e+00,1.556994676589965820e+00,-1.105645671486854553e-01
-1.425306797027587891e+00,1.558873772621154785e+00,-3.686935082077980042e-02
-1.427001237869262695e+00,1.560727000236511230e+00,3.691318258643150330e-02
-1.428660154342651367e+00,1.562541365623474121e+00,1.109584420919418335e-01
-1.430537819862365723e+00,1.564594984054565430e+00,1.854756027460098267e-01
-1.432100772857666016e+00,1.566304445266723633e+00,2.605871558189392090e-01
-1.433932423591613770e+00,1.568307638168334961e+00,3.365711271762847900e-01
-1.435665845870971680e+00,1.570203661918640137e+00,4.135626554489135742e-01
-1.437795877456665039e+00,1.572533249855041504e+00,4.919228255748748779e-01
-1.454567432403564453e+00,1.545856595039367676e+00,-5.687485933303833008e-01
-1.456469655036926270e+00,1.547878146171569824e+00,-4.906813502311706543e-01
-1.458209037780761719e+00,1.549726724624633789e+00,-4.136243462562561035e-01
-1.459878563880920410e+00,1.551501035690307617e+00,-3.374141454696655273e-01
-1.461765766143798828e+00,1.553506612777709961e+00,-2.619121074676513672e-01
-1.463424682617187500e+00,1.555269718170166016e+00,-1.868341267108917236e-01
-1.465234518051147461e+00,1.557193040847778320e+00,-1.120564714074134827e-01
-1.467002391815185547e+00,1.559071898460388184e+00,-3.736683726310729980e-02
-1.468735098838806152e+00,1.560913443565368652e+00,3.741097450256347656e-02
-1.470627903938293457e+00,1.562924981117248535e+00,1.124689355492591858e-01
-1.472315311431884766e+00,1.564718365669250488e+00,1.879691928625106812e-01
-1.474251627922058105e+00,1.566776037216186523e+00,2.641492784023284912e-01
-1.476158142089843750e+00,1.568802356719970703e+00,3.411767482757568359e-01
-1.477951169013977051e+00,1.570707798004150391e+00,4.192242324352264404e-01
-1.479529380798339844e+00,1.572385072708129883e+00,4.984501302242279053e-01
-1.496652483940124512e+00,1.545648455619812012e+00,-5.764946341514587402e-01
-1.498683094978332520e+00,1.547745585441589355e+00,-4.973885118961334229e-01
-1.500535249710083008e+00,1.549658417701721191e+00,-4.192956387996673584e-01
-1.502304911613464355e+00,1.551486015319824219e+00,-3.420522809028625488e-01
-1.504283428192138672e+00,1.553529262542724609e+00,-2.655188143253326416e-01
-1.506017446517944336e+00,1.555320024490356445e+00,-1.894103288650512695e-01
-1.507892370223999023e+00,1.557256340980529785e+00,-1.136025264859199524e-01
-1.509711742401123047e+00,1.559135198593139648e+00,-3.788239136338233948e-02
-1.511481165885925293e+00,1.560962677001953125e+00,3.792679309844970703e-02
-1.513402223587036133e+00,1.562946557998657227e+00,1.140176281332969666e-01
-1.515101432800292969e+00,1.564701437950134277e+00,1.905528157949447632e-01
-1.517041802406311035e+00,1.566705346107482910e+00,2.677707970142364502e-01
-1.518939852714538574e+00,1.568665504455566406e+00,3.458397984504699707e-01
-1.520709753036499023e+00,1.570493340492248535e+00,4.249330163002014160e-01
-1.522870421409606934e+00,1.572724699974060059e+00,5.054159164428710938e-01
-1.540299415588378906e+00,1.545826792716979980e+00,-5.847243666648864746e-01
-1.541915893554687500e+00,1.547449111938476562e+00,-5.043341517448425293e-01
-1.543889760971069336e+00,1.549430012702941895e+00,-4.251695275306701660e-01
-1.546071529388427734e+00,1.551619648933410645e+00,-3.469250500202178955e-01
-1.547841429710388184e+00,1.553395867347717285e+00,-2.692550122737884521e-01
-1.549786806106567383e+00,1.555348277091979980e+00,-1.920955628156661987e-01
-1.551593184471130371e+00,1.557161092758178711e+00,-1.152039095759391785e-01
-1.553467512130737305e+00,1.559042215347290039e+00,-3.841644898056983948e-02
-1.555406928062438965e+00,1.560988545417785645e+00,3.846440836787223816e-02
-1.557223677635192871e+00,1.562811851501464844e+00,1.156219691038131714e-01
-1.559237599372863770e+00,1.564833045005798340e+00,1.932669878005981445e-01
-1.560870647430419922e+00,1.566471934318542480e+00,2.715215384960174561e-01
-1.562754988670349121e+00,1.568362951278686523e+00,3.506686985492706299e-01
-1.565053701400756836e+00,1.570669889450073242e+00,4.309978187084197998e-01
-1.567260742187500000e+00,1.572884917259216309e+00,5.126239657402038574e-01
-1.584450602531433105e+00,1.545260190963745117e+00,-5.930277705192565918e-01
-1.586686491966247559e+00,1.547440648078918457e+00,-5.116807818412780762e-01
-1.588705658912658691e+00,1.549409866333007812e+00,-4.313597083091735840e-01
-1.590607523918151855e+00,1.551264643669128418e+00,-3.519001305103302002e-01
-1.592473745346069336e+00,1.553084731101989746e+00,-2.731240391731262207e-01
-1.594503760337829590e+00,1.555064678192138672e+00,-1.948593407869338989e-01
-1.596378564834594727e+00,1.556892991065979004e+00,-1.168626025319099426e-01
-1.598306417465209961e+00,1.558773159980773926e+00,-3.896955028176307678e-02
-1.600285887718200684e+00,1.560703754425048828e+00,3.901781514286994934e-02
-1.602125167846679688e+00,1.562497496604919434e+00,1.172832772135734558e-01
-1.604150772094726562e+00,1.564473032951354980e+00,1.960382759571075439e-01
-1.606175661087036133e+00,1.566447854042053223e+00,2.754740417003631592e-01
-1.608125567436218262e+00,1.568349361419677734e+00,3.557757437229156494e-01
-1.609910488128662109e+00,1.570090293884277344e+00,4.371171891689300537e-01
-1.612077593803405762e+00,1.572203755378723145e+00,5.198689699172973633e-01
-1.630259990692138672e+00,1.545033931732177734e+00,-6.018344759941101074e-01
-1.632071971893310547e+00,1.546751141548156738e+00,-5.191240906715393066e-01
-1.634227156639099121e+00,1.548793673515319824e+00,-4.376555681228637695e-01
-1.636247277259826660e+00,1.550708293914794922e+00,-3.570501804351806641e-01
-1.638215899467468262e+00,1.552573919296264648e+00,-2.771294414997100830e-01
-1.640335559844970703e+00,1.554582834243774414e+00,-1.977207660675048828e-01
-1.642279863357543945e+00,1.556425452232360840e+00,-1.185798048973083496e-01
-1.644263267517089844e+00,1.558305144309997559e+00,-3.954217955470085144e-02
-1.646282792091369629e+00,1.560219168663024902e+00,3.959074616432189941e-02
-1.648143053054809570e+00,1.561982154846191406e+00,1.190031468868255615e-01
-1.650177597999572754e+00,1.563910365104675293e+00,1.989070922136306763e-01
-1.652195453643798828e+00,1.565822720527648926e+00,2.794943153858184814e-01
-1.654121398925781250e+00,1.567647933959960938e+00,3.609505295753479004e-01
-1.656449913978576660e+00,1.569854736328125000e+00,4.436069726943969727e-01
-1.658651471138000488e+00,1.571941256523132324e+00,5.275784134864807129e-01
-1.677209973335266113e+00,1.544570446014404297e+00,-6.109426617622375488e-01
-1.679088950157165527e+00,1.546300768852233887e+00,-5.269851684570312500e-01
-1.681302189826965332e+00,1.548339009284973145e+00,-4.442819058895111084e-01
-1.683357357978820801e+00,1.550231695175170898e+00,-3.624511063098907471e-01
-1.685340642929077148e+00,1.552058100700378418e+00,-2.813144624233245850e-01
-1.687317609786987305e+00,1.553878784179687500e+00,-2.006823718547821045e-01
-1.689335703849792480e+00,1.555737257003784180e+00,-1.203572675585746765e-01
-1.691375970840454102e+00,1.557616114616394043e+00,-4.013490304350852966e-02
-1.693434596061706543e+00,1.559512019157409668e+00,4.018375277519226074e-02
-1.695549726486206055e+00,1.561459779739379883e+00,1.207999810576438904e-01
-1.697685003280639648e+00,1.563426256179809570e+00,2.019154280424118042e-01
-1.699783086776733398e+00,1.565358400344848633e+00,2.837251722812652588e-01
-1.701768517494201660e+00,1.567186832427978516e+00,3.664152920246124268e-01
-1.704149007797241211e+00,1.569379091262817383e+00,4.503191411495208740e-01
-1.706380009651184082e+00,1.571433663368225098e+00,5.355505347251892090e-01
-1.727622866630554199e+00,1.545891046524047852e+00,-6.211825013160705566e-01
-1.730202794075012207e+00,1.548199653625488281e+00,-5.360174179077148438e-01
-1.732060194015502930e+00,1.549861669540405273e+00,-4.517863094806671143e-01
-1.734259605407714844e+00,1.551829695701599121e+00,-3.685907423496246338e-01
-1.736364841461181641e+00,1.553713560104370117e+00,-2.860899269580841064e-01
-1.738443255424499512e+00,1.555573225021362305e+00,-2.040939480066299438e-01
-1.740542531013488770e+00,1.557451725006103516e+00,-1.224047392606735229e-01
-1.742644309997558594e+00,1.559332489967346191e+00,-4.081765562295913696e-02
-1.744744420051574707e+00,1.561211705207824707e+00,4.086684808135032654e-02
-1.746881008148193359e+00,1.563123464584350586e+00,1.228504925966262817e-01
-1.749017596244812012e+00,1.565035223960876465e+00,2.053353786468505859e-01
-1.751096725463867188e+00,1.566895723342895508e+00,2.885172069072723389e-01
-1.753567218780517578e+00,1.569106340408325195e+00,3.726942837238311768e-01
-1.755367755889892578e+00,1.570717453956604004e+00,4.578657746315002441e-01
-1.757524132728576660e+00,1.572646975517272949e+00,5.444815754890441895e-01
-1.777086734771728516e+00,1.544928431510925293e+00,-6.309520006179809570e-01
-1.779228210449218750e+00,1.546790122985839844e+00,-5.442908406257629395e-01
-1.781679987907409668e+00,1.548921585083007812e+00,-4.588991403579711914e-01
-1.783577680587768555e+00,1.550571322441101074e+00,-3.743172287940979004e-01
-1.785802721977233887e+00,1.552505731582641602e+00,-2.905443906784057617e-01
-1.787979960441589355e+00,1.554398536682128906e+00,-2.072763293981552124e-01
-1.790159225463867188e+00,1.556293010711669922e+00,-1.243147552013397217e-01
-1.792320370674133301e+00,1.558171868324279785e+00,-4.145456850528717041e-02
-1.794459939002990723e+00,1.560032010078430176e+00,4.150405526161193848e-02
-1.796617150306701660e+00,1.561907410621643066e+00,1.247632205486297607e-01
-1.798754096031188965e+00,1.563765168190002441e+00,2.085253447294235229e-01
-1.801256775856018066e+00,1.565940856933593750e+00,2.930587232112884521e-01
-1.803251504898071289e+00,1.567674994468688965e+00,3.784461319446563721e-01
-1.805620074272155762e+00,1.569734096527099609e+00,4.650652706623077393e-01
-1.807790517807006836e+00,1.571620941162109375e+00,5.530284047126770020e-01
-1.830994606018066406e+00,1.546343922615051270e+00,-6.421676874160766602e-01
-1.833246469497680664e+00,1.548245668411254883e+00,-5.539797544479370117e-01
-1.835337996482849121e+00,1.550011992454528809e+00,-4.669573903083801270e-01
-1.837743043899536133e+00,1.552043199539184570e+00,-3.809835612773895264e-01
-1.840005159378051758e+00,1.553953647613525391e+00,-2.957139015197753906e-01
-1.842040181159973145e+00,1.555672287940979004e+00,-2.109404206275939941e-01
-1.844308495521545410e+00,1.557587862014770508e+00,-1.265138983726501465e-01
-1.846534729003906250e+00,1.559468030929565430e+00,-4.218789562582969666e-02
-1.848714828491210938e+00,1.561309337615966797e+00,4.223770648241043091e-02
-1.851144075393676758e+00,1.563360810279846191e+00,1.269828081130981445e-01
-1.853374958038330078e+00,1.565244913101196289e+00,2.122384160757064819e-01
-1.855500459671020508e+00,1.567039966583251953e+00,2.982042133808135986e-01
-1.857992053031921387e+00,1.569144248962402344e+00,3.851813971996307373e-01
-1.860386133193969727e+00,1.571166038513183594e+00,4.733302593231201172e-01
-1.862552523612976074e+00,1.572995662689208984e+00,5.628355741500854492e-01
