2.878359079360961914e+00,-2.847622632980346680e+00,4.971464574337005615e-01
2.881607294082641602e+00,-2.850836038589477539e+00,6.420116424560546875e-01
2.885353565216064453e+00,-2.854542493820190430e+00,7.889453172683715820e-01
2.888019084930419922e+00,-2.857179403305053711e+00,9.379069209098815918e-01
2.859080553054809570e+00,-2.748703479766845703e+00,-1.062703609466552734e+00
2.907642364501953125e+00,-2.795390367507934570e+00,-9.311901926994323730e-01
2.910662889480590820e+00,-2.798294305801391602e+00,-7.848334312438964844e-01
2.914057016372680664e+00,-2.801557302474975586e+00,-6.402416229248046875e-01
2.917295932769775391e+00,-2.804671049118041992e+00,-4.968869090080261230e-01
2.920691013336181641e+00,-2.807935237884521484e+00,-3.544628620147705078e-01
2.923798322677612305e+00,-2.810922622680664062e+00,-2.125575393438339233e-01
2.926985740661621094e+00,-2.813987016677856445e+00,-7.087212055921554565e-02
2.930261373519897461e+00,-2.817136287689208984e+00,7.095143198966979980e-02
2.933301210403442383e+00,-2.820058584213256836e+00,2.132483869791030884e-01
2.936515569686889648e+00,-2.823148727416992188e+00,3.563833534717559814e-01
2.939634799957275391e+00,-2.826147556304931641e+00,5.006917715072631836e-01
2.943187475204467773e+00,-2.829563140869140625e+00,6.466417908668518066e-01
2.946579933166503906e+00,-2.832824707031250000e+00,7.945181131362915039e-01
2.949610710144042969e+00,-2.835738420486450195e+00,9.446308016777038574e-01
2.905372858047485352e+00,-2.714271783828735352e+00,-1.065360546112060547e+00
2.969966173171997070e+00,-2.774616479873657227e+00,-9.383349418640136719e-01
2.973378419876098633e+00,-2.777804136276245117e+00,-7.909421324729919434e-01
2.976573467254638672e+00,-2.780789136886596680e+00,-6.451659202575683594e-01
2.979705095291137695e+00,-2.783714771270751953e+00,-5.006789565086364746e-01
2.983097076416015625e+00,-2.786883592605590820e+00,-3.571588993072509766e-01
2.986370325088500977e+00,-2.789941549301147461e+00,-2.141813784837722778e-01
2.989617347717285156e+00,-2.792974948883056641e+00,-7.141334563493728638e-02
2.992874860763549805e+00,-2.796018123626708984e+00,7.149115204811096191e-02
2.996039390563964844e+00,-2.798974752426147461e+00,2.148748487234115601e-01
2.999483585357666016e+00,-2.802192449569702148e+00,3.591208159923553467e-01
3.002928256988525391e+00,-2.805410385131835938e+00,5.045811533927917480e-01
3.006236791610717773e+00,-2.808501243591308594e+00,6.515953540802001953e-01
3.009239196777343750e+00,-2.811306238174438477e+00,8.004814386367797852e-01
3.012647867202758789e+00,-2.814490795135498047e+00,9.518198370933532715e-01
2.937016963958740234e+00,-2.666143894195556641e+00,-1.062861800193786621e+00
3.033904790878295898e+00,-2.754096031188964844e+00,-9.459843039512634277e-01
3.037139177322387695e+00,-2.757032155990600586e+00,-7.973240017890930176e-01
3.040726423263549805e+00,-2.760288476943969727e+00,-6.504406929016113281e-01
3.043744325637817383e+00,-2.763028144836425781e+00,-5.047423839569091797e-01
3.047133445739746094e+00,-2.766104698181152344e+00,-3.600486218929290771e-01
3.050500392913818359e+00,-2.769160985946655273e+00,-2.159159481525421143e-01
3.053836584091186523e+00,-2.772189617156982422e+00,-7.199215143918991089e-02
3.057123422622680664e+00,-2.775173425674438477e+00,7.206963747739791870e-02
3.060415267944335938e+00,-2.778161525726318359e+00,2.166177183389663696e-01
3.064097881317138672e+00,-2.781504631042480469e+00,3.620531260967254639e-01
3.067301273345947266e+00,-2.784412384033203125e+00,5.086488723754882812e-01
3.070917129516601562e+00,-2.787694692611694336e+00,6.568987965583801270e-01
3.074317455291748047e+00,-2.790781497955322266e+00,8.070842027664184570e-01
3.078235149383544922e+00,-2.794337987899780273e+00,9.598066806793212891e-01
2.970671176910400391e+00,-2.620129346847534180e+00,-1.061360120773315430e+00
3.097821235656738281e+00,-2.732275724411010742e+00,-9.536218643188476562e-01
3.100901126861572266e+00,-2.734992265701293945e+00,-8.037036657333374023e-01
3.104442358016967773e+00,-2.738115549087524414e+00,-6.556195616722106934e-01
3.108208656311035156e+00,-2.741437435150146484e+00,-5.088733434677124023e-01
3.111469268798828125e+00,-2.744313240051269531e+00,-3.629719614982604980e-01
3.114803075790405273e+00,-2.747253656387329102e+00,-2.176617532968521118e-01
3.118201732635498047e+00,-2.750251293182373047e+00,-7.257406413555145264e-02
3.121645450592041016e+00,-2.753288507461547852e+00,7.265421003103256226e-02
3.125190734863281250e+00,-2.756415367126464844e+00,2.183876335620880127e-01
3.128303766250610352e+00,-2.759161233901977539e+00,3.649357855319976807e-01
3.131679296493530273e+00,-2.762138366699218750e+00,5.127159357070922852e-01
3.135578393936157227e+00,-2.765577316284179688e+00,6.621950268745422363e-01
3.139352321624755859e+00,-2.768906116485595703e+00,8.136695623397827148e-01
3.142776250839233398e+00,-2.771925926208496094e+00,9.674606323242187500e-01
3.019859552383422852e+00,-2.587621688842773438e+00,-1.065592169761657715e+00
3.163429260253906250e+00,-2.710641860961914062e+00,-9.617762565612792969e-01
3.166992902755737305e+00,-2.713695287704467773e+00,-8.106831908226013184e-01
3.170352697372436523e+00,-2.716574192047119141e+00,-6.612594723701477051e-01
3.174042224884033203e+00,-2.719735622406005859e+00,-5.132255554199218750e-01
3.177307605743408203e+00,-2.722533702850341797e+00,-3.660689294338226318e-01
3.180832624435424805e+00,-2.725554227828979492e+00,-2.195272296667098999e-01
3.184294939041137695e+00,-2.728520870208740234e+00,-7.319587469100952148e-02
3.187703132629394531e+00,-2.731441259384155273e+00,7.327421009540557861e-02
3.191369533538818359e+00,-2.734582901000976562e+00,2.202544361352920532e-01
3.194689035415649414e+00,-2.737427234649658203e+00,3.680714964866638184e-01
3.198377370834350586e+00,-2.740587711334228516e+00,5.171604156494140625e-01
3.201948881149291992e+00,-2.743648052215576172e+00,6.678496599197387695e-01
3.205222129821777344e+00,-2.746452808380126953e+00,8.204690814018249512e-01
3.208992004394531250e+00,-2.749683141708374023e+00,9.756286740303039551e-01
3.055847644805908203e+00,-2.543523311614990234e+00,-1.065335392951965332e+00
3.228804111480712891e+00,-2.687482833862304688e+00,-9.698575735092163086e-01
3.232254981994628906e+00,-2.690355300903320312e+00,-8.174479007720947266e-01
3.236113786697387695e+00,-2.693567037582397461e+00,-6.668658852577209473e-01
3.239740848541259766e+00,-2.696585893630981445e+00,-5.175546407699584961e-01
3.243259906768798828e+00,-2.699515104293823242e+00,-3.691779375076293945e-01
3.246757507324218750e+00,-2.702426195144653320e+00,-2.213848084211349487e-01
3.250282287597656250e+00,-2.705360174179077148e+00,-7.381502538919448853e-02
3.253845214843750000e+00,-2.708325624465942383e+00,7.389593869447708130e-02
3.257415533065795898e+00,-2.711297512054443359e+00,2.221115529537200928e-01
3.260926008224487305e+00,-2.714219331741333008e+00,3.711888492107391357e-01
3.264271497726440430e+00,-2.717003822326660156e+00,5.214734673500061035e-01
3.268086671829223633e+00,-2.720179319381713867e+00,6.734545230865478516e-01
3.271688461303710938e+00,-2.723177433013916016e+00,8.274207115173339844e-01
3.275898933410644531e+00,-2.726681947708129883e+00,9.840037822723388672e-01
3.089375019073486328e+00,-2.497455835342407227e+00,-1.064452409744262695e+00
3.298173666000366211e+00,-2.666249036788940430e+00,-9.791309833526611328e-01
3.302165269851684570e+00,-2.669475793838500977e+00,-8.253805637359619141e-01
3.305849313735961914e+00,-2.672454118728637695e+00,-6.732847094535827637e-01
3.309393405914306641e+00,-2.675318956375122070e+00,-5.225108861923217773e-01
3.312927246093750000e+00,-2.678175926208496094e+00,-3.727064132690429688e-01
3.316633224487304688e+00,-2.681171894073486328e+00,-2.235097140073776245e-01
3.320224523544311523e+00,-2.684074878692626953e+00,-7.452330738306045532e-02
3.323743820190429688e+00,-2.686919927597045898e+00,7.460229843854904175e-02
3.327431917190551758e+00,-2.689901590347290039e+00,2.242374420166015625e-01
3.331160545349121094e+00,-2.692915678024291992e+00,3.747576773166656494e-01
3.334818840026855469e+00,-2.695873022079467773e+00,5.265252590179443359e-01
3.338258028030395508e+00,-2.698653221130371094e+00,6.798852086067199707e-01
3.342238664627075195e+00,-2.701871395111083984e+00,8.353970050811767578e-01
3.345866680145263672e+00,-2.704803943634033203e+00,9.932895898818969727e-01
3.127600669860839844e+00,-2.455181837081909180e+00,-1.065405726432800293e+00
3.365788698196411133e+00,-2.642160415649414062e+00,-9.878755211830139160e-01
3.369569778442382812e+00,-2.645128726959228516e+00,-8.326797485351562500e-01
3.373121023178100586e+00,-2.647916555404663086e+00,-6.791969537734985352e-01
3.376616239547729492e+00,-2.650660276412963867e+00,-5.270802974700927734e-01
3.380442380905151367e+00,-2.653663873672485352e+00,-3.759902715682983398e-01
3.384128332138061523e+00,-2.656557321548461914e+00,-2.254726588726043701e-01
3.387783050537109375e+00,-2.659426212310791016e+00,-7.517758011817932129e-02
3.391452789306640625e+00,-2.662306785583496094e+00,7.525901496410369873e-02
3.395011663436889648e+00,-2.665100574493408203e+00,2.261977642774581909e-01
3.398919343948364258e+00,-2.668168306350708008e+00,3.780453801155090332e-01
3.402843713760375977e+00,-2.671248912811279297e+00,5.311743021011352539e-01
3.406630277633666992e+00,-2.674221515655517578e+00,6.859442591667175293e-01
3.410085916519165039e+00,-2.676934003829956055e+00,8.426919579505920410e-01
3.414098501205444336e+00,-2.680083751678466797e+00,1.002054691314697266e+00
3.163490295410156250e+00,-2.410984754562377930e+00,-1.065766692161560059e+00
3.436930179595947266e+00,-2.619380950927734375e+00,-9.976494908332824707e-01
3.440611362457275391e+00,-2.622186422348022461e+00,-8.408742547035217285e-01
3.444732904434204102e+00,-2.625327587127685547e+00,-6.859796643257141113e-01
3.448580503463745117e+00,-2.628259897232055664e+00,-5.323868393898010254e-01
3.452025651931762695e+00,-2.630885601043701172e+00,-3.797248303890228271e-01
3.455844640731811523e+00,-2.633795976638793945e+00,-2.277157902717590332e-01
3.459602832794189453e+00,-2.636660337448120117e+00,-7.592606544494628906e-02
3.463275671005249023e+00,-2.639459371566772461e+00,7.600667327642440796e-02
3.467317819595336914e+00,-2.642540216445922852e+00,2.284718006849288940e-01
3.471043586730957031e+00,-2.645379781723022461e+00,3.818168342113494873e-01
3.474567413330078125e+00,-2.648065090179443359e+00,5.363986492156982422e-01
3.478595018386840820e+00,-2.651134729385375977e+00,6.927229166030883789e-01
3.482379913330078125e+00,-2.654019355773925781e+00,8.510823845863342285e-01
3.486837387084960938e+00,-2.657416582107543945e+00,1.012136220932006836e+00
3.201862573623657227e+00,-2.368561506271362305e+00,-1.067163228988647461e+00
3.508485317230224609e+00,-2.595384359359741211e+00,-1.007533550262451172e+00
3.511941432952880859e+00,-2.597940921783447266e+00,-8.491321206092834473e-01
3.515943288803100586e+00,-2.600901126861572266e+00,-6.926759481430053711e-01
3.519753217697143555e+00,-2.603719472885131836e+00,-5.375658869743347168e-01
3.523509025573730469e+00,-2.606498003005981445e+00,-3.834448456764221191e-01
3.527306556701660156e+00,-2.609307050704956055e+00,-2.299401015043258667e-01
3.531133651733398438e+00,-2.612138032913208008e+00,-7.666750997304916382e-02
3.534962654113769531e+00,-2.614970684051513672e+00,7.675065100193023682e-02
3.538865089416503906e+00,-2.617857456207275391e+00,2.306935787200927734e-01
3.542766094207763672e+00,-2.620743274688720703e+00,3.855405151844024658e-01
3.546550035476684570e+00,-2.623542308807373047e+00,5.416585206985473633e-01
3.550944805145263672e+00,-2.626793384552001953e+00,6.995716094970703125e-01
3.554137706756591797e+00,-2.629155397415161133e+00,8.593345284461975098e-01
3.559002637863159180e+00,-2.632754087448120117e+00,1.022040605545043945e+00
3.222262382507324219e+00,-2.313039302825927734e+00,-1.062818884849548340e+00
3.581266880035400391e+00,-2.570743799209594727e+00,-1.017763137817382812e+00
3.585433006286621094e+00,-2.573734521865844727e+00,-8.579062223434448242e-01
3.589310646057128906e+00,-2.576517820358276367e+00,-6.997928619384765625e-01
3.593083858489990234e+00,-2.579226493835449219e+00,-5.430715680122375488e-01
3.597172498703002930e+00,-2.582161426544189453e+00,-3.873994350433349609e-01
3.600945472717285156e+00,-2.584869861602783203e+00,-2.323048412799835205e-01
3.604842424392700195e+00,-2.587666988372802734e+00,-7.745575904846191406e-02
3.608834028244018555e+00,-2.590532302856445312e+00,7.754152268171310425e-02
3.612580776214599609e+00,-2.593221902847290039e+00,2.330554723739624023e-01
3.616660118103027344e+00,-2.596150159835815430e+00,3.894981741905212402e-01
3.620710849761962891e+00,-2.599057912826538086e+00,5.472471714019775391e-01
3.624570131301879883e+00,-2.601828098297119141e+00,7.066672444343566895e-01
3.629107475280761719e+00,-2.605085372924804688e+00,8.683564662933349609e-01
3.633316516876220703e+00,-2.608106613159179688e+00,1.032555222511291504e+00
3.260577201843261719e+00,-2.270543813705444336e+00,-1.064628005027770996e+00
3.657330274581909180e+00,-2.546827793121337891e+00,-1.028914451599121094e+00
3.661286592483520508e+00,-2.549582719802856445e+00,-8.672353625297546387e-01
3.665037155151367188e+00,-2.552194356918334961e+00,-7.073622345924377441e-01
3.669237136840820312e+00,-2.555119276046752930e+00,-5.489977002143859863e-01
3.672928810119628906e+00,-2.557689905166625977e+00,-3.915753066539764404e-01
3.676963806152343750e+00,-2.560499906539916992e+00,-2.348205596208572388e-01
3.680931806564331055e+00,-2.563262939453125000e+00,-7.829431444406509399e-02
3.684844493865966797e+00,-2.565987586975097656e+00,7.837753742933273315e-02
3.689092159271240234e+00,-2.568945646286010742e+00,2.355951070785522461e-01
3.692927360534667969e+00,-2.571616172790527344e+00,3.937073647975921631e-01
3.697251796722412109e+00,-2.574627399444580078e+00,5.531892776489257812e-01
3.701471567153930664e+00,-2.577565908432006836e+00,7.143942117691040039e-01
3.705374956130981445e+00,-2.580284357070922852e+00,8.776783943176269531e-01
3.709978342056274414e+00,-2.583489894866943359e+00,1.043725848197937012e+00
3.301554203033447266e+00,-2.229598760604858398e+00,-1.067478179931640625e+00
3.731531381607055664e+00,-2.519969940185546875e+00,-1.039535403251647949e+00
3.736305952072143555e+00,-2.523194313049316406e+00,-8.763605952262878418e-01
3.739953279495239258e+00,-2.525657415390014648e+00,-7.147707939147949219e-01
3.744149923324584961e+00,-2.528491497039794922e+00,-5.547344088554382324e-01
3.748208522796630859e+00,-2.531232357025146484e+00,-3.956978321075439453e-01
3.752229213714599609e+00,-2.533947706222534180e+00,-2.372866272926330566e-01
3.756268262863159180e+00,-2.536675214767456055e+00,-7.911634445190429688e-02
3.760336160659790039e+00,-2.539422512054443359e+00,7.920202612876892090e-02
3.764400005340576172e+00,-2.542166709899902344e+00,2.380562871694564819e-01
3.768381118774414062e+00,-2.544855356216430664e+00,3.978274464607238770e-01
3.772953987121582031e+00,-2.547943353652954102e+00,5.590020418167114258e-01
3.776535034179687500e+00,-2.550361871719360352e+00,7.217622399330139160e-01
3.780677556991577148e+00,-2.553159236907958984e+00,8.867680430412292480e-01
3.785629272460937500e+00,-2.556503295898437500e+00,1.054606199264526367e+00
3.323573350906372070e+00,-2.175864458084106445e+00,-1.064418792724609375e+00
3.952402114868164062e+00,-2.587543964385986328e+00,-1.090636491775512695e+00
4.871568679809570312e+00,-3.189300298690795898e+00,-1.131816148757934570e+00
6.271934509277343750e+00,-4.106086730957031250e+00,-1.187322974205017090e+00
7.544694423675537109e+00,-4.939332485198974609e+00,-1.107236146926879883e+00
7.555527687072753906e+00,-4.946424961090087891e+00,-7.900806665420532227e-01
7.565573215484619141e+00,-4.953001022338867188e+00,-4.739062488079071045e-01
7.575836658477783203e+00,-4.959720611572265625e+00,-1.580545157194137573e-01
7.586339473724365234e+00,-4.966596126556396484e+00,1.582736372947692871e-01
7.596035003662109375e+00,-4.972943782806396484e+00,4.758143424987792969e-01
7.606345653533935547e+00,-4.979693889617919922e+00,7.953946590423583984e-01
7.616420745849609375e+00,-4.986289978027343750e+00,1.117762446403503418e+00
3.859452724456787109e+00,-2.526692152023315430e+00,8.966703414916992188e-01
3.863584280014038086e+00,-2.529397010803222656e+00,1.066127896308898926e+00
3.364799261093139648e+00,-2.134688854217529297e+00,-1.067726969718933105e+00
3.982622861862182617e+00,-2.526647090911865234e+00,-1.088884711265563965e+00
4.917131900787353516e+00,-3.119516372680664062e+00,-1.131912231445312500e+00
6.275821208953857422e+00,-3.981493234634399414e+00,-1.177149772644042969e+00
7.455224037170410156e+00,-4.729727268218994141e+00,-1.084059357643127441e+00
7.465068340301513672e+00,-4.735972881317138672e+00,-7.734534740447998047e-01
7.475328922271728516e+00,-4.742482185363769531e+00,-4.639537632465362549e-01
7.485457420349121094e+00,-4.748908042907714844e+00,-1.547349542379379272e-01
7.495392799377441406e+00,-4.755211353302001953e+00,1.549403369426727295e-01
7.505895137786865234e+00,-4.761874198913574219e+00,4.658508300781250000e-01
7.516578674316406250e+00,-4.768651962280273438e+00,7.787904739379882812e-01
7.525489807128906250e+00,-4.774305343627929688e+00,1.094276666641235352e+00
3.386441946029663086e+00,-2.081050157546997070e+00,-1.065033435821533203e+00
4.041175365447998047e+00,-2.483399629592895508e+00,-1.095062732696533203e+00
4.962725639343261719e+00,-3.049714326858520508e+00,-1.132243156433105469e+00
6.350257396697998047e+00,-3.902386426925659180e+00,-1.180513739585876465e+00
7.365777969360351562e+00,-4.526448249816894531e+00,-1.061523437500000000e+00
7.376043796539306641e+00,-4.532756805419921875e+00,-7.574299573898315430e-01
7.386009693145751953e+00,-4.538880825042724609e+00,-4.543314874172210693e-01
7.396004199981689453e+00,-4.545022964477539062e+00,-1.515255272388458252e-01
7.405972957611083984e+00,-4.551148891448974609e+00,1.517297625541687012e-01
7.415703773498535156e+00,-4.557128906250000000e+00,4.561580419540405273e-01
7.426379680633544922e+00,-4.563689231872558594e+00,7.625988125801086426e-01
7.435456275939941406e+00,-4.569266796112060547e+00,1.071565151214599609e+00
3.428127050399780273e+00,-2.039657592773437500e+00,-1.068852305412292480e+00
4.071455001831054688e+00,-2.422423124313354492e+00,-1.093760132789611816e+00
4.964153289794921875e+00,-2.953558206558227539e+00,-1.122808694839477539e+00
6.425543308258056641e+00,-3.823052167892456055e+00,-1.184215426445007324e+00
7.278201103210449219e+00,-4.330364227294921875e+00,-1.039863109588623047e+00
7.288018703460693359e+00,-4.336205005645751953e+00,-7.419413924217224121e-01
7.297692775726318359e+00,-4.341960906982421875e+00,-4.450304210186004639e-01
7.307556629180908203e+00,-4.347829818725585938e+00,-1.484232842922210693e-01
7.317556381225585938e+00,-4.353779792785644531e+00,1.486263871192932129e-01
7.327478885650634766e+00,-4.359683036804199219e+00,4.468468427658081055e-01
7.337170600891113281e+00,-4.365449428558349609e+00,7.469452023506164551e-01
7.348088741302490234e+00,-4.371945381164550781e+00,1.049848198890686035e+00
7.356881141662597656e+00,-4.377176761627197266e+00,1.355859160423278809e+00
3.451889753341674805e+00,-1.987461805343627930e+00,-1.067282319068908691e+00
4.104415893554687500e+00,-2.363160610198974609e+00,-1.093415975570678711e+00
5.012610912322998047e+00,-2.886063337326049805e+00,-1.124310374259948730e+00
6.506212234497070312e+00,-3.746020078659057617e+00,-1.189078927040100098e+00
7.202925682067871094e+00,-4.147160053253173828e+00,-1.020522713661193848e+00
7.212710857391357422e+00,-4.152794361114501953e+00,-7.281490564346313477e-01
7.222499847412109375e+00,-4.158430099487304688e+00,-4.367704689502716064e-01
7.232176303863525391e+00,-4.164001464843750000e+00,-1.456667482852935791e-01
7.241837978363037109e+00,-4.169564247131347656e+00,1.458613574504852295e-01
7.251567840576171875e+00,-4.175166130065917969e+00,4.385282993316650391e-01
7.261215209960937500e+00,-4.180720806121826172e+00,7.330456972122192383e-01
7.272227764129638672e+00,-4.187061309814453125e+00,1.030341506004333496e+00
7.281267166137695312e+00,-4.192265987396240234e+00,1.330728411674499512e+00
3.475442886352539062e+00,-1.935327887535095215e+00,-1.065890550613403320e+00
4.137286663055419922e+00,-2.303880691528320312e+00,-1.093275785446166992e+00
5.061252593994140625e+00,-2.818398714065551758e+00,-1.126056909561157227e+00
6.510916709899902344e+00,-3.625655412673950195e+00,-1.180333375930786133e+00
7.129066467285156250e+00,-3.969877004623413086e+00,-1.001904845237731934e+00
7.138463020324707031e+00,-3.975109577178955078e+00,-7.148361802101135254e-01
7.148003101348876953e+00,-3.980422019958496094e+00,-4.287760555744171143e-01
7.157571315765380859e+00,-3.985750198364257812e+00,-1.430003792047500610e-01
7.167262554168701172e+00,-3.991146802902221680e+00,1.431940048933029175e-01
7.177162647247314453e+00,-3.996659755706787109e+00,4.305252134799957275e-01
7.187118530273437500e+00,-4.002203464508056641e+00,7.197085022926330566e-01
7.196891307830810547e+00,-4.007646083831787109e+00,1.011436820030212402e+00
7.206160068511962891e+00,-4.012807369232177734e+00,1.306370735168457031e+00
3.498826503753662109e+00,-1.883258223533630371e+00,-1.064685940742492676e+00
4.170108795166015625e+00,-2.244578838348388672e+00,-1.093347311019897461e+00
5.110149383544921875e+00,-2.750559568405151367e+00,-1.128060817718505859e+00
6.591865539550781250e+00,-3.548099517822265625e+00,-1.185680031776428223e+00
7.054939746856689453e+00,-3.797351360321044922e+00,-9.837477207183837891e-01
7.064836502075195312e+00,-3.802678108215332031e+00,-7.019408941268920898e-01
7.074131011962890625e+00,-3.807681083679199219e+00,-4.210324287414550781e-01
7.083591461181640625e+00,-3.812773227691650391e+00,-1.404176354408264160e-01
7.093310832977294922e+00,-3.818004846572875977e+00,1.406103074550628662e-01
7.102417945861816406e+00,-3.822906732559204102e+00,4.227159917354583740e-01
7.112307071685791016e+00,-3.828229427337646484e+00,7.066574692726135254e-01
7.122151851654052734e+00,-3.833528518676757812e+00,9.931198358535766602e-01
7.131633758544921875e+00,-3.838632345199584961e+00,1.282768249511718750e+00
3.543754100799560547e+00,-1.842522025108337402e+00,-1.070222377777099609e+00
4.202897071838378906e+00,-2.185233592987060547e+00,-1.093631148338317871e+00
5.159373760223388672e+00,-2.682539463043212891e+00,-1.130335330963134766e+00
6.674060821533203125e+00,-3.470078229904174805e+00,-1.191408514976501465e+00
6.982368946075439453e+00,-3.630378246307373047e+00,-9.662835597991943359e-01
6.991384029388427734e+00,-3.635065793991088867e+00,-6.894026994705200195e-01
7.000953197479248047e+00,-3.640041112899780273e+00,-4.135337769985198975e-01
7.010307312011718750e+00,-3.644904613494873047e+00,-1.379166096448898315e-01
7.019465923309326172e+00,-3.649666547775268555e+00,1.380967944860458374e-01
7.029316425323486328e+00,-3.654788017272949219e+00,4.152091443538665771e-01
7.038178443908691406e+00,-3.659395694732666016e+00,6.940169930458068848e-01
7.048081874847412109e+00,-3.664544820785522461e+00,9.753775000572204590e-01
7.057756900787353516e+00,-3.669575214385986328e+00,1.259903430938720703e+00
3.567206144332885742e+00,-1.790332674980163574e+00,-1.069456338882446289e+00
4.235757827758789062e+00,-2.125869989395141602e+00,-1.094152092933654785e+00
5.209000587463378906e+00,-2.614327192306518555e+00,-1.132893562316894531e+00
6.676588058471679688e+00,-3.350889682769775391e+00,-1.183176517486572266e+00
6.909673213958740234e+00,-3.467871904373168945e+00,-9.492568373680114746e-01
6.919200420379638672e+00,-3.472653627395629883e+00,-6.773141622543334961e-01
6.928538322448730469e+00,-3.477340221405029297e+00,-4.062747657299041748e-01
6.937787532806396484e+00,-3.481981992721557617e+00,-1.354955136775970459e-01
6.946968555450439453e+00,-3.486589908599853516e+00,1.356748193502426147e-01
6.956020355224609375e+00,-3.491132974624633789e+00,4.078862667083740234e-01
6.966108322143554688e+00,-3.496196031570434570e+00,6.819059252738952637e-01
6.974747657775878906e+00,-3.500531911849975586e+00,9.581967592239379883e-01
6.984598159790039062e+00,-3.505475759506225586e+00,1.237759828567504883e+00
3.592789411544799805e+00,-1.739253044128417969e+00,-1.069553256034851074e+00
4.271366119384765625e+00,-2.067748785018920898e+00,-1.095592617988586426e+00
5.213487148284912109e+00,-2.523825407028198242e+00,-1.125897407531738281e+00
6.763709545135498047e+00,-3.274281024932861328e+00,-1.190188288688659668e+00
6.849402427673339844e+00,-3.315764427185058594e+00,-9.343609213829040527e-01
6.858617782592773438e+00,-3.320225715637207031e+00,-6.666634082794189453e-01
6.867753982543945312e+00,-3.324648618698120117e+00,-3.998791277408599854e-01
6.876914978027343750e+00,-3.329083442687988281e+00,-1.333623975515365601e-01
6.886120319366455078e+00,-3.333539485931396484e+00,1.335408985614776611e-01
6.895308494567871094e+00,-3.337987661361694336e+00,4.014835059642791748e-01
6.904337882995605469e+00,-3.342358589172363281e+00,6.711074113845825195e-01
6.914645195007324219e+00,-3.347348213195800781e+00,9.432610273361206055e-01
6.922952175140380859e+00,-3.351369619369506836e+00,1.218209743499755859e+00
3.616155624389648438e+00,-1.687114715576171875e+00,-1.069210886955261230e+00
4.304463386535644531e+00,-2.008244037628173828e+00,-1.096596717834472656e+00
5.263135433197021484e+00,-2.455511808395385742e+00,-1.128913402557373047e+00
6.765028476715087891e+00,-3.156219005584716797e+00,-1.182349801063537598e+00
6.778985500335693359e+00,-3.162730455398559570e+00,-9.184854626655578613e-01
6.787858963012695312e+00,-3.166870594024658203e+00,-6.553124785423278809e-01
6.796772956848144531e+00,-3.171029329299926758e+00,-3.930631875991821289e-01
6.805831432342529297e+00,-3.175255298614501953e+00,-1.310890763998031616e-01
6.815054893493652344e+00,-3.179558515548706055e+00,1.312667280435562134e-01
6.824381351470947266e+00,-3.183909893035888672e+00,3.946597874164581299e-01
6.833665847778320312e+00,-3.188241720199584961e+00,6.597347855567932129e-01
6.842686176300048828e+00,-3.192450046539306641e+00,9.271162748336791992e-01
6.851140022277832031e+00,-3.196394205093383789e+00,1.197399854660034180e+00
3.641655921936035156e+00,-1.635962247848510742e+00,-1.069717526435852051e+00
4.307369709014892578e+00,-1.935024738311767578e+00,-1.090169429779052734e+00
5.316484451293945312e+00,-2.388355255126953125e+00,-1.132907867431640625e+00
6.709869861602783203e+00,-3.014313936233520508e+00,-1.165049552917480469e+00
6.718841075897216797e+00,-3.018344163894653320e+00,-9.043903350830078125e-01
6.727778434753417969e+00,-3.022359132766723633e+00,-6.452696323394775391e-01
6.737010478973388672e+00,-3.026506423950195312e+00,-3.870621919631958008e-01
6.745982170104980469e+00,-3.030536890029907227e+00,-1.290875822305679321e-01
6.754648208618164062e+00,-3.034429788589477539e+00,1.292534023523330688e-01
6.763733863830566406e+00,-3.038511514663696289e+00,3.885975182056427002e-01
6.772889137268066406e+00,-3.042624473571777344e+00,6.495962738990783691e-01
6.781889438629150391e+00,-3.046667575836181641e+00,9.128769636154174805e-01
6.792429924011230469e+00,-3.051402807235717773e+00,1.179384589195251465e+00
3.667151212692260742e+00,-1.584735989570617676e+00,-1.070433974266052246e+00
4.342825412750244141e+00,-1.876724243164062500e+00,-1.092232465744018555e+00
5.319548130035400391e+00,-2.298808574676513672e+00,-1.126433610916137695e+00
6.651444435119628906e+00,-2.874379158020019531e+00,-1.147643804550170898e+00
6.660025596618652344e+00,-2.878087520599365234e+00,-8.908370733261108398e-01
6.668673992156982422e+00,-2.881824970245361328e+00,-6.355795264244079590e-01
6.677720546722412109e+00,-2.885734319686889648e+00,-3.812436461448669434e-01
6.686606884002685547e+00,-2.889574527740478516e+00,-1.271469295024871826e-01
6.695288181304931641e+00,-2.893326044082641602e+00,1.273120194673538208e-01
6.704493522644042969e+00,-2.897304058074951172e+00,3.827721774578094482e-01
6.713868141174316406e+00,-2.901355266571044922e+00,6.398869156837463379e-01
6.723187923431396484e+00,-2.905382871627807617e+00,8.992856144905090332e-01
6.732147693634033203e+00,-2.909254550933837891e+00,1.161568284034729004e+00
3.692675113677978516e+00,-1.533426046371459961e+00,-1.071367859840393066e+00
4.378492832183837891e+00,-1.818219661712646484e+00,-1.094545364379882812e+00
5.373082160949707031e+00,-2.231234550476074219e+00,-1.130891203880310059e+00
6.592302322387695312e+00,-2.737529754638671875e+00,-1.130562782287597656e+00
6.601725578308105469e+00,-2.741442918777465820e+00,-8.777003884315490723e-01
6.610092163085937500e+00,-2.744917392730712891e+00,-6.261875033378601074e-01
6.618956565856933594e+00,-2.748598337173461914e+00,-3.756041228771209717e-01
6.627758026123046875e+00,-2.752253293991088867e+00,-1.252660006284713745e-01
6.636453628540039062e+00,-2.755864143371582031e+00,1.254303455352783203e-01
6.645771980285644531e+00,-2.759733676910400391e+00,3.771258294582366943e-01
6.654062747955322266e+00,-2.763176679611206055e+00,6.303529143333435059e-01
6.663335323333740234e+00,-2.767027139663696289e+00,8.858914375305175781e-01
6.672351837158203125e+00,-2.770771265029907227e+00,1.144291043281555176e+00
3.694404840469360352e+00,-1.472512364387512207e+00,-1.065645456314086914e+00
4.414419651031494141e+00,-1.759495019912719727e+00,-1.097118496894836426e+00
5.427316665649414062e+00,-2.163214683532714844e+00,-1.135672807693481445e+00
6.534931659698486328e+00,-2.604686737060546875e+00,-1.114215970039367676e+00
6.543124675750732422e+00,-2.607952356338500977e+00,-8.648579120635986328e-01
6.552084445953369141e+00,-2.611523628234863281e+00,-6.170880198478698730e-01
6.560770988464355469e+00,-2.614985704421997070e+00,-3.701403737068176270e-01
6.569489002227783203e+00,-2.618460416793823242e+00,-1.234436854720115662e-01
6.578196525573730469e+00,-2.621931076049804688e+00,1.236073002219200134e-01
6.586687088012695312e+00,-2.625315189361572266e+00,3.716024756431579590e-01
6.596111297607421875e+00,-2.629071712493896484e+00,6.212345361709594727e-01
6.604039669036865234e+00,-2.632231712341308594e+00,8.729095458984375000e-01
6.613095283508300781e+00,-2.635841131210327148e+00,1.127542972564697266e+00
6.623931407928466797e+00,-2.640160083770751953e+00,1.386065959930419922e+00
3.719762563705444336e+00,-1.421268224716186523e+00,-1.066982507705688477e+00
4.416033267974853516e+00,-1.687303423881530762e+00,-1.091405391693115234e+00
5.429304599761962891e+00,-2.074459791183471680e+00,-1.129759907722473145e+00
6.476951122283935547e+00,-2.474750757217407227e+00,-1.098178148269653320e+00
6.486001968383789062e+00,-2.478209018707275391e+00,-8.525316715240478516e-01
6.494699001312255859e+00,-2.481532096862792969e+00,-6.082757711410522461e-01
6.503211975097656250e+00,-2.484784603118896484e+00,-3.648491799831390381e-01
6.511847972869873047e+00,-2.488084316253662109e+00,-1.216789335012435913e-01
6.520564079284667969e+00,-2.491414546966552734e+00,1.218418031930923462e-01
6.529154300689697266e+00,-2.494696855545043945e+00,3.663046061992645264e-01
6.537486076354980469e+00,-2.497880220413208008e+00,6.122830510139465332e-01
6.546975612640380859e+00,-2.501506090164184570e+00,8.605461716651916504e-01
6.556398868560791016e+00,-2.505106687545776367e+00,1.111648678779602051e+00
6.565371990203857422e+00,-2.508535146713256836e+00,1.366159081459045410e+00
3.747101783752441406e+00,-1.370584487915039062e+00,-1.069087862968444824e+00
4.454251766204833984e+00,-1.629240036010742188e+00,-1.094975352287292480e+00
5.486773014068603516e+00,-2.006907224655151367e+00,-1.135624408721923828e+00
6.429784297943115234e+00,-2.351834297180175781e+00,-1.084362268447875977e+00
6.438532829284667969e+00,-2.355034351348876953e+00,-8.417752385139465332e-01
6.447004795074462891e+00,-2.358133077621459961e+00,-6.005860567092895508e-01
6.455221652984619141e+00,-2.361138582229614258e+00,-3.602237999439239502e-01
6.463727474212646484e+00,-2.364249706268310547e+00,-1.201351210474967957e-01
6.472663879394531250e+00,-2.367518663406372070e+00,1.203012168407440186e-01
6.481343269348144531e+00,-2.370693206787109375e+00,3.616814613342285156e-01
6.489840984344482422e+00,-2.373801469802856445e+00,6.045765876770019531e-01
6.497947692871093750e+00,-2.376766681671142578e+00,8.495431542396545410e-01
6.507345199584960938e+00,-2.380203962326049805e+00,1.097442626953125000e+00
6.516379833221435547e+00,-2.383508443832397461e+00,1.348727226257324219e+00
3.772709369659423828e+00,-1.319044709205627441e+00,-1.070897579193115234e+00
4.490593910217285156e+00,-1.570037245750427246e+00,-1.098272323608398438e+00
5.488170146942138672e+00,-1.918817758560180664e+00,-1.130113363265991211e+00
6.372902870178222656e+00,-2.228145122528076172e+00,-1.069281339645385742e+00
6.381667137145996094e+00,-2.231209278106689453e+00,-8.300802707672119141e-01
6.390243530273437500e+00,-2.234207868576049805e+00,-5.922585725784301758e-01
6.398801326751708984e+00,-2.237200021743774414e+00,-3.552520275115966797e-01
6.407227516174316406e+00,-2.240145921707153320e+00,-1.184769272804260254e-01
6.415600299835205078e+00,-2.243073225021362305e+00,1.186317503452301025e-01
6.424011707305908203e+00,-2.246014118194580078e+00,3.566516637802124023e-01
6.432329654693603516e+00,-2.248922348022460938e+00,5.961592197418212891e-01
6.441963195800781250e+00,-2.252290487289428711e+00,8.379231095314025879e-01
6.449731826782226562e+00,-2.255006551742553711e+00,1.082172036170959473e+00
6.458844661712646484e+00,-2.258192777633666992e+00,1.329992771148681641e+00
3.800259351730346680e+00,-1.267936825752258301e+00,-1.073456287384033203e+00
4.493618011474609375e+00,-1.499272346496582031e+00,-1.093651413917541504e+00
5.546113491058349609e+00,-1.850432038307189941e+00,-1.136474490165710449e+00
6.326444625854492188e+00,-2.110785484313964844e+00,-1.056308865547180176e+00
6.334926605224609375e+00,-2.113615512847900391e+00,-8.199815154075622559e-01
6.343291282653808594e+00,-2.116406202316284180e+00,-5.850394368171691895e-01
6.351710319519042969e+00,-2.119215250015258789e+00,-3.509176075458526611e-01
6.360070228576660156e+00,-2.122004508972167969e+00,-1.170313209295272827e-01
6.368448257446289062e+00,-2.124799728393554688e+00,1.171854734420776367e-01
6.376936912536621094e+00,-2.127631902694702148e+00,3.523113131523132324e-01
6.385403633117675781e+00,-2.130456924438476562e+00,5.889234542846679688e-01
6.393639564514160156e+00,-2.133204698562622070e+00,8.275811672210693359e-01
6.403314113616943359e+00,-2.136432647705078125e+00,1.069143533706665039e+00
6.410499572753906250e+00,-2.138829946517944336e+00,1.313598990440368652e+00
3.800982713699340820e+00,-1.208003997802734375e+00,-1.068667054176330566e+00
4.530219078063964844e+00,-1.439765214920043945e+00,-1.097431302070617676e+00
5.547091960906982422e+00,-1.762941241264343262e+00,-1.131388425827026367e+00
6.272021770477294922e+00,-1.993333816528320312e+00,-1.042351365089416504e+00
6.280197143554687500e+00,-1.995932102203369141e+00,-8.091166019439697266e-01
6.288331031799316406e+00,-1.998517155647277832e+00,-5.772730112075805664e-01
6.296595096588134766e+00,-2.001143693923950195e+00,-3.462546467781066895e-01
6.304877281188964844e+00,-2.003775835037231445e+00,-1.154761314392089844e-01
6.313253879547119141e+00,-2.006438016891479492e+00,1.156295463442802429e-01
6.321818351745605469e+00,-2.009159803390502930e+00,3.476417064666748047e-01
6.330436229705810547e+00,-2.011898756027221680e+00,5.811383128166198730e-01
6.338897705078125000e+00,-2.014587879180908203e+00,8.166794180870056152e-01
6.346920967102050781e+00,-2.017137765884399414e+00,1.054798960685729980e+00
6.356428146362304688e+00,-2.020159244537353516e+00,1.296461105346679688e+00
3.828494548797607422e+00,-1.156686902046203613e+00,-1.071637511253356934e+00
4.532790184020996094e+00,-1.369472742080688477e+00,-1.093193769454956055e+00
5.605697154998779297e+00,-1.693625569343566895e+00,-1.138280510902404785e+00
6.225233078002929688e+00,-1.880803346633911133e+00,-1.029996037483215332e+00
6.234342098236083984e+00,-1.883555412292480469e+00,-7.996534705162048340e-01
6.242279052734375000e+00,-1.885953426361083984e+00,-5.705088973045349121e-01
6.250412464141845703e+00,-1.888410687446594238e+00,-3.421936035156250000e-01
6.258629322052001953e+00,-1.890893101692199707e+00,-1.141216754913330078e-01
6.267005920410156250e+00,-1.893423914909362793e+00,1.142744123935699463e-01
6.275635719299316406e+00,-1.896031379699707031e+00,3.435745239257812500e-01
6.283123016357421875e+00,-1.898293495178222656e+00,5.742418169975280762e-01
6.291435718536376953e+00,-1.900804877281188965e+00,8.069766759872436523e-01
6.301322460174560547e+00,-1.903791904449462891e+00,1.042585492134094238e+00
6.308875083923339844e+00,-1.906073808670043945e+00,1.281066417694091797e+00
3.830528974533081055e+00,-1.097726345062255859e+00,-1.067699551582336426e+00
4.571624279022216797e+00,-1.310104250907897949e+00,-1.097924590110778809e+00
5.608606815338134766e+00,-1.607275485992431641e+00,-1.134083747863769531e+00
6.180012702941894531e+00,-1.771024942398071289e+00,-1.018215656280517578e+00
6.188022136688232422e+00,-1.773320317268371582e+00,-7.903755903244018555e-01
6.196618556976318359e+00,-1.775783777236938477e+00,-5.639550089836120605e-01
6.204623222351074219e+00,-1.778077721595764160e+00,-3.382587730884552002e-01
6.212776184082031250e+00,-1.780414223670959473e+00,-1.128093451261520386e-01
6.221150398254394531e+00,-1.782813906669616699e+00,1.129613965749740601e-01
6.228930950164794922e+00,-1.785043597221374512e+00,3.395839631557464600e-01
6.237450122833251953e+00,-1.787485003471374512e+00,5.676710605621337891e-01
6.245946407318115234e+00,-1.789919734001159668e+00,7.977740168571472168e-01
6.254135608673095703e+00,-1.792266607284545898e+00,1.030428171157836914e+00
6.263929843902587891e+00,-1.795073390007019043e+00,1.266592860221862793e+00
3.858049392700195312e+00,-1.046100020408630371e+00,-1.071087241172790527e+00
4.573771953582763672e+00,-1.240166187286376953e+00,-1.094065189361572266e+00
5.611337661743164062e+00,-1.521499395370483398e+00,-1.130116581916809082e+00
6.135197639465332031e+00,-1.663542747497558594e+00,-1.006805777549743652e+00
6.142966747283935547e+00,-1.665649294853210449e+00,-7.814955711364746094e-01
6.151381492614746094e+00,-1.667930841445922852e+00,-5.576080679893493652e-01
6.159263134002685547e+00,-1.670067906379699707e+00,-3.344483971595764160e-01
6.167351245880126953e+00,-1.672261118888854980e+00,-1.115384921431541443e-01
6.175720691680908203e+00,-1.674530386924743652e+00,1.116898506879806519e-01
6.183556079864501953e+00,-1.676654934883117676e+00,3.357675075531005859e-01
6.192188262939453125e+00,-1.678995490074157715e+00,5.613070726394653320e-01
6.200855255126953125e+00,-1.681345582008361816e+00,7.888600230216979980e-01
6.209272384643554688e+00,-1.683627963066101074e+00,1.018961668014526367e+00
6.217089653015136719e+00,-1.685747504234313965e+00,1.252114295959472656e+00
3.885800600051879883e+00,-9.941470026969909668e-01,-1.074730992317199707e+00
4.612898349761962891e+00,-1.180168390274047852e+00,-1.099271059036254883e+00
5.670509338378906250e+00,-1.450748682022094727e+00,-1.137735128402709961e+00
6.089636802673339844e+00,-1.557978630065917969e+00,-9.955675005912780762e-01
6.098357200622558594e+00,-1.560209631919860840e+00,-7.729002237319946289e-01
6.106100082397460938e+00,-1.562190651893615723e+00,-5.514200329780578613e-01
6.114358425140380859e+00,-1.564303398132324219e+00,-3.307603597640991211e-01
6.122384071350097656e+00,-1.566356658935546875e+00,-1.103084683418273926e-01
6.130193233489990234e+00,-1.568354725837707520e+00,1.104491725564002991e-01
6.138629436492919922e+00,-1.570512890815734863e+00,3.320733308792114258e-01
6.146120071411132812e+00,-1.572429418563842773e+00,5.550341010093688965e-01
6.154601573944091797e+00,-1.574599266052246094e+00,7.800286412239074707e-01
6.162897586822509766e+00,-1.576721787452697754e+00,1.007544636726379395e+00
6.170659065246582031e+00,-1.578707456588745117e+00,1.238085508346557617e+00
3.887369155883789062e+00,-9.354808926582336426e-01,-1.071351647377014160e+00
4.614731311798095703e+00,-1.110517859458923340e+00,-1.095807671546936035e+00
5.672866344451904297e+00,-1.365154147148132324e+00,-1.134171366691589355e+00
6.134010314941406250e+00,-1.476126790046691895e+00,-9.992654323577880859e-01
6.140943050384521484e+00,-1.477795124053955078e+00,-7.755372524261474609e-01
6.146852970123291016e+00,-1.479217171669006348e+00,-5.531315803527832031e-01
6.153415203094482422e+00,-1.480796456336975098e+00,-3.316926360130310059e-01
6.159791469573974609e+00,-1.482330799102783203e+00,-1.105888411402702332e-01
6.165998935699462891e+00,-1.483824729919433594e+00,1.107002943754196167e-01
6.172809123992919922e+00,-1.485463500022888184e+00,3.327380418777465820e-01
6.178791046142578125e+00,-1.486903071403503418e+00,5.560055971145629883e-01
6.185744285583496094e+00,-1.488576292991638184e+00,7.811952233314514160e-01
6.192557334899902344e+00,-1.490215897560119629e+00,1.008803009986877441e+00
6.198873996734619141e+00,-1.491735935211181641e+00,1.239335536956787109e+00
3.915270566940307617e+00,-8.831123113632202148e-01,-1.075447440147399902e+00
4.654265403747558594e+00,-1.049797058105468750e+00,-1.101514458656311035e+00
5.675079345703125000e+00,-1.280047655105590820e+00,-1.130834817886352539e+00
6.281010627746582031e+00,-1.416718959808349609e+00,-1.019804716110229492e+00
6.287930965423583984e+00,-1.418279886245727539e+00,-7.914555072784423828e-01
6.293847084045410156e+00,-1.419614195823669434e+00,-5.644726753234863281e-01
6.300487041473388672e+00,-1.421112060546875000e+00,-3.384892344474792480e-01
6.306988239288330078e+00,-1.422578334808349609e+00,-1.128543913364410400e-01
6.313367366790771484e+00,-1.424017190933227539e+00,1.129685342311859131e-01
6.320418357849121094e+00,-1.425607562065124512e+00,3.395600318908691406e-01
6.326667785644531250e+00,-1.427017211914062500e+00,5.674162507057189941e-01
6.333967208862304688e+00,-1.428663611412048340e+00,7.972500324249267578e-01
6.339266777038574219e+00,-1.429858922958374023e+00,1.029263377189636230e+00
6.345674037933349609e+00,-1.431304097175598145e+00,1.264459729194641113e+00
3.916629076004028320e+00,-8.246957063674926758e-01,-1.072468280792236328e+00
4.655880928039550781e+00,-9.803546071052551270e-01,-1.098463296890258789e+00
5.735146045684814453e+00,-1.207607388496398926e+00,-1.139242887496948242e+00
6.435102939605712891e+00,-1.354992151260375977e+00,-1.041567921638488770e+00
6.441029548645019531e+00,-1.356240153312683105e+00,-8.081996440887451172e-01
6.447942733764648438e+00,-1.357695698738098145e+00,-5.764909982681274414e-01
6.454667568206787109e+00,-1.359111785888671875e+00,-3.456919193267822266e-01
6.461297988891601562e+00,-1.360507845878601074e+00,-1.152552813291549683e-01
6.467852115631103516e+00,-1.361887931823730469e+00,1.153721958398818970e-01
6.474274635314941406e+00,-1.363240242004394531e+00,3.467420041561126709e-01
6.481668472290039062e+00,-1.364797115325927734e+00,5.795063376426696777e-01
6.487713336944580078e+00,-1.366070032119750977e+00,8.140574097633361816e-01
6.494955539703369141e+00,-1.367594957351684570e+00,1.051255583763122559e+00
6.501780509948730469e+00,-1.369032025337219238e+00,1.291528940200805664e+00
3.917937278747558594e+00,-7.665815949440002441e-01,-1.069712519645690918e+00
4.657415866851806641e+00,-9.112675189971923828e-01,-1.095635890960693359e+00
5.737189292907714844e+00,-1.122535467147827148e+00,-1.136340737342834473e+00
6.596856594085693359e+00,-1.290737509727478027e+00,-1.064649581909179688e+00
6.602750778198242188e+00,-1.291890740394592285e+00,-8.260870575904846191e-01
6.609712123870849609e+00,-1.293252825736999512e+00,-5.892390012741088867e-01
6.616526603698730469e+00,-1.294586062431335449e+00,-3.533319830894470215e-01
6.623290538787841797e+00,-1.295909643173217773e+00,-1.178019344806671143e-01
6.630024909973144531e+00,-1.297227263450622559e+00,1.179217174649238586e-01
6.636671066284179688e+00,-1.298527598381042480e+00,3.544077277183532715e-01
6.644364833831787109e+00,-1.300032973289489746e+00,5.923281908035278320e-01
6.650715351104736328e+00,-1.301275491714477539e+00,8.320880532264709473e-01
6.658344745635986328e+00,-1.302768230438232422e+00,1.074573040008544922e+00
6.665588378906250000e+00,-1.304185509681701660e+00,1.320224881172180176e+00
3.946023702621459961e+00,-7.135971784591674805e-01,-1.074482083320617676e+00
4.697430133819580078e+00,-8.494812250137329102e-01,-1.102075815200805664e+00
5.739171504974365234e+00,-1.037869215011596680e+00,-1.133674860000610352e+00
6.765465736389160156e+00,-1.223463892936706543e+00,-1.088923215866088867e+00
6.772767066955566406e+00,-1.224784255027770996e+00,-8.450783491134643555e-01
6.779783248901367188e+00,-1.226053118705749512e+00,-6.027742028236389160e-01
6.786691665649414062e+00,-1.227302432060241699e+00,-3.614439368247985840e-01
6.793595790863037109e+00,-1.228550910949707031e+00,-1.205058768391609192e-01
6.800514221191406250e+00,-1.229802012443542480e+00,1.206286028027534485e-01
6.807387351989746094e+00,-1.231044888496398926e+00,3.625461459159851074e-01
6.814073562622070312e+00,-1.232254028320312500e+00,6.058228611946105957e-01
6.822042465209960938e+00,-1.233695268630981445e+00,8.512267470359802246e-01
6.827993869781494141e+00,-1.234771490097045898e+00,1.098987340927124023e+00
6.835301876068115234e+00,-1.236093044281005859e+00,1.350196599960327148e+00
3.948125600814819336e+00,-6.557685732841491699e-01,-1.072388768196105957e+00
4.699969768524169922e+00,-7.806469798088073730e-01,-1.099937438964843750e+00
5.801758766174316406e+00,-9.636499285697937012e-01,-1.143196225166320801e+00
6.925923824310302734e+00,-1.150369524955749512e+00,-1.111985445022583008e+00
6.933252334594726562e+00,-1.151586651802062988e+00,-8.629578948020935059e-01
6.940324306488037109e+00,-1.152761340141296387e+00,-6.155174970626831055e-01
6.947325706481933594e+00,-1.153924226760864258e+00,-3.690814971923828125e-01
6.954360008239746094e+00,-1.155092597007751465e+00,-1.230516582727432251e-01
6.961448192596435547e+00,-1.156269907951354980e+00,1.231770813465118408e-01
6.968527317047119141e+00,-1.157445788383483887e+00,3.702078461647033691e-01
6.975452423095703125e+00,-1.158596038818359375e+00,6.186329126358032227e-01
6.982001781463623047e+00,-1.159683823585510254e+00,8.690255880355834961e-01
6.989978790283203125e+00,-1.161008715629577637e+00,1.122269630432128906e+00
6.997666358947753906e+00,-1.162285685539245605e+00,1.378841519355773926e+00
3.949193000793457031e+00,-5.979975461959838867e-01,-1.070244193077087402e+00
4.701293945312500000e+00,-7.118827104568481445e-01,-1.097750186920166016e+00
5.803597927093505859e+00,-8.787965774536132812e-01,-1.140963196754455566e+00
7.113396644592285156e+00,-1.077129840850830078e+00,-1.139492869377136230e+00
7.120762348175048828e+00,-1.078245162963867188e+00,-8.842850923538208008e-01
7.127903461456298828e+00,-1.079326510429382324e+00,-6.307186484336853027e-01
7.135013103485107422e+00,-1.080403089523315430e+00,-3.781922161579132080e-01
7.142196655273437500e+00,-1.081490874290466309e+00,-1.260884702205657959e-01
7.149477005004882812e+00,-1.082593202590942383e+00,1.262169927358627319e-01
7.156789779663085938e+00,-1.083700537681579590e+00,3.793464899063110352e-01
7.163985252380371094e+00,-1.084790110588073730e+00,6.339113712310791016e-01
7.170830249786376953e+00,-1.085826635360717773e+00,8.905027508735656738e-01
7.179187297821044922e+00,-1.087092041969299316e+00,1.150031805038452148e+00
3.977542877197265625e+00,-5.441785454750061035e-01,-1.075706005096435547e+00
4.702615737915039062e+00,-6.433777213096618652e-01,-1.095796465873718262e+00
5.805462837219238281e+00,-7.942612767219543457e-01,-1.138978123664855957e+00
7.311350345611572266e+00,-1.000285863876342773e+00,-1.168789744377136230e+00
7.318763256072998047e+00,-1.001299977302551270e+00,-9.070008993148803711e-01
7.325983047485351562e+00,-1.002287745475769043e+00,-6.469101309776306152e-01
7.333207130432128906e+00,-1.003276109695434570e+00,-3.878966271877288818e-01
7.340548038482666016e+00,-1.004280447959899902e+00,-1.293231397867202759e-01
7.348025798797607422e+00,-1.005303502082824707e+00,1.294548809528350830e-01
