-5.414094448089599609e+00,-7.012997865676879883e-01,-6.703199148178100586e-01
-5.420708179473876953e+00,-7.021565437316894531e-01,-4.782118797302246094e-01
-5.427223682403564453e+00,-7.030005455017089844e-01,-2.868045568466186523e-01
-5.433820247650146484e+00,-7.038549184799194336e-01,-9.563993662595748901e-02
-5.440515518188476562e+00,-7.047222256660461426e-01,9.575778245925903320e-02
-5.447162628173828125e+00,-7.055832743644714355e-01,2.878582477569580078e-01
-5.453649044036865234e+00,-7.064234018325805664e-01,4.811179041862487793e-01
-5.460665225982666016e+00,-7.073322534561157227e-01,6.760858893394470215e-01
-5.467476844787597656e+00,-7.082145810127258301e-01,8.731965422630310059e-01
-5.473773479461669922e+00,-7.090302109718322754e-01,1.072881221771240234e+00
-5.482000827789306641e+00,-7.100958824157714844e-01,1.276191115379333496e+00
-3.947505950927734375e+00,-5.688865184783935547e-01,-1.068656682968139648e+00
-4.693203449249267578e+00,-6.763511896133422852e-01,-1.094703435897827148e+00
-5.545545101165771484e+00,-7.991845607757568359e-01,-1.089079260826110840e+00
-5.552471160888671875e+00,-8.001827597618103027e-01,-8.885089755058288574e-01
-5.559175968170166016e+00,-8.011489510536193848e-01,-6.896316409111022949e-01
-5.566182136535644531e+00,-8.021586537361145020e-01,-4.920080304145812988e-01
-5.572825908660888672e+00,-8.031160831451416016e-01,-2.950762212276458740e-01
-5.579599857330322266e+00,-8.040922880172729492e-01,-9.839827567338943481e-02
-5.586519241333007812e+00,-8.050895333290100098e-01,9.852030873298645020e-02
-5.593128681182861328e+00,-8.060420155525207520e-01,2.961512506008148193e-01
-5.600123405456542969e+00,-8.070500493049621582e-01,4.950081706047058105e-01
-5.607013702392578125e+00,-8.080430626869201660e-01,6.955660581588745117e-01
-5.613549232482910156e+00,-8.089848756790161133e-01,8.982827067375183105e-01
-5.620703697204589844e+00,-8.100159168243408203e-01,1.103839516639709473e+00
-5.628652095794677734e+00,-8.111613392829895020e-01,1.312899470329284668e+00
-3.939426898956298828e+00,-6.253991127014160156e-01,-1.068783402442932129e+00
-4.674611568450927734e+00,-7.421125173568725586e-01,-1.092732548713684082e+00
-5.705143451690673828e+00,-9.057133793830871582e-01,-1.122853398323059082e+00
-5.712611198425292969e+00,-9.068989157676696777e-01,-9.161179661750793457e-01
-5.719690799713134766e+00,-9.080228805541992188e-01,-7.110834717750549316e-01
-5.726603031158447266e+00,-9.091201424598693848e-01,-5.072862505912780762e-01
-5.733499526977539062e+00,-9.102150201797485352e-01,-3.042424321174621582e-01
-5.740467548370361328e+00,-9.113212227821350098e-01,-1.014548838138580322e-01
-5.747525215148925781e+00,-9.124416708946228027e-01,1.015796214342117310e-01
-5.754620552062988281e+00,-9.135680198669433594e-01,3.053631782531738281e-01
-5.761633396148681641e+00,-9.146813750267028809e-01,5.103893876075744629e-01
-5.768375873565673828e+00,-9.157517552375793457e-01,7.171360254287719727e-01
-5.775745868682861328e+00,-9.169218540191650391e-01,9.262427687644958496e-01
-5.782672405242919922e+00,-9.180214405059814453e-01,1.138112187385559082e+00
-5.790298461914062500e+00,-9.192321300506591797e-01,1.353534340858459473e+00
-3.917087793350219727e+00,-6.794637441635131836e-01,-1.065252184867858887e+00
-4.659532070159912109e+00,-8.082492351531982422e-01,-1.091800093650817871e+00
-5.707676887512207031e+00,-9.900618791580200195e-01,-1.126025795936584473e+00
-5.880918502807617188e+00,-1.020112752914428711e+00,-9.453538060188293457e-01
-5.887891292572021484e+00,-1.021322131156921387e+00,-7.337366938591003418e-01
-5.895276069641113281e+00,-1.022603154182434082e+00,-5.234709978103637695e-01
-5.902457714080810547e+00,-1.023848891258239746e+00,-3.139535188674926758e-01
-5.909629821777343750e+00,-1.025092959403991699e+00,-1.046931967139244080e-01
-5.916813850402832031e+00,-1.026339173316955566e+00,1.048204600811004639e-01
-5.923846244812011719e+00,-1.027558922767639160e+00,3.150911629199981689e-01
-5.931380748748779297e+00,-1.028865933418273926e+00,5.266768932342529297e-01
-5.938886642456054688e+00,-1.030167818069458008e+00,7.400916218757629395e-01
-5.946095943450927734e+00,-1.031418442726135254e+00,9.558310508728027344e-01
-5.954086780548095703e+00,-1.032804608345031738e+00,1.174638271331787109e+00
-5.961446762084960938e+00,-1.034081220626831055e+00,1.396858692169189453e+00
-3.915068864822387695e+00,-7.369815111160278320e-01,-1.067462563514709473e+00
-4.648077964782714844e+00,-8.749647736549377441e-01,-1.091938734054565430e+00
-5.714766979217529297e+00,-1.075760841369628906e+00,-1.130346536636352539e+00
-6.057330131530761719e+00,-1.140245676040649414e+00,-9.762354493141174316e-01
-6.064803123474121094e+00,-1.141652345657348633e+00,-7.577418088912963867e-01
-6.072146892547607422e+00,-1.143034815788269043e+00,-5.405735969543457031e-01
-6.079526424407958984e+00,-1.144423961639404297e+00,-3.242099285125732422e-01
-6.086915493011474609e+00,-1.145814895629882812e+00,-1.081134080886840820e-01
-6.094329357147216797e+00,-1.147210478782653809e+00,1.082450821995735168e-01
-6.101834297180175781e+00,-1.148623228073120117e+00,3.253995478153228760e-01
-6.109300136566162109e+00,-1.150028705596923828e+00,5.438812375068664551e-01
-6.116530418395996094e+00,-1.151389718055725098e+00,7.642047405242919922e-01
-6.124516963958740234e+00,-1.152893066406250000e+00,9.870635867118835449e-01
-6.132091999053955078e+00,-1.154319047927856445e+00,1.212890863418579102e+00
-3.895415306091308594e+00,-7.911704778671264648e-01,-1.065082430839538574e+00
-4.636623382568359375e+00,-9.417120218276977539e-01,-1.092302441596984863e+00
-5.683552265167236328e+00,-1.154346466064453125e+00,-1.127325057983398438e+00
-6.252896785736083984e+00,-1.269981980323791504e+00,-1.010580182075500488e+00
-6.260931491851806641e+00,-1.271613836288452148e+00,-7.844399809837341309e-01
-6.268238067626953125e+00,-1.273097872734069824e+00,-5.595955848693847656e-01
-6.275964260101318359e+00,-1.274667024612426758e+00,-3.356241881847381592e-01
-6.283590793609619141e+00,-1.276216030120849609e+00,-1.119196638464927673e-01
-6.291134834289550781e+00,-1.277748346328735352e+00,1.120540350675582886e-01
-6.299154758453369141e+00,-1.279377102851867676e+00,3.368643522262573242e-01
-6.306539058685302734e+00,-1.280876874923706055e+00,5.630149245262145996e-01
-6.314547061920166016e+00,-1.282503366470336914e+00,7.911576032638549805e-01
-6.322280406951904297e+00,-1.284074068069458008e+00,1.021793842315673828e+00
-6.330936908721923828e+00,-1.285832166671752930e+00,1.255732893943786621e+00
-3.896738767623901367e+00,-8.496851921081542969e-01,-1.068660140037536621e+00
-4.629001140594482422e+00,-1.009355306625366211e+00,-1.093798398971557617e+00
-5.656679153442382812e+00,-1.233440876007080078e+00,-1.125381350517272949e+00
-6.458355426788330078e+00,-1.408246636390686035e+00,-1.046936511993408203e+00
-6.466403961181640625e+00,-1.410001635551452637e+00,-8.126292824745178223e-01
-6.474719524383544922e+00,-1.411814808845520020e+00,-5.797738432884216309e-01
-6.482445716857910156e+00,-1.413499474525451660e+00,-3.477126955986022949e-01
-6.490321636199951172e+00,-1.415216803550720215e+00,-1.159507557749748230e-01
-6.498366832733154297e+00,-1.416971087455749512e+00,1.160944849252700806e-01
-6.505878448486328125e+00,-1.418609023094177246e+00,3.489696085453033447e-01
-6.513753414154052734e+00,-1.420326232910156250e+00,5.832691192626953125e-01
-6.522538661956787109e+00,-1.422241806983947754e+00,8.196837306022644043e-01
-6.529898643493652344e+00,-1.423846721649169922e+00,1.058534145355224609e+00
-6.537999629974365234e+00,-1.425613045692443848e+00,1.300717711448669434e+00
-3.883157968521118164e+00,-9.051303267478942871e-01,-1.068379282951354980e+00
-4.599055290222167969e+00,-1.071999669075012207e+00,-1.090236306190490723e+00
-5.634218692779541016e+00,-1.313287377357482910e+00,-1.124537467956542969e+00
-6.674339771270751953e+00,-1.555730462074279785e+00,-1.085447311401367188e+00
-6.682179927825927734e+00,-1.557557940483093262e+00,-8.424611687660217285e-01
-6.690546989440917969e+00,-1.559508204460144043e+00,-6.010372042655944824e-01
-6.698684215545654297e+00,-1.561404943466186523e+00,-3.604733943939208984e-01
-6.706822395324707031e+00,-1.563301920890808105e+00,-1.202060207724571228e-01
-6.714980602264404297e+00,-1.565203428268432617e+00,1.203522384166717529e-01
-6.722966194152832031e+00,-1.567064881324768066e+00,3.617800772190093994e-01
-6.731582164764404297e+00,-1.569073200225830078e+00,6.047235727310180664e-01
-6.740199089050292969e+00,-1.571081757545471191e+00,8.497759699821472168e-01
-6.748510837554931641e+00,-1.573019146919250488e+00,1.097509860992431641e+00
-6.756135940551757812e+00,-1.574796557426452637e+00,1.348461627960205078e+00
-3.869511842727661133e+00,-9.605403542518615723e-01,-1.068297982215881348e+00
-4.595212459564208984e+00,-1.140683174133300781e+00,-1.093083858489990234e+00
-5.611631870269775391e+00,-1.392991900444030762e+00,-1.123893737792968750e+00
-6.913968563079833984e+00,-1.716274738311767578e+00,-1.128297805786132812e+00
-6.922573566436767578e+00,-1.718410849571228027e+00,-8.757802844047546387e-01
-6.931008815765380859e+00,-1.720504760742187500e+00,-6.247870922088623047e-01
-6.939461231231689453e+00,-1.722602963447570801e+00,-3.747186660766601562e-01
-6.947891235351562500e+00,-1.724695444107055664e+00,-1.249563395977020264e-01
-6.956318378448486328e+00,-1.726787447929382324e+00,1.251078993082046509e-01
-6.964821815490722656e+00,-1.728898167610168457e+00,3.760880827903747559e-01
-6.973258495330810547e+00,-1.730992436408996582e+00,6.285955905914306641e-01
-6.982667446136474609e+00,-1.733328104019165039e+00,8.833827972412109375e-01
-6.990478515625000000e+00,-1.735267043113708496e+00,1.140783429145812988e+00
-6.999097824096679688e+00,-1.737406611442565918e+00,1.401774406433105469e+00
-3.858949184417724609e+00,-1.016765832901000977e+00,-1.069290280342102051e+00
-4.568585395812988281e+00,-1.203742623329162598e+00,-1.090736746788024902e+00
-5.593595027923583984e+00,-1.473814845085144043e+00,-1.124391078948974609e+00
-7.166229724884033203e+00,-1.888176679611206055e+00,-1.173754692077636719e+00
-7.174685478210449219e+00,-1.890404701232910156e+00,-9.110050201416015625e-01
-7.183665752410888672e+00,-1.892770767211914062e+00,-6.499381661415100098e-01
-7.192168712615966797e+00,-1.895011186599731445e+00,-3.897891640663146973e-01
-7.200905323028564453e+00,-1.897313117980957031e+00,-1.299818456172943115e-01
-7.209892749786376953e+00,-1.899681210517883301e+00,1.301440745592117310e-01
-7.218466281890869141e+00,-1.901940107345581055e+00,3.912143707275390625e-01
-7.227672576904296875e+00,-1.904365897178649902e+00,6.539196372032165527e-01
-7.236823081970214844e+00,-1.906776785850524902e+00,9.188948869705200195e-01
-7.245589733123779297e+00,-1.909086585044860840e+00,1.186753034591674805e+00
-3.829472064971923828e+00,-1.067839384078979492e+00,-1.065248489379882812e+00
-4.568816661834716797e+00,-1.274003863334655762e+00,-1.095033407211303711e+00
-5.575589179992675781e+00,-1.554740071296691895e+00,-1.125129699707031250e+00
-7.213335990905761719e+00,-2.011421918869018555e+00,-1.186064362525939941e+00
-7.457096099853515625e+00,-2.079393863677978516e+00,-9.505458474159240723e-01
-7.466215610504150391e+00,-2.081936836242675781e+00,-6.781283617019653320e-01
-7.475258350372314453e+00,-2.084458351135253906e+00,-4.067068994045257568e-01
-7.484335899353027344e+00,-2.086989641189575195e+00,-1.356233060359954834e-01
-7.493470191955566406e+00,-2.089536666870117188e+00,1.357888281345367432e-01
-7.502592086791992188e+00,-2.092080354690551758e+00,4.081940650939941406e-01
-7.511547565460205078e+00,-2.094577550888061523e+00,6.822456717491149902e-01
-7.521495819091796875e+00,-2.097351551055908203e+00,9.587548375129699707e-01
-7.529604911804199219e+00,-2.099612712860107422e+00,1.238067388534545898e+00
-3.818818092346191406e+00,-1.124015331268310547e+00,-1.066650986671447754e+00
-4.542026519775390625e+00,-1.336881399154663086e+00,-1.093086838722229004e+00
-5.557707786560058594e+00,-1.635832905769348145e+00,-1.126130938529968262e+00
-7.152288913726806641e+00,-2.105175495147705078e+00,-1.180860161781311035e+00
-7.775582790374755859e+00,-2.288633108139038086e+00,-9.952166676521301270e-01
-7.784871101379394531e+00,-2.291367053985595703e+00,-7.099767923355102539e-01
-7.794522762298583984e+00,-2.294208049774169922e+00,-4.258201718330383301e-01
-7.803985118865966797e+00,-2.296993017196655273e+00,-1.419968903064727783e-01
-7.813285350799560547e+00,-2.299730300903320312e+00,1.421661078929901123e-01
-7.823013305664062500e+00,-2.302593708038330078e+00,4.273765981197357178e-01
-7.832839488983154297e+00,-2.305485963821411133e+00,7.143514156341552734e-01
-7.842506885528564453e+00,-2.308331489562988281e+00,1.003782391548156738e+00
-7.851665019989013672e+00,-2.311026811599731445e+00,1.296328783035278320e+00
-3.795115232467651367e+00,-1.176315665245056152e+00,-1.064624190330505371e+00
-4.522475719451904297e+00,-1.401764750480651855e+00,-1.093098402023315430e+00
-5.549109935760498047e+00,-1.719975471496582031e+00,-1.129261493682861328e+00
-7.172927856445312500e+00,-2.223286390304565430e+00,-1.189399957656860352e+00
-8.088032722473144531e+00,-2.506927728652954102e+00,-1.039694070816040039e+00
-8.098062515258789062e+00,-2.510036706924438477e+00,-7.417402863502502441e-01
-8.107851982116699219e+00,-2.513070821762084961e+00,-4.448570609092712402e-01
-8.117691993713378906e+00,-2.516120672225952148e+00,-1.483450233936309814e-01
-8.127611160278320312e+00,-2.519195318222045898e+00,1.485262811183929443e-01
-8.137361526489257812e+00,-2.522217512130737305e+00,4.464761912822723389e-01
-8.146770477294921875e+00,-2.525133848190307617e+00,7.462016344070434570e-01
-8.157141685485839844e+00,-2.528348445892333984e+00,1.048577904701232910e+00
-8.167233467102050781e+00,-2.531476497650146484e+00,1.354273676872253418e+00
-3.787589073181152344e+00,-1.233669638633728027e+00,-1.067357063293457031e+00
-4.499192714691162109e+00,-1.465448737144470215e+00,-1.092428803443908691e+00
-5.536233425140380859e+00,-1.803227066993713379e+00,-1.131777763366699219e+00
-7.117367744445800781e+00,-2.318224191665649414e+00,-1.185567736625671387e+00
-8.467486381530761719e+00,-2.757976293563842773e+00,-1.093434453010559082e+00
-8.477796554565429688e+00,-2.761334419250488281e+00,-7.800621986389160156e-01
-8.488130569458007812e+00,-2.764700412750244141e+00,-4.678452908992767334e-01
-8.498433113098144531e+00,-2.768055915832519531e+00,-1.560108363628387451e-01
-8.508724212646484375e+00,-2.771408081054687500e+00,1.561997681856155396e-01
-8.519117355346679688e+00,-2.774793148040771484e+00,4.695532321929931641e-01
-8.529429435729980469e+00,-2.778152227401733398e+00,7.848131060600280762e-01
-8.539387702941894531e+00,-2.781395673751831055e+00,1.102719306945800781e+00
-3.763660669326782227e+00,-1.285741090774536133e+00,-1.065690994262695312e+00
-4.479516506195068359e+00,-1.530291676521301270e+00,-1.092857837677001953e+00
-5.485280990600585938e+00,-1.873880624771118164e+00,-1.126729130744934082e+00
-7.067451953887939453e+00,-2.414381742477416992e+00,-1.182888388633728027e+00
-8.870084762573242188e+00,-3.030196905136108398e+00,-1.150906205177307129e+00
-8.881319046020507812e+00,-3.034034729003906250e+00,-8.211030364036560059e-01
-8.891867637634277344e+00,-3.037638187408447266e+00,-4.924443364143371582e-01
-8.902655601501464844e+00,-3.041323423385620117e+00,-1.642137169837951660e-01
-8.913709640502929688e+00,-3.045099735260009766e+00,1.644176244735717773e-01
-8.924157142639160156e+00,-3.048669099807739258e+00,4.942325949668884277e-01
-8.935390472412109375e+00,-3.052506446838378906e+00,8.261021375656127930e-01
-8.946519851684570312e+00,-3.056308269500732422e+00,1.160823702812194824e+00
-3.739632368087768555e+00,-1.337600111961364746e+00,-1.064199447631835938e+00
-4.459853172302246094e+00,-1.595210313796997070e+00,-1.093518972396850586e+00
-5.477035045623779297e+00,-1.959038376808166504e+00,-1.130679488182067871e+00
-7.017362117767333984e+00,-2.509985923767089844e+00,-1.180397033691406250e+00
-9.330679893493652344e+00,-3.337418556213378906e+00,-1.216742634773254395e+00
-9.342340469360351562e+00,-3.341589450836181641e+00,-8.680588603019714355e-01
-9.353774070739746094e+00,-3.345679044723510742e+00,-5.206242203712463379e-01
-9.365118980407714844e+00,-3.349736928939819336e+00,-1.736106872558593750e-01
-9.376402854919433594e+00,-3.353772878646850586e+00,1.738198697566986084e-01
-9.387543678283691406e+00,-3.357757806777954102e+00,5.225037336349487305e-01
-9.399809837341308594e+00,-3.362145185470581055e+00,8.733987212181091309e-01
-9.410375595092773438e+00,-3.365924358367919922e+00,1.227135181427001953e+00
-3.738335609436035156e+00,-1.397801041603088379e+00,-1.069414377212524414e+00
-4.415368080139160156e+00,-1.650950312614440918e+00,-1.088294148445129395e+00
-5.430122852325439453e+00,-2.030377388000488281e+00,-1.126878857612609863e+00
-6.972836971282958984e+00,-2.607213735580444336e+00,-1.179063916206359863e+00
-9.729458808898925781e+00,-3.637942314147949219e+00,-1.275404095649719238e+00
-9.833862304687500000e+00,-3.676979780197143555e+00,-9.185255765914916992e-01
-9.845612525939941406e+00,-3.681373119354248047e+00,-5.508759617805480957e-01
-9.857549667358398438e+00,-3.685836315155029297e+00,-1.836985647678375244e-01
-9.869703292846679688e+00,-3.690380811691284180e+00,1.839250624179840088e-01
-9.881984710693359375e+00,-3.694973230361938477e+00,5.529110431671142578e-01
-9.894183158874511719e+00,-3.699534416198730469e+00,9.241598248481750488e-01
-3.717205524444580078e+00,-1.450871467590332031e+00,-1.069200992584228516e+00
-4.399094581604003906e+00,-1.717021107673645020e+00,-1.090229034423828125e+00
-5.383048534393310547e+00,-2.101070642471313477e+00,-1.123235821723937988e+00
-6.928174018859863281e+00,-2.704152345657348633e+00,-1.177935957908630371e+00
-9.707540512084960938e+00,-3.788973569869995117e+00,-1.279509067535400391e+00
-1.040047168731689453e+01,-4.059432983398437500e+00,-9.767764806747436523e-01
-1.041331768035888672e+01,-4.064446926116943359e+00,-5.858349204063415527e-01
-1.042593765258789062e+01,-4.069372653961181641e+00,-1.953561007976531982e-01
-1.043836688995361328e+01,-4.074223995208740234e+00,1.955889910459518433e-01
-1.045146751403808594e+01,-4.079337120056152344e+00,5.879811644554138184e-01
-1.046478176116943359e+01,-4.084534168243408203e+00,9.828162193298339844e-01
-3.696043252944946289e+00,-1.503916621208190918e+00,-1.069196224212646484e+00
-4.382935047149658203e+00,-1.783412337303161621e+00,-1.092438697814941406e+00
-5.379383087158203125e+00,-2.188866138458251953e+00,-1.128892779350280762e+00
-6.956681728363037109e+00,-2.830667495727539062e+00,-1.189549684524536133e+00
-9.686251640319824219e+00,-3.941326856613159180e+00,-1.284007191658020020e+00
-1.491937065124511719e+01,-6.070678710937500000e+00,-1.409192204475402832e+00
-1.493672561645507812e+01,-6.077740192413330078e+00,-8.451213836669921875e-01
-1.495414733886718750e+01,-6.084828853607177734e+00,-2.818065285682678223e-01
-1.497173690795898438e+01,-6.091986179351806641e+00,2.821380198001861572e-01
-1.498898792266845703e+01,-6.099005699157714844e+00,8.480784296989440918e-01
-3.657487630844116211e+00,-1.549604892730712891e+00,-1.064350128173828125e+00
-4.341424465179443359e+00,-1.839375376701354980e+00,-1.088542938232421875e+00
-5.336343288421630859e+00,-2.260902643203735352e+00,-1.126536488533020020e+00
-6.917793750762939453e+00,-2.930931806564331055e+00,-1.189951777458190918e+00
-9.673439025878906250e+00,-4.098443984985351562e+00,-1.289952993392944336e+00
-1.479102802276611328e+01,-6.266664505004882812e+00,-1.405398130416870117e+00
-1.480853748321533203e+01,-6.274083137512207031e+00,-8.428633213043212891e-01
-1.482586193084716797e+01,-6.281423091888427734e+00,-2.810545563697814941e-01
-1.484298419952392578e+01,-6.288677692413330078e+00,2.813791632652282715e-01
-1.486015605926513672e+01,-6.295952796936035156e+00,8.458012938499450684e-01
-3.636231184005737305e+00,-1.602363228797912598e+00,-1.064729571342468262e+00
-4.325322628021240234e+00,-1.906022310256958008e+00,-1.091234326362609863e+00
-5.289048671722412109e+00,-2.330703496932983398e+00,-1.123479723930358887e+00
-6.799492359161376953e+00,-2.996304750442504883e+00,-1.176859021186828613e+00
-9.507628440856933594e+00,-4.189688205718994141e+00,-1.275708317756652832e+00
-1.466077518463134766e+01,-6.460504055023193359e+00,-1.401664733886718750e+00
-1.467771720886230469e+01,-6.467969894409179688e+00,-8.406006097793579102e-01
-1.469488334655761719e+01,-6.475534439086914062e+00,-2.802999615669250488e-01
-1.471225452423095703e+01,-6.483189582824707031e+00,2.806313037872314453e-01
-1.473008251190185547e+01,-6.491045475006103516e+00,8.435996174812316895e-01
-3.620523691177368164e+00,-1.657719612121582031e+00,-1.066968679428100586e+00
-4.286923885345458984e+00,-1.962842583656311035e+00,-1.088523268699645996e+00
-5.294249534606933594e+00,-2.424064159393310547e+00,-1.131838679313659668e+00
-6.765522003173828125e+00,-3.097711801528930664e+00,-1.178532838821411133e+00
-9.501867294311523438e+00,-4.350594997406005859e+00,-1.283159375190734863e+00
-1.453578281402587891e+01,-6.655460834503173828e+00,-1.398679137229919434e+00
-1.455222892761230469e+01,-6.662991046905517578e+00,-8.387898206710815430e-01
-1.456924152374267578e+01,-6.670780658721923828e+00,-2.796960175037384033e-01
-1.458680820465087891e+01,-6.678823471069335938e+00,2.800332605838775635e-01
-1.460344600677490234e+01,-6.686441898345947266e+00,8.417419791221618652e-01
-3.602095365524291992e+00,-1.712060689926147461e+00,-1.068650245666503906e+00
-4.274261474609375000e+00,-2.031538248062133789e+00,-1.092579603195190430e+00
-5.251009464263916016e+00,-2.495782613754272461e+00,-1.130115985870361328e+00
-6.726281642913818359e+00,-3.196973085403442383e+00,-1.179547667503356934e+00
-9.489562988281250000e+00,-4.510348796844482422e+00,-1.290083765983581543e+00
-1.440702247619628906e+01,-6.847596645355224609e+00,-1.395577549934387207e+00
-1.442402744293212891e+01,-6.855679035186767578e+00,-8.369706869125366211e-01
-1.444088363647460938e+01,-6.863690853118896484e+00,-2.790893018245697021e-01
-1.445763492584228516e+01,-6.871652603149414062e+00,2.794130444526672363e-01
-1.447415351867675781e+01,-6.879503726959228516e+00,8.398793339729309082e-01
-3.565829753875732422e+00,-1.757821798324584961e+00,-1.065246462821960449e+00
-4.235624790191650391e+00,-2.088005781173706055e+00,-1.090231299400329590e+00
-5.211743354797363281e+00,-2.569196224212646484e+00,-1.129463911056518555e+00
-6.692289352416992188e+00,-3.299050331115722656e+00,-1.181746363639831543e+00
-9.337440490722656250e+00,-4.603012084960937500e+00,-1.278229117393493652e+00
-1.428155803680419922e+01,-7.040278434753417969e+00,-1.393042802810668945e+00
-1.429808044433593750e+01,-7.048423290252685547e+00,-8.354310393333435059e-01
-1.431478500366210938e+01,-7.056657791137695312e+00,-2.785758078098297119e-01
-1.433171463012695312e+01,-7.065003871917724609e+00,2.789052724838256836e-01
-1.434873867034912109e+01,-7.073396205902099609e+00,8.383909463882446289e-01
-3.550001144409179688e+00,-1.813628673553466797e+00,-1.068163514137268066e+00
-4.196920871734619141e+00,-2.144127845764160156e+00,-1.088057160377502441e+00
-5.172399520874023438e+00,-2.642481327056884766e+00,-1.129018664360046387e+00
-6.658339023590087891e+00,-3.401619672775268555e+00,-1.184227705001831055e+00
-9.332197189331054688e+00,-4.767643928527832031e+00,-1.286721348762512207e+00
-1.415486240386962891e+01,-7.231452465057373047e+00,-1.390638589859008789e+00
-1.417198753356933594e+01,-7.240200996398925781e+00,-8.340331912040710449e-01
-1.418853855133056641e+01,-7.248656749725341797e+00,-2.781095802783966064e-01
-1.420461559295654297e+01,-7.256870746612548828e+00,2.784247100353240967e-01
-1.422143363952636719e+01,-7.265462398529052734e+00,8.369431495666503906e-01
-3.513590812683105469e+00,-1.858912229537963867e+00,-1.065104842185974121e+00
-4.187517642974853516e+00,-2.215462207794189453e+00,-1.093728303909301758e+00
-5.133020877838134766e+00,-2.715693473815917969e+00,-1.128792285919189453e+00
-6.624486923217773438e+00,-3.504773378372192383e+00,-1.187007546424865723e+00
-9.179978370666503906e+00,-4.856790065765380859e+00,-1.275187730789184570e+00
-1.492964744567871094e+01,-7.898729801177978516e+00,-1.477712988853454590e+00
-1.494774055480957031e+01,-7.908302307128906250e+00,-8.862577676773071289e-01
-1.496556186676025391e+01,-7.917730331420898438e+00,-2.955311238765716553e-01
-1.498319911956787109e+01,-7.927061557769775391e+00,2.958794236183166504e-01
-1.500198173522949219e+01,-7.936999320983886719e+00,8.894737362861633301e-01
-3.497747898101806641e+00,-1.915097594261169434e+00,-1.068502306938171387e+00
-4.148720264434814453e+00,-2.271520137786865234e+00,-1.091975212097167969e+00
-5.093647956848144531e+00,-2.788889884948730469e+00,-1.128796696662902832e+00
-6.515743732452392578e+00,-3.567519903182983398e+00,-1.176551699638366699e+00
-9.174677848815917969e+00,-5.023347854614257812e+00,-1.284307837486267090e+00
-1.506429481506347656e+01,-8.248048782348632812e+00,-1.502571463584899902e+00
-1.644953727722167969e+01,-9.006501197814941406e+00,-9.828425645828247070e-01
-1.646909332275390625e+01,-9.017209053039550781e+00,-3.277371823787689209e-01
-1.648881530761718750e+01,-9.028007507324218750e+00,3.281296491622924805e-01
-1.650811576843261719e+01,-9.038575172424316406e+00,9.863426685333251953e-01
-3.461303234100341797e+00,-1.960047364234924316e+00,-1.065830230712890625e+00
-4.109954833984375000e+00,-2.327362060546875000e+00,-1.090428233146667480e+00
-5.054325580596923828e+00,-2.862135171890258789e+00,-1.129045486450195312e+00
-6.481764316558837891e+00,-3.670457124710083008e+00,-1.179781794548034668e+00
-9.022667884826660156e+00,-5.109305858612060547e+00,-1.273135662078857422e+00
-1.522014713287353516e+01,-8.618780136108398438e+00,-1.530264854431152344e+00
-1.835980606079101562e+01,-1.039668750762939453e+01,-1.105757236480712891e+00
-1.838161277770996094e+01,-1.040903663635253906e+01,-3.687236905097961426e-01
-1.840301704406738281e+01,-1.042115783691406250e+01,3.691530525684356689e-01
-3.427274227142333984e+00,-2.006093978881835938e+00,-1.064084649085998535e+00
-4.074087142944335938e+00,-2.384694337844848633e+00,-1.089856386184692383e+00
-5.018617630004882812e+00,-2.937558412551879883e+00,-1.130345582962036133e+00
-6.452614307403564453e+00,-3.776922941207885742e+00,-1.184194684028625488e+00
-9.024015426635742188e+00,-5.282046794891357422e+00,-1.283862471580505371e+00
-1.497747516632080078e+01,-8.766798019409179688e+00,-1.518326997756958008e+00
-2.061796569824218750e+01,-1.206835937500000000e+01,-1.252035021781921387e+00
-2.064238357543945312e+01,-1.208265209197998047e+01,-4.174997508525848389e-01
-2.066672706604003906e+01,-1.209690093994140625e+01,4.179921150207519531e-01
-3.413782596588134766e+00,-2.064355134963989258e+00,-1.068960309028625488e+00
-4.038161754608154297e+00,-2.441924810409545898e+00,-1.089484572410583496e+00
-4.982860565185546875e+00,-3.013195514678955078e+00,-1.131890177726745605e+00
-6.423576831817626953e+00,-3.884413957595825195e+00,-1.188947558403015137e+00
-8.878465652465820312e+00,-5.368914604187011719e+00,-1.273957490921020508e+00
-1.473657798767089844e+01,-8.911385536193847656e+00,-1.506682395935058594e+00
-2.362316703796386719e+01,-1.428521251678466797e+01,-1.446795582771301270e+00
-2.365113830566406250e+01,-1.430212688446044922e+01,-4.824438691139221191e-01
-2.367934036254882812e+01,-1.431918144226074219e+01,4.830191433429718018e-01
-3.379622459411621094e+00,-2.110338449478149414e+00,-1.067612767219543457e+00
-4.002203941345214844e+00,-2.499097108840942383e+00,-1.089322566986083984e+00
-4.902183055877685547e+00,-3.061071157455444336e+00,-1.123401403427124023e+00
-6.319225311279296875e+00,-3.945915222167968750e+00,-1.179966092109680176e+00
-8.879758834838867188e+00,-5.544789791107177734e+00,-1.285399436950683594e+00
-1.449756526947021484e+01,-9.052718162536621094e+00,-1.495340347290039062e+00
-2.781773376464843750e+01,-1.737023353576660156e+01,-1.718742012977600098e+00
-2.785066795349121094e+01,-1.739079856872558594e+01,-5.731261968612670898e-01
-3.345463752746582031e+00,-2.156165122985839844e+00,-1.066462278366088867e+00
-3.966238021850585938e+00,-2.556256771087646484e+00,-1.089380502700805664e+00
-4.866317272186279297e+00,-3.136361360549926758e+00,-1.125354647636413574e+00
-6.289958000183105469e+00,-4.053903579711914062e+00,-1.185214519500732422e+00
-8.734158515930175781e+00,-5.629200935363769531e+00,-1.275855660438537598e+00
-1.466144466400146484e+01,-9.449361801147460938e+00,-1.526037812232971191e+00
-3.407863235473632812e+01,-2.196381759643554688e+01,-2.124783277511596680e+00
-3.411886978149414062e+01,-2.198975372314453125e+01,-7.085212469100952148e-01
-3.313427925109863281e+00,-2.203269720077514648e+00,-1.066193819046020508e+00
-3.932815313339233398e+00,-2.615132570266723633e+00,-1.090369939804077148e+00
-4.833628654479980469e+00,-3.214130163192749023e+00,-1.128318667411804199e+00
-6.190176486968994141e+00,-4.116168975830078125e+00,-1.177393794059753418e+00
-8.741342544555664062e+00,-5.812571048736572266e+00,-1.288926362991333008e+00
-1.442929744720458984e+01,-9.594787597656250000e+00,-1.516013979911804199e+00
-4.111669158935546875e+01,-2.734061813354492188e+01,-2.587736845016479492e+00
-4.322724533081054688e+01,-2.874403381347656250e+01,-9.061189889907836914e-01
-3.279258728027343750e+00,-2.248890876770019531e+00,-1.065447688102722168e+00
-3.896816968917846680e+00,-2.672407865524291992e+00,-1.090882778167724609e+00
-4.797766685485839844e+00,-3.290272235870361328e+00,-1.130824923515319824e+00
-6.160707473754882812e+00,-4.224967002868652344e+00,-1.183169841766357422e+00
-8.595659255981445312e+00,-5.894838333129882812e+00,-1.279755353927612305e+00
-1.418956089019775391e+01,-9.731094360351562500e+00,-1.505305886268615723e+00
-4.044789886474609375e+01,-2.773886489868164062e+01,-2.570370674133300781e+00
-3.247110605239868164e+00,-2.295857667922973633e+00,-1.065570354461669922e+00
-3.863242626190185547e+00,-2.731491565704345703e+00,-1.092316985130310059e+00
-4.720444202423095703e+00,-3.337572574615478516e+00,-1.123744845390319824e+00
-6.135360240936279297e+00,-4.337984085083007812e+00,-1.190104842185974121e+00
-8.602706909179687500e+00,-6.082512378692626953e+00,-1.293634176254272461e+00
-1.396066856384277344e+01,-9.870839118957519531e+00,-1.495858788490295410e+00
-3.980838012695312500e+01,-2.814636802673339844e+01,-2.555070400238037109e+00
-3.214890003204345703e+00,-2.342802286148071289e+00,-1.065892100334167480e+00
-3.829576969146728516e+00,-2.790745973587036133e+00,-1.093980431556701660e+00
-4.687411308288574219e+00,-3.415879726409912109e+00,-1.127405047416687012e+00
-6.035273551940917969e+00,-4.398113727569580078e+00,-1.182780385017395020e+00
-8.462267875671386719e+00,-6.166749000549316406e+00,-1.285657167434692383e+00
-1.413080596923828125e+01,-1.029761028289794922e+01,-1.529725074768066406e+00
-3.917155838012695312e+01,-2.854567909240722656e+01,-2.540161132812500000e+00
-5.585845565795898438e+01,-4.070600128173828125e+01,-1.206438183784484863e+00
-3.182611942291259766e+00,-2.389761209487915039e+00,-1.066421866416931152e+00
-3.766906738281250000e+00,-2.828496932983398438e+00,-1.087531685829162598e+00
-4.654310703277587891e+00,-3.494831085205078125e+00,-1.131359338760375977e+00
-6.009500980377197266e+00,-4.512416839599609375e+00,-1.190265536308288574e+00
-8.322831153869628906e+00,-6.249451637268066406e+00,-1.277932167053222656e+00
-1.389892578125000000e+01,-1.043643188476562500e+01,-1.520638465881347656e+00
-3.143575668334960938e+01,-2.360449600219726562e+01,-2.060215234756469727e+00
-3.147664642333984375e+01,-2.363519859313964844e+01,-6.870729923248291016e-01
-3.150283813476562500e+00,-2.436767816543579102e+00,-1.067167162895202637e+00
-3.733119964599609375e+00,-2.887595891952514648e+00,-1.089598178863525391e+00
-4.577142238616943359e+00,-3.540453433990478516e+00,-1.124804496765136719e+00
-5.909633159637451172e+00,-4.571144580841064453e+00,-1.183323144912719727e+00
-8.328322410583496094e+00,-6.442018508911132812e+00,-1.292800903320312500e+00
-1.366850280761718750e+01,-1.057268714904785156e+01,-1.511830449104309082e+00
-2.435966873168945312e+01,-1.884238433837890625e+01,-1.613977670669555664e+00
-2.438824272155761719e+01,-1.886448478698730469e+01,-5.381858944892883301e-01
-2.441668319702148438e+01,-1.888648605346679688e+01,5.388135313987731934e-01
-3.117916584014892578e+00,-2.483859777450561523e+00,-1.068136811256408691e+00
-3.699276924133300781e+00,-2.946995258331298828e+00,-1.091920137405395508e+00
-4.543820858001708984e+00,-3.619793653488159180e+00,-1.129232645034790039e+00
-5.810526371002197266e+00,-4.628902912139892578e+00,-1.176624655723571777e+00
-8.188551902770996094e+00,-6.523334980010986328e+00,-1.285466670989990234e+00
-1.343981838226318359e+01,-1.070670890808105469e+01,-1.503332972526550293e+00
-1.741916847229003906e+01,-1.387682151794433594e+01,-1.167167425155639648e+00
-1.744172286987304688e+01,-1.389479064941406250e+01,-3.892430365085601807e-01
-1.746432304382324219e+01,-1.391279411315917969e+01,3.897473812103271484e-01
-3.085516452789306641e+00,-2.531074047088623047e+00,-1.069338798522949219e+00
-3.665385961532592773e+00,-3.006745815277099609e+00,-1.094507694244384766e+00
-4.467081546783447266e+00,-3.664382934570312500e+00,-1.123081207275390625e+00
-5.783931732177734375e+00,-4.744606018066406250e+00,-1.184870004653930664e+00
-8.049900054931640625e+00,-6.603397846221923828e+00,-1.278407335281372070e+00
-1.321293163299560547e+01,-1.083867454528808594e+01,-1.495154261589050293e+00
-1.335874652862548828e+01,-1.095828723907470703e+01,-9.055168032646179199e-01
-1.337578678131103516e+01,-1.097226524353027344e+01,-3.019783794879913330e-01
-1.339303398132324219e+01,-1.098641395568847656e+01,3.023677766323089600e-01
-1.341007709503173828e+01,-1.100039482116699219e+01,9.089962244033813477e-01
-3.034834623336791992e+00,-2.563032150268554688e+00,-1.064379215240478516e+00
-3.604953527450561523e+00,-3.044518947601318359e+00,-1.089363217353820801e+00
-4.435887336730957031e+00,-3.746273994445800781e+00,-1.128604292869567871e+00
-5.688115596771240234e+00,-4.803827762603759766e+00,-1.179206490516662598e+00
-7.916518688201904297e+00,-6.685797691345214844e+00,-1.272292375564575195e+00
-1.095200061798095703e+01,-9.249376296997070312e+00,-1.254163622856140137e+00
-1.096612930297851562e+01,-9.261308670043945312e+00,-7.522428631782531738e-01
-1.097994613647460938e+01,-9.272976875305175781e+00,-2.508595287799835205e-01
-1.099353981018066406e+01,-9.284457206726074219e+00,2.511700987815856934e-01
-1.100864028930664062e+01,-9.297211647033691406e+00,7.551589608192443848e-01
-3.002386093139648438e+00,-2.610154867172241211e+00,-1.065992712974548340e+00
-3.570931196212768555e+00,-3.104425191879272461e+00,-1.092397809028625488e+00
-4.359497547149658203e+00,-3.789973497390747070e+00,-1.122855782508850098e+00
-5.661093235015869141e+00,-4.921528816223144531e+00,-1.188086628913879395e+00
-7.919242382049560547e+00,-6.884674072265625000e+00,-1.288435459136962891e+00
-9.093078613281250000e+00,-7.905159950256347656e+00,-1.054139256477355957e+00
-9.104619026184082031e+00,-7.915193080902099609e+00,-6.322557926177978516e-01
-9.116033554077148438e+00,-7.925116539001464844e+00,-2.108446955680847168e-01
-9.127376556396484375e+00,-7.934977054595947266e+00,2.111070305109024048e-01
-9.138809204101562500e+00,-7.944916725158691406e+00,6.346300840377807617e-01
-9.150139808654785156e+00,-7.954767227172851562e+00,1.060754299163818359e+00
-2.971320629119873047e+00,-2.658761978149414062e+00,-1.068365335464477539e+00
-3.510710954666137695e+00,-3.141412973403930664e+00,-1.087619543075561523e+00
-4.327836036682128906e+00,-3.872583150863647461e+00,-1.128862142562866211e+00
-5.565215110778808594e+00,-4.979800224304199219e+00,-1.182802677154541016e+00
-7.785121440887451172e+00,-6.966190338134765625e+00,-1.282705545425415039e+00
-7.843509197235107422e+00,-7.018436431884765625e+00,-9.208312034606933594e-01
-7.853340625762939453e+00,-7.027233600616455078e+00,-5.522910952568054199e-01
-7.863152027130126953e+00,-7.036012649536132812e+00,-1.841772496700286865e-01
-7.872987747192382812e+00,-7.044814109802246094e+00,1.844076216220855713e-01
-7.882991313934326172e+00,-7.053765296936035156e+00,5.543762445449829102e-01
-7.892994880676269531e+00,-7.062716484069824219e+00,9.266408085823059082e-01
-2.919446706771850586e+00,-2.688566923141479492e+00,-1.063441395759582520e+00
-3.476573944091796875e+00,-3.201634407043457031e+00,-1.091129064559936523e+00
-4.251820087432861328e+00,-3.915571689605712891e+00,-1.123537898063659668e+00
-5.467302322387695312e+00,-5.034929275512695312e+00,-1.177188992500305176e+00
-6.773521423339843750e+00,-6.237848281860351562e+00,-1.130625724792480469e+00
-6.781751632690429688e+00,-6.245427131652832031e+00,-8.065926432609558105e-01
-6.790145397186279297e+00,-6.253157138824462891e+00,-4.837660789489746094e-01
-6.798604011535644531e+00,-6.260947227478027344e+00,-1.613250523805618286e-01
-6.807164669036865234e+00,-6.268830776214599609e+00,1.615281850099563599e-01
-6.815951824188232422e+00,-6.276922702789306641e+00,4.856046736240386963e-01
-6.824819564819335938e+00,-6.285089492797851562e+00,8.117149472236633301e-01
-6.833540916442871094e+00,-6.293120861053466797e+00,1.140644073486328125e+00
-2.888202428817749023e+00,-2.737214326858520508e+00,-1.066222548484802246e+00
-3.443916320800781250e+00,-3.263876676559448242e+00,-1.095429539680480957e+00
-4.219687938690185547e+00,-3.999092817306518555e+00,-1.130057096481323242e+00
-5.441874980926513672e+00,-5.157386779785156250e+00,-1.187487006187438965e+00
-6.207368850708007812e+00,-5.882862567901611328e+00,-1.050072073936462402e+00
-6.215253353118896484e+00,-5.890335083007812500e+00,-7.491666078567504883e-01
-6.222465515136718750e+00,-5.897170543670654297e+00,-4.492892920970916748e-01
-6.229820728302001953e+00,-5.904140949249267578e+00,-1.498182862997055054e-01
-6.237315654754638672e+00,-5.911243915557861328e+00,1.499985158443450928e-01
-6.244213104248046875e+00,-5.917780876159667969e+00,4.508595466613769531e-01
-6.251765727996826172e+00,-5.924938678741455078e+00,7.535676956176757812e-01
-6.259253025054931641e+00,-5.932034492492675781e+00,1.058849096298217773e+00
-2.856801748275756836e+00,-2.786140203475952148e+00,-1.069242954254150391e+00
-3.383750677108764648e+00,-3.300055503845214844e+00,-1.091204881668090820e+00
-4.145808219909667969e+00,-4.043263912200927734e+00,-1.125655174255371094e+00
-5.346479892730712891e+00,-5.214237689971923828e+00,-1.182835459709167480e+00
-6.031394004821777344e+00,-5.882210731506347656e+00,-1.034440040588378906e+00
-6.038940429687500000e+00,-5.889570713043212891e+00,-7.380000948905944824e-01
-6.045890331268310547e+00,-5.896348476409912109e+00,-4.425882995128631592e-01
-6.053038597106933594e+00,-5.903320312500000000e+00,-1.475838422775268555e-01
-6.060385227203369141e+00,-5.910484790802001953e+00,1.477629691362380981e-01
-6.067204952239990234e+00,-5.917136192321777344e+00,4.441486299037933350e-01
-6.074727535247802734e+00,-5.924472332000732422e+00,7.423735260963439941e-01
-6.082243442535400391e+00,-5.931802749633789062e+00,1.043161273002624512e+00
-6.089478969573974609e+00,-5.938858985900878906e+00,1.347213745117187500e+00
-2.806399345397949219e+00,-2.816470146179199219e+00,-1.065357804298400879e+00
-3.350716590881347656e+00,-3.362740755081176758e+00,-1.095961689949035645e+00
-4.113108158111572266e+00,-4.127868175506591797e+00,-1.132702827453613281e+00
-5.251617908477783203e+00,-5.270463466644287109e+00,-1.178417563438415527e+00
-5.859827995300292969e+00,-5.880856513977050781e+00,-1.019347429275512695e+00
-5.867054462432861328e+00,-5.888108730316162109e+00,-7.272194623947143555e-01
-5.873751640319824219e+00,-5.894829750061035156e+00,-4.361189305782318115e-01
-5.880698680877685547e+00,-5.901801586151123047e+00,-1.454266458749771118e-01
-5.887895584106445312e+00,-5.909024238586425781e+00,1.456046253442764282e-01
-5.894634246826171875e+00,-5.915787220001220703e+00,4.376694262027740479e-01
-5.902112960815429688e+00,-5.923292636871337891e+00,7.315649390220642090e-01
-5.908158302307128906e+00,-5.929359912872314453e+00,1.027754664421081543e+00
-5.915144920349121094e+00,-5.936371326446533203e+00,1.327307343482971191e+00
-2.774745702743530273e+00,-2.865582704544067383e+00,-1.068802595138549805e+00
-3.290681838989257812e+00,-3.398409128189086914e+00,-1.092123746871948242e+00
-4.039280414581298828e+00,-4.171514511108398438e+00,-1.128698945045471191e+00
-5.224676132202148438e+00,-5.395716667175292969e+00,-1.189580321311950684e+00
-5.692524909973144531e+00,-5.878881454467773438e+00,-1.004779100418090820e+00
-5.698948383331298828e+00,-5.885515213012695312e+00,-7.167511582374572754e-01
-5.705902576446533203e+00,-5.892697334289550781e+00,-4.298748075962066650e-01
-5.712654113769531250e+00,-5.899669647216796875e+00,-1.433445811271667480e-01
-5.719218730926513672e+00,-5.906449317932128906e+00,1.435092985630035400e-01
-5.726349353790283203e+00,-5.913813114166259766e+00,4.314152300357818604e-01
-5.732645511627197266e+00,-5.920315265655517578e+00,7.209891676902770996e-01
-5.739846706390380859e+00,-5.927752494812011719e+00,1.013131856918334961e+00
-5.746891021728515625e+00,-5.935027122497558594e+00,1.308480739593505859e+00
-2.724500179290771484e+00,-2.895490646362304688e+00,-1.065303325653076172e+00
-3.230955839157104492e+00,-3.433731555938720703e+00,-1.088501811027526855e+00
-3.965843915939331055e+00,-4.214741706848144531e+00,-1.124920725822448730e+00
-5.129621028900146484e+00,-5.451557636260986328e+00,-1.185582637786865234e+00
-5.529342651367187500e+00,-5.876366138458251953e+00,-9.907208681106567383e-01
-5.535488128662109375e+00,-5.882896900177001953e+00,-7.067108154296875000e-01
-5.542198657989501953e+00,-5.890028953552246094e+00,-4.238497018814086914e-01
-5.548758506774902344e+00,-5.897000312805175781e+00,-1.413355320692062378e-01
-5.555182933807373047e+00,-5.903828144073486328e+00,1.414991766214370728e-01
-5.562209129333496094e+00,-5.911294937133789062e+00,4.253800511360168457e-01
-5.568465232849121094e+00,-5.917943954467773438e+00,7.109209895133972168e-01
-5.575654029846191406e+00,-5.925583362579345703e+00,9.990186691284179688e-01
-5.582731723785400391e+00,-5.933105945587158203e+00,1.290307760238647461e+00
-2.692579030990600586e+00,-2.944903373718261719e+00,-1.069194078445434570e+00
-3.197337627410888672e+00,-3.496963500976562500e+00,-1.093926787376403809e+00
-3.932190179824829102e+00,-4.300679683685302734e+00,-1.132719635963439941e+00
-5.035074234008789062e+00,-5.506916522979736328e+00,-1.181827425956726074e+00
-5.369363307952880859e+00,-5.872531890869140625e+00,-9.770172238349914551e-01
-5.376023769378662109e+00,-5.879817008972167969e+00,-6.970254778861999512e-01
-5.382500171661376953e+00,-5.886900424957275391e+00,-4.180377721786499023e-01
-5.388873577117919922e+00,-5.893870353698730469e+00,-1.393975466489791870e-01
-5.395157814025878906e+00,-5.900743484497070312e+00,1.395601034164428711e-01
-5.401307106018066406e+00,-5.907469272613525391e+00,4.194983839988708496e-01
-5.408278942108154297e+00,-5.915094375610351562e+00,7.012074589729309082e-01
-5.414063930511474609e+00,-5.921421527862548828e+00,9.851509928703308105e-01
-5.420859813690185547e+00,-5.928854465484619141e+00,1.272378563880920410e+00
-2.642473459243774414e+00,-2.974490404129028320e+00,-1.066094756126403809e+00
-3.137723445892333984e+00,-3.531966686248779297e+00,-1.090715527534484863e+00
-3.858783721923828125e+00,-4.343625545501708984e+00,-1.129367828369140625e+00
-4.941023349761962891e+00,-5.561844825744628906e+00,-1.178317070007324219e+00
-5.214024543762207031e+00,-5.869147300720214844e+00,-9.639390110969543457e-01
-5.220417499542236328e+00,-5.876343250274658203e+00,-6.876853108406066895e-01
-5.226670265197753906e+00,-5.883381843566894531e+00,-4.124331474304199219e-01
-5.232860565185546875e+00,-5.890349864959716797e+00,-1.375287026166915894e-01
-5.239004135131835938e+00,-5.897265434265136719e+00,1.376901715993881226e-01
-5.245054244995117188e+00,-5.904076099395751953e+00,4.138838648796081543e-01
-5.251947879791259766e+00,-5.911835670471191406e+00,6.918388009071350098e-01
-5.257721900939941406e+00,-5.918334960937500000e+00,9.720175266265869141e-01
-5.264520168304443359e+00,-5.925987243652343750e+00,1.255463242530822754e+00
-2.592600584030151367e+00,-3.003858327865600586e+00,-1.063211202621459961e+00
-3.078397750854492188e+00,-3.566716194152832031e+00,-1.087728023529052734e+00
-3.785745143890380859e+00,-4.386268138885498047e+00,-1.126250863075256348e+00
-4.911677360534667969e+00,-5.690804004669189453e+00,-1.190621852874755859e+00
-5.062397480010986328e+00,-5.865432739257812500e+00,-9.513307213783264160e-01
-5.068535804748535156e+00,-5.872544765472412109e+00,-6.786811947822570801e-01
-5.074573516845703125e+00,-5.879539966583251953e+00,-4.070303440093994141e-01
-5.080585479736328125e+00,-5.886505126953125000e+00,-1.357271522283554077e-01
-5.086587429046630859e+00,-5.893459796905517578e+00,1.358874887228012085e-01
-5.092535018920898438e+00,-5.900350570678710938e+00,4.084710478782653809e-01
-5.098323345184326172e+00,-5.907057285308837891e+00,6.826697587966918945e-01
-5.105088233947753906e+00,-5.914895534515380859e+00,9.593532085418701172e-01
-5.111871242523193359e+00,-5.922754287719726562e+00,1.239150166511535645e+00
-2.560953140258789062e+00,-3.054502487182617188e+00,-1.068052887916564941e+00
-3.044962882995605469e+00,-3.631790876388549805e+00,-1.094169974327087402e+00
-3.714081048965454102e+00,-4.429862022399902344e+00,-1.123679161071777344e+00
-4.818665504455566406e+00,-5.747323513031005859e+00,-1.187894821166992188e+00
-4.921299934387207031e+00,-5.869737625122070312e+00,-9.405075907707214355e-01
-4.927211284637451172e+00,-5.876788139343261719e+00,-6.709523200988769531e-01
-4.933053970336914062e+00,-5.883756637573242188e+00,-4.023929238319396973e-01
-4.938899993896484375e+00,-5.890728950500488281e+00,-1.341807991266250610e-01
-4.944765090942382812e+00,-5.897724628448486328e+00,1.343401521444320679e-01
-4.950605392456054688e+00,-5.904690742492675781e+00,4.038246273994445801e-01
-4.956319332122802734e+00,-5.911505699157714844e+00,6.749160885810852051e-01
-4.963015556335449219e+00,-5.919492244720458984e+00,9.484798312187194824e-01
-4.968211174011230469e+00,-5.925689220428466797e+00,1.224760651588439941e+00
-2.511108636856079102e+00,-3.083638191223144531e+00,-1.065563678741455078e+00
-2.985615730285644531e+00,-3.666332483291625977e+00,-1.091589808464050293e+00
-3.678886175155639648e+00,-4.517667293548583984e+00,-1.132478713989257812e+00
-4.724645137786865234e+00,-5.801857948303222656e+00,-1.185067653656005859e+00
-4.776336193084716797e+00,-5.865334987640380859e+00,-9.287527799606323242e-01
-4.782017230987548828e+00,-5.872311115264892578e+00,-6.625587344169616699e-01
-4.787660121917724609e+00,-5.879240512847900391e+00,-3.973566889762878418e-01
-4.793335437774658203e+00,-5.886209964752197266e+00,-1.325014978647232056e-01
-4.799058914184570312e+00,-5.893238067626953125e+00,1.326597034931182861e-01
-4.804787635803222656e+00,-5.900272846221923828e+00,3.987782001495361328e-01
-4.810421466827392578e+00,-5.907191276550292969e+00,6.664941906929016113e-01
-4.815804958343505859e+00,-5.913802623748779297e+00,9.364274144172668457e-01
-4.822227001190185547e+00,-5.921688556671142578e+00,1.209543824195861816e+00
-2.461470603942871094e+00,-3.112625122070312500e+00,-1.063296675682067871e+00
-2.926531314849853516e+00,-3.700712442398071289e+00,-1.089242577552795410e+00
-3.606025695800781250e+00,-4.559959888458251953e+00,-1.130026102066040039e+00
-4.629116058349609375e+00,-5.853697299957275391e+00,-1.182001352310180664e+00
-4.634714603424072266e+00,-5.860776901245117188e+00,-9.174325466156005859e-01
-4.640177249908447266e+00,-5.867684364318847656e+00,-6.544759869575500488e-01
-4.645627975463867188e+00,-5.874577522277832031e+00,-3.925071656703948975e-01
-4.651136875152587891e+00,-5.881543636322021484e+00,-1.308844387531280518e-01
-4.656718254089355469e+00,-5.888601303100585938e+00,1.310414969921112061e-01
