4.386196613311767578e+00,1.122168779373168945e+00,3.961017131805419922e-01
4.391992568969726562e+00,1.123651623725891113e+00,5.566371083259582520e-01
4.397662162780761719e+00,1.125102162361145020e+00,7.189541459083557129e-01
4.402947425842285156e+00,1.126454353332519531e+00,8.834105134010314941e-01
4.409359455108642578e+00,1.128094792366027832e+00,1.050766944885253906e+00
3.883319139480590820e+00,1.052951812744140625e+00,-1.078102707862854004e+00
4.158574104309082031e+00,1.127586364746093750e+00,-9.947480559349060059e-01
4.163952827453613281e+00,1.129044771194458008e+00,-8.386150598526000977e-01
4.169049263000488281e+00,1.130426764488220215e+00,-6.841544508934020996e-01
4.174077033996582031e+00,1.131789922714233398e+00,-5.310174822807312012e-01
4.179555892944335938e+00,1.133275628089904785e+00,-3.788667917251586914e-01
4.184661865234375000e+00,1.134660005569458008e+00,-2.272274196147918701e-01
4.189918041229248047e+00,1.136085271835327148e+00,-7.577598839998245239e-02
4.195349693298339844e+00,1.137558102607727051e+00,7.587422430515289307e-02
4.200431346893310547e+00,1.138935804367065430e+00,2.280836850404739380e-01
4.206039905548095703e+00,1.140456676483154297e+00,3.812674880027770996e-01
4.211673736572265625e+00,1.141984224319458008e+00,5.358004570007324219e-01
4.217137813568115234e+00,1.143465876579284668e+00,6.920459270477294922e-01
4.222196102142333984e+00,1.144837260246276855e+00,8.503451347351074219e-01
4.228290557861328125e+00,1.146489858627319336e+00,1.011424541473388672e+00
3.856445074081420898e+00,1.105153203010559082e+00,-1.074923276901245117e+00
3.993314027786254883e+00,1.144376158714294434e+00,-9.590371251106262207e-01
3.998663663864135742e+00,1.145909190177917480e+00,-8.085464835166931152e-01
4.003705024719238281e+00,1.147353887557983398e+00,-6.596483588218688965e-01
4.008643150329589844e+00,1.148769140243530273e+00,-5.120107531547546387e-01
4.013972759246826172e+00,1.150296449661254883e+00,-3.653121590614318848e-01
4.018909931182861328e+00,1.151711225509643555e+00,-2.190997749567031860e-01
4.023950576782226562e+00,1.153155803680419922e+00,-7.306544482707977295e-02
4.029122829437255859e+00,1.154637932777404785e+00,7.315935194492340088e-02
4.033924579620361328e+00,1.156014084815979004e+00,2.199183404445648193e-01
4.039188385009765625e+00,1.157522439956665039e+00,3.676069974899291992e-01
4.044438838958740234e+00,1.159027218818664551e+00,5.165827870368957520e-01
4.049491882324218750e+00,1.160475134849548340e+00,6.671921610832214355e-01
4.055567264556884766e+00,1.162216305732727051e+00,8.200526833534240723e-01
4.059697151184082031e+00,1.163399815559387207e+00,9.749798178672790527e-01
3.835920095443725586e+00,1.158930301666259766e+00,-1.073716044425964355e+00
3.841617107391357422e+00,1.160651564598083496e+00,-9.265003800392150879e-01
3.845785617828369141e+00,1.161911010742187500e+00,-7.809168100357055664e-01
3.850778341293334961e+00,1.163419365882873535e+00,-6.371306180953979492e-01
3.856177091598510742e+00,1.165050506591796875e+00,-4.946160316467285156e-01
3.860839128494262695e+00,1.166458964347839355e+00,-3.528587818145751953e-01
3.865622282028198242e+00,1.167904138565063477e+00,-2.116326242685317993e-01
3.870465993881225586e+00,1.169367551803588867e+00,-7.057520747184753418e-02
3.875398159027099609e+00,1.170857667922973633e+00,7.066514343023300171e-02
3.880481481552124023e+00,1.172393441200256348e+00,2.124461382627487183e-01
3.884871959686279297e+00,1.173720002174377441e+00,3.550552427768707275e-01
3.889761924743652344e+00,1.175197243690490723e+00,4.989238083362579346e-01
3.895613431930541992e+00,1.176965236663818359e+00,6.445487737655639648e-01
3.900030612945556641e+00,1.178299784660339355e+00,7.919316887855529785e-01
3.905325412750244141e+00,1.179899454116821289e+00,9.418652057647705078e-01
3.695316314697265625e+00,1.174421787261962891e+00,-1.038958311080932617e+00
3.699721574783325195e+00,1.175821781158447266e+00,-8.962459564208984375e-01
3.704842567443847656e+00,1.177449345588684082e+00,-7.556420564651489258e-01
3.709601163864135742e+00,1.178961753845214844e+00,-6.165010333061218262e-01
3.714191198348999023e+00,1.180420517921447754e+00,-4.785222113132476807e-01
3.718756914138793945e+00,1.181871533393859863e+00,-3.413843810558319092e-01
3.723394632339477539e+00,1.183345437049865723e+00,-2.047523707151412964e-01
3.728055477142333984e+00,1.184826731681823730e+00,-6.828069686889648438e-02
3.732761383056640625e+00,1.186322331428527832e+00,6.836688518524169922e-02
3.737579345703125000e+00,1.187853574752807617e+00,2.055323868989944458e-01
3.742423534393310547e+00,1.189393162727355957e+00,3.435570001602172852e-01
3.747176885604858398e+00,1.190903782844543457e+00,4.827719628810882568e-01
3.751669406890869141e+00,1.192331552505493164e+00,6.234923601150512695e-01
3.757031440734863281e+00,1.194035649299621582e+00,7.662864923477172852e-01
3.762047290802001953e+00,1.195629835128784180e+00,9.113441705703735352e-01
3.550950050354003906e+00,1.184756040573120117e+00,-1.003033995628356934e+00
3.556493282318115234e+00,1.186605572700500488e+00,-8.655751347541809082e-01
3.560555696487426758e+00,1.187960982322692871e+00,-7.296065688133239746e-01
3.565292119979858398e+00,1.189541339874267578e+00,-5.952869057655334473e-01
3.569829702377319336e+00,1.191055178642272949e+00,-4.620723128318786621e-01
3.574300289154052734e+00,1.192546844482421875e+00,-3.296564221382141113e-01
3.578796386718750000e+00,1.194046854972839355e+00,-1.977203935384750366e-01
3.583273887634277344e+00,1.195540785789489746e+00,-6.593563407659530640e-02
3.587747097015380859e+00,1.197033286094665527e+00,6.601794809103012085e-02
3.592283964157104492e+00,1.198546886444091797e+00,1.984655410051345825e-01
3.596804857254028320e+00,1.200055360794067383e+00,3.317320048809051514e-01
3.601197004318237305e+00,1.201520681381225586e+00,4.661324322223663330e-01
3.606388807296752930e+00,1.203253030776977539e+00,6.021487116813659668e-01
3.610188961029052734e+00,1.204520821571350098e+00,7.397770881652832031e-01
3.616165161132812500e+00,1.206514716148376465e+00,8.800979852676391602e-01
3.429740190505981445e+00,1.199133157730102539e+00,-9.735445380210876465e-01
3.434118270874023438e+00,1.200663805007934570e+00,-8.398882150650024414e-01
3.439074516296386719e+00,1.202396631240844727e+00,-7.081674933433532715e-01
3.442957401275634766e+00,1.203754186630249023e+00,-5.776786804199218750e-01
3.447448730468750000e+00,1.205324530601501465e+00,-4.484187364578247070e-01
3.451836347579956055e+00,1.206858515739440918e+00,-3.199220299720764160e-01
3.456218242645263672e+00,1.208390474319458008e+00,-1.918841451406478882e-01
3.460537195205688477e+00,1.209900617599487305e+00,-6.398927420377731323e-02
3.464816093444824219e+00,1.211396574974060059e+00,6.406839191913604736e-02
3.469113826751708984e+00,1.212899208068847656e+00,1.926000863313674927e-01
3.473360776901245117e+00,1.214384078979492188e+00,3.219169378280639648e-01
3.478304862976074219e+00,1.216112732887268066e+00,4.524322748184204102e-01
3.482254266738891602e+00,1.217493534088134766e+00,5.842721462249755859e-01
3.486919403076171875e+00,1.219124555587768555e+00,7.180196642875671387e-01
3.491189956665039062e+00,1.220617651939392090e+00,8.538463711738586426e-01
3.305882215499877930e+00,1.209198832511901855e+00,-9.432032704353332520e-01
3.310179710388183594e+00,1.210770726203918457e+00,-8.137315511703491211e-01
3.314181327819824219e+00,1.212234377861022949e+00,-6.859524250030517578e-01
3.318724393844604492e+00,1.213896036148071289e+00,-5.596920847892761230e-01
3.322998523712158203e+00,1.215459465980529785e+00,-4.344496130943298340e-01
3.327132225036621094e+00,1.216971516609191895e+00,-3.099469244480133057e-01
3.331118822097778320e+00,1.218429684638977051e+00,-1.858880072832107544e-01
3.335278034210205078e+00,1.219950914382934570e+00,-6.198962405323982239e-02
3.339636564254760742e+00,1.221545219421386719e+00,6.207063049077987671e-02
3.343874692916870117e+00,1.223095417022705078e+00,1.865998357534408569e-01
3.348014354705810547e+00,1.224609494209289551e+00,3.118922412395477295e-01
3.351954221725463867e+00,1.226050615310668945e+00,4.382352530956268311e-01
3.356547832489013672e+00,1.227730870246887207e+00,5.660709142684936523e-01
3.360949039459228516e+00,1.229340672492980957e+00,6.956322193145751953e-01
3.364935874938964844e+00,1.230798959732055664e+00,8.271920680999755859e-01
3.200101613998413086e+00,1.222713232040405273e+00,-9.179221987724304199e-01
3.204325199127197266e+00,1.224326968193054199e+00,-7.919364571571350098e-01
3.208218574523925781e+00,1.225814580917358398e+00,-6.675839424133300781e-01
3.211983919143676758e+00,1.227253317832946777e+00,-5.445973873138427734e-01
3.216237068176269531e+00,1.228878378868103027e+00,-4.227479398250579834e-01
3.220309495925903320e+00,1.230434298515319824e+00,-3.016053736209869385e-01
3.224291801452636719e+00,1.231955885887145996e+00,-1.808921694755554199e-01
3.228322267532348633e+00,1.233495950698852539e+00,-6.032370775938034058e-02
3.232403993606567383e+00,1.235055565834045410e+00,6.039997935295104980e-02
3.236422538757324219e+00,1.236590981483459473e+00,1.815727502107620239e-01
3.240312099456787109e+00,1.238077044486999512e+00,3.034787774085998535e-01
3.244763135910034180e+00,1.239777684211730957e+00,4.264974296092987061e-01
3.249180793762207031e+00,1.241465687751770020e+00,5.509041547775268555e-01
3.253377676010131836e+00,1.243069171905517578e+00,6.769808530807495117e-01
3.257122993469238281e+00,1.244500279426574707e+00,8.049852252006530762e-01
3.091678857803344727e+00,1.232278347015380859e+00,-8.917900919914245605e-01
3.094940662384033203e+00,1.233578443527221680e+00,-7.691875100135803223e-01
3.098913669586181641e+00,1.235162019729614258e+00,-6.484515666961669922e-01
3.103310346603393555e+00,1.236914396286010742e+00,-5.291191935539245605e-01
3.106954336166381836e+00,1.238366842269897461e+00,-4.106713831424713135e-01
3.110973119735717773e+00,1.239968538284301758e+00,-2.929974496364593506e-01
3.114857435226440430e+00,1.241516828536987305e+00,-1.757315546274185181e-01
3.118750095367431641e+00,1.243068337440490723e+00,-5.860273167490959167e-02
3.122647047042846680e+00,1.244621634483337402e+00,5.867595970630645752e-02
3.126439809799194336e+00,1.246133327484130859e+00,1.763850003480911255e-01
3.130665779113769531e+00,1.247817635536193848e+00,2.948521375656127930e-01
3.134186983108520508e+00,1.249221205711364746e+00,4.142709672451019287e-01
3.138235092163085938e+00,1.250834703445434570e+00,5.350739359855651855e-01
3.143115758895874023e+00,1.252779960632324219e+00,6.577008962631225586e-01
3.146593570709228516e+00,1.254166245460510254e+00,7.820248603820800781e-01
2.989171981811523438e+00,1.241288304328918457e+00,-8.672581911087036133e-01
2.993453741073608398e+00,1.243066310882568359e+00,-7.483102679252624512e-01
2.997347116470336914e+00,1.244683146476745605e+00,-6.308619976043701172e-01
3.001043319702148438e+00,1.246217966079711914e+00,-5.146711468696594238e-01
3.005099058151245117e+00,1.247902154922485352e+00,-3.995283544063568115e-01
3.008663415908813477e+00,1.249382257461547852e+00,-2.850167751312255859e-01
3.012461900711059570e+00,1.250959634780883789e+00,-1.709473580121994019e-01
3.016221761703491211e+00,1.252520918846130371e+00,-5.700721219182014465e-02
3.019946336746215820e+00,1.254067659378051758e+00,5.707760900259017944e-02
3.023938655853271484e+00,1.255725502967834473e+00,1.715986281633377075e-01
3.027478218078613281e+00,1.257195353507995605e+00,2.867991626262664795e-01
3.031447172164916992e+00,1.258843421936035156e+00,4.030313491821289062e-01
3.035299301147460938e+00,1.260443091392517090e+00,5.205459594726562500e-01
3.038866758346557617e+00,1.261924624443054199e+00,6.396007537841796875e-01
3.043129205703735352e+00,1.263694524765014648e+00,7.607282400131225586e-01
2.893970966339111328e+00,1.250611066818237305e+00,-8.447442054748535156e-01
2.898215293884277344e+00,1.252445220947265625e+00,-7.289090752601623535e-01
2.902047634124755859e+00,1.254101395606994629e+00,-6.145191788673400879e-01
2.905641078948974609e+00,1.255654215812683105e+00,-5.013408660888671875e-01
2.909147024154663086e+00,1.257169365882873535e+00,-3.891240358352661133e-01
2.912680625915527344e+00,1.258696317672729492e+00,-2.776024341583251953e-01
2.916400671005249023e+00,1.260303974151611328e+00,-1.665028184652328491e-01
2.920037984848022461e+00,1.261875867843627930e+00,-5.552500486373901367e-02
2.923596620559692383e+00,1.263413667678833008e+00,5.559267103672027588e-02
2.927371740341186523e+00,1.265045046806335449e+00,1.671291738748550415e-01
2.931221961975097656e+00,1.266708850860595703e+00,2.793695926666259766e-01
2.935043334960937500e+00,1.268360257148742676e+00,3.925879001617431641e-01
2.938710451126098633e+00,1.269944906234741211e+00,5.070466399192810059e-01
2.942055702209472656e+00,1.271390676498413086e+00,6.229910254478454590e-01
2.946025609970092773e+00,1.273106217384338379e+00,7.409334778785705566e-01
2.804401397705078125e+00,1.259837508201599121e+00,-8.237783312797546387e-01
2.808624982833862305e+00,1.261734962463378906e+00,-7.108461260795593262e-01
2.811732292175292969e+00,1.263130903244018555e+00,-5.991616249084472656e-01
2.815380811691284180e+00,1.264769911766052246e+00,-4.888407588005065918e-01
2.818902969360351562e+00,1.266352176666259766e+00,-3.794387280941009521e-01
2.822413682937622070e+00,1.267929315567016602e+00,-2.707012295722961426e-01
2.826056718826293945e+00,1.269565820693969727e+00,-1.623657345771789551e-01
2.829580307006835938e+00,1.271148800849914551e+00,-5.414536222815513611e-02
2.832983016967773438e+00,1.272677421569824219e+00,5.421047657728195190e-02
2.836554527282714844e+00,1.274281859397888184e+00,1.629688739776611328e-01
2.840152025222778320e+00,1.275898098945617676e+00,2.724025547504425049e-01
2.843680143356323242e+00,1.277482986450195312e+00,3.827738761901855469e-01
2.847846984863281250e+00,1.279354929924011230e+00,4.944779574871063232e-01
2.850975513458251953e+00,1.280760288238525391e+00,6.075240969657897949e-01
2.854666471481323242e+00,1.282418489456176758e+00,7.224989533424377441e-01
2.719941616058349609e+00,1.268986701965332031e+00,-8.042218089103698730e-01
2.723363161087036133e+00,1.270583033561706543e+00,-6.937987208366394043e-01
2.727227210998535156e+00,1.272385835647583008e+00,-5.849751830101013184e-01
2.730792522430419922e+00,1.274049162864685059e+00,-4.772709906101226807e-01
2.734191417694091797e+00,1.275635004043579102e+00,-3.704558908939361572e-01
2.737533092498779297e+00,1.277193903923034668e+00,-2.642864882946014404e-01
2.740889549255371094e+00,1.278759837150573730e+00,-1.585079729557037354e-01
2.744304418563842773e+00,1.280353069305419922e+00,-5.285883322358131409e-02
2.747784137725830078e+00,1.281976580619812012e+00,5.292585864663124084e-02
2.751307487487792969e+00,1.283620357513427734e+00,1.591104567050933838e-01
2.754809379577636719e+00,1.285254240036010742e+00,2.659543752670288086e-01
2.758207559585571289e+00,1.286839604377746582e+00,3.737098276615142822e-01
2.761371135711669922e+00,1.288315653800964355e+00,4.826153516769409180e-01
2.765089035034179688e+00,1.290050148963928223e+00,5.930962562561035156e-01
2.768507957458496094e+00,1.291645288467407227e+00,7.052996754646301270e-01
2.634106159210205078e+00,1.275158762931823730e+00,-7.841585874557495117e-01
2.637558937072753906e+00,1.276830315589904785e+00,-6.765260100364685059e-01
2.641394615173339844e+00,1.278687119483947754e+00,-5.704318284988403320e-01
2.644405364990234375e+00,1.280144691467285156e+00,-4.653275609016418457e-01
2.647832870483398438e+00,1.281803846359252930e+00,-3.612040281295776367e-01
2.651161432266235352e+00,1.283415198326110840e+00,-2.576951086521148682e-01
2.654456615447998047e+00,1.285010337829589844e+00,-1.545573323965072632e-01
2.657760143280029297e+00,1.286609530448913574e+00,-5.154131352901458740e-02
2.661080598831176758e+00,1.288217067718505859e+00,5.160570889711380005e-02
2.664396047592163086e+00,1.289822101593017578e+00,1.551360785961151123e-01
2.667647123336791992e+00,1.291395902633666992e+00,2.592975497245788574e-01
2.671381473541259766e+00,1.293203592300415039e+00,3.644163608551025391e-01
2.674351453781127930e+00,1.294641375541687012e+00,4.705970585346221924e-01
2.677805423736572266e+00,1.296313405036926270e+00,5.782950520515441895e-01
2.681948423385620117e+00,1.298319101333618164e+00,6.879118084907531738e-01
2.558906316757202148e+00,1.284280657768249512e+00,-7.671658992767333984e-01
2.562376737594604492e+00,1.286022424697875977e+00,-6.618956327438354492e-01
2.565577030181884766e+00,1.287628531455993652e+00,-5.579814910888671875e-01
2.569135904312133789e+00,1.289414763450622559e+00,-4.552836418151855469e-01
2.572124958038330078e+00,1.290914893150329590e+00,-3.533607423305511475e-01
2.575435400009155273e+00,1.292576313018798828e+00,-2.521069943904876709e-01
2.578678369522094727e+00,1.294203996658325195e+00,-1.512082219123840332e-01
2.581884384155273438e+00,1.295813083648681641e+00,-5.042440071702003479e-02
2.585068225860595703e+00,1.297410845756530762e+00,5.048657581210136414e-02
2.588201999664306641e+00,1.298983812332153320e+00,1.517666727304458618e-01
2.591708421707153320e+00,1.300743579864501953e+00,2.536999583244323730e-01
2.594687461853027344e+00,1.302238702774047852e+00,3.564603924751281738e-01
2.598105907440185547e+00,1.303954362869262695e+00,4.604174792766571045e-01
2.601339101791381836e+00,1.305577039718627930e+00,5.657592415809631348e-01
2.605191946029663086e+00,1.307510733604431152e+00,6.729553341865539551e-01
2.482335090637207031e+00,1.290653109550476074e+00,-7.496713399887084961e-01
2.485846519470214844e+00,1.292478799819946289e+00,-6.468393802642822266e-01
2.489051103591918945e+00,1.294144988059997559e+00,-5.453108549118041992e-01
2.492104530334472656e+00,1.295732498168945312e+00,-4.448737800121307373e-01
2.495457887649536133e+00,1.297476172447204590e+00,-3.453441262245178223e-01
2.498439073562622070e+00,1.299026131629943848e+00,-2.463647723197937012e-01
2.501626968383789062e+00,1.300683617591857910e+00,-1.477666348218917847e-01
2.504738330841064453e+00,1.302301287651062012e+00,-4.927672818303108215e-02
2.507778167724609375e+00,1.303881764411926270e+00,4.933653399348258972e-02
2.511053562164306641e+00,1.305584788322448730e+00,1.483234465122222900e-01
2.513988494873046875e+00,1.307110667228698730e+00,2.478980422019958496e-01
2.517281770706176758e+00,1.308823108673095703e+00,3.483643233776092529e-01
2.520492076873779297e+00,1.310492157936096191e+00,4.499413371086120605e-01
2.523477315902709961e+00,1.312044382095336914e+00,5.528530478477478027e-01
2.527018308639526367e+00,1.313885450363159180e+00,6.575526595115661621e-01
2.410747766494750977e+00,1.297595143318176270e+00,-7.335857152938842773e-01
2.413515806198120117e+00,1.299085140228271484e+00,-6.327919363975524902e-01
2.416728019714355469e+00,1.300814151763916016e+00,-5.334905385971069336e-01
2.419750452041625977e+00,1.302441000938415527e+00,-4.352409541606903076e-01
2.422704935073852539e+00,1.304031252861022949e+00,-3.378243446350097656e-01
2.425874471664428711e+00,1.305737257003784180e+00,-2.410276085138320923e-01
2.428826808929443359e+00,1.307326436042785645e+00,-1.445569545030593872e-01
2.431848049163818359e+00,1.308952569961547852e+00,-4.820638522505760193e-02
2.434943199157714844e+00,1.310618519783020020e+00,4.826774448156356812e-02
2.437839269638061523e+00,1.312177419662475586e+00,1.450933516025543213e-01
2.440992116928100586e+00,1.313874483108520508e+00,2.425296604633331299e-01
2.444131374359130859e+00,1.315564155578613281e+00,3.408120870590209961e-01
2.447141885757446289e+00,1.317184567451477051e+00,4.401678740978240967e-01
2.450694322586059570e+00,1.319096684455871582e+00,5.409885644912719727e-01
2.454044580459594727e+00,1.320899963378906250e+00,6.434180140495300293e-01
2.342164039611816406e+00,1.304252505302429199e+00,-7.183229923248291016e-01
2.345003604888916016e+00,1.305833816528320312e+00,-6.196659803390502930e-01
2.348228216171264648e+00,1.307629466056823730e+00,-5.224474668502807617e-01
2.351223468780517578e+00,1.309297323226928711e+00,-4.262422025203704834e-01
2.354105949401855469e+00,1.310902476310729980e+00,-3.308413624763488770e-01
2.356972455978393555e+00,1.312498688697814941e+00,-2.360240817070007324e-01
2.359884500503540039e+00,1.314120292663574219e+00,-1.415586918592453003e-01
2.362817764282226562e+00,1.315753698348999023e+00,-4.720649123191833496e-02
2.365778207778930664e+00,1.317402243614196777e+00,4.726563766598701477e-02
2.368809223175048828e+00,1.319090127944946289e+00,1.420940458774566650e-01
2.371854305267333984e+00,1.320785760879516602e+00,2.375143319368362427e-01
2.374840974807739258e+00,1.322448968887329102e+00,3.337554335594177246e-01
2.377659797668457031e+00,1.324018597602844238e+00,4.310347139835357666e-01
2.380953788757324219e+00,1.325852870941162109e+00,5.297284126281738281e-01
2.384010076522827148e+00,1.327554941177368164e+00,6.299734115600585938e-01
2.277048110961914062e+00,1.311034321784973145e+00,-7.040355205535888672e-01
2.279962778091430664e+00,1.312712430953979492e+00,-6.073818206787109375e-01
2.283200979232788086e+00,1.314576983451843262e+00,-5.121136903762817383e-01
2.285769701004028320e+00,1.316055893898010254e+00,-4.177485406398773193e-01
2.288704633712768555e+00,1.317745685577392578e+00,-3.242675364017486572e-01
2.291580200195312500e+00,1.319401383399963379e+00,-2.313432395458221436e-01
2.294454813003540039e+00,1.321056365966796875e+00,-1.387539058923721313e-01
2.297302961349487305e+00,1.322696328163146973e+00,-4.627108946442604065e-02
2.300135612487792969e+00,1.324327230453491211e+00,4.632814228534698486e-02
2.302989721298217773e+00,1.325970411300659180e+00,1.392700374126434326e-01
2.305816650390625000e+00,1.327598094940185547e+00,2.327804416418075562e-01
2.309067487716674805e+00,1.329469919204711914e+00,3.271526098251342773e-01
2.311700105667114258e+00,1.330985546112060547e+00,4.224875867366790771e-01
2.314746141433715820e+00,1.332739472389221191e+00,5.191891193389892578e-01
2.317519903182983398e+00,1.334336400032043457e+00,6.173870563507080078e-01
2.215096950531005859e+00,1.317932248115539551e+00,-6.906428337097167969e-01
2.218080997467041016e+00,1.319707751274108887e+00,-5.958676934242248535e-01
2.221335411071777344e+00,1.321644067764282227e+00,-5.024290680885314941e-01
2.223901033401489258e+00,1.323170542716979980e+00,-4.098607301712036133e-01
2.226775646209716797e+00,1.324880838394165039e+00,-3.181475400924682617e-01
2.229545354843139648e+00,1.326528787612915039e+00,-2.269741743803024292e-01
2.232272863388061523e+00,1.328151583671569824e+00,-1.361292302608489990e-01
2.235046625137329102e+00,1.329801917076110840e+00,-4.539587721228599548e-02
2.237872362136840820e+00,1.331483125686645508e+00,4.545326903462409973e-02
2.240672588348388672e+00,1.333149075508117676e+00,1.366414576768875122e-01
2.243400573730468750e+00,1.334772348403930664e+00,2.283846884965896606e-01
2.246496915817260742e+00,1.336614489555358887e+00,3.209651708602905273e-01
2.248948574066162109e+00,1.338073134422302246e+00,4.144769310951232910e-01
2.251754760742187500e+00,1.339742779731750488e+00,5.093094110488891602e-01
2.255078077316284180e+00,1.341720223426818848e+00,6.058066487312316895e-01
2.153137922286987305e+00,1.323155164718627930e+00,-6.771602630615234375e-01
2.155534744262695312e+00,1.324628114700317383e+00,-5.840988159179687500e-01
2.158341884613037109e+00,1.326353073120117188e+00,-4.924245476722717285e-01
2.161397457122802734e+00,1.328230857849121094e+00,-4.018040895462036133e-01
2.163953065872192383e+00,1.329801321029663086e+00,-3.118593990802764893e-01
2.166738510131835938e+00,1.331513047218322754e+00,-2.224976867437362671e-01
2.169434070587158203e+00,1.333169460296630859e+00,-1.334471851587295532e-01
2.172128677368164062e+00,1.334825396537780762e+00,-4.450145736336708069e-02
2.174824476242065430e+00,1.336482167243957520e+00,4.455668851733207703e-02
2.177448987960815430e+00,1.338094949722290039e+00,1.339402049779891968e-01
2.180343627929687500e+00,1.339873790740966797e+00,2.238947749137878418e-01
2.182776451110839844e+00,1.341368794441223145e+00,3.145721256732940674e-01
2.185519933700561523e+00,1.343054652214050293e+00,4.062884449958801270e-01
2.188761949539184570e+00,1.345046877861022949e+00,4.993648529052734375e-01
2.191861867904663086e+00,1.346951842308044434e+00,5.939425826072692871e-01
2.093620538711547852e+00,1.328230261802673340e+00,-6.643531918525695801e-01
2.096685409545898438e+00,1.330174684524536133e+00,-5.732524991035461426e-01
2.098985195159912109e+00,1.331633687019348145e+00,-4.831814467906951904e-01
2.102036476135253906e+00,1.333569526672363281e+00,-3.942769169807434082e-01
2.104557752609252930e+00,1.335169076919555664e+00,-3.060224056243896484e-01
2.107097625732421875e+00,1.336780309677124023e+00,-2.183157354593276978e-01
2.109765052795410156e+00,1.338472723960876465e+00,-1.309418529272079468e-01
2.112383365631103516e+00,1.340133786201477051e+00,-4.366594180464744568e-02
2.114957571029663086e+00,1.341766953468322754e+00,4.371915757656097412e-02
2.117681503295898438e+00,1.343495011329650879e+00,1.314331740140914917e-01
2.120454788208007812e+00,1.345254421234130859e+00,2.196996808052062988e-01
2.122739315032958984e+00,1.346703767776489258e+00,3.086661696434020996e-01
2.125845909118652344e+00,1.348674654960632324e+00,3.987428545951843262e-01
2.128246307373046875e+00,1.350197434425354004e+00,4.899172782897949219e-01
2.131032228469848633e+00,1.351964950561523438e+00,5.826432704925537109e-01
2.037591695785522461e+00,1.333962917327880859e+00,-6.525659561157226562e-01
2.040113449096679688e+00,1.335613965988159180e+00,-5.629544258117675781e-01
2.042483568191528320e+00,1.337165594100952148e+00,-4.745321869850158691e-01
2.045183420181274414e+00,1.338932991027832031e+00,-3.871681094169616699e-01
2.047774076461791992e+00,1.340629100799560547e+00,-3.005250096321105957e-01
2.050485610961914062e+00,1.342404365539550781e+00,-2.144190371036529541e-01
2.052975654602050781e+00,1.344034433364868164e+00,-1.285980492830276489e-01
2.055522680282592773e+00,1.345701932907104492e+00,-4.288432374596595764e-02
2.058135986328125000e+00,1.347412705421447754e+00,4.293884336948394775e-02
2.060537576675415039e+00,1.348984956741333008e+00,1.290717273950576782e-01
2.063096761703491211e+00,1.350660443305969238e+00,2.157377749681472778e-01
2.065591335296630859e+00,1.352293491363525391e+00,3.031398057937622070e-01
2.068477630615234375e+00,1.354183316230773926e+00,3.915778994560241699e-01
2.071281433105468750e+00,1.356018900871276855e+00,4.812228381633758545e-01
2.073860883712768555e+00,1.357707619667053223e+00,5.722668170928955078e-01
1.983516812324523926e+00,1.339504480361938477e+00,-6.413224935531616211e-01
1.986145138740539551e+00,1.341279387474060059e+00,-5.533032417297363281e-01
1.989012718200683594e+00,1.343215942382812500e+00,-4.665282666683197021e-01
1.991294860839843750e+00,1.344757080078125000e+00,-3.805714547634124756e-01
1.993854403495788574e+00,1.346485614776611328e+00,-2.954100966453552246e-01
1.996342182159423828e+00,1.348165631294250488e+00,-2.107535600662231445e-01
1.998810529708862305e+00,1.349832653999328613e+00,-1.264024674892425537e-01
2.001291275024414062e+00,1.351507902145385742e+00,-4.215216636657714844e-02
2.003785371780395508e+00,1.353192210197448730e+00,4.220470041036605835e-02
2.006280899047851562e+00,1.354877352714538574e+00,1.268748790025711060e-01
2.008732318878173828e+00,1.356532812118530273e+00,2.120615690946578979e-01
2.011511564254760742e+00,1.358409762382507324e+00,2.980261743068695068e-01
2.013748884201049805e+00,1.359920740127563477e+00,3.848628401756286621e-01
2.016300916671752930e+00,1.361644148826599121e+00,4.729287922382354736e-01
2.019298076629638672e+00,1.363668084144592285e+00,5.625389814376831055e-01
1.932404160499572754e+00,1.345653891563415527e+00,-6.309593915939331055e-01
1.935052156448364258e+00,1.347497820854187012e+00,-5.443869829177856445e-01
1.937469124794006348e+00,1.349180936813354492e+00,-4.589211046695709229e-01
1.939776659011840820e+00,1.350787758827209473e+00,-3.743822276592254639e-01
1.942311763763427734e+00,1.352553129196166992e+00,-2.906121015548706055e-01
1.944591164588928223e+00,1.354140400886535645e+00,-2.073151767253875732e-01
1.947038292884826660e+00,1.355844497680664062e+00,-1.243429705500602722e-01
1.949453830718994141e+00,1.357526540756225586e+00,-4.146535694599151611e-02
1.951837420463562012e+00,1.359186410903930664e+00,4.151605814695358276e-02
1.954416394233703613e+00,1.360982298851013184e+00,1.248141601681709290e-01
1.956761121749877930e+00,1.362615108489990234e+00,2.086126208305358887e-01
1.959377884864807129e+00,1.364437341690063477e+00,2.931655645370483398e-01
1.961943030357360840e+00,1.366223573684692383e+00,3.786604106426239014e-01
1.964338779449462891e+00,1.367891907691955566e+00,4.652856290340423584e-01
1.967119216918945312e+00,1.369828104972839355e+00,5.534083843231201172e-01
1.880954265594482422e+00,1.350206971168518066e+00,-6.204068660736083984e-01
1.883157134056091309e+00,1.351788282394409180e+00,-5.351759195327758789e-01
1.885656237602233887e+00,1.353582262992858887e+00,-4.511913359165191650e-01
1.888003230094909668e+00,1.355266928672790527e+00,-3.680960834026336670e-01
1.890294790267944336e+00,1.356911897659301758e+00,-2.857059240341186523e-01
1.892744421958923340e+00,1.358670353889465332e+00,-2.038401514291763306e-01
1.895037531852722168e+00,1.360316395759582520e+00,-1.222530081868171692e-01
1.897387862205505371e+00,1.362003564834594727e+00,-4.076838865876197815e-02
1.899798274040222168e+00,1.363733887672424316e+00,4.082018136978149414e-02
1.902069091796875000e+00,1.365363836288452148e+00,1.227066218852996826e-01
1.904527902603149414e+00,1.367128849029541016e+00,2.051091790199279785e-01
1.906971693038940430e+00,1.368883013725280762e+00,2.882265448570251465e-01
1.909315347671508789e+00,1.370565414428710938e+00,3.722512125968933105e-01
1.912029862403869629e+00,1.372514009475708008e+00,4.575018882751464844e-01
1.914572715759277344e+00,1.374339342117309570e+00,5.441039800643920898e-01
1.831254482269287109e+00,1.354661226272583008e+00,-6.103470921516418457e-01
1.834058642387390137e+00,1.356735587120056152e+00,-5.266875624656677246e-01
1.836170315742492676e+00,1.358297586441040039e+00,-4.439570605754852295e-01
1.838554620742797852e+00,1.360061407089233398e+00,-3.622136414051055908e-01
1.840840697288513184e+00,1.361752510070800781e+00,-2.811484634876251221e-01
1.843102216720581055e+00,1.363425493240356445e+00,-2.005750685930252075e-01
1.845381975173950195e+00,1.365111947059631348e+00,-1.202978268265724182e-01
1.847668528556823730e+00,1.366803407669067383e+00,-4.011633619666099548e-02
1.849967837333679199e+00,1.368504285812377930e+00,4.016625881195068359e-02
1.852305531501770020e+00,1.370233654975891113e+00,1.207491606473922729e-01
1.854643225669860840e+00,1.371962904930114746e+00,2.018310129642486572e-01
1.856920242309570312e+00,1.373647332191467285e+00,2.836042642593383789e-01
1.859531164169311523e+00,1.375578761100769043e+00,3.663462400436401367e-01
1.861498832702636719e+00,1.377034306526184082e+00,4.500810801982879639e-01
1.864367842674255371e+00,1.379156589508056641e+00,5.353914499282836914e-01
1.784209370613098145e+00,1.359795928001403809e+00,-6.010926365852355957e-01
1.786598205566406250e+00,1.361616611480712891e+00,-5.186019539833068848e-01
1.788803458213806152e+00,1.363297224044799805e+00,-4.371777772903442383e-01
1.791226983070373535e+00,1.365144371986389160e+00,-3.567026555538177490e-01
1.793508052825927734e+00,1.366882801055908203e+00,-2.768791615962982178e-01
1.795591950416564941e+00,1.368470907211303711e+00,-1.975161582231521606e-01
1.797859668731689453e+00,1.370199203491210938e+00,-1.184662804007530212e-01
1.800085544586181641e+00,1.371895670890808105e+00,-3.950552269816398621e-02
1.802278995513916016e+00,1.373567342758178711e+00,3.955366089940071106e-02
1.804673790931701660e+00,1.375392436981201172e+00,1.189152821898460388e-01
1.806896328926086426e+00,1.377086281776428223e+00,1.987596452236175537e-01
1.809014081954956055e+00,1.378700375556945801e+00,2.792729735374450684e-01
1.811405539512634277e+00,1.380522966384887695e+00,3.607209622859954834e-01
1.813671350479125977e+00,1.382249832153320312e+00,4.432554244995117188e-01
1.816297531127929688e+00,1.384251236915588379e+00,5.272229313850402832e-01
1.737095832824707031e+00,1.363628625869750977e+00,-5.917353034019470215e-01
1.739553928375244141e+00,1.365558266639709473e+00,-5.105676054954528809e-01
1.741784334182739258e+00,1.367309212684631348e+00,-4.304254353046417236e-01
1.743897080421447754e+00,1.368967771530151367e+00,-3.511435091495513916e-01
1.745982050895690918e+00,1.370604395866394043e+00,-2.725428640842437744e-01
1.748227477073669434e+00,1.372367024421691895e+00,-1.944468915462493896e-01
1.750402927398681641e+00,1.374074816703796387e+00,-1.166232377290725708e-01
1.752572298049926758e+00,1.375777840614318848e+00,-3.889096528291702271e-02
1.754737615585327148e+00,1.377477645874023438e+00,3.893901407718658447e-02
1.756847262382507324e+00,1.379133701324462891e+00,1.170525997877120972e-01
1.759150981903076172e+00,1.380942106246948242e+00,1.956618726253509521e-01
1.761462330818176270e+00,1.382756471633911133e+00,2.749592959880828857e-01
1.763701915740966797e+00,1.384514570236206055e+00,3.551313281059265137e-01
1.765771746635437012e+00,1.386139392852783203e+00,4.363531470298767090e-01
1.768139600753784180e+00,1.387998223304748535e+00,5.189576745033264160e-01
1.693829059600830078e+00,1.369294166564941406e+00,-5.836132764816284180e-01
1.695921063423156738e+00,1.370985388755798340e+00,-5.034692287445068359e-01
1.698238253593444824e+00,1.372858643531799316e+00,-4.244768917560577393e-01
1.700398087501525879e+00,1.374604582786560059e+00,-3.463110029697418213e-01
1.702486157417297363e+00,1.376292586326599121e+00,-2.688007950782775879e-01
1.704568743705749512e+00,1.377976179122924805e+00,-1.917650699615478516e-01
1.706730246543884277e+00,1.379723548889160156e+00,-1.150174736976623535e-01
1.708846449851989746e+00,1.381434321403503418e+00,-3.835550323128700256e-02
1.710912942886352539e+00,1.383104801177978516e+00,3.840188682079315186e-02
1.713078498840332031e+00,1.384855508804321289e+00,1.154452934861183167e-01
1.715265393257141113e+00,1.386623382568359375e+00,1.929684430360794067e-01
1.717415928840637207e+00,1.388361811637878418e+00,2.711580097675323486e-01
1.719454050064086914e+00,1.390009522438049316e+00,3.501920402050018311e-01
1.721784472465515137e+00,1.391893386840820312e+00,4.303622841835021973e-01
1.723930120468139648e+00,1.393628001213073730e+00,5.117842555046081543e-01
1.648738384246826172e+00,1.372321128845214844e+00,-5.747862458229064941e-01
1.650927186012268066e+00,1.374143004417419434e+00,-4.959001243114471436e-01
1.652953505516052246e+00,1.375829577445983887e+00,-4.180373847484588623e-01
1.655179262161254883e+00,1.377682089805603027e+00,-3.410827517509460449e-01
1.657287478446960449e+00,1.379436969757080078e+00,-2.647548019886016846e-01
1.659340381622314453e+00,1.381145596504211426e+00,-1.888815164566040039e-01
1.661383032798767090e+00,1.382845878601074219e+00,-1.132837831974029541e-01
1.663439273834228516e+00,1.384557366371154785e+00,-3.777727484703063965e-02
1.665516257286071777e+00,1.386286139488220215e+00,3.782444447278976440e-02
1.667597770690917969e+00,1.388018608093261719e+00,1.137075424194335938e-01
1.669648408889770508e+00,1.389725446701049805e+00,1.900548636913299561e-01
1.671616673469543457e+00,1.391363739967346191e+00,2.670438885688781738e-01
1.673835635185241699e+00,1.393210768699645996e+00,3.449272513389587402e-01
1.675944089889526367e+00,1.394965648651123047e+00,4.238517582416534424e-01
1.678373456001281738e+00,1.396987795829772949e+00,5.041443109512329102e-01
1.607147216796875000e+00,1.377113223075866699e+00,-5.671003460884094238e-01
1.609414339065551758e+00,1.379055976867675781e+00,-4.893096387386322021e-01
1.611476302146911621e+00,1.380822777748107910e+00,-4.125038683414459229e-01
1.613435268402099609e+00,1.382501363754272461e+00,-3.365238606929779053e-01
1.615553021430969238e+00,1.384315967559814453e+00,-2.612262368202209473e-01
1.617466807365417480e+00,1.385955810546875000e+00,-1.863541156053543091e-01
1.619502067565917969e+00,1.387699723243713379e+00,-1.117709875106811523e-01
1.621506571769714355e+00,1.389417409896850586e+00,-3.727279976010322571e-02
1.623484373092651367e+00,1.391112089157104492e+00,3.731826320290565491e-02
1.625602126121520996e+00,1.392926812171936035e+00,1.121919900178909302e-01
1.627535581588745117e+00,1.394583463668823242e+00,1.875141859054565430e-01
1.629666566848754883e+00,1.396409392356872559e+00,2.635083198547363281e-01
1.631740331649780273e+00,1.398186326026916504e+00,3.403418660163879395e-01
1.633659124374389648e+00,1.399830460548400879e+00,4.181821644306182861e-01
1.635844230651855469e+00,1.401702880859375000e+00,4.973451197147369385e-01
1.566053152084350586e+00,1.381257534027099609e+00,-5.595188140869140625e-01
1.567974448204040527e+00,1.382952094078063965e+00,-4.826794564723968506e-01
1.569780588150024414e+00,1.384545087814331055e+00,-4.068618714809417725e-01
1.571810960769653320e+00,1.386335968971252441e+00,-3.319468796253204346e-01
1.573947429656982422e+00,1.388220191001892090e+00,-2.576853632926940918e-01
1.575836777687072754e+00,1.389886617660522461e+00,-1.838310062885284424e-01
1.577763557434082031e+00,1.391586184501647949e+00,-1.102537736296653748e-01
1.579716444015502930e+00,1.393308520317077637e+00,-3.676684573292732239e-02
1.581700205802917480e+00,1.395058155059814453e+00,3.681301698088645935e-02
1.583735942840576172e+00,1.396853685379028320e+00,1.106711179018020630e-01
1.585545539855957031e+00,1.398449778556823730e+00,1.849635988473892212e-01
1.587498426437377930e+00,1.400172233581542969e+00,2.599039077758789062e-01
1.589723706245422363e+00,1.402134895324707031e+00,3.357298076152801514e-01
1.591884255409240723e+00,1.404040455818176270e+00,4.125907719135284424e-01
1.593872785568237305e+00,1.405794382095336914e+00,4.906519055366516113e-01
1.526105403900146484e+00,1.385356903076171875e+00,-5.522743463516235352e-01
1.528129100799560547e+00,1.387193918228149414e+00,-4.764770865440368652e-01
1.529992461204528809e+00,1.388885378837585449e+00,-4.016607701778411865e-01
1.532027721405029297e+00,1.390733003616333008e+00,-3.277155160903930664e-01
1.533783078193664551e+00,1.392326474189758301e+00,-2.543464004993438721e-01
1.535719037055969238e+00,1.394083857536315918e+00,-1.814602166414260864e-01
1.537643074989318848e+00,1.395830512046813965e+00,-1.088351532816886902e-01
1.539544701576232910e+00,1.397556781768798828e+00,-3.629373386502265930e-02
1.541430473327636719e+00,1.399268627166748047e+00,3.633819147944450378e-02
1.543317675590515137e+00,1.400981783866882324e+00,1.092367991805076599e-01
1.545413255691528320e+00,1.402884006500244141e+00,1.826056838035583496e-01
1.547257542610168457e+00,1.404558181762695312e+00,2.565808594226837158e-01
1.549320340156555176e+00,1.406430721282958984e+00,3.314145803451538086e-01
1.551274061203002930e+00,1.408204317092895508e+00,4.072477221488952637e-01
1.553498506546020508e+00,1.410223603248596191e+00,4.843873679637908936e-01
1.486360430717468262e+00,1.388594985008239746e+00,-5.450280308723449707e-01
1.488494992256164551e+00,1.390589118003845215e+00,-4.702770113945007324e-01
1.490428805351257324e+00,1.392395734786987305e+00,-3.964658677577972412e-01
1.492256164550781250e+00,1.394102931022644043e+00,-3.234433233737945557e-01
1.494049668312072754e+00,1.395778417587280273e+00,-2.510447204113006592e-01
1.495966792106628418e+00,1.397569417953491211e+00,-1.791084259748458862e-01
1.497825384140014648e+00,1.399305820465087891e+00,-1.074234843254089355e-01
1.499679327011108398e+00,1.401037812232971191e+00,-3.582301735877990723e-02
1.501531958580017090e+00,1.402768611907958984e+00,3.586727380752563477e-02
1.503336906433105469e+00,1.404454827308654785e+00,1.078187674283981323e-01
1.505290389060974121e+00,1.406279802322387695e+00,1.802247315645217896e-01
1.507245302200317383e+00,1.408106088638305664e+00,2.532619833946228027e-01
1.509132862091064453e+00,1.409869551658630371e+00,3.271013200283050537e-01
1.510867238044738770e+00,1.411489844322204590e+00,4.019026458263397217e-01
1.512814640998840332e+00,1.413309097290039062e+00,4.779606163501739502e-01
1.448505043983459473e+00,1.392584204673767090e+00,-5.384008884429931641e-01
1.450358510017395020e+00,1.394366145133972168e+00,-4.644861519336700439e-01
1.452086091041564941e+00,1.396026968955993652e+00,-3.915416300296783447e-01
1.453992962837219238e+00,1.397860288619995117e+00,-3.194538652896881104e-01
1.455823659896850586e+00,1.399620294570922852e+00,-2.479624152183532715e-01
1.457723855972290039e+00,1.401447176933288574e+00,-1.769132614135742188e-01
1.459489226341247559e+00,1.403144359588623047e+00,-1.061035618185997009e-01
1.461295604705810547e+00,1.404881000518798828e+00,-3.538285568356513977e-02
1.463145256042480469e+00,1.406659245491027832e+00,3.542764112353324890e-02
1.464871406555175781e+00,1.408318758010864258e+00,1.064948439598083496e-01
1.466691970825195312e+00,1.410068988800048828e+00,1.780016422271728516e-01
1.468465805053710938e+00,1.411774396896362305e+00,2.501156926155090332e-01
1.470463514328002930e+00,1.413694977760314941e+00,3.230725824832916260e-01
1.472383737564086914e+00,1.415541172027587891e+00,3.970147371292114258e-01
1.474124193191528320e+00,1.417214393615722656e+00,4.720972776412963867e-01
1.411981344223022461e+00,1.396903514862060547e+00,-5.322026014328002930e-01
1.413577795028686523e+00,1.398482918739318848e+00,-4.590705037117004395e-01
1.415378093719482422e+00,1.400263905525207520e+00,-3.870083093643188477e-01
1.417304039001464844e+00,1.402169466018676758e+00,-3.157702088356018066e-01
1.418961763381958008e+00,1.403809428215026855e+00,-2.450812309980392456e-01
1.420756816864013672e+00,1.405585289001464844e+00,-1.748505979776382446e-01
1.422523736953735352e+00,1.407333374023437500e+00,-1.048699021339416504e-01
1.424283027648925781e+00,1.409073829650878906e+00,-3.497142717242240906e-02
1.426039695739746094e+00,1.410811781883239746e+00,3.501456230878829956e-02
1.427778840065002441e+00,1.412532329559326172e+00,1.052573174238204956e-01
1.429681420326232910e+00,1.414414644241333008e+00,1.759489476680755615e-01
1.431340098381042480e+00,1.416055560111999512e+00,2.472191900014877319e-01
1.433168888092041016e+00,1.417864799499511719e+00,3.193048238754272461e-01
1.435254573822021484e+00,1.419928312301635742e+00,3.924432098865509033e-01
1.436795353889465332e+00,1.421452522277832031e+00,4.666105806827545166e-01
1.375322341918945312e+00,1.400148630142211914e+00,-5.258850455284118652e-01
1.377360582351684570e+00,1.402223587036132812e+00,-4.537803232669830322e-01
1.378934264183044434e+00,1.403825640678405762e+00,-3.824984729290008545e-01
1.380691766738891602e+00,1.405614972114562988e+00,-3.120636343955993652e-01
1.382394909858703613e+00,1.407348752021789551e+00,-2.422198802232742310e-01
1.384183406829833984e+00,1.409169554710388184e+00,-1.728141605854034424e-01
1.385866165161132812e+00,1.410882711410522461e+00,-1.036456227302551270e-01
1.387579798698425293e+00,1.412627339363098145e+00,-3.456315398216247559e-02
1.389328479766845703e+00,1.414407610893249512e+00,3.460671007633209229e-02
1.390982866287231445e+00,1.416091799736022949e+00,1.040282845497131348e-01
1.392746567726135254e+00,1.417887449264526367e+00,1.738832741975784302e-01
1.394484639167785645e+00,1.419656753540039062e+00,2.443382143974304199e-01
1.396447658538818359e+00,1.421655297279357910e+00,3.156247735023498535e-01
1.397986412048339844e+00,1.423221826553344727e+00,3.877833187580108643e-01
1.400098681449890137e+00,1.425372242927551270e+00,4.612715244293212891e-01
1.339369297027587891e+00,1.403164267539978027e+00,-5.197640061378479004e-01
1.341195940971374512e+00,1.405077934265136719e+00,-4.484455883502960205e-01
1.342869877815246582e+00,1.406831502914428711e+00,-3.780416250228881836e-01
1.344670534133911133e+00,1.408717989921569824e+00,-3.084478974342346191e-01
1.346232295036315918e+00,1.410354137420654297e+00,-2.393961697816848755e-01
1.347935676574707031e+00,1.412138700485229492e+00,-1.707946956157684326e-01
1.349625229835510254e+00,1.413908720016479492e+00,-1.024383008480072021e-01
1.351292729377746582e+00,1.415655612945556641e+00,-3.416050970554351807e-02
1.352944493293762207e+00,1.417385935783386230e+00,3.420226275920867920e-02
1.354595780372619629e+00,1.419115900993347168e+00,1.028155684471130371e-01
1.356409907341003418e+00,1.421016454696655273e+00,1.718684434890747070e-01
1.358010649681091309e+00,1.422693490982055664e+00,2.414906769990921021e-01
1.359777688980102539e+00,1.424544692039489746e+00,3.119132518768310547e-01
1.361439228057861328e+00,1.426285386085510254e+00,3.832692205905914307e-01
1.363299489021301270e+00,1.428234219551086426e+00,4.558361470699310303e-01
1.304676532745361328e+00,1.406585574150085449e+00,-5.140612125396728516e-01
1.306589245796203613e+00,1.408647656440734863e+00,-4.435705840587615967e-01
1.308077096939086914e+00,1.410251736640930176e+00,-3.738911449909210205e-01
1.309736847877502441e+00,1.412041068077087402e+00,-3.050395250320434570e-01
1.311480879783630371e+00,1.413921356201171875e+00,-2.367910593748092651e-01
1.313053131103515625e+00,1.415616393089294434e+00,-1.689248979091644287e-01
1.314693689346313477e+00,1.417385101318359375e+00,-1.013164371252059937e-01
1.316318869590759277e+00,1.419137239456176758e+00,-3.378641977906227112e-02
1.317931890487670898e+00,1.420876264572143555e+00,3.382781893014907837e-02
1.319628238677978516e+00,1.422705173492431641e+00,1.016967222094535828e-01
1.321166992187500000e+00,1.424364089965820312e+00,1.699687391519546509e-01
1.322823166847229004e+00,1.426149606704711914e+00,2.388389408588409424e-01
1.324690580368041992e+00,1.428162813186645508e+00,3.085222840309143066e-01
1.326171517372131348e+00,1.429759502410888672e+00,3.790630996227264404e-01
1.328177928924560547e+00,1.431922674179077148e+00,4.508996605873107910e-01
1.271118760108947754e+00,1.410364627838134766e+00,-5.087409019470214844e-01
1.272841811180114746e+00,1.412276506423950195e+00,-4.389314055442810059e-01
1.274428367614746094e+00,1.414036870002746582e+00,-3.700205385684967041e-01
1.276130914688110352e+00,1.415925979614257812e+00,-3.019019067287445068e-01
1.277746200561523438e+00,1.417718172073364258e+00,-2.343400269746780396e-01
1.279319763183593750e+00,1.419463992118835449e+00,-1.671817898750305176e-01
1.280889868736267090e+00,1.421206235885620117e+00,-1.002687662839889526e-01
1.282473325729370117e+00,1.422963142395019531e+00,-3.343705087900161743e-02
1.284073948860168457e+00,1.424739003181457520e+00,3.347877785563468933e-02
1.285681486129760742e+00,1.426522612571716309e+00,1.006438508629798889e-01
1.287267565727233887e+00,1.428282618522644043e+00,1.682204306125640869e-01
1.288792729377746582e+00,1.429974794387817383e+00,2.363659590482711792e-01
1.290472269058227539e+00,1.431838393211364746e+00,3.052947223186492920e-01
1.292057037353515625e+00,1.433596730232238770e+00,3.751388788223266602e-01
1.293823242187500000e+00,1.435556411743164062e+00,4.461666941642761230e-01
1.237474203109741211e+00,1.413190484046936035e+00,-5.033195018768310547e-01
1.239009857177734375e+00,1.414944291114807129e+00,-4.342042207717895508e-01
1.240664362907409668e+00,1.416833639144897461e+00,-3.660679757595062256e-01
1.242213726043701172e+00,1.418603062629699707e+00,-2.986510396003723145e-01
1.243720173835754395e+00,1.420323371887207031e+00,-2.318043708801269531e-01
1.245306849479675293e+00,1.422135472297668457e+00,-1.653801351785659790e-01
1.246811866760253906e+00,1.423854112625122070e+00,-9.918633848428726196e-02
1.248352527618408203e+00,1.425613522529602051e+00,-3.307606652379035950e-02
1.249932765960693359e+00,1.427418112754821777e+00,3.311793878674507141e-02
1.251443266868591309e+00,1.429143071174621582e+00,9.955477714538574219e-02
1.253052830696105957e+00,1.430981278419494629e+00,1.664088219404220581e-01
1.254647254943847656e+00,1.432802081108093262e+00,2.338409572839736938e-01
1.256168842315673828e+00,1.434539675712585449e+00,3.020060956478118896e-01
1.257856011390686035e+00,1.436466574668884277e+00,3.711405098438262939e-01
1.259403824806213379e+00,1.438234090805053711e+00,4.413511455059051514e-01
