-3.839333355426788330e-01,-1.321868062019348145e+00,1.690121442079544067e-01
-3.844253718852996826e-01,-1.323562145233154297e+00,2.182945460081100464e-01
-3.848859071731567383e-01,-1.325147628784179688e+00,2.682270705699920654e-01
-3.854469954967498779e-01,-1.327079534530639648e+00,3.190414309501647949e-01
-3.585943281650543213e-01,-1.304022669792175293e+00,-3.623817563056945801e-01
-3.589702546596527100e-01,-1.305389642715454102e+00,-3.125597238540649414e-01
-3.594305515289306641e-01,-1.307063460350036621e+00,-2.634982466697692871e-01
-3.599399030208587646e-01,-1.308915853500366211e+00,-2.150072008371353149e-01
-3.603544533252716064e-01,-1.310423374176025391e+00,-1.668722629547119141e-01
-3.608107268810272217e-01,-1.312082529067993164e+00,-1.190533787012100220e-01
-3.612361550331115723e-01,-1.313629627227783203e+00,-7.139988243579864502e-02
-3.616774380207061768e-01,-1.315234303474426270e+00,-2.380967140197753906e-02
-3.621359467506408691e-01,-1.316901683807373047e+00,2.383985556662082672e-02
-3.625666201114654541e-01,-1.318467855453491211e+00,7.166285067796707153e-02
-3.630448877811431885e-01,-1.320206999778747559e+00,1.197905614972114563e-01
-3.634350597858428955e-01,-1.321625828742980957e+00,1.682988256216049194e-01
-3.638851046562194824e-01,-1.323262453079223633e+00,2.173638194799423218e-01
-3.644330799579620361e-01,-1.325255155563354492e+00,2.671656012535095215e-01
-3.648114502429962158e-01,-1.326631188392639160e+00,3.176457583904266357e-01
-3.385087549686431885e-01,-1.303684592247009277e+00,-3.609043955802917480e-01
-3.389857411384582520e-01,-1.305521607398986816e+00,-3.113976716995239258e-01
-3.394176661968231201e-01,-1.307185173034667969e+00,-2.625164687633514404e-01
-3.398252427577972412e-01,-1.308754801750183105e+00,-2.141598165035247803e-01
-3.402262032032012939e-01,-1.310299038887023926e+00,-1.662192791700363159e-01
-3.406631946563720703e-01,-1.311982035636901855e+00,-1.185896769165992737e-01
-3.410681188106536865e-01,-1.313541412353515625e+00,-7.112245261669158936e-02
-3.414848446846008301e-01,-1.315146327018737793e+00,-2.371716499328613281e-02
-3.419144451618194580e-01,-1.316800832748413086e+00,2.374700084328651428e-02
-3.423148095607757568e-01,-1.318342685699462891e+00,7.138242572546005249e-02
-3.427566289901733398e-01,-1.320044279098510742e+00,1.193184182047843933e-01
-3.431992232799530029e-01,-1.321748852729797363e+00,1.676717549562454224e-01
-3.436269462108612061e-01,-1.323396086692810059e+00,2.165556848049163818e-01
-3.440203964710235596e-01,-1.324911355972290039e+00,2.660763561725616455e-01
-3.444968461990356445e-01,-1.326746344566345215e+00,3.164602518081665039e-01
-3.187001943588256836e-01,-1.303831934928894043e+00,-3.596455156803131104e-01
-3.190536201000213623e-01,-1.305277943611145020e+00,-3.102184832096099854e-01
-3.194750845432281494e-01,-1.307002186775207520e+00,-2.615346014499664307e-01
-3.198713958263397217e-01,-1.308623552322387695e+00,-2.133672833442687988e-01
-3.202582299709320068e-01,-1.310206174850463867e+00,-1.656090170145034790e-01
-3.206756412982940674e-01,-1.311913728713989258e+00,-1.181565150618553162e-01
-3.210600018501281738e-01,-1.313486218452453613e+00,-7.086338102817535400e-02
-3.214522302150726318e-01,-1.315090894699096680e+00,-2.363076806068420410e-02
-3.218533992767333984e-01,-1.316732168197631836e+00,2.366025932133197784e-02
-3.222242295742034912e-01,-1.318249106407165527e+00,7.112034410238265991e-02
-3.226305842399597168e-01,-1.319911599159240723e+00,1.188768371939659119e-01
-3.230347037315368652e-01,-1.321564912796020508e+00,1.670447587966918945e-01
-3.234218955039978027e-01,-1.323148965835571289e+00,2.157356142997741699e-01
-3.238893449306488037e-01,-1.325061321258544922e+00,2.651483118534088135e-01
-3.243328332901000977e-01,-1.326875567436218262e+00,3.153514862060546875e-01
-2.989225983619689941e-01,-1.303530335426330566e+00,-3.583454191684722900e-01
-2.993627190589904785e-01,-1.305449604988098145e+00,-3.092092275619506836e-01
-2.997572422027587891e-01,-1.307170033454895020e+00,-2.606829404830932617e-01
-3.000660836696624756e-01,-1.308516740798950195e+00,-2.126278132200241089e-01
-3.004802167415618896e-01,-1.310322880744934082e+00,-1.650632321834564209e-01
-3.008356392383575439e-01,-1.311872601509094238e+00,-1.177529320120811462e-01
-3.011993169784545898e-01,-1.313458681106567383e+00,-7.062207162380218506e-02
-3.015672862529754639e-01,-1.315063238143920898e+00,-2.355029806494712830e-02
-3.019405007362365723e-01,-1.316690802574157715e+00,2.357944287359714508e-02
-3.023248016834259033e-01,-1.318366646766662598e+00,7.088596373796463013e-02
-3.026544749736785889e-01,-1.319804191589355469e+00,1.184648647904396057e-01
-3.030970990657806396e-01,-1.321734309196472168e+00,1.665007621049880981e-01
-3.034613430500030518e-01,-1.323322772979736328e+00,2.150337249040603638e-01
-3.037896752357482910e-01,-1.324754476547241211e+00,2.641897201538085938e-01
-3.041846156120300293e-01,-1.326476812362670898e+00,3.141897618770599365e-01
-2.792823314666748047e-01,-1.303225517272949219e+00,-3.571261167526245117e-01
-2.796139121055603027e-01,-1.304772853851318359e+00,-3.080694079399108887e-01
-2.799984514713287354e-01,-1.306567192077636719e+00,-2.597368657588958740e-01
-2.803548872470855713e-01,-1.308230400085449219e+00,-2.119075059890747070e-01
-2.806968390941619873e-01,-1.309826016426086426e+00,-1.644776910543441772e-01
-2.810355424880981445e-01,-1.311406612396240234e+00,-1.173380166292190552e-01
-2.813786566257476807e-01,-1.313007712364196777e+00,-7.037406414747238159e-02
-2.817224264144897461e-01,-1.314611792564392090e+00,-2.346759662032127380e-02
-2.820677161216735840e-01,-1.316223025321960449e+00,2.349635772407054901e-02
-2.824199497699737549e-01,-1.317866802215576172e+00,7.063449919223785400e-02
-2.827731966972351074e-01,-1.319515109062194824e+00,1.180635243654251099e-01
-2.831180989742279053e-01,-1.321124553680419922e+00,1.658964455127716064e-01
-2.834421396255493164e-01,-1.322636604309082031e+00,2.142410129308700562e-01
-2.838296294212341309e-01,-1.324444890022277832e+00,2.632908225059509277e-01
-2.841902077198028564e-01,-1.326127409934997559e+00,3.131114244461059570e-01
-2.598722577095031738e-01,-1.303429126739501953e+00,-3.561260998249053955e-01
-2.601842880249023438e-01,-1.304994225502014160e+00,-3.072109222412109375e-01
-2.604779601097106934e-01,-1.306467175483703613e+00,-2.589492797851562500e-01
-2.608206570148468018e-01,-1.308186054229736328e+00,-2.112739682197570801e-01
-2.611476182937622070e-01,-1.309825897216796875e+00,-1.639914959669113159e-01
-2.614685297012329102e-01,-1.311435461044311523e+00,-1.169937551021575928e-01
-2.617906630039215088e-01,-1.313051223754882812e+00,-7.016837596893310547e-02
-2.621105015277862549e-01,-1.314655423164367676e+00,-2.339900471270084381e-02
-2.624288201332092285e-01,-1.316251993179321289e+00,2.342742122709751129e-02
-2.627507150173187256e-01,-1.317866563796997070e+00,7.042569667100906372e-02
-2.630706429481506348e-01,-1.319471240043640137e+00,1.177106276154518127e-01
-2.633801102638244629e-01,-1.321023225784301758e+00,1.653934121131896973e-01
-2.637465000152587891e-01,-1.322860956192016602e+00,2.136439830064773560e-01
-2.641034424304962158e-01,-1.324651360511779785e+00,2.625535130500793457e-01
-2.644323706626892090e-01,-1.326301097869873047e+00,3.122268021106719971e-01
-2.404819577932357788e-01,-1.303172826766967773e+00,-3.550792336463928223e-01
-2.408588826656341553e-01,-1.305215358734130859e+00,-3.064199984073638916e-01
-2.411317080259323120e-01,-1.306693792343139648e+00,-2.582836747169494629e-01
-2.414469569921493530e-01,-1.308402180671691895e+00,-2.107291519641876221e-01
-2.417112290859222412e-01,-1.309834241867065430e+00,-1.635426282882690430e-01
-2.420137822628021240e-01,-1.311473846435546875e+00,-1.166761890053749084e-01
-2.423146814107894897e-01,-1.313104391098022461e+00,-6.997869908809661865e-02
-2.426107078790664673e-01,-1.314708471298217773e+00,-2.333575114607810974e-02
-2.429026216268539429e-01,-1.316290378570556641e+00,2.336382865905761719e-02
-2.431949824094772339e-01,-1.317874789237976074e+00,7.023292034864425659e-02
-2.435298562049865723e-01,-1.319689393043518066e+00,1.174070984125137329e-01
-2.438182979822158813e-01,-1.321252465248107910e+00,1.649682670831680298e-01
-2.441564649343490601e-01,-1.323084950447082520e+00,2.130939364433288574e-01
-2.443974167108535767e-01,-1.324390649795532227e+00,2.617816627025604248e-01
-2.447805851697921753e-01,-1.326467156410217285e+00,3.114091753959655762e-01
-2.212126404047012329e-01,-1.302984237670898438e+00,-3.541288375854492188e-01
-2.214989662170410156e-01,-1.304670691490173340e+00,-3.055165410041809082e-01
-2.217644602060317993e-01,-1.306234478950500488e+00,-2.575390636920928955e-01
-2.220657765865325928e-01,-1.308009266853332520e+00,-2.101324200630187988e-01
-2.223483622074127197e-01,-1.309673786163330078e+00,-1.631085127592086792e-01
-2.226203382015228271e-01,-1.311275720596313477e+00,-1.163631677627563477e-01
-2.228876948356628418e-01,-1.312850594520568848e+00,-6.978800892829895020e-02
-2.231600433588027954e-01,-1.314454793930053711e+00,-2.327216789126396179e-02
-2.234379500150680542e-01,-1.316091656684875488e+00,2.330114878714084625e-02
-2.237132936716079712e-01,-1.317713618278503418e+00,7.004650682210922241e-02
-2.239814400672912598e-01,-1.319293022155761719e+00,1.170746162533760071e-01
-2.242352068424224854e-01,-1.320787668228149414e+00,1.644926518201828003e-01
-2.245314866304397583e-01,-1.322532892227172852e+00,2.124656289815902710e-01
-2.248143255710601807e-01,-1.324198842048645020e+00,2.610809504985809326e-01
-2.251575440168380737e-01,-1.326220512390136719e+00,3.105628788471221924e-01
-2.020490169525146484e-01,-1.302839994430541992e+00,-3.532674610614776611e-01
-2.023164778947830200e-01,-1.304564595222473145e+00,-3.047823309898376465e-01
-2.025620490312576294e-01,-1.306148171424865723e+00,-2.569240927696228027e-01
-2.027987688779830933e-01,-1.307674527168273926e+00,-2.095908373594284058e-01
-2.030648440122604370e-01,-1.309390187263488770e+00,-1.626945436000823975e-01
-2.033188641071319580e-01,-1.311028122901916504e+00,-1.160710528492927551e-01
-2.035658508539199829e-01,-1.312620759010314941e+00,-6.961376965045928955e-02
-2.038145959377288818e-01,-1.314224720001220703e+00,-2.321406640112400055e-02
-2.040655910968780518e-01,-1.315843105316162109e+00,2.324265427887439728e-02
-2.043115049600601196e-01,-1.317428827285766602e+00,6.986875832080841064e-02
-2.045481652021408081e-01,-1.318954825401306152e+00,1.167728379368782043e-01
-2.048188745975494385e-01,-1.320700407028198242e+00,1.640998572111129761e-01
-2.050863206386566162e-01,-1.322425007820129395e+00,2.119549959897994995e-01
-2.053387016057968140e-01,-1.324052333831787109e+00,2.604458928108215332e-01
-2.055619508028030396e-01,-1.325491905212402344e+00,3.096715211868286133e-01
-1.830240786075592041e-01,-1.303049445152282715e+00,-3.525778055191040039e-01
-1.832706928253173828e-01,-1.304805159568786621e+00,-3.041945099830627441e-01
-1.834951192140579224e-01,-1.306403040885925293e+00,-2.564313411712646484e-01
-1.837090700864791870e-01,-1.307926297187805176e+00,-2.091882973909378052e-01
-1.839221417903900146e-01,-1.309443235397338867e+00,-1.623573899269104004e-01
-1.841567903757095337e-01,-1.311113834381103516e+00,-1.158334091305732727e-01
-1.843828409910202026e-01,-1.312723278999328613e+00,-6.947211921215057373e-02
-1.846081465482711792e-01,-1.314327239990234375e+00,-2.316682972013950348e-02
-1.848331242799758911e-01,-1.315929055213928223e+00,2.319506555795669556e-02
-1.850512325763702393e-01,-1.317481756210327148e+00,6.972395628690719604e-02
-1.852938085794448853e-01,-1.319208979606628418e+00,1.165485829114913940e-01
-1.855395138263702393e-01,-1.320958256721496582e+00,1.637851297855377197e-01
-1.857797801494598389e-01,-1.322668790817260742e+00,2.115462124347686768e-01
-1.860039830207824707e-01,-1.324265003204345703e+00,2.599374353885650635e-01
-1.861995160579681396e-01,-1.325657129287719727e+00,3.090558350086212158e-01
-1.640291213989257812e-01,-1.302938103675842285e+00,-3.518763780593872070e-01
-1.642077416181564331e-01,-1.304356932640075684e+00,-3.035109639167785645e-01
-1.644205302000045776e-01,-1.306047201156616211e+00,-2.558733224868774414e-01
-1.646217703819274902e-01,-1.307645797729492188e+00,-2.087451964616775513e-01
-1.648421883583068848e-01,-1.309396624565124512e+00,-1.620424687862396240e-01
-1.650348603725433350e-01,-1.310927033424377441e+00,-1.155963614583015442e-01
-1.652398556470870972e-01,-1.312555313110351562e+00,-6.933096796274185181e-02
-1.654417067766189575e-01,-1.314158797264099121e+00,-2.311975322663784027e-02
-1.656409651041030884e-01,-1.315741539001464844e+00,2.314759790897369385e-02
-1.658541709184646606e-01,-1.317435145378112793e+00,6.958872079849243164e-02
-1.660418361425399780e-01,-1.318925857543945312e+00,1.163016930222511292e-01
-1.662523746490478516e-01,-1.320598125457763672e+00,1.634286940097808838e-01
-1.664558351039886475e-01,-1.322214365005493164e+00,2.110708504915237427e-01
-1.666997671127319336e-01,-1.324151873588562012e+00,2.594203054904937744e-01
-1.668669879436492920e-01,-1.325480341911315918e+00,3.084261715412139893e-01
-1.451077908277511597e-01,-1.302845835685729980e+00,-3.512545526027679443e-01
-1.452713757753372192e-01,-1.304314494132995605e+00,-3.029862344264984131e-01
-1.454628407955169678e-01,-1.306033611297607422e+00,-2.554365694522857666e-01
-1.456418484449386597e-01,-1.307640790939331055e+00,-2.083902806043624878e-01
-1.458158791065216064e-01,-1.309203267097473145e+00,-1.617436856031417847e-01
-1.459906846284866333e-01,-1.310772895812988281e+00,-1.153866872191429138e-01
-1.461741775274276733e-01,-1.312420368194580078e+00,-6.920623034238815308e-02
-1.463527679443359375e-01,-1.314023733139038086e+00,-2.307816036045551300e-02
-1.465268880128860474e-01,-1.315587043762207031e+00,2.310561574995517731e-02
-1.467110514640808105e-01,-1.317240595817565918e+00,6.946041435003280640e-02
-1.468982100486755371e-01,-1.318920969963073730e+00,1.161039620637893677e-01
-1.470834612846374512e-01,-1.320584416389465332e+00,1.631497442722320557e-01
-1.472602188587188721e-01,-1.322171330451965332e+00,2.107059061527252197e-01
-1.474703550338745117e-01,-1.324057936668395996e+00,2.589618265628814697e-01
-1.476680636405944824e-01,-1.325833201408386230e+00,3.079849183559417725e-01
-1.262502670288085938e-01,-1.302763104438781738e+00,-3.507091104984283447e-01
-1.263977587223052979e-01,-1.304285049438476562e+00,-3.025281429290771484e-01
-1.265372633934020996e-01,-1.305724620819091797e+00,-2.549957931041717529e-01
-1.267006546258926392e-01,-1.307410597801208496e+00,-2.080432772636413574e-01
-1.268578469753265381e-01,-1.309032797813415527e+00,-1.614817529916763306e-01
-1.270240396261215210e-01,-1.310747623443603516e+00,-1.152126193046569824e-01
-1.271753609180450439e-01,-1.312309145927429199e+00,-6.909730285406112671e-02
-1.273307353258132935e-01,-1.313912391662597656e+00,-2.304183505475521088e-02
-1.274906098842620850e-01,-1.315562009811401367e+00,2.307076379656791687e-02
-1.276366263628005981e-01,-1.317068815231323242e+00,6.934791058301925659e-02
-1.277935802936553955e-01,-1.318688511848449707e+00,1.159106045961380005e-01
-1.279470175504684448e-01,-1.320271849632263184e+00,1.628681868314743042e-01
-1.281282007694244385e-01,-1.322141408920288086e+00,2.103873193264007568e-01
-1.283057779073715210e-01,-1.323973774909973145e+00,2.585597038269042969e-01
-1.284706443548202515e-01,-1.325675010681152344e+00,3.074895143508911133e-01
-1.074305102229118347e-01,-1.302476286888122559e+00,-3.501820862293243408e-01
-1.075616702437400818e-01,-1.304066538810729980e+00,-3.020893931388854980e-01
-1.076841801404953003e-01,-1.305551767349243164e+00,-2.546349465847015381e-01
-1.078250035643577576e-01,-1.307259082794189453e+00,-2.077523022890090942e-01
-1.079586893320083618e-01,-1.308879852294921875e+00,-1.612557470798492432e-01
-1.080894023180007935e-01,-1.310464739799499512e+00,-1.150399744510650635e-01
-1.082200482487678528e-01,-1.312048673629760742e+00,-6.899495422840118408e-02
-1.083522960543632507e-01,-1.313651919364929199e+00,-2.300771325826644897e-02
-1.084864065051078796e-01,-1.315277934074401855e+00,2.303619123995304108e-02
-1.086214482784271240e-01,-1.316915154457092285e+00,6.925086677074432373e-02
-1.087551191449165344e-01,-1.318535685539245605e+00,1.157484874129295349e-01
-1.088838875293731689e-01,-1.320096969604492188e+00,1.626377105712890625e-01
-1.090342253446578979e-01,-1.321919679641723633e+00,2.100821733474731445e-01
-1.091796085238456726e-01,-1.323682188987731934e+00,2.581711113452911377e-01
-1.093123629689216614e-01,-1.325291752815246582e+00,3.070062696933746338e-01
-8.867844194173812866e-02,-1.302411317825317383e+00,-3.497875034809112549e-01
-8.879075944423675537e-02,-1.304060935974121094e+00,-3.017627894878387451e-01
-8.889452368021011353e-02,-1.305584907531738281e+00,-2.543671727180480957e-01
-8.899549394845962524e-02,-1.307067751884460449e+00,-2.074981927871704102e-01
-8.911008387804031372e-02,-1.308750748634338379e+00,-1.610662043094635010e-01
-8.922084420919418335e-02,-1.310377478599548340e+00,-1.149084344506263733e-01
-8.933012932538986206e-02,-1.311982631683349609e+00,-6.891719251871109009e-02
-8.943928033113479614e-02,-1.313585638999938965e+00,-2.298177592456340790e-02
-8.954854309558868408e-02,-1.315190434455871582e+00,2.300985157489776611e-02
-8.965711295604705811e-02,-1.316784977912902832e+00,6.916945427656173706e-02
-8.976317197084426880e-02,-1.318342566490173340e+00,1.156069114804267883e-01
-8.988489955663681030e-02,-1.320130467414855957e+00,1.624666899442672729e-01
-9.000633656978607178e-02,-1.321913957595825195e+00,2.098550349473953247e-01
-9.012223780155181885e-02,-1.323616147041320801e+00,2.578802108764648438e-01
-9.022633731365203857e-02,-1.325145125389099121e+00,3.066417276859283447e-01
-6.995560973882675171e-02,-1.302176237106323242e+00,-3.494196534156799316e-01
-7.002843171358108521e-02,-1.303531765937805176e+00,-3.013775050640106201e-01
-7.013287395238876343e-02,-1.305475831031799316e+00,-2.541243135929107666e-01
-7.021402567625045776e-02,-1.306986451148986816e+00,-2.073044925928115845e-01
-7.030459493398666382e-02,-1.308672308921813965e+00,-1.609162241220474243e-01
-7.038527727127075195e-02,-1.310174107551574707e+00,-1.147904992103576660e-01
-7.047275453805923462e-02,-1.311802506446838379e+00,-6.884768605232238770e-02
-7.055886834859848022e-02,-1.313405394554138184e+00,-2.295860089361667633e-02
-7.064378261566162109e-02,-1.314986109733581543e+00,2.298623137176036835e-02
-7.073618471622467041e-02,-1.316706061363220215e+00,6.910504400730133057e-02
-7.081969082355499268e-02,-1.318260431289672852e+00,1.154989823698997498e-01
-7.091422379016876221e-02,-1.320020198822021484e+00,1.623115688562393188e-01
-7.098713517189025879e-02,-1.321377396583557129e+00,2.095870822668075562e-01
-7.109455764293670654e-02,-1.323377013206481934e+00,2.576089799404144287e-01
-7.117143273353576660e-02,-1.324808001518249512e+00,3.062965869903564453e-01
-5.127408728003501892e-02,-1.302088737487792969e+00,-3.491634726524353027e-01
-5.133011192083358765e-02,-1.303511381149291992e+00,-3.011721074581146240e-01
-5.139637738466262817e-02,-1.305194258689880371e+00,-2.539002895355224609e-01
-5.146862566471099854e-02,-1.307028889656066895e+00,-2.071731686592102051e-01
-5.152820795774459839e-02,-1.308542013168334961e+00,-1.607930362224578857e-01
-5.159314721822738647e-02,-1.310191154479980469e+00,-1.147155389189720154e-01
-5.165408551692962646e-02,-1.311738610267639160e+00,-6.879848986864089966e-02
-5.171718820929527283e-02,-1.313341140747070312e+00,-2.294218726456165314e-02
-5.178264528512954712e-02,-1.315003395080566406e+00,2.297122590243816376e-02
-5.184452235698699951e-02,-1.316574692726135254e+00,6.905212998390197754e-02
-5.191259831190109253e-02,-1.318303465843200684e+00,1.154258251190185547e-01
-5.196897685527801514e-02,-1.319735169410705566e+00,1.621684581041336060e-01
-5.203282833099365234e-02,-1.321356654167175293e+00,2.094442099332809448e-01
-5.210887640714645386e-02,-1.323287963867187500e+00,2.574200928211212158e-01
-5.218138173222541809e-02,-1.325129151344299316e+00,3.061667978763580322e-01
-3.261259570717811584e-02,-1.301860690116882324e+00,-3.489414155483245850e-01
-3.265030309557914734e-02,-1.303366065025329590e+00,-3.009997010231018066e-01
-3.269386291503906250e-02,-1.305104732513427734e+00,-2.537658512592315674e-01
-3.273468464612960815e-02,-1.306734442710876465e+00,-2.070310115814208984e-01
-3.277444466948509216e-02,-1.308321595191955566e+00,-1.606918424367904663e-01
-3.281696140766143799e-02,-1.310018777847290039e+00,-1.146475821733474731e-01
-3.285635635256767273e-02,-1.311591267585754395e+00,-6.875905394554138184e-02
-3.289649263024330139e-02,-1.313193678855895996e+00,-2.292903698980808258e-02
-3.293749317526817322e-02,-1.314830303192138672e+00,2.295761555433273315e-02
-3.297563642263412476e-02,-1.316352963447570801e+00,6.900867819786071777e-02
-3.301705047488212585e-02,-1.318006157875061035e+00,1.153466030955314636e-01
-3.305809572339057922e-02,-1.319644689559936523e+00,1.620825827121734619e-01
-3.309728950262069702e-02,-1.321209192276000977e+00,2.093243002891540527e-01
-3.314355760812759399e-02,-1.323056101799011230e+00,2.572563588619232178e-01
-3.318697214126586914e-02,-1.324789285659790039e+00,3.059471845626831055e-01
-1.397099904716014862e-02,-1.301632046699523926e+00,-3.487907946109771729e-01
-1.398807018995285034e-02,-1.303222417831420898e+00,-3.008894920349121094e-01
-1.400735601782798767e-02,-1.305019259452819824e+00,-2.536842823028564453e-01
-1.402521412819623947e-02,-1.306683063507080078e+00,-2.069698721170425415e-01
-1.404234115034341812e-02,-1.308278799057006836e+00,-1.606454402208328247e-01
-1.405928935855627060e-02,-1.309857726097106934e+00,-1.146041303873062134e-01
-1.407643873244524002e-02,-1.311455488204956055e+00,-6.873432546854019165e-02
-1.409363467246294022e-02,-1.313057661056518555e+00,-2.292079292237758636e-02
-1.411092560738325119e-02,-1.314668536186218262e+00,2.294891141355037689e-02
-1.412854436784982681e-02,-1.316310048103332520e+00,6.898875534534454346e-02
-1.414619386196136475e-02,-1.317954301834106445e+00,1.153125390410423279e-01
-1.416341029107570648e-02,-1.319558382034301758e+00,1.620304882526397705e-01
-1.417956594377756119e-02,-1.321063518524169922e+00,2.092476487159729004e-01
-1.419845782220363617e-02,-1.322823643684387207e+00,2.571452856063842773e-01
-1.421587169170379639e-02,-1.324446082115173340e+00,3.057896196842193604e-01
4.659580532461404800e-03,-1.301754117012023926e+00,-3.488056659698486328e-01
4.665417596697807312e-03,-1.303384900093078613e+00,-3.009115755558013916e-01
4.670829512178897858e-03,-1.304896712303161621e+00,-2.536474764347076416e-01
4.676945973187685013e-03,-1.306605577468872070e+00,-2.069470137357711792e-01
4.682126920670270920e-03,-1.308052897453308105e+00,-1.606094837188720703e-01
4.687977489084005356e-03,-1.309687376022338867e+00,-1.145833581686019897e-01
4.693794995546340942e-03,-1.311312675476074219e+00,-6.872332096099853516e-02
4.699529148638248444e-03,-1.312914609909057617e+00,-2.291712164878845215e-02
4.705193918198347092e-03,-1.314497232437133789e+00,2.294474653899669647e-02
4.710868466645479202e-03,-1.316082477569580078e+00,6.897330284118652344e-02
4.717289004474878311e-03,-1.317876219749450684e+00,1.152997985482215881e-01
4.722866229712963104e-03,-1.319434285163879395e+00,1.620069593191146851e-01
4.729288164526224136e-03,-1.321228384971618652e+00,2.092630416154861450e-01
4.735442809760570526e-03,-1.322947859764099121e+00,2.571562826633453369e-01
4.741000942885875702e-03,-1.324500679969787598e+00,3.057865798473358154e-01
2.328894659876823425e-02,-1.301506400108337402e+00,-3.487928509712219238e-01
2.331973984837532043e-02,-1.303227186203002930e+00,-3.009214103221893311e-01
2.334796637296676636e-02,-1.304804682731628418e+00,-2.536685466766357422e-01
2.337511815130710602e-02,-1.306322097778320312e+00,-2.069339007139205933e-01
2.340536192059516907e-02,-1.308012247085571289e+00,-1.606291681528091431e-01
2.343435212969779968e-02,-1.309632420539855957e+00,-1.145961582660675049e-01
2.346271276473999023e-02,-1.311217308044433594e+00,-6.872888654470443726e-02
2.349138073623180389e-02,-1.312819361686706543e+00,-2.291898243129253387e-02
2.352042123675346375e-02,-1.314442396163940430e+00,2.294731698930263519e-02
2.354903705418109894e-02,-1.316041588783264160e+00,6.898175925016403198e-02
2.357674762606620789e-02,-1.317590117454528809e+00,1.152924820780754089e-01
2.360807918012142181e-02,-1.319341182708740234e+00,1.620204150676727295e-01
2.363898977637290955e-02,-1.321068644523620605e+00,2.092698961496353149e-01
2.366810850799083710e-02,-1.322695970535278320e+00,2.571468055248260498e-01
2.369382604956626892e-02,-1.324133157730102539e+00,3.057486712932586670e-01
4.191926494240760803e-02,-1.301212191581726074e+00,-3.488390743732452393e-01
4.197810962796211243e-02,-1.303038716316223145e+00,-3.009858131408691406e-01
4.203147813677787781e-02,-1.304695248603820801e+00,-2.537382543087005615e-01
4.208200052380561829e-02,-1.306263566017150879e+00,-2.069988548755645752e-01
4.213186353445053101e-02,-1.307811379432678223e+00,-1.606621146202087402e-01
4.218588024377822876e-02,-1.309488177299499512e+00,-1.146246269345283508e-01
4.223786294460296631e-02,-1.311101675033569336e+00,-6.874746829271316528e-02
4.228946939110755920e-02,-1.312703609466552734e+00,-2.292517945170402527e-02
4.234081506729125977e-02,-1.314297437667846680e+00,2.295301482081413269e-02
4.239049181342124939e-02,-1.315839409828186035e+00,6.899589300155639648e-02
4.244498908519744873e-02,-1.317531108856201172e+00,1.153286620974540710e-01
4.249973595142364502e-02,-1.319230437278747559e+00,1.620649248361587524e-01
4.255279153585433960e-02,-1.320877313613891602e+00,2.093146294355392456e-01
4.260174185037612915e-02,-1.322396755218505859e+00,2.571808695793151855e-01
4.265902936458587646e-02,-1.324175000190734863e+00,3.058680295944213867e-01
6.057690456509590149e-02,-1.301316499710083008e+00,-3.490637540817260742e-01
6.064805388450622559e-02,-1.302845001220703125e+00,-3.011107146739959717e-01
6.072892621159553528e-02,-1.304582357406616211e+00,-2.538593411445617676e-01
6.080438941717147827e-02,-1.306203365325927734e+00,-2.071060091257095337e-01
6.087752431631088257e-02,-1.307774424552917480e+00,-1.607481539249420166e-01
6.095073372125625610e-02,-1.309347152709960938e+00,-1.146769076585769653e-01
6.102718412876129150e-02,-1.310989499092102051e+00,-6.878034770488739014e-02
6.110174208879470825e-02,-1.312591075897216797e+00,-2.293613925576210022e-02
6.117458641529083252e-02,-1.314155936241149902e+00,2.296348288655281067e-02
6.125123426318168640e-02,-1.315802454948425293e+00,6.903285533189773560e-02
6.132888048887252808e-02,-1.317470550537109375e+00,1.153883785009384155e-01
6.140549108386039734e-02,-1.319116234779357910e+00,1.621422618627548218e-01
6.147832423448562622e-02,-1.320680856704711914e+00,2.094014883041381836e-01
6.156314536929130554e-02,-1.322502970695495605e+00,2.573465108871459961e-01
6.164209172129631042e-02,-1.324198961257934570e+00,3.060460090637207031e-01
7.923614978790283203e-02,-1.300989627838134766e+00,-3.492445349693298340e-01
7.933613657951354980e-02,-1.302631497383117676e+00,-3.012929558753967285e-01
7.944697141647338867e-02,-1.304451227188110352e+00,-2.540290951728820801e-01
7.954902201890945435e-02,-1.306126832962036133e+00,-2.072531729936599731e-01
7.964624464511871338e-02,-1.307723045349121094e+00,-1.608654856681823730e-01
7.974171638488769531e-02,-1.309290647506713867e+00,-1.147601753473281860e-01
7.983762025833129883e-02,-1.310865283012390137e+00,-6.882673501968383789e-02
7.993516325950622559e-02,-1.312466859817504883e+00,-2.295161038637161255e-02
8.003459125757217407e-02,-1.314099431037902832e+00,2.298015914857387543e-02
8.013518154621124268e-02,-1.315750956535339355e+00,6.908325850963592529e-02
8.023519068956375122e-02,-1.317393064498901367e+00,1.154703572392463684e-01
8.033205568790435791e-02,-1.318983554840087891e+00,1.622506678104400635e-01
8.042224496603012085e-02,-1.320464372634887695e+00,2.095282226800918579e-01
8.052616566419601440e-02,-1.322170615196228027e+00,2.574797570705413818e-01
8.064917474985122681e-02,-1.324190378189086914e+00,3.062794208526611328e-01
9.794589132070541382e-02,-1.301025509834289551e+00,-3.495946824550628662e-01
9.807381033897399902e-02,-1.302724719047546387e+00,-3.016083240509033203e-01
9.819146990776062012e-02,-1.304287433624267578e+00,-2.542448639869689941e-01
9.830518811941146851e-02,-1.305798053741455078e+00,-2.074030339717864990e-01
9.843201190233230591e-02,-1.307482600212097168e+00,-1.609927415847778320e-01
9.855452179908752441e-02,-1.309110045433044434e+00,-1.148562207818031311e-01
9.867532551288604736e-02,-1.310714602470397949e+00,-6.888592243194580078e-02
9.879588335752487183e-02,-1.312315940856933594e+00,-2.297134883701801300e-02
9.891648590564727783e-02,-1.313917994499206543e+00,2.299939095973968506e-02
9.903625398874282837e-02,-1.315508842468261719e+00,6.913789361715316772e-02
9.915313869714736938e-02,-1.317061424255371094e+00,1.155538484454154968e-01
9.928538650274276733e-02,-1.318818092346191406e+00,1.623884886503219604e-01
9.941643476486206055e-02,-1.320558905601501465e+00,2.097475379705429077e-01
9.954053163528442383e-02,-1.322207331657409668e+00,2.577379643917083740e-01
9.965083748102188110e-02,-1.323672413825988770e+00,3.064581751823425293e-01
1.166565790772438049e-01,-1.300610303878784180e+00,-3.498959541320800781e-01
1.168194189667701721e-01,-1.302425861358642578e+00,-3.018953204154968262e-01
1.169675365090370178e-01,-1.304077267646789551e+00,-2.545041739940643311e-01
1.171083152294158936e-01,-1.305646777153015137e+00,-2.076239883899688721e-01
1.172618567943572998e-01,-1.307358622550964355e+00,-1.611676216125488281e-01
1.173990890383720398e-01,-1.308888554573059082e+00,-1.149724498391151428e-01
1.175456717610359192e-01,-1.310522913932800293e+00,-6.895720958709716797e-02
1.176892817020416260e-01,-1.312124013900756836e+00,-2.299511991441249847e-02
1.178302615880966187e-01,-1.313695788383483887e+00,2.302266471087932587e-02
1.179817020893096924e-01,-1.315384149551391602e+00,6.921300292015075684e-02
1.181184723973274231e-01,-1.316909074783325195e+00,1.156769692897796631e-01
1.182706356048583984e-01,-1.318605542182922363e+00,1.625541150569915771e-01
1.184186637401580811e-01,-1.320255875587463379e+00,2.099471241235733032e-01
1.185558363795280457e-01,-1.321785211563110352e+00,2.579600512981414795e-01
1.187151297926902771e-01,-1.323561310768127441e+00,3.067944049835205078e-01
1.354466676712036133e-01,-1.300609946250915527e+00,-3.503815531730651855e-01
1.356437057256698608e-01,-1.302502036094665527e+00,-3.023320436477661133e-01
1.357914954423904419e-01,-1.303921103477478027e+00,-2.548269033432006836e-01
1.359622627496719360e-01,-1.305560946464538574e+00,-2.078985124826431274e-01
1.361281126737594604e-01,-1.307153463363647461e+00,-1.613660007715225220e-01
1.363040655851364136e-01,-1.308843135833740234e+00,-1.151280328631401062e-01
1.364679336547851562e-01,-1.310416579246520996e+00,-6.904731690883636475e-02
1.366346478462219238e-01,-1.312017560005187988e+00,-2.302516810595989227e-02
1.368046998977661133e-01,-1.313650250434875488e+00,2.305382303893566132e-02
1.369637697935104370e-01,-1.315177798271179199e+00,6.929819285869598389e-02
1.371350735425949097e-01,-1.316822767257690430e+00,1.158299371600151062e-01
1.373042911291122437e-01,-1.318447589874267578e+00,1.627602428197860718e-01
1.375006586313247681e-01,-1.320333242416381836e+00,2.102508544921875000e-01
1.376518458127975464e-01,-1.321784973144531250e+00,2.583180665969848633e-01
1.378250122070312500e-01,-1.323447704315185547e+00,3.071939051151275635e-01
1.542869210243225098e-01,-1.300559639930725098e+00,-3.509269654750823975e-01
1.544813811779022217e-01,-1.302198886871337891e+00,-3.027439415454864502e-01
1.546624451875686646e-01,-1.303725123405456543e+00,-2.551951110363006592e-01
1.548654139041900635e-01,-1.305436134338378906e+00,-2.082102894783020020e-01
1.550589352846145630e-01,-1.307067394256591797e+00,-1.616128087043762207e-01
1.552488803863525391e-01,-1.308668494224548340e+00,-1.152963265776634216e-01
1.554395258426666260e-01,-1.310275554656982422e+00,-6.915003806352615356e-02
1.556294262409210205e-01,-1.311876296997070312e+00,-2.305942028760910034e-02
1.558190584182739258e-01,-1.313474893569946289e+00,2.308752015233039856e-02
1.560107767581939697e-01,-1.315091013908386230e+00,6.940417736768722534e-02
1.562013030052185059e-01,-1.316697001457214355e+00,1.160036548972129822e-01
1.563854664564132690e-01,-1.318249464035034180e+00,1.629954129457473755e-01
1.565962284803390503e-01,-1.320026040077209473e+00,2.105372995138168335e-01
1.567988395690917969e-01,-1.321733832359313965e+00,2.587201893329620361e-01
1.569824069738388062e-01,-1.323281168937683105e+00,3.076452910900115967e-01
1.731971353292465210e-01,-1.300564289093017578e+00,-3.515611290931701660e-01
1.734285801649093628e-01,-1.302302241325378418e+00,-3.033140003681182861e-01
1.736402362585067749e-01,-1.303891658782958984e+00,-2.556880116462707520e-01
1.738431900739669800e-01,-1.305415630340576172e+00,-2.085825055837631226e-01
1.740667521953582764e-01,-1.307094335556030273e+00,-1.619076132774353027e-01
1.742815226316452026e-01,-1.308707118034362793e+00,-1.155076771974563599e-01
1.744921803474426270e-01,-1.310289025306701660e+00,-6.927546858787536621e-02
1.747054010629653931e-01,-1.311890006065368652e+00,-2.310125157237052917e-02
1.749216616153717041e-01,-1.313513994216918945e+00,2.312984690070152283e-02
1.751352995634078979e-01,-1.315118312835693359e+00,6.953079253435134888e-02
1.753427833318710327e-01,-1.316676259040832520e+00,1.162110418081283569e-01
1.755747944116592407e-01,-1.318418502807617188e+00,1.633103191852569580e-01
1.758028119802474976e-01,-1.320130825042724609e+00,2.109337449073791504e-01
1.760169416666030884e-01,-1.321738719940185547e+00,2.591877281665802002e-01
1.762641072273254395e-01,-1.323594689369201660e+00,3.082731366157531738e-01
1.921521723270416260e-01,-1.300382494926452637e+00,-3.522193729877471924e-01
1.923737525939941406e-01,-1.301882028579711914e+00,-3.038263320922851562e-01
1.926246434450149536e-01,-1.303580045700073242e+00,-2.561413049697875977e-01
1.928610652685165405e-01,-1.305179953575134277e+00,-2.089645415544509888e-01
1.931151449680328369e-01,-1.306899428367614746e+00,-1.622092425823211670e-01
1.933410912752151489e-01,-1.308428525924682617e+00,-1.157154813408851624e-01
1.935798525810241699e-01,-1.310044288635253906e+00,-6.940191239118576050e-02
1.938163638114929199e-01,-1.311644911766052246e+00,-2.314341440796852112e-02
1.940511912107467651e-01,-1.313234090805053711e+00,2.317145466804504395e-02
1.943006515502929688e-01,-1.314922332763671875e+00,6.966033577919006348e-02
1.945247352123260498e-01,-1.316438794136047363e+00,1.164238974452018738e-01
1.947706788778305054e-01,-1.318103194236755371e+00,1.635998338460922241e-01
1.950073540210723877e-01,-1.319704890251159668e+00,2.112900316715240479e-01
1.952805668115615845e-01,-1.321553826332092285e+00,2.596729993820190430e-01
1.955364942550659180e-01,-1.323285818099975586e+00,3.088214099407196045e-01
2.111910432577133179e-01,-1.300254344940185547e+00,-3.529672622680664062e-01
2.114517390727996826e-01,-1.301859378814697266e+00,-3.044961690902709961e-01
2.116954773664474487e-01,-1.303359985351562500e+00,-2.566671967506408691e-01
2.119694501161575317e-01,-1.305046796798706055e+00,-2.094075381755828857e-01
2.122325599193572998e-01,-1.306666731834411621e+00,-1.625407636165618896e-01
2.125075161457061768e-01,-1.308359503746032715e+00,-1.159665063023567200e-01
2.127612233161926270e-01,-1.309921503067016602e+00,-6.954961270093917847e-02
2.130211740732192993e-01,-1.311522006988525391e+00,-2.319267019629478455e-02
2.132880240678787231e-01,-1.313164949417114258e+00,2.322172373533248901e-02
2.135353833436965942e-01,-1.314687967300415039e+00,6.980268657207489014e-02
2.137979269027709961e-01,-1.316304326057434082e+00,1.166706979274749756e-01
2.140539884567260742e-01,-1.317880868911743164e+00,1.639357209205627441e-01
2.143465280532836914e-01,-1.319681882858276367e+00,2.117558717727661133e-01
2.146294116973876953e-01,-1.321423530578613281e+00,2.602244019508361816e-01
2.148874998092651367e-01,-1.323012590408325195e+00,3.094437718391418457e-01
2.303000986576080322e-01,-1.300042152404785156e+00,-3.537682890892028809e-01
2.306033670902252197e-01,-1.301754236221313477e+00,-3.052123188972473145e-01
2.308817058801651001e-01,-1.303325295448303223e+00,-2.572847902774810791e-01
2.311498671770095825e-01,-1.304839134216308594e+00,-2.098835855722427368e-01
2.314459234476089478e-01,-1.306510448455810547e+00,-1.629167199134826660e-01
2.317325174808502197e-01,-1.308128237724304199e+00,-1.162280887365341187e-01
2.320158332586288452e-01,-1.309727430343627930e+00,-6.970849633216857910e-02
2.322993129491806030e-01,-1.311327695846557617e+00,-2.324565127491950989e-02
2.325836271047592163e-01,-1.312932610511779785e+00,2.327410317957401276e-02
2.328667193651199341e-01,-1.314530730247497559e+00,6.996414065361022949e-02
2.331437617540359497e-01,-1.316094636917114258e+00,1.169359162449836731e-01
2.334539890289306641e-01,-1.317845940589904785e+00,1.643302142620086670e-01
2.337604612112045288e-01,-1.319575905799865723e+00,2.122540175914764404e-01
2.340495884418487549e-01,-1.321208000183105469e+00,2.608149349689483643e-01
2.343815416097640991e-01,-1.323081970214843750e+00,3.102128803730010986e-01
2.495150417089462280e-01,-1.299907326698303223e+00,-3.546670973300933838e-01
2.498673051595687866e-01,-1.301742434501647949e+00,-3.060168027877807617e-01
2.501358389854431152e-01,-1.303141474723815918e+00,-2.579288482666015625e-01
2.504846155643463135e-01,-1.304958462715148926e+00,-2.104579210281372070e-01
2.507781386375427246e-01,-1.306487679481506348e+00,-1.633447557687759399e-01
2.510760426521301270e-01,-1.308039665222167969e+00,-1.165275946259498596e-01
2.513906061649322510e-01,-1.309678435325622559e+00,-6.989024579524993896e-02
2.516977190971374512e-01,-1.311278462409973145e+00,-2.330625616014003754e-02
2.519981861114501953e-01,-1.312843799591064453e+00,2.333407662808895111e-02
2.523176372051239014e-01,-1.314508080482482910e+00,7.014797627925872803e-02
2.526453733444213867e-01,-1.316215515136718750e+00,1.172559484839439392e-01
2.529225945472717285e-01,-1.317659735679626465e+00,1.647415459156036377e-01
2.532881498336791992e-01,-1.319564223289489746e+00,2.128134816884994507e-01
2.535773813724517822e-01,-1.321071028709411621e+00,2.614776194095611572e-01
2.539047598838806152e-01,-1.322776436805725098e+00,3.109615147113800049e-01
2.688129842281341553e-01,-1.299680471420288086e+00,-3.556185662746429443e-01
2.691544592380523682e-01,-1.301331520080566406e+00,-3.067944049835205078e-01
2.695259451866149902e-01,-1.303127646446228027e+00,-2.586631774902343750e-01
2.698696255683898926e-01,-1.304789304733276367e+00,-2.110320031642913818e-01
2.701990306377410889e-01,-1.306381821632385254e+00,-1.637982726097106934e-01
2.705246806144714355e-01,-1.307956337928771973e+00,-1.168531626462936401e-01
2.708539366722106934e-01,-1.309548258781433105e+00,-7.008299976587295532e-02
2.711848616600036621e-01,-1.311148285865783691e+00,-2.337053790688514709e-02
2.715182602405548096e-01,-1.312760233879089355e+00,2.339927107095718384e-02
2.718577980995178223e-01,-1.314401745796203613e+00,7.034274190664291382e-02
2.721975743770599365e-01,-1.316044688224792480e+00,1.175757646560668945e-01
2.725287973880767822e-01,-1.317646026611328125e+00,1.652106195688247681e-01
2.728393375873565674e-01,-1.319147348403930664e+00,2.133542299270629883e-01
2.731894850730895996e-01,-1.320840477943420410e+00,2.621790766716003418e-01
2.735939025878906250e-01,-1.322795629501342773e+00,3.118546903133392334e-01
2.882733643054962158e-01,-1.299698829650878906e+00,-3.567160665988922119e-01
2.885891497135162354e-01,-1.301122426986694336e+00,-3.076874315738677979e-01
2.890067398548126221e-01,-1.303005099296569824e+00,-2.594334185123443604e-01
2.893421649932861328e-01,-1.304517507553100586e+00,-2.116361856460571289e-01
2.897094488143920898e-01,-1.306173324584960938e+00,-1.642752438783645630e-01
2.900638878345489502e-01,-1.307771444320678711e+00,-1.171955540776252747e-01
2.904131710529327393e-01,-1.309346199035644531e+00,-7.028745114803314209e-02
2.907679975032806396e-01,-1.310945987701416016e+00,-2.343871444463729858e-02
2.911292612552642822e-01,-1.312574744224548340e+00,2.346783503890037537e-02
2.914879620075225830e-01,-1.314191937446594238e+00,7.054757326841354370e-02
2.918380796909332275e-01,-1.315770506858825684e+00,1.179123967885971069e-01
2.922267019748687744e-01,-1.317522525787353516e+00,1.657026112079620361e-01
2.925401031970977783e-01,-1.318935632705688477e+00,2.139752954244613647e-01
2.929669320583343506e-01,-1.320860028266906738e+00,2.629883885383605957e-01
2.933733463287353516e-01,-1.322692394256591797e+00,3.127882480621337891e-01
3.077930510044097900e-01,-1.299441814422607422e+00,-3.578180372714996338e-01
3.082364797592163086e-01,-1.301313996315002441e+00,-3.087444305419921875e-01
3.085763752460479736e-01,-1.302748799324035645e+00,-2.602351307868957520e-01
3.089620172977447510e-01,-1.304376959800720215e+00,-2.123090922832489014e-01
3.093711733818054199e-01,-1.306104302406311035e+00,-1.648065894842147827e-01
3.097366988658905029e-01,-1.307647585868835449e+00,-1.175697073340415955e-01
3.101199269294738770e-01,-1.309265375137329102e+00,-7.051417231559753418e-02
3.104988038539886475e-01,-1.310865044593811035e+00,-2.351431921124458313e-02
3.108743131160736084e-01,-1.312450408935546875e+00,2.354275807738304138e-02
3.112703859806060791e-01,-1.314122438430786133e+00,7.077576220035552979e-02
3.116271793842315674e-01,-1.315628767013549805e+00,1.182873025536537170e-01
3.120143115520477295e-01,-1.317263245582580566e+00,1.662146449089050293e-01
3.124565184116363525e-01,-1.319130063056945801e+00,2.147103995084762573e-01
3.128044605255126953e-01,-1.320598959922790527e+00,2.638008296489715576e-01
3.131927549839019775e-01,-1.322238326072692871e+00,3.137088716030120850e-01
3.274939656257629395e-01,-1.299406290054321289e+00,-3.590622544288635254e-01
3.279149234294891357e-01,-1.301076531410217285e+00,-3.097699582576751709e-01
3.283036947250366211e-01,-1.302619099617004395e+00,-2.611211538314819336e-01
3.287297189235687256e-01,-1.304309487342834473e+00,-2.130421549081802368e-01
3.291347622871398926e-01,-1.305916547775268555e+00,-1.653604209423065186e-01
3.295315802097320557e-01,-1.307490944862365723e+00,-1.179676279425621033e-01
3.299290239810943604e-01,-1.309067964553833008e+00,-7.075063139200210571e-02
3.303321301937103271e-01,-1.310667395591735840e+00,-2.359317243099212646e-02
3.307418823242187500e-01,-1.312293171882629395e+00,2.362243831157684326e-02
3.311553597450256348e-01,-1.313933730125427246e+00,7.101360708475112915e-02
3.315654695034027100e-01,-1.315560936927795410e+00,1.186957284808158875e-01
3.319614827632904053e-01,-1.317132234573364258e+00,1.667805910110473633e-01
3.324043750762939453e-01,-1.318889498710632324e+00,2.154236137866973877e-01
3.328261673450469971e-01,-1.320562958717346191e+00,2.647181749343872070e-01
3.332036435604095459e-01,-1.322060823440551758e+00,3.147660493850708008e-01
3.473574817180633545e-01,-1.299449324607849121e+00,-3.604110777378082275e-01
3.477566242218017578e-01,-1.300942420959472656e+00,-3.108912706375122070e-01
3.482013344764709473e-01,-1.302606105804443359e+00,-2.620907723903656006e-01
3.486223220825195312e-01,-1.304180979728698730e+00,-2.138143032789230347e-01
3.490737974643707275e-01,-1.305869936943054199e+00,-1.659701764583587646e-01
3.494826853275299072e-01,-1.307399630546569824e+00,-1.183985844254493713e-01
3.499164581298828125e-01,-1.309022307395935059e+00,-7.101158052682876587e-02
3.503440022468566895e-01,-1.310621738433837891e+00,-2.368019148707389832e-02
3.507663309574127197e-01,-1.312201619148254395e+00,2.370873652398586273e-02
3.512168228626251221e-01,-1.313886880874633789e+00,7.127548009157180786e-02
3.516297042369842529e-01,-1.315431475639343262e+00,1.191259548068046570e-01
3.520808219909667969e-01,-1.317119002342224121e+00,1.673998981714248657e-01
3.525177240371704102e-01,-1.318753600120544434e+00,2.162034064531326294e-01
3.530131280422210693e-01,-1.320606827735900879e+00,2.657126188278198242e-01
3.534767627716064453e-01,-1.322341203689575195e+00,3.160050213336944580e-01
3.672364354133605957e-01,-1.299002647399902344e+00,-3.617080748081207275e-01
3.677060008049011230e-01,-1.300663709640502930e+00,-3.120504617691040039e-01
3.682104647159576416e-01,-1.302448034286499023e+00,-2.630924582481384277e-01
3.686772882938385010e-01,-1.304099321365356445e+00,-2.146440893411636353e-01
3.691251575946807861e-01,-1.305683493614196777e+00,-1.666009277105331421e-01
3.695683479309082031e-01,-1.307251214981079102e+00,-1.188520267605781555e-01
3.700170516967773438e-01,-1.308838486671447754e+00,-7.128161936998367310e-02
3.704691231250762939e-01,-1.310437560081481934e+00,-2.377023734152317047e-02
3.709257543087005615e-01,-1.312052726745605469e+00,2.379953488707542419e-02
3.713912665843963623e-01,-1.313699245452880859e+00,7.154634594917297363e-02
3.718577027320861816e-01,-1.315349221229553223e+00,1.195882782340049744e-01
3.723128736019134521e-01,-1.316959261894226074e+00,1.680396795272827148e-01
3.727402389049530029e-01,-1.318470954895019531e+00,2.170095294713973999e-01
3.732157349586486816e-01,-1.320152878761291504e+00,2.666688263416290283e-01
3.737556934356689453e-01,-1.322062849998474121e+00,3.171844780445098877e-01
3.873877525329589844e-01,-1.298970818519592285e+00,-3.632059693336486816e-01
3.879231214523315430e-01,-1.300765991210937500e+00,-3.133750557899475098e-01
3.884105384349822998e-01,-1.302400350570678711e+00,-2.641787528991699219e-01
3.888743817806243896e-01,-1.303955674171447754e+00,-2.155144959688186646e-01
3.893740773200988770e-01,-1.305631279945373535e+00,-1.672882586717605591e-01
3.898547589778900146e-01,-1.307243108749389648e+00,-1.193463876843452454e-01
3.903267085552215576e-01,-1.308825612068176270e+00,-7.157786190509796143e-02
3.908036649227142334e-01,-1.310424923896789551e+00,-2.386903017759323120e-02
3.912867605686187744e-01,-1.312044739723205566e+00,2.389853447675704956e-02
3.917645215988159180e-01,-1.313646793365478516e+00,7.184152305126190186e-02
3.922290205955505371e-01,-1.315204381942749023e+00,1.200732290744781494e-01
3.927380442619323730e-01,-1.316911101341247559e+00,1.687335222959518433e-01
3.932342231273651123e-01,-1.318574905395507812e+00,2.179307341575622559e-01
3.936951756477355957e-01,-1.320120573043823242e+00,2.677731513977050781e-01
3.942086994647979736e-01,-1.321842432022094727e+00,3.184527158737182617e-01
4.076552391052246094e-01,-1.298761487007141113e+00,-3.647415935993194580e-01
4.081732630729675293e-01,-1.300411820411682129e+00,-3.146650195121765137e-01
4.087289571762084961e-01,-1.302182197570800781e+00,-2.652940452098846436e-01
4.092453718185424805e-01,-1.303827524185180664e+00,-2.164392918348312378e-01
4.097430408000946045e-01,-1.305413126945495605e+00,-1.679945439100265503e-01
4.102381467819213867e-01,-1.306990385055541992e+00,-1.198471337556838989e-01
4.107498824596405029e-01,-1.308620810508728027e+00,-7.188081741333007812e-02
4.112518131732940674e-01,-1.310219883918762207e+00,-2.397006005048751831e-02
4.117449522018432617e-01,-1.311791062355041504e+00,2.399880439043045044e-02
4.122585654258728027e-01,-1.313427329063415527e+00,7.214483618736267090e-02
4.127757549285888672e-01,-1.315075159072875977e+00,1.205884739756584167e-01
4.132829010486602783e-01,-1.316690802574157715e+00,1.694458872079849243e-01
4.137615859508514404e-01,-1.318215847015380859e+00,2.188277989625930786e-01
4.142927825450897217e-01,-1.319908142089843750e+00,2.689053416252136230e-01
4.148931801319122314e-01,-1.321821093559265137e+00,3.198454976081848145e-01
4.282259047031402588e-01,-1.298935174942016602e+00,-3.664741814136505127e-01
4.287145733833312988e-01,-1.300417423248291016e+00,-3.161188364028930664e-01
4.292566478252410889e-01,-1.302061796188354492e+00,-2.664939463138580322e-01
4.298321008682250977e-01,-1.303807258605957031e+00,-2.174349725246429443e-01
