-2.343368768692016602e+00,-6.940753936767578125e+00,1.278698593378067017e-01
-2.346151351928710938e+00,-6.948995113372802734e+00,3.843773901462554932e-01
-2.349320411682128906e+00,-6.958381652832031250e+00,6.425398588180541992e-01
-2.351990699768066406e+00,-6.966290473937988281e+00,9.027872681617736816e-01
-2.355128526687622070e+00,-6.975584983825683594e+00,1.166092991828918457e+00
-1.227776527404785156e+00,-3.815860271453857422e+00,-1.074077725410461426e+00
-1.459325194358825684e+00,-4.535500049591064453e+00,-1.099968194961547852e+00
-1.797246217727661133e+00,-5.585739612579345703e+00,-1.140574812889099121e+00
-2.270783185958862305e+00,-7.057465553283691406e+00,-1.174227118492126465e+00
-2.273332118988037109e+00,-7.065387248992919922e+00,-9.113193154335021973e-01
-2.276203632354736328e+00,-7.074312210083007812e+00,-6.501698493957519531e-01
-2.279003858566284180e+00,-7.083015441894531250e+00,-3.899462819099426270e-01
-2.281765937805175781e+00,-7.091599464416503906e+00,-1.300338804721832275e-01
-2.284496545791625977e+00,-7.100086212158203125e+00,1.301894932985305786e-01
-2.287175655364990234e+00,-7.108412742614746094e+00,3.913444876670837402e-01
-2.290212631225585938e+00,-7.117851257324218750e+00,6.541714072227478027e-01
-2.292749166488647461e+00,-7.125734806060791016e+00,9.191031455993652344e-01
-2.295724391937255859e+00,-7.134982109069824219e+00,1.187124371528625488e+00
-1.168702363967895508e+00,-3.818873167037963867e+00,-1.070107698440551758e+00
-1.398615956306457520e+00,-4.570143222808837891e+00,-1.103401780128479004e+00
-1.705149292945861816e+00,-5.571776866912841797e+00,-1.132624030113220215e+00
-2.209760904312133789e+00,-7.220655441284179688e+00,-1.195993781089782715e+00
-2.212610960006713867e+00,-7.229968547821044922e+00,-9.283675551414489746e-01
-2.215122699737548828e+00,-7.238175868988037109e+00,-6.622480750083923340e-01
-2.217864751815795898e+00,-7.247135639190673828e+00,-3.971933424472808838e-01
-2.220552444458007812e+00,-7.255917549133300781e+00,-1.324505060911178589e-01
-2.223192453384399414e+00,-7.264544010162353516e+00,1.326079666614532471e-01
-2.226081848144531250e+00,-7.273986339569091797e+00,3.986649215221405029e-01
-2.228666543960571289e+00,-7.282431125640869141e+00,6.662971973419189453e-01
-2.231633901596069336e+00,-7.292127609252929688e+00,9.363491535186767578e-01
-2.233875036239624023e+00,-7.299451351165771484e+00,1.209045171737670898e+00
-1.117560982704162598e+00,-3.847720146179199219e+00,-1.073598623275756836e+00
-1.326617121696472168e+00,-4.567492485046386719e+00,-1.098064899444580078e+00
-1.630678534507751465e+00,-5.614365100860595703e+00,-1.136420249938964844e+00
-2.113868713378906250e+00,-7.277970314025878906e+00,-1.200352668762207031e+00
-2.148976087570190430e+00,-7.398843765258789062e+00,-9.460055232048034668e-01
-2.151452302932739258e+00,-7.407369136810302734e+00,-6.748415827751159668e-01
-2.154132843017578125e+00,-7.416598320007324219e+00,-4.047497212886810303e-01
-2.156743049621582031e+00,-7.425585269927978516e+00,-1.349702924489974976e-01
-2.159289121627807617e+00,-7.434350967407226562e+00,1.351296305656433105e-01
-2.162058353424072266e+00,-7.443885326385498047e+00,4.062388837337493896e-01
-2.164515018463134766e+00,-7.452343940734863281e+00,6.789389252662658691e-01
-2.167323827743530273e+00,-7.462014198303222656e+00,9.540824294090270996e-01
-2.170079946517944336e+00,-7.471503734588623047e+00,1.232272028923034668e+00
-1.058896183967590332e+00,-3.850659132003784180e+00,-1.070080161094665527e+00
-1.265524506568908691e+00,-4.602059841156005859e+00,-1.101907491683959961e+00
-1.555650115013122559e+00,-5.657097339630126953e+00,-1.140445947647094727e+00
-1.990448355674743652e+00,-7.238234043121337891e+00,-1.188978314399719238e+00
-2.082578659057617188e+00,-7.573264122009277344e+00,-9.643965363502502441e-01
-2.085194349288940430e+00,-7.582776546478271484e+00,-6.880323290824890137e-01
-2.087630748748779297e+00,-7.591636657714843750e+00,-4.126292169094085693e-01
-2.090160369873046875e+00,-7.600835323333740234e+00,-1.375978291034698486e-01
-2.092787504196166992e+00,-7.610388755798339844e+00,1.377707719802856445e-01
-2.095255136489868164e+00,-7.619361877441406250e+00,4.141361713409423828e-01
-2.097996234893798828e+00,-7.629330158233642578e+00,6.922563910484313965e-01
-2.100229501724243164e+00,-7.637451648712158203e+00,9.725703001022338867e-01
-2.102808952331542969e+00,-7.646831989288330078e+00,1.256096005439758301e+00
-1.007317900657653809e+00,-3.879441261291503906e+00,-1.073961734771728516e+00
-1.194248437881469727e+00,-4.599359512329101562e+00,-1.097055554389953613e+00
-1.465227961540222168e+00,-5.642971515655517578e+00,-1.133254170417785645e+00
-1.893751144409179688e+00,-7.293324470520019531e+00,-1.193452835083007812e+00
-2.013231515884399414e+00,-7.753474235534667969e+00,-9.835746288299560547e-01
-2.015796661376953125e+00,-7.763353824615478516e+00,-7.017273306846618652e-01
-2.018171072006225586e+00,-7.772498607635498047e+00,-4.208464026451110840e-01
-2.020616292953491211e+00,-7.781915187835693359e+00,-1.403379589319229126e-01
-2.023136377334594727e+00,-7.791620254516601562e+00,1.405129879713058472e-01
-2.025484800338745117e+00,-7.800664901733398438e+00,4.223714768886566162e-01
-2.028076648712158203e+00,-7.810647487640380859e+00,7.060021758079528809e-01
-2.030673503875732422e+00,-7.820648193359375000e+00,9.920960664749145508e-01
-2.033183097839355469e+00,-7.830313682556152344e+00,1.281323671340942383e+00
-9.489524364471435547e-01,-3.882252454757690430e+00,-1.070870041847229004e+00
-1.132656931877136230e+00,-4.633804321289062500e+00,-1.101291656494140625e+00
-1.389725923538208008e+00,-5.685497283935546875e+00,-1.137683153152465820e+00
-1.796234607696533203e+00,-7.348561763763427734e+00,-1.198161840438842773e+00
-1.940736889839172363e+00,-7.939734458923339844e+00,-1.003576159477233887e+00
-1.943246245384216309e+00,-7.950000286102294922e+00,-7.160107493400573730e-01
-1.945554494857788086e+00,-7.959443569183349609e+00,-4.294168353080749512e-01
-1.947911143302917480e+00,-7.969085216522216797e+00,-1.431958824396133423e-01
-1.950320839881896973e+00,-7.978943347930908203e+00,1.433730274438858032e-01
-1.952547430992126465e+00,-7.988052368164062500e+00,4.309602975845336914e-01
-1.954988718032836914e+00,-7.998039722442626953e+00,7.203373312950134277e-01
-1.957415580749511719e+00,-8.007967948913574219e+00,1.012200832366943359e+00
-1.959741234779357910e+00,-8.017482757568359375e+00,1.307227373123168945e+00
-8.443387150764465332e-01,-3.681960344314575195e+00,-1.012184739112854004e+00
-8.455753922462463379e-01,-3.687353134155273438e+00,-8.733877539634704590e-01
-8.466833829879760742e-01,-3.692184925079345703e+00,-7.363155484199523926e-01
-8.475481867790222168e-01,-3.695955991744995117e+00,-6.005754470825195312e-01
-8.487117886543273926e-01,-3.701030254364013672e+00,-4.662240445613861084e-01
-8.497089743614196777e-01,-3.705378770828247070e+00,-3.325926661491394043e-01
-8.507297039031982422e-01,-3.709830045700073242e+00,-1.994702070951461792e-01
-8.517627716064453125e-01,-3.714334964752197266e+00,-6.651671975851058960e-02
-8.528102636337280273e-01,-3.718902587890625000e+00,6.659851968288421631e-02
-8.538889884948730469e-01,-3.723606824874877930e+00,2.002109736204147339e-01
-8.548135757446289062e-01,-3.727638721466064453e+00,3.345907032489776611e-01
-8.560567498207092285e-01,-3.733059883117675781e+00,4.702588617801666260e-01
-8.570787906646728516e-01,-3.737516880035400391e+00,6.073288917541503906e-01
-8.579991459846496582e-01,-3.741530179977416992e+00,7.461562752723693848e-01
-8.591074943542480469e-01,-3.746363639831542969e+00,8.873649835586547852e-01
-7.686423659324645996e-01,-3.586744546890258789e+00,-9.828844070434570312e-01
-7.695487737655639648e-01,-3.590974330902099609e+00,-8.478635549545288086e-01
-7.706013321876525879e-01,-3.595885753631591797e+00,-7.148381471633911133e-01
-7.715758085250854492e-01,-3.600433111190795898e+00,-5.831990838050842285e-01
-7.725113034248352051e-01,-3.604798316955566406e+00,-4.526622891426086426e-01
-7.734376788139343262e-01,-3.609121084213256836e+00,-3.229258656501770020e-01
-7.743760943412780762e-01,-3.613500118255615234e+00,-1.936749368906021118e-01
-7.753165960311889648e-01,-3.617888689041137695e+00,-6.458419561386108398e-02
-7.762609124183654785e-01,-3.622295379638671875e+00,6.466285884380340576e-02
-7.772244215011596680e-01,-3.626791477203369141e+00,1.943873167037963867e-01
-7.781906723976135254e-01,-3.631299972534179688e+00,3.249103128910064697e-01
-7.791338562965393066e-01,-3.635701179504394531e+00,4.565428495407104492e-01
-7.800195813179016113e-01,-3.639834403991699219e+00,5.895813107490539551e-01
-7.810794711112976074e-01,-3.644780397415161133e+00,7.245581150054931641e-01
-7.820654511451721191e-01,-3.649381160736083984e+00,8.616539835929870605e-01
-6.993418931961059570e-01,-3.507656574249267578e+00,-9.583705663681030273e-01
-7.001762986183166504e-01,-3.511841535568237305e+00,-8.267285823822021484e-01
-7.009612321853637695e-01,-3.515778541564941406e+00,-6.968474984169006348e-01
-7.018783688545227051e-01,-3.520378589630126953e+00,-5.685462951660156250e-01
-7.027526497840881348e-01,-3.524763584136962891e+00,-4.413038492202758789e-01
-7.036110162734985352e-01,-3.529068946838378906e+00,-3.148298561573028564e-01
-7.044727802276611328e-01,-3.533391237258911133e+00,-1.888214945793151855e-01
-7.053284049034118652e-01,-3.537682771682739258e+00,-6.296574324369430542e-02
-7.061798572540283203e-01,-3.541953325271606445e+00,6.304175406694412231e-02
-7.070407867431640625e-01,-3.546271562576293945e+00,1.895098239183425903e-01
-7.078964114189147949e-01,-3.550563097000122070e+00,3.167473375797271729e-01
-7.087237834930419922e-01,-3.554712772369384766e+00,4.450535178184509277e-01
-7.097040414810180664e-01,-3.559629678726196289e+00,5.748854279518127441e-01
-7.106589674949645996e-01,-3.564419031143188477e+00,7.064883112907409668e-01
-7.115383744239807129e-01,-3.568829774856567383e+00,8.401442766189575195e-01
-6.333072781562805176e-01,-3.431894779205322266e+00,-9.350982308387756348e-01
-6.342954635620117188e-01,-3.437249898910522461e+00,-8.069489002227783203e-01
-6.350090503692626953e-01,-3.441117048263549805e+00,-6.801779270172119141e-01
-6.358347535133361816e-01,-3.445591449737548828e+00,-5.549414157867431641e-01
-6.365255713462829590e-01,-3.449334859848022461e+00,-4.306752979755401611e-01
-6.373177170753479004e-01,-3.453627824783325195e+00,-3.072544336318969727e-01
-6.381056308746337891e-01,-3.457897186279296875e+00,-1.842802017927169800e-01
-6.388807296752929688e-01,-3.462097644805908203e+00,-6.145137920975685120e-02
-6.396448016166687012e-01,-3.466238021850585938e+00,6.152486801147460938e-02
-6.404101252555847168e-01,-3.470385313034057617e+00,1.849457323551177979e-01
-6.412869691848754883e-01,-3.475136995315551758e+00,3.091680109500885010e-01
-6.420418620109558105e-01,-3.479227781295776367e+00,4.344076514244079590e-01
-6.429274082183837891e-01,-3.484026670455932617e+00,5.611317157745361328e-01
-6.435570716857910156e-01,-3.487438678741455078e+00,6.893339753150939941e-01
-6.445608735084533691e-01,-3.492878198623657227e+00,8.200085163116455078e-01
-5.692320466041564941e-01,-3.352884292602539062e+00,-9.112566709518432617e-01
-5.699648261070251465e-01,-3.357200384140014648e+00,-7.861602306365966797e-01
-5.706437230110168457e-01,-3.361199378967285156e+00,-6.626988649368286133e-01
-5.714152455329895020e-01,-3.365743637084960938e+00,-5.407085418701171875e-01
-5.721380114555358887e-01,-3.370000839233398438e+00,-4.197043478488922119e-01
-5.728338956832885742e-01,-3.374099493026733398e+00,-2.994190454483032227e-01
-5.735177993774414062e-01,-3.378128051757812500e+00,-1.795732229948043823e-01
-5.742143988609313965e-01,-3.382230997085571289e+00,-5.988174676895141602e-02
-5.749254226684570312e-01,-3.386419296264648438e+00,5.995589867234230042e-02
-5.756298899650573730e-01,-3.390568494796752930e+00,1.802345365285873413e-01
-5.763157010078430176e-01,-3.394608020782470703e+00,3.012389540672302246e-01
-5.769644975662231445e-01,-3.398429870605468750e+00,4.232449531555175781e-01
-5.777224302291870117e-01,-3.402894258499145508e+00,5.466768145561218262e-01
-5.784458518028259277e-01,-3.407155275344848633e+00,6.717596054077148438e-01
-5.793243646621704102e-01,-3.412329673767089844e+00,7.990699410438537598e-01
-5.084732770919799805e-01,-3.278705835342407227e+00,-8.890271186828613281e-01
-5.091426968574523926e-01,-3.283022403717041016e+00,-7.670047879219055176e-01
-5.097571611404418945e-01,-3.286984682083129883e+00,-6.465618610382080078e-01
-5.103491544723510742e-01,-3.290802001953125000e+00,-5.274416208267211914e-01
-5.110153555870056152e-01,-3.295097589492797852e+00,-4.094229340553283691e-01
-5.116508007049560547e-01,-3.299195289611816406e+00,-2.920921742916107178e-01
-5.122689604759216309e-01,-3.303180932998657227e+00,-1.751815080642700195e-01
-5.128912329673767090e-01,-3.307193279266357422e+00,-5.841726064682006836e-02
-5.135192871093750000e-01,-3.311243295669555664e+00,5.848879739642143250e-02
-5.141345262527465820e-01,-3.315210342407226562e+00,1.758194714784622192e-01
-5.147265195846557617e-01,-3.319027662277221680e+00,2.938480079174041748e-01
-5.154039263725280762e-01,-3.323395729064941406e+00,4.129390418529510498e-01
-5.160731673240661621e-01,-3.327711105346679688e+00,5.333573222160339355e-01
-5.167044401168823242e-01,-3.331781625747680664e+00,6.553735733032226562e-01
-5.172623395919799805e-01,-3.335379123687744141e+00,7.792367339134216309e-01
-4.517801403999328613e-01,-3.216472148895263672e+00,-8.703097701072692871e-01
-4.523858129978179932e-01,-3.220784187316894531e+00,-7.508745193481445312e-01
-4.529367685317993164e-01,-3.224706888198852539e+00,-6.329714655876159668e-01
-4.534616172313690186e-01,-3.228443384170532227e+00,-5.163537263870239258e-01
-4.539843499660491943e-01,-3.232165098190307617e+00,-4.007549881935119629e-01
-4.545603692531585693e-01,-3.236266136169433594e+00,-2.859154641628265381e-01
-4.551153182983398438e-01,-3.240217208862304688e+00,-1.714792251586914062e-01
-4.556682109832763672e-01,-3.244153499603271484e+00,-5.718268081545829773e-02
-4.562204778194427490e-01,-3.248085260391235352e+00,5.725198239088058472e-02
-4.567557573318481445e-01,-3.251896142959594727e+00,1.720973104238510132e-01
-4.573512673377990723e-01,-3.256135940551757812e+00,2.876709103584289551e-01
-4.579544365406036377e-01,-3.260430335998535156e+00,4.042595922946929932e-01
-4.585441946983337402e-01,-3.264629125595092773e+00,5.221412181854248047e-01
-4.590941965579986572e-01,-3.268544912338256836e+00,6.415763497352600098e-01
-4.595735073089599609e-01,-3.271957397460937500e+00,7.628046870231628418e-01
-3.965866565704345703e-01,-3.150220394134521484e+00,-8.507603406906127930e-01
-3.970157206058502197e-01,-3.153628349304199219e+00,-7.338181734085083008e-01
-3.975276052951812744e-01,-3.157694578170776367e+00,-6.186375021934509277e-01
-3.980114161968231201e-01,-3.161537647247314453e+00,-5.046900510787963867e-01
-3.985416889190673828e-01,-3.165749788284301758e+00,-3.917727470397949219e-01
-3.990046083927154541e-01,-3.169426918029785156e+00,-2.794772088527679443e-01
-3.994976282119750977e-01,-3.173343181610107422e+00,-1.676203161478042603e-01
-3.999829888343811035e-01,-3.177198648452758789e+00,-5.589586868882179260e-02
-4.004620611667633057e-01,-3.181004047393798828e+00,5.596281588077545166e-02
-4.009746909141540527e-01,-3.185075998306274414e+00,1.682400703430175781e-01
-4.014257788658142090e-01,-3.188658952713012695e+00,2.811730802059173584e-01
-4.019319415092468262e-01,-3.192679643630981445e+00,3.951054215431213379e-01
-4.024209976196289062e-01,-3.196564435958862305e+00,5.102815032005310059e-01
-4.030077457427978516e-01,-3.201225042343139648e+00,6.271657943725585938e-01
-4.034091830253601074e-01,-3.204413890838623047e+00,7.456354498863220215e-01
-3.438955843448638916e-01,-3.087655782699584961e+00,-8.324493169784545898e-01
-3.442809283733367920e-01,-3.091115713119506836e+00,-7.180518507957458496e-01
-3.447324037551879883e-01,-3.095169305801391602e+00,-6.053591966629028320e-01
-3.451544344425201416e-01,-3.098958492279052734e+00,-4.938610196113586426e-01
-3.455645143985748291e-01,-3.102640390396118164e+00,-3.833113610744476318e-01
-3.459764719009399414e-01,-3.106338977813720703e+00,-2.734495103359222412e-01
-3.464090526103973389e-01,-3.110222816467285156e+00,-1.640075147151947021e-01
-3.468299508094787598e-01,-3.114001989364624023e+00,-5.469112098217010498e-02
-3.472403287887573242e-01,-3.117686510086059570e+00,5.475583299994468689e-02
-3.476743996143341064e-01,-3.121583700180053711e+00,1.646066009998321533e-01
-3.481155335903167725e-01,-3.125544548034667969e+00,2.751401364803314209e-01
-3.485521674156188965e-01,-3.129464864730834961e+00,3.866253495216369629e-01
-3.489685952663421631e-01,-3.133203744888305664e+00,4.993184804916381836e-01
-3.494640588760375977e-01,-3.137652158737182617e+00,6.136680841445922852e-01
-3.499300479888916016e-01,-3.141836166381835938e+00,7.298340201377868652e-01
-2.934871613979339600e-01,-3.028463125228881836e+00,-8.152745366096496582e-01
-2.938280999660491943e-01,-3.031980991363525391e+00,-7.032661437988281250e-01
-2.941504120826721191e-01,-3.035306930541992188e+00,-5.927670598030090332e-01
-2.945283651351928711e-01,-3.039206981658935547e+00,-4.836174547672271729e-01
-2.948919236660003662e-01,-3.042958498001098633e+00,-3.753781020641326904e-01
-2.952763438224792480e-01,-3.046925306320190430e+00,-2.678198516368865967e-01
-2.956260740756988525e-01,-3.050534248352050781e+00,-1.606204509735107422e-01
-2.959853410720825195e-01,-3.054241418838500977e+00,-5.356165394186973572e-02
-2.963549792766571045e-01,-3.058055639266967773e+00,5.362854897975921631e-02
-2.966925203800201416e-01,-3.061538696289062500e+00,1.611998677253723145e-01
-2.970554232597351074e-01,-3.065283536911010742e+00,2.694334983825683594e-01
-2.974101006984710693e-01,-3.068943262100219727e+00,3.785835802555084229e-01
-2.978291213512420654e-01,-3.073267221450805664e+00,4.890373051166534424e-01
-2.982397973537445068e-01,-3.077504873275756836e+00,6.010078787803649902e-01
-2.986209094524383545e-01,-3.081437587738037109e+00,7.147375941276550293e-01
-2.446787506341934204e-01,-2.966459512710571289e+00,-7.975584268569946289e-01
-2.449758946895599365e-01,-2.970062255859375000e+00,-6.880203485488891602e-01
-2.452533245086669922e-01,-2.973425626754760742e+00,-5.799372792243957520e-01
-2.455725371837615967e-01,-2.977295875549316406e+00,-4.731579720973968506e-01
-2.458754777908325195e-01,-2.980968713760375977e+00,-3.672593235969543457e-01
-2.461716383695602417e-01,-2.984559297561645508e+00,-2.620014250278472900e-01
-2.464675307273864746e-01,-2.988146781921386719e+00,-1.571336984634399414e-01
-2.467670738697052002e-01,-2.991778135299682617e+00,-5.239894241094589233e-02
-2.470709234476089478e-01,-2.995462179183959961e+00,5.246346443891525269e-02
-2.473768591880798340e-01,-2.999171257019042969e+00,1.577134281396865845e-01
-2.476796656847000122e-01,-3.002842426300048828e+00,2.636064291000366211e-01
-2.479713112115859985e-01,-3.006378412246704102e+00,3.703898191452026367e-01
-2.483119666576385498e-01,-3.010508537292480469e+00,4.784361720085144043e-01
-2.486413270235061646e-01,-3.014501571655273438e+00,5.879486799240112305e-01
-2.489419430494308472e-01,-3.018146276473999023e+00,6.991590857505798340e-01
-1.983757168054580688e-01,-2.913524150848388672e+00,-7.824826836585998535e-01
-1.986257135868072510e-01,-2.917195796966552734e+00,-6.750460267066955566e-01
-1.988565474748611450e-01,-2.920586109161376953e+00,-5.690179467201232910e-01
-1.990811675786972046e-01,-2.923884868621826172e+00,-4.641693830490112305e-01
-1.993362903594970703e-01,-2.927631855010986328e+00,-3.602997362613677979e-01
-1.995828151702880859e-01,-2.931252717971801758e+00,-2.570447623729705811e-01
-1.998259872198104858e-01,-2.934824228286743164e+00,-1.541634947061538696e-01
-2.000688612461090088e-01,-2.938390970230102539e+00,-5.140848085284233093e-02
-2.003120034933090210e-01,-2.941962003707885742e+00,5.147095769643783569e-02
-2.005535960197448730e-01,-2.945510387420654297e+00,1.547248363494873047e-01
-2.007895410060882568e-01,-2.948975801467895508e+00,2.585989236831665039e-01
-2.010605037212371826e-01,-2.952955245971679688e+00,3.634162545204162598e-01
-2.013307660818099976e-01,-2.956924676895141602e+00,4.694144725799560547e-01
-2.015886306762695312e-01,-2.960711956024169922e+00,5.768356919288635254e-01
-2.018201351165771484e-01,-2.964111804962158203e+00,6.859024763107299805e-01
-1.535349935293197632e-01,-2.857949733734130859e+00,-7.668883800506591797e-01
-1.536938399076461792e-01,-2.860906600952148438e+00,-6.614437699317932129e-01
-1.539221405982971191e-01,-2.865156173706054688e+00,-5.577321648597717285e-01
-1.540992856025695801e-01,-2.868453502655029297e+00,-4.549728631973266602e-01
-1.542971283197402954e-01,-2.872136354446411133e+00,-3.531619906425476074e-01
-1.544732153415679932e-01,-2.875414133071899414e+00,-2.519285380840301514e-01
-1.546642780303955078e-01,-2.878970384597778320e+00,-1.510977894067764282e-01
-1.548522710800170898e-01,-2.882469892501831055e+00,-5.038617551326751709e-02
-1.550376713275909424e-01,-2.885921001434326172e+00,5.044650286436080933e-02
-1.552394330501556396e-01,-2.889676809310913086e+00,1.516596972942352295e-01
-1.554217636585235596e-01,-2.893070697784423828e+00,2.534754872322082520e-01
-1.556281894445419312e-01,-2.896913051605224609e+00,3.562085926532745361e-01
-1.557872146368026733e-01,-2.899873256683349609e+00,4.599564075469970703e-01
-1.560218781232833862e-01,-2.904241323471069336e+00,5.653405189514160156e-01
-1.561895608901977539e-01,-2.907362461090087891e+00,6.721844077110290527e-01
-1.106628924608230591e-01,-2.810247898101806641e+00,-7.535861134529113770e-01
-1.107831001281738281e-01,-2.813300609588623047e+00,-6.500040292739868164e-01
-1.109254583716392517e-01,-2.816915988922119141e+00,-5.479764938354492188e-01
-1.110807433724403381e-01,-2.820859193801879883e+00,-4.471257925033569336e-01
-1.112086400389671326e-01,-2.824107170104980469e+00,-3.470249772071838379e-01
-1.113481447100639343e-01,-2.827649831771850586e+00,-2.475786656141281128e-01
-1.114789620041847229e-01,-2.830971956253051758e+00,-1.484797149896621704e-01
-1.116144582629203796e-01,-2.834412813186645508e+00,-4.951313138008117676e-02
-1.117550134658813477e-01,-2.837982177734375000e+00,4.957548156380653381e-02
-1.118878722190856934e-01,-2.841356039047241211e+00,1.490243524312973022e-01
-1.120340675115585327e-01,-2.845068693161010742e+00,2.491037994623184204e-01
-1.121550425887107849e-01,-2.848140716552734375e+00,3.499782085418701172e-01
-1.122921109199523926e-01,-2.851621389389038086e+00,4.520018398761749268e-01
-1.124554798007011414e-01,-2.855770349502563477e+00,5.555348992347717285e-01
-1.126111671328544617e-01,-2.859723806381225586e+00,6.607299447059631348e-01
-6.914205104112625122e-02,-2.760078430175781250e+00,-7.397916316986083984e-01
-6.922157108783721924e-02,-2.763252735137939453e+00,-6.381462812423706055e-01
-6.931351125240325928e-02,-2.766922950744628906e+00,-5.380032062530517578e-01
-6.939964741468429565e-02,-2.770361423492431641e+00,-4.389191567897796631e-01
-6.948351860046386719e-02,-2.773709297180175781e+00,-3.406750261783599854e-01
-6.957324594259262085e-02,-2.777291297912597656e+00,-2.430573701858520508e-01
-6.965634226799011230e-02,-2.780608415603637695e+00,-1.457710117101669312e-01
-6.974103301763534546e-02,-2.783988952636718750e+00,-4.860988259315490723e-02
-6.982749700546264648e-02,-2.787440776824951172e+00,4.867015033960342407e-02
-6.990794837474822998e-02,-2.790652275085449219e+00,1.462975591421127319e-01
-6.999531388282775879e-02,-2.794139862060546875e+00,2.445318847894668579e-01
-7.008188217878341675e-02,-2.797595500946044922e+00,3.436087965965270996e-01
-7.016451656818389893e-02,-2.800894021987915039e+00,4.437565505504608154e-01
-7.026214152574539185e-02,-2.804791212081909180e+00,5.453664064407348633e-01
-7.035370171070098877e-02,-2.808446168899536133e+00,6.485832929611206055e-01
-2.911365590989589691e-02,-2.712423563003540039e+00,-7.268324494361877441e-01
-2.914905361831188202e-02,-2.715721368789672852e+00,-6.270088553428649902e-01
-2.918907813727855682e-02,-2.719450473785400391e+00,-5.286372900009155273e-01
-2.922611683607101440e-02,-2.722901105880737305e+00,-4.312893748283386230e-01
-2.926163561642169952e-02,-2.726210355758666992e+00,-3.347553312778472900e-01
-2.929678000509738922e-02,-2.729484796524047852e+00,-2.388123720884323120e-01
-2.933233976364135742e-02,-2.732797622680664062e+00,-1.432278901338577271e-01
-2.936800569295883179e-02,-2.736120462417602539e+00,-4.776183888316154480e-02
-2.940385043621063232e-02,-2.739459991455078125e+00,4.782013595104217529e-02
-2.944038435816764832e-02,-2.742863655090332031e+00,1.437554657459259033e-01
-2.947698161005973816e-02,-2.746273517608642578e+00,2.402812689542770386e-01
-2.951267361640930176e-02,-2.749598741531372070e+00,3.376272022724151611e-01
-2.954615093767642975e-02,-2.752717733383178711e+00,4.360121190547943115e-01
-2.958532795310020447e-02,-2.756367683410644531e+00,5.358136296272277832e-01
-2.962141484022140503e-02,-2.759729862213134766e+00,6.371695399284362793e-01
9.535154327750205994e-03,-2.663850545883178711e+00,-7.137801051139831543e-01
9.547043591737747192e-03,-2.667172193527221680e+00,-6.157682538032531738e-01
9.558060206472873688e-03,-2.670249938964843750e+00,-5.190465450286865234e-01
9.570523165166378021e-03,-2.673731565475463867e+00,-4.234795570373535156e-01
9.581066668033599854e-03,-2.676677227020263672e+00,-3.286562561988830566e-01
9.592982009053230286e-03,-2.680006027221679688e+00,-2.344712913036346436e-01
9.604831226170063019e-03,-2.683316469192504883e+00,-1.406273394823074341e-01
9.616510942578315735e-03,-2.686579227447509766e+00,-4.689464718103408813e-02
9.628046303987503052e-03,-2.689801931381225586e+00,4.695089906454086304e-02
9.639599360525608063e-03,-2.693029642105102539e+00,1.411364078521728516e-01
9.652676992118358612e-03,-2.696683168411254883e+00,2.359303683042526245e-01
9.664029814302921295e-03,-2.699854850769042969e+00,3.315021097660064697e-01
9.677108377218246460e-03,-2.703508615493774414e+00,4.281957745552062988e-01
9.689640253782272339e-03,-2.707009553909301758e+00,5.261918902397155762e-01
9.700952097773551941e-03,-2.710169792175292969e+00,6.256950497627258301e-01
4.689669609069824219e-02,-2.620829105377197266e+00,-7.023603916168212891e-01
4.695843160152435303e-02,-2.624279260635375977e+00,-6.059586405754089355e-01
4.701500013470649719e-02,-2.627440452575683594e+00,-5.108036994934082031e-01
4.706940054893493652e-02,-2.630480766296386719e+00,-4.166933000087738037e-01
4.713002964854240417e-02,-2.633869171142578125e+00,-3.234497308731079102e-01
4.718814417719841003e-02,-2.637116670608520508e+00,-2.307544052600860596e-01
4.724497720599174500e-02,-2.640292882919311523e+00,-1.383938342332839966e-01
4.730241745710372925e-02,-2.643502950668334961e+00,-4.614983499050140381e-02
4.736062511801719666e-02,-2.646755933761596680e+00,4.620662331581115723e-02
4.741796478629112244e-02,-2.649960279464721680e+00,1.389005631208419800e-01
4.747347906231880188e-02,-2.653062820434570312e+00,2.321497201919555664e-01
4.753627628087997437e-02,-2.656572103500366211e+00,3.262377679347991943e-01
4.759821668267250061e-02,-2.660033702850341797e+00,4.213747382164001465e-01
4.765655100345611572e-02,-2.663293600082397461e+00,5.177739262580871582e-01
4.770802706480026245e-02,-2.666170358657836914e+00,6.156315207481384277e-01
8.299130946397781372e-02,-2.576125621795654297e+00,-6.906278133392333984e-01
8.310734480619430542e-02,-2.579727411270141602e+00,-5.958850979804992676e-01
8.321252465248107910e-02,-2.582992315292358398e+00,-5.023425817489624023e-01
8.331206440925598145e-02,-2.586082220077514648e+00,-4.098070561885833740e-01
8.341030031442642212e-02,-2.589131355285644531e+00,-3.180698156356811523e-01
8.351677656173706055e-02,-2.592436790466308594e+00,-2.269261479377746582e-01
8.361922949552536011e-02,-2.595616817474365234e+00,-1.361008882522583008e-01
8.372090011835098267e-02,-2.598772764205932617e+00,-4.538521170616149902e-02
8.382207155227661133e-02,-2.601913213729858398e+00,4.544005915522575378e-02
8.391994237899780273e-02,-2.604951381683349609e+00,1.365903317928314209e-01
8.402732014656066895e-02,-2.608284473419189453e+00,2.283133715391159058e-01
8.413518220186233521e-02,-2.611632585525512695e+00,3.208340406417846680e-01
8.423969894647598267e-02,-2.614876747131347656e+00,4.143700301647186279e-01
8.433607965707778931e-02,-2.617868661880493164e+00,5.091253519058227539e-01
8.444894105195999146e-02,-2.621371984481811523e+00,6.055044531822204590e-01
1.179777607321739197e-01,-2.534404993057250977e+00,-6.798260807991027832e-01
1.181156337261199951e-01,-2.537366867065429688e+00,-5.864307284355163574e-01
1.182724907994270325e-01,-2.540736436843872070e+00,-4.944031834602355957e-01
1.184187904000282288e-01,-2.543879270553588867e+00,-4.033465981483459473e-01
1.185605525970458984e-01,-2.546924591064453125e+00,-3.130612075328826904e-01
1.187024638056755066e-01,-2.549973011016845703e+00,-2.233349978923797607e-01
1.188506782054901123e-01,-2.553157091140747070e+00,-1.339499801397323608e-01
1.189952120184898376e-01,-2.556262016296386719e+00,-4.466797038912773132e-02
1.191364005208015442e-01,-2.559294939041137695e+00,4.472096636891365051e-02
1.192849799990653992e-01,-2.562486886978149414e+00,1.344394683837890625e-01
1.194355115294456482e-01,-2.565720319747924805e+00,2.247141897678375244e-01
1.195839866995811462e-01,-2.568910121917724609e+00,3.157635927200317383e-01
1.197250932455062866e-01,-2.571941375732421875e+00,4.077959954738616943e-01
1.198895275592803955e-01,-2.575473546981811523e+00,5.011627078056335449e-01
1.200424954295158386e-01,-2.578759670257568359e+00,5.959973931312561035e-01
1.518884301185607910e-01,-2.493877887725830078e+00,-6.694697141647338867e-01
1.520792394876480103e-01,-2.497010707855224609e+00,-5.775476694107055664e-01
1.522908657789230347e-01,-2.500485420227050781e+00,-4.869450330734252930e-01
1.524856239557266235e-01,-2.503683328628540039e+00,-3.972786664962768555e-01
1.526711583137512207e-01,-2.506729602813720703e+00,-3.083575367927551270e-01
1.528532952070236206e-01,-2.509720325469970703e+00,-2.199786007404327393e-01
1.530362665653228760e-01,-2.512724399566650391e+00,-1.319301277399063110e-01
1.532223820686340332e-01,-2.515780210494995117e+00,-4.399441182613372803e-02
1.534121036529541016e-01,-2.518895387649536133e+00,4.404888674616813660e-02
1.536040157079696655e-01,-2.522046327590942383e+00,1.324195712804794312e-01
1.537948846817016602e-01,-2.525180101394653320e+00,2.213336825370788574e-01
1.539796590805053711e-01,-2.528214216232299805e+00,3.110004067420959473e-01
1.541516035795211792e-01,-2.531037092208862305e+00,4.016191065311431885e-01
1.543498337268829346e-01,-2.534291982650756836e+00,4.935285151004791260e-01
1.545846164226531982e-01,-2.538146972656250000e+00,5.870622992515563965e-01
1.848919689655303955e-01,-2.455939292907714844e+00,-6.599280834197998047e-01
1.851323992013931274e-01,-2.459133148193359375e+00,-5.693413019180297852e-01
1.853534579277038574e-01,-2.462069272994995117e+00,-4.799313545227050781e-01
1.855670809745788574e-01,-2.464906930923461914e+00,-3.915070891380310059e-01
1.858054846525192261e-01,-2.468073606491088867e+00,-3.038984239101409912e-01
1.860357075929641724e-01,-2.471131801605224609e+00,-2.168074846267700195e-01
1.862627118825912476e-01,-2.474147081375122070e+00,-1.300312876701354980e-01
1.864892542362213135e-01,-2.477156162261962891e+00,-4.336121678352355957e-02
1.867158710956573486e-01,-2.480166435241699219e+00,4.341390728950500488e-02
1.869408935308456421e-01,-2.483155488967895508e+00,1.305047273635864258e-01
1.871604919433593750e-01,-2.486072301864624023e+00,2.181183099746704102e-01
1.874090135097503662e-01,-2.489373445510864258e+00,3.065211176872253418e-01
1.876552402973175049e-01,-2.492644309997558594e+00,3.959126472473144531e-01
1.878883391618728638e-01,-2.495740413665771484e+00,4.864948391914367676e-01
1.880953758955001831e-01,-2.498490571975708008e+00,5.784534215927124023e-01
2.169612348079681396e-01,-2.418912172317504883e+00,-6.507465243339538574e-01
2.172628939151763916e-01,-2.422275543212890625e+00,-5.614705085754394531e-01
2.175371944904327393e-01,-2.425333738327026367e+00,-4.733289480209350586e-01
2.177978157997131348e-01,-2.428239345550537109e+00,-3.861386775970458984e-01
2.180822044610977173e-01,-2.431410074234008789e+00,-2.997376322746276855e-01
2.183362245559692383e-01,-2.434242010116577148e+00,-2.138232141733169556e-01
2.186076492071151733e-01,-2.437268257141113281e+00,-1.282443851232528687e-01
2.188735157251358032e-01,-2.440232515335083008e+00,-4.276534542441368103e-02
2.191345095634460449e-01,-2.443142175674438477e+00,4.281633719801902771e-02
2.194148898124694824e-01,-2.446268081665039062e+00,1.287179589271545410e-01
2.196680307388305664e-01,-2.449090480804443359e+00,2.151274979114532471e-01
2.199497669935226440e-01,-2.452231645584106445e+00,3.023044466972351074e-01
2.202237546443939209e-01,-2.455286264419555664e+00,3.904396891593933105e-01
2.204775065183639526e-01,-2.458115339279174805e+00,4.797266423702239990e-01
2.207724004983901978e-01,-2.461403131484985352e+00,5.705400705337524414e-01
2.480104118585586548e-01,-2.381489515304565430e+00,-6.415681838989257812e-01
2.483698278665542603e-01,-2.384940862655639648e+00,-5.535838603973388672e-01
2.486390769481658936e-01,-2.387526273727416992e+00,-4.665971696376800537e-01
2.489504218101501465e-01,-2.390515804290771484e+00,-3.806675374507904053e-01
2.492527514696121216e-01,-2.393419027328491211e+00,-2.954637408256530762e-01
2.495736330747604370e-01,-2.396500110626220703e+00,-2.108001708984375000e-01
2.498722672462463379e-01,-2.399367809295654297e+00,-1.264253854751586914e-01
2.501761615276336670e-01,-2.402286052703857422e+00,-4.215876758098602295e-02
2.504861354827880859e-01,-2.405262231826782227e+00,4.221099987626075745e-02
2.507759928703308105e-01,-2.408045768737792969e+00,1.268826425075531006e-01
2.510882616043090820e-01,-2.411044120788574219e+00,2.120794802904129028e-01
2.513967156410217285e-01,-2.414006233215332031e+00,2.980051934719085693e-01
2.517547607421875000e-01,-2.417444229125976562e+00,3.849556446075439453e-01
2.520300745964050293e-01,-2.420087814331054688e+00,4.729607403278350830e-01
2.523455917835235596e-01,-2.423117399215698242e+00,5.624452233314514160e-01
2.782799601554870605e-01,-2.345757722854614258e+00,-6.329503059387207031e-01
2.786291837692260742e-01,-2.348701238632202148e+00,-5.460418462753295898e-01
2.789542376995086670e-01,-2.351441383361816406e+00,-4.602782428264617920e-01
2.793188691139221191e-01,-2.354515075683593750e+00,-3.755329251289367676e-01
2.796663641929626465e-01,-2.357444047927856445e+00,-2.914870083332061768e-01
2.800074815750122070e-01,-2.360319614410400391e+00,-2.079489082098007202e-01
2.803497612476348877e-01,-2.363204956054687500e+00,-1.247185915708541870e-01
2.806907892227172852e-01,-2.366079568862915039e+00,-4.158961027860641479e-02
2.810313105583190918e-01,-2.368949890136718750e+00,4.164006561040878296e-02
2.813755273818969727e-01,-2.371851682662963867e+00,1.251749098300933838e-01
2.817175686359405518e-01,-2.374734640121459961e+00,2.092189043760299683e-01
2.820482552051544189e-01,-2.377522230148315430e+00,2.939695715904235840e-01
2.824266850948333740e-01,-2.380712270736694336e+00,3.797112405300140381e-01
2.827903628349304199e-01,-2.383777856826782227e+00,4.666078984737396240e-01
2.831197679042816162e-01,-2.386554479598999023e+00,5.548422336578369141e-01
3.075224757194519043e-01,-2.309234142303466797e+00,-6.242190599441528320e-01
3.079317808151245117e-01,-2.312307834625244141e+00,-5.385503172874450684e-01
3.083059489727020264e-01,-2.315117359161376953e+00,-4.539853632450103760e-01
3.086646199226379395e-01,-2.317810773849487305e+00,-3.703455030918121338e-01
3.090598881244659424e-01,-2.320778846740722656e+00,-2.874710559844970703e-01
3.094396591186523438e-01,-2.323630571365356445e+00,-2.050857394933700562e-01
3.098120093345642090e-01,-2.326426744461059570e+00,-1.229990422725677490e-01
3.101888597011566162e-01,-2.329256534576416016e+00,-4.101619496941566467e-02
3.105711042881011963e-01,-2.332126855850219727e+00,4.106673970818519592e-02
3.109487593173980713e-01,-2.334962606430053711e+00,1.234503388404846191e-01
3.113153874874114990e-01,-2.337715864181518555e+00,2.063289135694503784e-01
3.117255568504333496e-01,-2.340795755386352539e+00,2.899504899978637695e-01
3.121287524700164795e-01,-2.343823671340942383e+00,3.745018839836120605e-01
3.125070631504058838e-01,-2.346664428710937500e+00,4.601716101169586182e-01
3.129440248012542725e-01,-2.349945545196533203e+00,5.473163723945617676e-01
3.364024460315704346e-01,-2.276590824127197266e+00,-6.166334748268127441e-01
3.367885649204254150e-01,-2.279203891754150391e+00,-5.319085121154785156e-01
3.372260332107543945e-01,-2.282164335250854492e+00,-4.484240412712097168e-01
3.376381397247314453e-01,-2.284953355789184570e+00,-3.658301830291748047e-01
3.380812108516693115e-01,-2.287951707839965820e+00,-2.839751243591308594e-01
3.384749889373779297e-01,-2.290616750717163086e+00,-2.025787532329559326e-01
3.388911187648773193e-01,-2.293432950973510742e+00,-1.214986592531204224e-01
3.393033146858215332e-01,-2.296222448348999023e+00,-4.051586613059043884e-02
3.397126793861389160e-01,-2.298992633819580078e+00,4.056474566459655762e-02
3.401475250720977783e-01,-2.301935434341430664e+00,1.219490915536880493e-01
3.405379354953765869e-01,-2.304577589035034180e+00,2.038134187459945679e-01
3.409665822982788086e-01,-2.307478427886962891e+00,2.863987386226654053e-01
3.413790762424468994e-01,-2.310269832611083984e+00,3.698834478855133057e-01
3.418553471565246582e-01,-2.313493013381958008e+00,4.545798301696777344e-01
3.423013389110565186e-01,-2.316511392593383789e+00,5.406151413917541504e-01
3.643410503864288330e-01,-2.243163347244262695e+00,-6.089295148849487305e-01
3.647888898849487305e-01,-2.245920658111572266e+00,-5.253058075904846191e-01
3.652074038982391357e-01,-2.248497247695922852e+00,-4.427905380725860596e-01
3.656781911849975586e-01,-2.251395940780639648e+00,-3.612585067749023438e-01
3.661301136016845703e-01,-2.254178285598754883e+00,-2.804049849510192871e-01
3.666026294231414795e-01,-2.257087469100952148e+00,-2.000570446252822876e-01
3.670383393764495850e-01,-2.259770154953002930e+00,-1.199813410639762878e-01
3.674848079681396484e-01,-2.262518882751464844e+00,-4.000988975167274475e-02
3.679431378841400146e-01,-2.265340805053710938e+00,4.005979374051094055e-02
3.683679997920989990e-01,-2.267956495285034180e+00,1.204159930348396301e-01
3.688188493251800537e-01,-2.270732164382934570e+00,2.012664526700973511e-01
3.692585229873657227e-01,-2.273439168930053711e+00,2.828008830547332764e-01
3.697612285614013672e-01,-2.276534080505371094e+00,3.652921915054321289e-01
3.702470362186431885e-01,-2.279525279998779297e+00,4.489007890224456787e-01
3.706901073455810547e-01,-2.282253026962280273e+00,5.338037014007568359e-01
3.917005062103271484e-01,-2.211146116256713867e+00,-6.016984581947326660e-01
3.922142684459686279e-01,-2.214046478271484375e+00,-5.191105008125305176e-01
3.926855623722076416e-01,-2.216706752777099609e+00,-4.375921785831451416e-01
3.931395709514617920e-01,-2.219269752502441406e+00,-3.569699227809906006e-01
3.936410546302795410e-01,-2.222100496292114258e+00,-2.770872116088867188e-01
3.941264450550079346e-01,-2.224840641021728516e+00,-1.976786255836486816e-01
3.946062922477722168e-01,-2.227549314498901367e+00,-1.185583397746086121e-01
3.950863182544708252e-01,-2.230258941650390625e+00,-3.953536972403526306e-02
3.955677747726440430e-01,-2.232976913452148438e+00,3.958354890346527100e-02
3.960471749305725098e-01,-2.235682964324951172e+00,1.189912483096122742e-01
3.965162038803100586e-01,-2.238330841064453125e+00,1.988772302865982056e-01
3.970415592193603516e-01,-2.241296291351318359e+00,2.794808447360992432e-01
3.975605368614196777e-01,-2.244225978851318359e+00,3.609841465950012207e-01
3.980501890182495117e-01,-2.246990203857421875e+00,4.435702562332153320e-01
3.986123800277709961e-01,-2.250163793563842773e+00,5.275786519050598145e-01
4.181792736053466797e-01,-2.178603172302246094e+00,-5.944107770919799805e-01
4.187675118446350098e-01,-2.181667804718017578e+00,-5.128718018531799316e-01
4.192152917385101318e-01,-2.184000492095947266e+00,-4.322759807109832764e-01
4.197977185249328613e-01,-2.187034845352172852e+00,-3.527153134346008301e-01
4.202875196933746338e-01,-2.189586639404296875e+00,-2.737549543380737305e-01
4.207845330238342285e-01,-2.192175865173339844e+00,-1.952914744615554810e-01
4.213095009326934814e-01,-2.194910764694213867e+00,-1.171301603317260742e-01
4.218220710754394531e-01,-2.197581291198730469e+00,-3.905912488698959351e-02
4.223233759403228760e-01,-2.200192928314208984e+00,3.910554572939872742e-02
4.228565394878387451e-01,-2.202970504760742188e+00,1.175602599978446960e-01
4.234034121036529541e-01,-2.205819606781005859e+00,1.965069323778152466e-01
4.238657653331756592e-01,-2.208228349685668945e+00,2.760856449604034424e-01
4.244759678840637207e-01,-2.211407423019409180e+00,3.566460013389587402e-01
4.249584376811981201e-01,-2.213921070098876953e+00,4.381980895996093750e-01
4.255045950412750244e-01,-2.216766357421875000e+00,5.211228132247924805e-01
4.441573321819305420e-01,-2.147450685501098633e+00,-5.875854492187500000e-01
4.447192251682281494e-01,-2.150167465209960938e+00,-5.069110393524169922e-01
4.453307688236236572e-01,-2.153124094009399414e+00,-4.273824989795684814e-01
4.458963871002197266e-01,-2.155858755111694336e+00,-3.486809730529785156e-01
4.464383125305175781e-01,-2.158478975296020508e+00,-2.706368863582611084e-01
4.469740390777587891e-01,-2.161069154739379883e+00,-1.930704712867736816e-01
4.475157558917999268e-01,-2.163688182830810547e+00,-1.157939508557319641e-01
4.480601847171783447e-01,-2.166320562362670898e+00,-3.861353918910026550e-02
4.486087262630462646e-01,-2.168972730636596680e+00,3.866081312298774719e-02
4.491672813892364502e-01,-2.171673059463500977e+00,1.162212789058685303e-01
4.497263133525848389e-01,-2.174376010894775391e+00,1.942593157291412354e-01
4.502710700035095215e-01,-2.177010059356689453e+00,2.729603648185729980e-01
4.507816731929779053e-01,-2.179478645324707031e+00,3.525011539459228516e-01
4.513579010963439941e-01,-2.182264566421508789e+00,4.331667125225067139e-01
4.520233571529388428e-01,-2.185482025146484375e+00,5.152366161346435547e-01
4.698030948638916016e-01,-2.118136882781982422e+00,-5.813450813293457031e-01
4.703151583671569824e-01,-2.120445728302001953e+00,-5.014397501945495605e-01
4.709933698177337646e-01,-2.123503446578979492e+00,-4.227978289127349854e-01
4.715376198291778564e-01,-2.125957250595092773e+00,-3.449010848999023438e-01
4.721337854862213135e-01,-2.128645181655883789e+00,-2.677161395549774170e-01
4.727090001106262207e-01,-2.131238460540771484e+00,-1.909903287887573242e-01
4.732758104801177979e-01,-2.133794069290161133e+00,-1.145449057221412659e-01
4.738515615463256836e-01,-2.136389970779418945e+00,-3.819702193140983582e-02
4.744378030300140381e-01,-2.139032840728759766e+00,3.824427723884582520e-02
4.750198423862457275e-01,-2.141657114028930664e+00,1.149670034646987915e-01
4.755879640579223633e-01,-2.144218444824218750e+00,1.921535134315490723e-01
4.762185215950012207e-01,-2.147061347961425781e+00,2.700323164463043213e-01
4.767268002033233643e-01,-2.149353027343750000e+00,3.486966490745544434e-01
4.774196147918701172e-01,-2.152476549148559570e+00,4.285664856433868408e-01
4.780792891979217529e-01,-2.155450820922851562e+00,5.097177028656005859e-01
4.945488572120666504e-01,-2.087888240814208984e+00,-5.749269127845764160e-01
4.952589273452758789e-01,-2.090885877609252930e+00,-4.960750639438629150e-01
4.958024024963378906e-01,-2.093180418014526367e+00,-4.181305468082427979e-01
4.964195191860198975e-01,-2.095785856246948242e+00,-3.411240577697753906e-01
4.970744848251342773e-01,-2.098550796508789062e+00,-2.647989392280578613e-01
4.976592361927032471e-01,-2.101019620895385742e+00,-1.889012604951858521e-01
4.982724189758300781e-01,-2.103608369827270508e+00,-1.132957488298416138e-01
4.988786280155181885e-01,-2.106167554855346680e+00,-3.778047114610671997e-02
4.994793832302093506e-01,-2.108703851699829102e+00,3.782596811652183533e-02
5.001131296157836914e-01,-2.111379384994506836e+00,1.137142777442932129e-01
5.006837248802185059e-01,-2.113788604736328125e+00,1.900493055582046509e-01
5.013029575347900391e-01,-2.116402626037597656e+00,2.670515179634094238e-01
5.020106434822082520e-01,-2.119390487670898438e+00,3.449661135673522949e-01
5.025668740272521973e-01,-2.121738672256469727e+00,4.238352775573730469e-01
5.031883120536804199e-01,-2.124362230300903320e+00,5.040174722671508789e-01
5.190404057502746582e-01,-2.059410095214843750e+00,-5.690725445747375488e-01
5.197048783302307129e-01,-2.062046766281127930e+00,-4.909473657608032227e-01
5.203184485435485840e-01,-2.064481258392333984e+00,-4.138429462909698486e-01
5.209909677505493164e-01,-2.067149400711059570e+00,-3.376422226428985596e-01
5.216302871704101562e-01,-2.069686174392700195e+00,-2.620719969272613525e-01
5.222564935684204102e-01,-2.072170734405517578e+00,-1.869604289531707764e-01
5.228837728500366211e-01,-2.074659585952758789e+00,-1.121282279491424561e-01
5.235199928283691406e-01,-2.077183723449707031e+00,-3.739114478230476379e-02
5.241667032241821289e-01,-2.079749822616577148e+00,3.743733838200569153e-02
5.248191356658935547e-01,-2.082338571548461914e+00,1.125432550907135010e-01
5.254663228988647461e-01,-2.084906339645385742e+00,1.881094872951507568e-01
5.260911583900451660e-01,-2.087385654449462891e+00,2.643131613731384277e-01
5.267901420593261719e-01,-2.090158939361572266e+00,3.414005339145660400e-01
5.274556279182434082e-01,-2.092799425125122070e+00,4.195195734500885010e-01
5.280512571334838867e-01,-2.095162630081176758e+00,4.988318681716918945e-01
5.428324937820434570e-01,-2.030712604522705078e+00,-5.632319450378417969e-01
5.434534549713134766e-01,-2.033035755157470703e+00,-4.858424663543701172e-01
5.441456437110900879e-01,-2.035625219345092773e+00,-4.095778465270996094e-01
5.448008179664611816e-01,-2.038076162338256836e+00,-3.341329693794250488e-01
5.455036759376525879e-01,-2.040705680847167969e+00,-2.593644857406616211e-01
5.461398363113403320e-01,-2.043085575103759766e+00,-1.850225776433944702e-01
5.468150377273559570e-01,-2.045611143112182617e+00,-1.109699159860610962e-01
5.474802851676940918e-01,-2.048099994659423828e+00,-3.700488433241844177e-02
5.481374859809875488e-01,-2.050558567047119141e+00,3.704930096864700317e-02
5.488385558128356934e-01,-2.053181171417236328e+00,1.113805696368217468e-01
5.494808554649353027e-01,-2.055584192276000977e+00,1.861544549465179443e-01
5.501829385757446289e-01,-2.058210372924804688e+00,2.615892589092254639e-01
5.508626103401184082e-01,-2.060753107070922852e+00,3.378507494926452637e-01
5.516336560249328613e-01,-2.063637495040893555e+00,4.152140617370605469e-01
5.523549318313598633e-01,-2.066335916519165039e+00,4.938003420829772949e-01
5.661568641662597656e-01,-2.002631664276123047e+00,-5.576339364051818848e-01
5.668779015541076660e-01,-2.005182027816772461e+00,-4.810759425163269043e-01
5.676527619361877441e-01,-2.007922887802124023e+00,-4.055972695350646973e-01
5.683696866035461426e-01,-2.010458707809448242e+00,-3.309050798416137695e-01
5.690572261810302734e-01,-2.012890815734863281e+00,-2.568382620811462402e-01
5.697376728057861328e-01,-2.015297651290893555e+00,-1.832258552312850952e-01
5.704265236854553223e-01,-2.017734289169311523e+00,-1.098893210291862488e-01
5.711206197738647461e-01,-2.020189762115478516e+00,-3.664454817771911621e-02
5.718216300010681152e-01,-2.022669076919555664e+00,3.668952360749244690e-02
5.725361704826354980e-01,-2.025196790695190430e+00,1.102957352995872498e-01
5.732523202896118164e-01,-2.027729988098144531e+00,1.843561530113220215e-01
5.739509463310241699e-01,-2.030201196670532227e+00,2.590470016002655029e-01
5.746067762374877930e-01,-2.032521009445190430e+00,3.345363140106201172e-01
5.753364562988281250e-01,-2.035102128982543945e+00,4.110874235630035400e-01
