-4.973620891571044922e+00,-2.816434383392333984e+00,-7.017984390258789062e-01
-4.979875564575195312e+00,-2.819976091384887695e+00,-5.006869435310363770e-01
-4.986676216125488281e+00,-2.823827028274536133e+00,-3.003329038619995117e-01
-4.993338108062744141e+00,-2.827599525451660156e+00,-1.001632511615753174e-01
-4.999926090240478516e+00,-2.831330299377441406e+00,1.002954095602035522e-01
-5.007157802581787109e+00,-2.835425376892089844e+00,3.015664517879486084e-01
-5.013861179351806641e+00,-2.839221239089965820e+00,5.041038990020751953e-01
-5.020280361175537109e+00,-2.842856168746948242e+00,7.083823084831237793e-01
-5.027595043182373047e+00,-2.846998453140258789e+00,9.151004552841186523e-01
-5.034603118896484375e+00,-2.850966930389404297e+00,1.124639868736267090e+00
-5.040957927703857422e+00,-2.854565620422363281e+00,1.337436318397521973e+00
-3.490173578262329102e+00,-2.042911052703857422e+00,-1.083613395690917969e+00
-4.164157867431640625e+00,-2.437415599822998047e+00,-1.113951206207275391e+00
-4.912114620208740234e+00,-2.875218868255615234e+00,-1.106357932090759277e+00
-4.919103622436523438e+00,-2.879309892654418945e+00,-9.027622938156127930e-01
-4.925806045532226562e+00,-2.883232831954956055e+00,-7.008030414581298828e-01
-4.932412624359130859e+00,-2.887099742889404297e+00,-5.000184774398803711e-01
-4.939055919647216797e+00,-2.890988349914550781e+00,-2.999263405799865723e-01
-4.945658206939697266e+00,-2.894852876663208008e+00,-1.000277400016784668e-01
-4.952283859252929688e+00,-2.898730993270874023e+00,1.001617461442947388e-01
-4.958991050720214844e+00,-2.902657032012939453e+00,3.011369109153747559e-01
-4.965676307678222656e+00,-2.906570196151733398e+00,5.033906102180480957e-01
-4.972177982330322266e+00,-2.910375833511352539e+00,7.074004411697387695e-01
-4.979671001434326172e+00,-2.914761543273925781e+00,9.138776063919067383e-01
-4.986956596374511719e+00,-2.919026136398315430e+00,1.123214602470397949e+00
-4.993685245513916016e+00,-2.922964572906494141e+00,1.335857510566711426e+00
-3.477773427963256836e+00,-2.103051424026489258e+00,-1.088997840881347656e+00
-4.128825187683105469e+00,-2.496750116348266602e+00,-1.113945245742797852e+00
-4.864568710327148438e+00,-2.941663026809692383e+00,-1.105019330978393555e+00
-4.871365070343017578e+00,-2.945772886276245117e+00,-9.016468524932861328e-01
-4.878573894500732422e+00,-2.950132369995117188e+00,-7.000191807746887207e-01
-4.884931087493896484e+00,-2.953976392745971680e+00,-4.994401931762695312e-01
-4.891419887542724609e+00,-2.957900285720825195e+00,-2.995738983154296875e-01
-4.897961616516113281e+00,-2.961856365203857422e+00,-9.991027414798736572e-02
-4.904622554779052734e+00,-2.965884208679199219e+00,1.000461503863334656e-01
-4.911461353302001953e+00,-2.970019817352294922e+00,3.008013665676116943e-01
-4.917463779449462891e+00,-2.973649501800537109e+00,5.027664303779602051e-01
-4.924036026000976562e+00,-2.977623701095581055e+00,7.065424919128417969e-01
-4.931694984436035156e+00,-2.982255220413208008e+00,9.128133654594421387e-01
-4.937613010406494141e+00,-2.985833644866943359e+00,1.121611833572387695e+00
-4.944470405578613281e+00,-2.989980697631835938e+00,1.334004163742065430e+00
-3.443880796432495117e+00,-2.150463342666625977e+00,-1.087911844253540039e+00
-4.093456745147705078e+00,-2.556078195571899414e+00,-1.114159703254699707e+00
-4.818099975585937500e+00,-3.008567333221435547e+00,-1.104132652282714844e+00
-4.824473381042480469e+00,-3.012547016143798828e+00,-9.008564949035644531e-01
-4.830745220184326172e+00,-3.016463518142700195e+00,-6.992799639701843262e-01
-4.837462425231933594e+00,-3.020657777786254883e+00,-4.989563524723052979e-01
-4.843798160552978516e+00,-3.024613857269287109e+00,-2.992781102657318115e-01
-4.850280284881591797e+00,-3.028661727905273438e+00,-9.981171041727066040e-02
-4.856974601745605469e+00,-3.032841920852661133e+00,9.994947165250778198e-02
-4.863279819488525391e+00,-3.036778926849365234e+00,3.004818260669708252e-01
-4.870156764984130859e+00,-3.041073083877563477e+00,5.023285746574401855e-01
-4.877036094665527344e+00,-3.045368671417236328e+00,7.059808373451232910e-01
-4.883697509765625000e+00,-3.049528121948242188e+00,9.119151234626770020e-01
-4.889863491058349609e+00,-3.053378582000732422e+00,1.120578169822692871e+00
-4.897060871124267578e+00,-3.057872772216796875e+00,1.332885265350341797e+00
-3.409985303878784180e+00,-2.197749614715576172e+00,-1.087030291557312012e+00
-4.058076858520507812e+00,-2.615447044372558594e+00,-1.114605188369750977e+00
-4.770562171936035156e+00,-3.074646949768066406e+00,-1.103210926055908203e+00
-4.776763439178466797e+00,-3.078643560409545898e+00,-9.000838398933410645e-01
-4.783556461334228516e+00,-3.083021640777587891e+00,-6.987653970718383789e-01
-4.789681911468505859e+00,-3.086969614028930664e+00,-4.985344707965850830e-01
-4.796220779418945312e+00,-3.091183900833129883e+00,-2.990416288375854492e-01
-4.802643775939941406e+00,-3.095323562622070312e+00,-9.973292797803878784e-02
-4.808964252471923828e+00,-3.099397182464599609e+00,9.986417740583419800e-02
-4.815793037414550781e+00,-3.103798627853393555e+00,3.002619743347167969e-01
-4.821973800659179688e+00,-3.107781887054443359e+00,5.018955469131469727e-01
-4.828903198242187500e+00,-3.112247943878173828e+00,7.053894996643066406e-01
-4.835706710815429688e+00,-3.116632938385009766e+00,9.111905097961425781e-01
-4.842106819152832031e+00,-3.120757818222045898e+00,1.119755864143371582e+00
-4.849624633789062500e+00,-3.125602960586547852e+00,1.332014441490173340e+00
-3.378204584121704102e+00,-2.246343135833740234e+00,-1.087037682533264160e+00
-4.025237083435058594e+00,-2.676588773727416992e+00,-1.115993738174438477e+00
-4.723206043243408203e+00,-3.140704631805419922e+00,-1.102542638778686523e+00
-4.730120658874511719e+00,-3.145302295684814453e+00,-8.996859192848205566e-01
-4.736018657684326172e+00,-3.149224281311035156e+00,-6.983343362808227539e-01
-4.742526054382324219e+00,-3.153551340103149414e+00,-4.982734322547912598e-01
-4.748926639556884766e+00,-3.157807350158691406e+00,-2.988803982734680176e-01
-4.755289077758789062e+00,-3.162038087844848633e+00,-9.967921674251556396e-02
-4.761629104614257812e+00,-3.166253805160522461e+00,9.981211274862289429e-02
-4.767903327941894531e+00,-3.170425891876220703e+00,3.000747263431549072e-01
-4.774914264678955078e+00,-3.175087928771972656e+00,5.016762614250183105e-01
-4.780951023101806641e+00,-3.179102182388305664e+00,7.049596905708312988e-01
-4.787844657897949219e+00,-3.183685779571533203e+00,9.106652140617370605e-01
-4.794416427612304688e+00,-3.188055753707885742e+00,1.119165182113647461e+00
-4.800337791442871094e+00,-3.191993236541748047e+00,1.330889821052551270e+00
-3.344285964965820312e+00,-2.293486118316650391e+00,-1.086575269699096680e+00
-3.989819288253784180e+00,-2.736187934875488281e+00,-1.116918087005615234e+00
-4.675699234008789062e+00,-3.206559419631958008e+00,-1.102053880691528320e+00
-4.682457923889160156e+00,-3.211194515228271484e+00,-8.992705941200256348e-01
-4.688888549804687500e+00,-3.215604543685913086e+00,-6.981000900268554688e-01
-4.695168018341064453e+00,-3.219911098480224609e+00,-4.980889856815338135e-01
-4.701425075531005859e+00,-3.224201917648315430e+00,-2.987647056579589844e-01
-4.707728385925292969e+00,-3.228524446487426758e+00,-9.964071959257125854e-02
-4.714092731475830078e+00,-3.232889175415039062e+00,9.977542608976364136e-02
-4.720475673675537109e+00,-3.237266778945922852e+00,2.999753355979919434e-01
-4.726778984069824219e+00,-3.241589307785034180e+00,5.014424324035644531e-01
-4.732849597930908203e+00,-3.245752573013305664e+00,7.046451568603515625e-01
-4.739858150482177734e+00,-3.250559091567993164e+00,9.102943539619445801e-01
-4.746632099151611328e+00,-3.255204677581787109e+00,1.118772625923156738e+00
-4.752840995788574219e+00,-3.259462594985961914e+00,1.330519914627075195e+00
-3.312378644943237305e+00,-2.342005252838134766e+00,-1.086988687515258789e+00
-3.956820964813232422e+00,-2.797655820846557617e+00,-1.118775844573974609e+00
-4.629317760467529297e+00,-3.273142099380493164e+00,-1.102051377296447754e+00
-4.634887695312500000e+00,-3.277080297470092773e+00,-8.990510106086730957e-01
-4.641280174255371094e+00,-3.281600236892700195e+00,-6.979336738586425781e-01
-4.647947788238525391e+00,-3.286314487457275391e+00,-4.980186820030212402e-01
-4.654070377349853516e+00,-3.290643215179443359e+00,-2.987179458141326904e-01
-4.660313129425048828e+00,-3.295057535171508789e+00,-9.962520003318786621e-02
-4.666692256927490234e+00,-3.299567699432373047e+00,9.976156055927276611e-02
-4.672515869140625000e+00,-3.303685188293457031e+00,2.999018430709838867e-01
-4.678734302520751953e+00,-3.308082103729248047e+00,5.013174414634704590e-01
-4.685933113098144531e+00,-3.313171863555908203e+00,7.046483755111694336e-01
-4.691869735717773438e+00,-3.317369222640991211e+00,9.101040959358215332e-01
-4.698785305023193359e+00,-3.322259187698364258e+00,1.118588805198669434e+00
-4.705212593078613281e+00,-3.326803445816040039e+00,1.330380678176879883e+00
-3.280394792556762695e+00,-2.390537738800048828e+00,-1.087610006332397461e+00
-3.923728227615356445e+00,-2.859357357025146484e+00,-1.120876193046569824e+00
-4.581791877746582031e+00,-3.338911056518554688e+00,-1.102001667022705078e+00
-4.588093757629394531e+00,-3.343503713607788086e+00,-8.991651535034179688e-01
-4.594213008880615234e+00,-3.347963094711303711e+00,-6.979905962944030762e-01
-4.600330352783203125e+00,-3.352420806884765625e+00,-4.980070292949676514e-01
-4.606668949127197266e+00,-3.357040166854858398e+00,-2.987290322780609131e-01
-4.612852573394775391e+00,-3.361546277999877930e+00,-9.962898492813110352e-02
-4.618844985961914062e+00,-3.365913391113281250e+00,9.975841641426086426e-02
-4.625149726867675781e+00,-3.370507717132568359e+00,2.999274730682373047e-01
-4.631522655487060547e+00,-3.375151872634887695e+00,5.013837218284606934e-01
-4.637809753417968750e+00,-3.379733562469482422e+00,7.046141624450683594e-01
-4.643804550170898438e+00,-3.384101867675781250e+00,9.100831747055053711e-01
-4.650846958160400391e+00,-3.389234066009521484e+00,1.118610620498657227e+00
-4.657475471496582031e+00,-3.394064664840698242e+00,1.330483078956604004e+00
-3.248345613479614258e+00,-2.439119338989257812e+00,-1.088447809219360352e+00
-3.860106229782104492e+00,-2.898478507995605469e+00,-1.114438891410827637e+00
-4.534219264984130859e+00,-3.404656648635864258e+00,-1.102167725563049316e+00
-4.540425300598144531e+00,-3.409316778182983398e+00,-8.992946147918701172e-01
-4.547109603881835938e+00,-3.414335727691650391e+00,-6.981875896453857422e-01
-4.553029060363769531e+00,-3.418780565261840820e+00,-4.981327950954437256e-01
-4.559238910675048828e+00,-3.423443555831909180e+00,-2.988003194332122803e-01
-4.565362453460693359e+00,-3.428041458129882812e+00,-9.965283423662185669e-02
-4.571363925933837891e+00,-3.432548046112060547e+00,9.978383779525756836e-02
-4.577746868133544922e+00,-3.437340736389160156e+00,3.000132739543914795e-01
-4.583378791809082031e+00,-3.441569566726684570e+00,5.014532804489135742e-01
-4.589638710021972656e+00,-3.446270227432250977e+00,7.047177553176879883e-01
-4.597043037414550781e+00,-3.451829910278320312e+00,9.105085134506225586e-01
-4.602832317352294922e+00,-3.456176757812500000e+00,1.118846058845520020e+00
-4.609645366668701172e+00,-3.461292505264282227e+00,1.330835938453674316e+00
-3.216240167617797852e+00,-2.487785577774047852e+00,-1.089510083198547363e+00
-3.826864242553710938e+00,-2.960107564926147461e+00,-1.116959691047668457e+00
-4.487673282623291016e+00,-3.471248388290405273e+00,-1.102818012237548828e+00
-4.493556976318359375e+00,-3.475799322128295898e+00,-8.997732996940612793e-01
-4.499395847320556641e+00,-3.480315923690795898e+00,-6.984387636184692383e-01
-4.505710601806640625e+00,-3.485200166702270508e+00,-4.983625710010528564e-01
-4.511793613433837891e+00,-3.489905595779418945e+00,-2.989340126514434814e-01
-4.517857074737548828e+00,-3.494596004486083984e+00,-9.969751536846160889e-02
-4.523864746093750000e+00,-3.499242782592773438e+00,9.983008354902267456e-02
-4.529680728912353516e+00,-3.503741264343261719e+00,3.001191318035125732e-01
-4.536091804504394531e+00,-3.508700370788574219e+00,5.017229318618774414e-01
-4.542555809020996094e+00,-3.513700485229492188e+00,7.051384449005126953e-01
-4.548863887786865234e+00,-3.518579721450805664e+00,9.108477830886840820e-01
-4.554756641387939453e+00,-3.523137807846069336e+00,1.119303345680236816e+00
-4.561736106872558594e+00,-3.528536558151245117e+00,1.331449151039123535e+00
-3.184088706970214844e+00,-2.536575317382812500e+00,-1.090806126594543457e+00
-3.793563127517700195e+00,-3.022107601165771484e+00,-1.119750857353210449e+00
-4.440040588378906250e+00,-3.537117958068847656e+00,-1.103441119194030762e+00
-4.446671962738037109e+00,-3.542400598526000977e+00,-9.004457592964172363e-01
-4.452260017395019531e+00,-3.546852588653564453e+00,-6.989309191703796387e-01
-4.458387374877929688e+00,-3.551733732223510742e+00,-4.987002313137054443e-01
-4.464346885681152344e+00,-3.556481361389160156e+00,-2.991325557231903076e-01
-4.470350265502929688e+00,-3.561264038085937500e+00,-9.976381063461303711e-02
-4.476362228393554688e+00,-3.566053152084350586e+00,9.989796578884124756e-02
-4.482244968414306641e+00,-3.570739746093750000e+00,3.003318309783935547e-01
-4.488788127899169922e+00,-3.575952053070068359e+00,5.021007061004638672e-01
-4.494324207305908203e+00,-3.580362558364868164e+00,7.055342793464660645e-01
-4.500652313232421875e+00,-3.585403442382812500e+00,9.113767147064208984e-01
-4.506633758544921875e+00,-3.590168714523315430e+00,1.119990944862365723e+00
-4.513760566711425781e+00,-3.595846414566040039e+00,1.332332372665405273e+00
-3.151898145675659180e+00,-2.585527658462524414e+00,-1.092344522476196289e+00
-3.760211944580078125e+00,-3.084532260894775391e+00,-1.122823357582092285e+00
-4.393450736999511719e+00,-3.603982925415039062e+00,-1.104569435119628906e+00
-4.398957729339599609e+00,-3.608500480651855469e+00,-9.011505246162414551e-01
-4.405126571655273438e+00,-3.613560676574707031e+00,-6.995796561241149902e-01
-4.411071777343750000e+00,-3.618437528610229492e+00,-4.991498291492462158e-01
-4.416909694671630859e+00,-3.623226404190063477e+00,-2.993982732295989990e-01
-4.422852516174316406e+00,-3.628101587295532227e+00,-9.985250234603881836e-02
-4.428865432739257812e+00,-3.633034229278564453e+00,9.998825937509536743e-02
-4.434811115264892578e+00,-3.637911558151245117e+00,3.006117343902587891e-01
-4.440598011016845703e+00,-3.642658472061157227e+00,5.024909973144531250e-01
-4.447196960449218750e+00,-3.648071527481079102e+00,7.062608599662780762e-01
-4.452419757843017578e+00,-3.652355909347534180e+00,9.121025204658508301e-01
-4.458473682403564453e+00,-3.657321929931640625e+00,1.120917081832885742e+00
-4.465731143951416016e+00,-3.663275241851806641e+00,1.333495855331420898e+00
-3.100490570068359375e+00,-2.618480920791625977e+00,-1.087406158447265625e+00
-3.698736190795898438e+00,-3.123721837997436523e+00,-1.117702841758728027e+00
-4.345214843750000000e+00,-3.669697523117065430e+00,-1.105534911155700684e+00
-4.351502418518066406e+00,-3.675007343292236328e+00,-9.021124243736267090e-01
-4.357451915740966797e+00,-3.680032253265380859e+00,-7.003019452095031738e-01
-4.362891674041748047e+00,-3.684626102447509766e+00,-4.996146261692047119e-01
-4.368857383728027344e+00,-3.689664602279663086e+00,-2.996902167797088623e-01
-4.374691486358642578e+00,-3.694591522216796875e+00,-9.994885325431823730e-02
-4.380452632904052734e+00,-3.699457168579101562e+00,1.000804826617240906e-01
-4.386831760406494141e+00,-3.704844236373901367e+00,3.009231984615325928e-01
-4.392715930938720703e+00,-3.709813833236694336e+00,5.030299425125122070e-01
-4.398351192474365234e+00,-3.714572906494140625e+00,7.068749070167541504e-01
-4.404884338378906250e+00,-3.720090389251708984e+00,9.131790399551391602e-01
-4.411186695098876953e+00,-3.725413322448730469e+00,1.122319817543029785e+00
-4.416951656341552734e+00,-3.730281829833984375e+00,1.334736824035644531e+00
-3.068228960037231445e+00,-2.667396068572998047e+00,-1.089370131492614746e+00
-3.665223360061645508e+00,-3.186399221420288086e+00,-1.121243119239807129e+00
-4.298519611358642578e+00,-3.736961603164672852e+00,-1.107149958610534668e+00
-4.303714275360107422e+00,-3.741477489471435547e+00,-9.032151103019714355e-01
-4.309669971466064453e+00,-3.746655464172363281e+00,-7.011696100234985352e-01
-4.315515518188476562e+00,-3.751737117767333984e+00,-5.002875924110412598e-01
-4.321365356445312500e+00,-3.756822824478149414e+00,-3.000903427600860596e-01
-4.327138900756835938e+00,-3.761842250823974609e+00,-1.000823751091957092e-01
-4.332896709442138672e+00,-3.766847610473632812e+00,1.002155393362045288e-01
-4.338697910308837891e+00,-3.771890878677368164e+00,3.012939691543579102e-01
-4.344451904296875000e+00,-3.776893138885498047e+00,5.036420822143554688e-01
-4.351117134094238281e+00,-3.782687902450561523e+00,7.079128623008728027e-01
-4.356531620025634766e+00,-3.787394762039184570e+00,9.142997860908508301e-01
-4.362876415252685547e+00,-3.792910814285278320e+00,1.123726010322570801e+00
-4.368744850158691406e+00,-3.798012733459472656e+00,1.336460232734680176e+00
-3.037333488464355469e+00,-2.717830896377563477e+00,-1.092100858688354492e+00
-3.603924274444580078e+00,-3.224821090698242188e+00,-1.116497039794921875e+00
-4.250020027160644531e+00,-3.802952766418457031e+00,-1.108564734458923340e+00
-4.256000518798828125e+00,-3.808304071426391602e+00,-9.045487642288208008e-01
-4.261751174926757812e+00,-3.813450098037719727e+00,-7.021819949150085449e-01
-4.267439365386962891e+00,-3.818539619445800781e+00,-5.009990930557250977e-01
-4.273179531097412109e+00,-3.823676109313964844e+00,-3.005140125751495361e-01
-4.278891563415527344e+00,-3.828787326812744141e+00,-1.002237349748611450e-01
-4.284636020660400391e+00,-3.833927392959594727e+00,1.003582850098609924e-01
-4.290472030639648438e+00,-3.839149475097656250e+00,3.017300963401794434e-01
-4.296308040618896484e+00,-3.844371795654296875e+00,5.043883323669433594e-01
-4.302004337310791016e+00,-3.849468708038330078e+00,7.088142633438110352e-01
-4.308691501617431641e+00,-3.855452537536621094e+00,9.157475233078002930e-01
-4.313709259033203125e+00,-3.859942197799682617e+00,1.125177264213562012e+00
-4.319626808166503906e+00,-3.865237712860107422e+00,1.338222026824951172e+00
-2.984703779220581055e+00,-2.748662948608398438e+00,-1.087211966514587402e+00
-3.570267438888549805e+00,-3.287918567657470703e+00,-1.120535016059875488e+00
-4.203235149383544922e+00,-3.870828866958618164e+00,-1.110699415206909180e+00
-4.208954334259033203e+00,-3.876095771789550781e+00,-9.062485694885253906e-01
-4.214494228363037109e+00,-3.881197452545166016e+00,-7.034768462181091309e-01
-4.220020294189453125e+00,-3.886286735534667969e+00,-5.019112825393676758e-01
-4.225649356842041016e+00,-3.891470432281494141e+00,-3.010577559471130371e-01
-4.231301784515380859e+00,-3.896676063537597656e+00,-1.004051715135574341e-01
-4.237036705017089844e+00,-3.901957273483276367e+00,1.005412563681602478e-01
-4.242913246154785156e+00,-3.907369136810302734e+00,3.022877275943756104e-01
-4.248841285705566406e+00,-3.912828445434570312e+00,5.053390860557556152e-01
-4.254678726196289062e+00,-3.918204069137573242e+00,7.101843953132629395e-01
-4.260235786437988281e+00,-3.923321723937988281e+00,9.172902107238769531e-01
-4.266810894012451172e+00,-3.929376840591430664e+00,1.127499222755432129e+00
-4.273012161254882812e+00,-3.935087680816650391e+00,1.341092705726623535e+00
-2.953603744506835938e+00,-2.799196481704711914e+00,-1.090366363525390625e+00
-3.538069963455200195e+00,-3.353108406066894531e+00,-1.125377655029296875e+00
-4.154479026794433594e+00,-3.937293052673339844e+00,-1.112593770027160645e+00
-4.160191059112548828e+00,-3.942706346511840820e+00,-9.078071117401123047e-01
-4.165772438049316406e+00,-3.947995901107788086e+00,-7.047045826911926270e-01
-4.171714782714843750e+00,-3.953627586364746094e+00,-5.028450489044189453e-01
-4.177238464355468750e+00,-3.958862543106079102e+00,-3.016149103641510010e-01
-4.182828903198242188e+00,-3.964160680770874023e+00,-1.005910485982894897e-01
-4.188545227050781250e+00,-3.969578027725219727e+00,1.007285192608833313e-01
-4.193831443786621094e+00,-3.974588155746459961e+00,3.028130233287811279e-01
-4.199590206146240234e+00,-3.980046033859252930e+00,5.062050819396972656e-01
-4.205306529998779297e+00,-3.985463619232177734e+00,7.113924026489257812e-01
-4.210792541503906250e+00,-3.990662336349487305e+00,9.188489913940429688e-01
-4.217331886291503906e+00,-3.996860027313232422e+00,1.129426121711730957e+00
-4.223547935485839844e+00,-4.002751350402832031e+00,1.343412280082702637e+00
-2.922336816787719727e+00,-2.850054502487182617e+00,-1.093771457672119141e+00
-3.476761341094970703e+00,-3.390765666961669922e+00,-1.121199369430541992e+00
-4.106563091278076172e+00,-4.004989624023437500e+00,-1.114999532699584961e+00
-4.112051010131835938e+00,-4.010341644287109375e+00,-9.097349643707275391e-01
-4.117448329925537109e+00,-4.015605926513671875e+00,-7.061806917190551758e-01
-4.123245716094970703e+00,-4.021259307861328125e+00,-5.038890242576599121e-01
-4.128667354583740234e+00,-4.026546955108642578e+00,-3.022383451461791992e-01
-4.134195327758789062e+00,-4.031938552856445312e+00,-1.007990315556526184e-01
-4.139890193939208984e+00,-4.037492275238037109e+00,1.009378880262374878e-01
-4.145197868347167969e+00,-4.042668342590332031e+00,3.034484386444091797e-01
-4.151016712188720703e+00,-4.048343658447265625e+00,5.072828531265258789e-01
-4.156833171844482422e+00,-4.054016113281250000e+00,7.129355072975158691e-01
-4.162459373474121094e+00,-4.059503078460693359e+00,9.208871126174926758e-01
-4.167660236358642578e+00,-4.064575195312500000e+00,1.131588220596313477e+00
-4.173875808715820312e+00,-4.070637226104736328e+00,1.346007585525512695e+00
-2.871126413345336914e+00,-2.881429672241210938e+00,-1.089929342269897461e+00
-3.444151639938354492e+00,-3.456511020660400391e+00,-1.126522660255432129e+00
-4.057456493377685547e+00,-4.072017192840576172e+00,-1.117377042770385742e+00
-4.063732624053955078e+00,-4.078315258026123047e+00,-9.118664264678955078e-01
-4.068953514099121094e+00,-4.083554744720458984e+00,-7.078154683113098145e-01
-4.074609756469726562e+00,-4.089231967926025391e+00,-5.050465464591979980e-01
-4.079930782318115234e+00,-4.094571590423583984e+00,-3.029299080371856689e-01
-4.085396766662597656e+00,-4.100057125091552734e+00,-1.010297536849975586e-01
-4.091067314147949219e+00,-4.105748176574707031e+00,1.011699810624122620e-01
-4.096390724182128906e+00,-4.111090660095214844e+00,3.041520416736602783e-01
-4.102261543273925781e+00,-4.116982460021972656e+00,5.084739923477172852e-01
-4.107106685638427734e+00,-4.121845245361328125e+00,7.144524455070495605e-01
-4.112638473510742188e+00,-4.127397060394287109e+00,9.228404760360717773e-01
-4.119288921356201172e+00,-4.134070873260498047e+00,1.134404897689819336e+00
-4.125701904296875000e+00,-4.140506744384765625e+00,1.349445939064025879e+00
-2.839579343795776367e+00,-2.932538986206054688e+00,-1.093775749206542969e+00
-3.382940769195556641e+00,-3.493688344955444336e+00,-1.122743010520935059e+00
-4.009161472320556641e+00,-4.140409946441650391e+00,-1.120282888412475586e+00
-4.014452457427978516e+00,-4.145874023437500000e+00,-9.140305519104003906e-01
-4.020278930664062500e+00,-4.151890754699707031e+00,-7.096133828163146973e-01
-4.025476932525634766e+00,-4.157259464263916016e+00,-5.062802433967590332e-01
-4.031022071838378906e+00,-4.162985801696777344e+00,-3.036916255950927734e-01
-4.036425590515136719e+00,-4.168566703796386719e+00,-1.012838780879974365e-01
-4.041698932647705078e+00,-4.174012660980224609e+00,1.014162003993988037e-01
-4.047403812408447266e+00,-4.179903984069824219e+00,3.049257993698120117e-01
-4.052489757537841797e+00,-4.185156345367431641e+00,5.096776485443115234e-01
-4.058248519897460938e+00,-4.191103458404541016e+00,7.163153886795043945e-01
-4.063897132873535156e+00,-4.196937084197998047e+00,9.252883791923522949e-01
-4.069202423095703125e+00,-4.202416419982910156e+00,1.137060165405273438e+00
-4.075582981109619141e+00,-4.209005355834960938e+00,1.352619647979736328e+00
-2.788500785827636719e+00,-2.963508129119873047e+00,-1.090328216552734375e+00
-3.322029352188110352e+00,-3.530520915985107422e+00,-1.119184255599975586e+00
-3.960662126541137695e+00,-4.209234237670898438e+00,-1.123450875282287598e+00
-3.965756893157958984e+00,-4.214649200439453125e+00,-9.165847897529602051e-01
-3.971417188644409180e+00,-4.220664501190185547e+00,-7.115793228149414062e-01
-3.976485252380371094e+00,-4.226050853729248047e+00,-5.076743364334106445e-01
-3.981933116912841797e+00,-4.231840610504150391e+00,-3.045255839824676514e-01
-3.987273693084716797e+00,-4.237515926361083984e+00,-1.015620753169059753e-01
-3.992519378662109375e+00,-4.243091106414794922e+00,1.016956865787506104e-01
-3.998227119445800781e+00,-4.249156951904296875e+00,3.057716786861419678e-01
-4.003354549407958984e+00,-4.254606246948242188e+00,5.111047029495239258e-01
-4.009183406829833984e+00,-4.260800838470458984e+00,7.183460593223571777e-01
-4.014935493469238281e+00,-4.266913890838623047e+00,9.279510974884033203e-01
-4.020378112792968750e+00,-4.272698402404785156e+00,1.140389442443847656e+00
-4.025238513946533203e+00,-4.277863979339599609e+00,1.356093883514404297e+00
-2.756656169891357422e+00,-3.014985322952270508e+00,-1.094638466835021973e+00
-3.288772583007812500e+00,-3.596966981887817383e+00,-1.125210046768188477e+00
-3.910970687866210938e+00,-4.277472019195556641e+00,-1.126607179641723633e+00
-3.916855573654174805e+00,-4.283908367156982422e+00,-9.193603396415710449e-01
-3.921815872192382812e+00,-4.289333343505859375e+00,-7.136194109916687012e-01
-3.927299737930297852e+00,-4.295331001281738281e+00,-5.091919302940368652e-01
-3.932651996612548828e+00,-4.301185131072998047e+00,-3.054337203502655029e-01
-3.937929630279541016e+00,-4.306957244873046875e+00,-1.018650233745574951e-01
-3.943143844604492188e+00,-4.312660217285156250e+00,1.019999086856842041e-01
-3.948261260986328125e+00,-4.318256855010986328e+00,3.066460192203521729e-01
-3.954010725021362305e+00,-4.324545383453369141e+00,5.126551389694213867e-01
-3.958865165710449219e+00,-4.329854488372802734e+00,7.203609347343444824e-01
-3.964489459991455078e+00,-4.336005687713623047e+00,9.305408596992492676e-01
-3.969845056533813477e+00,-4.341863632202148438e+00,1.143566727638244629e+00
-3.976322889328002930e+00,-4.348948478698730469e+00,1.360446333885192871e+00
-2.705693006515502930e+00,-3.045653343200683594e+00,-1.091600418090820312e+00
-3.227933883666992188e+00,-3.633511781692504883e+00,-1.122073888778686523e+00
-3.862033605575561523e+00,-4.347283840179443359e+00,-1.130318999290466309e+00
-3.867734670639038086e+00,-4.353701114654541016e+00,-9.223631024360656738e-01
-3.872546434402465820e+00,-4.359117507934570312e+00,-7.159342169761657715e-01
-3.877907037734985352e+00,-4.365151405334472656e+00,-5.108364820480346680e-01
-3.883165597915649414e+00,-4.371070861816406250e+00,-3.064180910587310791e-01
-3.888379812240600586e+00,-4.376940250396728516e+00,-1.021934077143669128e-01
-3.893560647964477539e+00,-4.382771968841552734e+00,1.023295745253562927e-01
-3.898674249649047852e+00,-4.388527870178222656e+00,3.076418638229370117e-01
-3.904445648193359375e+00,-4.395024776458740234e+00,5.143324136734008789e-01
-3.909356117248535156e+00,-4.400552272796630859e+00,7.227393984794616699e-01
-3.915060043334960938e+00,-4.406972408294677734e+00,9.336490631103515625e-01
-3.920523643493652344e+00,-4.413122653961181641e+00,1.147437572479248047e+00
-3.925477743148803711e+00,-4.418699264526367188e+00,1.364549636840820312e+00
-2.654956579208374023e+00,-3.076105594635009766e+00,-1.088783025741577148e+00
-3.167374849319458008e+00,-3.669807195663452148e+00,-1.119167327880859375e+00
-3.812851905822753906e+00,-4.417675018310546875e+00,-1.134315133094787598e+00
-3.817633390426635742e+00,-4.423214435577392578e+00,-9.254186153411865234e-01
-3.823049068450927734e+00,-4.429489135742187500e+00,-7.184311151504516602e-01
-3.828290462493896484e+00,-4.435562133789062500e+00,-5.126112699508666992e-01
-3.833458185195922852e+00,-4.441549777984619141e+00,-3.074808120727539062e-01
-3.838608741760253906e+00,-4.447517395019531250e+00,-1.025479137897491455e-01
-3.843753814697265625e+00,-4.453478336334228516e+00,1.026853621006011963e-01
-3.848858594894409180e+00,-4.459393024444580078e+00,3.087160587310791016e-01
-3.853844404220581055e+00,-4.465169429779052734e+00,5.160329937934875488e-01
-3.859599590301513672e+00,-4.471837997436523438e+00,7.252997159957885742e-01
-3.865369796752929688e+00,-4.478523254394531250e+00,9.369902610778808594e-01
-3.870927333831787109e+00,-4.484962463378906250e+00,1.151592373847961426e+00
-3.876003265380859375e+00,-4.490843772888183594e+00,1.369555711746215820e+00
-2.623318433761596680e+00,-3.128886699676513672e+00,-1.094062447547912598e+00
-3.134198665618896484e+00,-3.738224267959594727e+00,-1.126235723495483398e+00
-3.761785507202148438e+00,-4.486760139465332031e+00,-1.138111948966979980e+00
-3.766416072845458984e+00,-4.492283344268798828e+00,-9.284948110580444336e-01
-3.771697044372558594e+00,-4.498581886291503906e+00,-7.208074331283569336e-01
-3.776827096939086914e+00,-4.504700660705566406e+00,-5.143012404441833496e-01
-3.781905889511108398e+00,-4.510758399963378906e+00,-3.084928989410400391e-01
-3.786989688873291016e+00,-4.516821861267089844e+00,-1.028855293989181519e-01
-3.792089939117431641e+00,-4.522905349731445312e+00,1.030240952968597412e-01
-3.797172784805297852e+00,-4.528967380523681641e+00,3.097382485866546631e-01
-3.802160263061523438e+00,-4.534915924072265625e+00,5.177509188652038574e-01
-3.807931423187255859e+00,-4.541799545288085938e+00,7.277321815490722656e-01
-3.812523841857910156e+00,-4.547276973724365234e+00,9.398613572120666504e-01
-3.817935705184936523e+00,-4.553731918334960938e+00,1.155099987983703613e+00
-3.822900295257568359e+00,-4.559653282165527344e+00,1.373712182044982910e+00
-2.572582960128784180e+00,-3.159128427505493164e+00,-1.091649651527404785e+00
-3.073572874069213867e+00,-3.774343729019165039e+00,-1.123748302459716797e+00
-3.711041927337646484e+00,-4.557154655456542969e+00,-1.142377376556396484e+00
-3.716458320617675781e+00,-4.563806056976318359e+00,-9.321874380111694336e-01
-3.721605539321899414e+00,-4.570127010345458984e+00,-7.236616611480712891e-01
-3.726624965667724609e+00,-4.576290607452392578e+00,-5.163318514823913574e-01
-3.731616258621215820e+00,-4.582419872283935547e+00,-3.097092807292938232e-01
-3.736635684967041016e+00,-4.588583946228027344e+00,-1.032912880182266235e-01
-3.741693973541259766e+00,-4.594795703887939453e+00,1.034311130642890930e-01
-3.746758222579956055e+00,-4.601014137268066406e+00,3.109659850597381592e-01
-3.751749753952026367e+00,-4.607143878936767578e+00,5.198130011558532715e-01
-3.756547927856445312e+00,-4.613036155700683594e+00,7.304561734199523926e-01
-3.762185096740722656e+00,-4.619958400726318359e+00,9.436569213867187500e-01
-3.767663717269897461e+00,-4.626686573028564453e+00,1.159807324409484863e+00
-3.772718906402587891e+00,-4.632894039154052734e+00,1.379367470741271973e+00
-2.522046804428100586e+00,-3.189226388931274414e+00,-1.089464187622070312e+00
-3.013194799423217773e+00,-3.810302019119262695e+00,-1.121498465538024902e+00
-3.660940170288085938e+00,-4.629401206970214844e+00,-1.147234678268432617e+00
-3.666206836700439453e+00,-4.636061191558837891e+00,-9.361315369606018066e-01
-3.671226978302001953e+00,-4.642409324645996094e+00,-7.267120480537414551e-01
-3.676140546798706055e+00,-4.648622512817382812e+00,-5.185030102729797363e-01
-3.681046485900878906e+00,-4.654826164245605469e+00,-3.110100626945495605e-01
-3.686000585556030273e+00,-4.661090850830078125e+00,-1.037251949310302734e-01
-3.691014766693115234e+00,-4.667431831359863281e+00,1.038662940263748169e-01
-3.696054220199584961e+00,-4.673804283142089844e+00,3.122780621051788330e-01
-3.701042175292968750e+00,-4.680111885070800781e+00,5.220152735710144043e-01
-3.705859184265136719e+00,-4.686203002929687500e+00,7.335674762725830078e-01
-3.711527109146118164e+00,-4.693370342254638672e+00,9.477035999298095703e-01
-3.717056751251220703e+00,-4.700362682342529297e+00,1.164820075035095215e+00
-3.722186088562011719e+00,-4.706849098205566406e+00,1.385382056236267090e+00
-2.489592075347900391e+00,-3.242509603500366211e+00,-1.095380902290344238e+00
-2.978860616683959961e+00,-3.879745960235595703e+00,-1.129272699356079102e+00
-3.665601730346679688e+00,-4.774175643920898438e+00,-1.169989943504333496e+00
-4.759340763092041016e+00,-6.198689937591552734e+00,-1.237781167030334473e+00
-5.615346431732177734e+00,-7.313574314117431641e+00,-1.132152438163757324e+00
-5.622788906097412109e+00,-7.323266983032226562e+00,-8.077707290649414062e-01
-5.630242347717285156e+00,-7.332974433898925781e+00,-4.845151901245117188e-01
-5.637795448303222656e+00,-7.342812061309814453e+00,-1.615903228521347046e-01
-5.645467281341552734e+00,-7.352804660797119141e+00,1.618102192878723145e-01
-5.653204917907714844e+00,-7.362882137298583984e+00,4.864912927150726318e-01
-5.660888195037841797e+00,-7.372889041900634766e+00,8.132441639900207520e-01
-5.668333053588867188e+00,-7.382585525512695312e+00,1.142835497856140137e+00
-3.662816286087036133e+00,-4.770547389984130859e+00,1.169100761413574219e+00
-3.667795658111572266e+00,-4.777033329010009766e+00,1.390444993972778320e+00
-2.438997030258178711e+00,-3.272531270980834961e+00,-1.093617320060729980e+00
-2.918340444564819336e+00,-3.915691614151000977e+00,-1.127461552619934082e+00
-3.591219663619995117e+00,-4.818529129028320312e+00,-1.168142795562744141e+00
-4.663007736206054688e+00,-6.256603717803955078e+00,-1.235891461372375488e+00
-5.539578437805175781e+00,-7.432745456695556641e+00,-1.138209462165832520e+00
-5.546875000000000000e+00,-7.442535400390625000e+00,-8.120856881141662598e-01
-5.554209709167480469e+00,-7.452377319335937500e+00,-4.871018230915069580e-01
-5.561668872833251953e+00,-7.462385177612304688e+00,-1.624532043933868408e-01
-5.569269180297851562e+00,-7.472582817077636719e+00,1.626752018928527832e-01
-5.576958179473876953e+00,-7.482899665832519531e+00,4.890968203544616699e-01
-5.584619045257568359e+00,-7.493178844451904297e+00,8.176115751266479492e-01
-5.592068672180175781e+00,-7.503174304962158203e+00,1.148994445800781250e+00
-2.388564825057983398e+00,-3.302476644515991211e+00,-1.092087507247924805e+00
-2.858023405075073242e+00,-3.951559543609619141e+00,-1.125894904136657715e+00
-3.517091989517211914e+00,-4.862801074981689453e+00,-1.166551709175109863e+00
-4.567024230957031250e+00,-6.314457893371582031e+00,-1.234280347824096680e+00
-5.463194847106933594e+00,-7.553521156311035156e+00,-1.144612431526184082e+00
-5.470352172851562500e+00,-7.563416481018066406e+00,-8.166482448577880859e-01
-5.477568149566650391e+00,-7.573393821716308594e+00,-4.898369610309600830e-01
-5.484929561614990234e+00,-7.583571434020996094e+00,-1.633655577898025513e-01
-5.492451190948486328e+00,-7.593971252441406250e+00,1.635895818471908569e-01
-5.500084400177001953e+00,-7.604525089263916016e+00,4.918504655361175537e-01
-5.507711410522460938e+00,-7.615070343017578125e+00,8.222255110740661621e-01
-5.515151023864746094e+00,-7.625356674194335938e+00,1.155497908592224121e+00
-2.338562488555908203e+00,-3.332771301269531250e+00,-1.090924739837646484e+00
-2.798224210739135742e+00,-3.987852096557617188e+00,-1.124708533287048340e+00
-3.443595409393310547e+00,-4.907594203948974609e+00,-1.165353655815124512e+00
-4.535047531127929688e+00,-6.463062763214111328e+00,-1.250511527061462402e+00
-5.381786823272705078e+00,-7.669781684875488281e+00,-1.150439023971557617e+00
-5.389564037322998047e+00,-7.680865764617919922e+00,-8.209161162376403809e-01
-5.396660804748535156e+00,-7.690979480743408203e+00,-4.923956990242004395e-01
-5.403917312622070312e+00,-7.701321601867675781e+00,-1.642190665006637573e-01
-5.411350250244140625e+00,-7.711914062500000000e+00,1.644449383020401001e-01
-5.418083667755126953e+00,-7.721509933471679688e+00,4.943503439426422119e-01
-5.425339221954345703e+00,-7.731850147247314453e+00,8.263652324676513672e-01
-5.433880329132080078e+00,-7.744022846221923828e+00,1.161574840545654297e+00
-2.304609060287475586e+00,-3.386448860168457031e+00,-1.097584962844848633e+00
-2.738179445266723633e+00,-4.023547649383544922e+00,-1.123607039451599121e+00
-3.406080007553100586e+00,-5.004977226257324219e+00,-1.176780819892883301e+00
-4.438173294067382812e+00,-6.521560192108154297e+00,-1.249410748481750488e+00
-5.303893566131591797e+00,-7.793671131134033203e+00,-1.157516121864318848e+00
-5.311532974243164062e+00,-7.804896354675292969e+00,-8.259621262550354004e-01
-5.318515300750732422e+00,-7.815156936645507812e+00,-4.954212903976440430e-01
-5.325672149658203125e+00,-7.825673103332519531e+00,-1.652282774448394775e-01
-5.333018302917480469e+00,-7.836467742919921875e+00,1.654562056064605713e-01
-5.339689254760742188e+00,-7.846270084381103516e+00,4.973936378955841064e-01
-5.346893310546875000e+00,-7.856855869293212891e+00,8.314608335494995117e-01
-5.353952407836914062e+00,-7.867228507995605469e+00,1.168440937995910645e+00
-2.254322052001953125e+00,-3.416684627532958984e+00,-1.096814274787902832e+00
-2.678474187850952148e+00,-4.059535980224609375e+00,-1.122835874557495117e+00
-3.331922292709350586e+00,-5.049911975860595703e+00,-1.176012158393859863e+00
-4.341837882995605469e+00,-6.580555438995361328e+00,-1.248679041862487793e+00
-5.221417903900146484e+00,-7.913660049438476562e+00,-1.164117693901062012e+00
-5.228919982910156250e+00,-7.925030708312988281e+00,-8.306699395179748535e-01
-5.235786914825439453e+00,-7.935438156127929688e+00,-4.982444345951080322e-01
-5.242835998535156250e+00,-7.946121692657470703e+00,-1.661699414253234863e-01
-5.250084400177001953e+00,-7.957107543945312500e+00,1.663996726274490356e-01
-5.256678104400634766e+00,-7.967101097106933594e+00,5.002324581146240234e-01
-5.263809204101562500e+00,-7.977908611297607422e+00,8.362123966217041016e-01
-5.270808219909667969e+00,-7.988516330718994141e+00,1.175129294395446777e+00
-2.203902721405029297e+00,-3.446583032608032227e+00,-1.096173286437988281e+00
-2.618623256683349609e+00,-4.095145702362060547e+00,-1.122203111648559570e+00
-3.257600784301757812e+00,-5.094413280487060547e+00,-1.175396680831909180e+00
-4.245376110076904297e+00,-6.639150142669677734e+00,-1.248139142990112305e+00
-5.141778469085693359e+00,-8.040993690490722656e+00,-1.171902537345886230e+00
-5.149151802062988281e+00,-8.052524566650390625e+00,-8.362224698066711426e-01
-5.155909061431884766e+00,-8.063090324401855469e+00,-5.015743374824523926e-01
-5.162855148315429688e+00,-8.073953628540039062e+00,-1.672806739807128906e-01
-5.170008659362792969e+00,-8.085141181945800781e+00,1.675124466419219971e-01
-5.176525115966796875e+00,-8.095332145690917969e+00,5.035799741744995117e-01
-5.183581829071044922e+00,-8.106368064880371094e+00,8.418139219284057617e-01
-5.190518856048583984e+00,-8.117216110229492188e+00,1.183011293411254883e+00
-2.153625726699829102e+00,-3.476603984832763672e+00,-1.095804929733276367e+00
-2.558940410614013672e+00,-4.130904674530029297e+00,-1.121850132942199707e+00
-3.183475017547607422e+00,-5.139091968536376953e+00,-1.175071477890014648e+00
-4.149032592773437500e+00,-6.697794437408447266e+00,-1.247871756553649902e+00
-5.057242870330810547e+00,-8.163921356201171875e+00,-1.179147601127624512e+00
-5.064486980438232422e+00,-8.175614356994628906e+00,-8.413909077644348145e-01
-5.071129798889160156e+00,-8.186338424682617188e+00,-5.046741366386413574e-01
-5.077966690063476562e+00,-8.197375297546386719e+00,-1.683146506547927856e-01
-5.085013389587402344e+00,-8.208750724792480469e+00,1.685482114553451538e-01
-5.091439723968505859e+00,-8.219124794006347656e+00,5.066954493522644043e-01
-5.098403930664062500e+00,-8.230366706848144531e+00,8.470257520675659180e-01
-5.105256080627441406e+00,-8.241429328918457031e+00,1.190342426300048828e+00
-2.103288888931274414e+00,-3.506471633911132812e+00,-1.095617890357971191e+00
-2.520792722702026367e+00,-4.202507972717285156e+00,-1.131381154060363770e+00
-3.109292507171630859e+00,-5.183618068695068359e+00,-1.174955964088439941e+00
-4.052643775939941406e+00,-6.756314277648925781e+00,-1.247839331626892090e+00
-4.975597858428955078e+00,-8.295005798339843750e+00,-1.187672734260559082e+00
-4.982720851898193359e+00,-8.306880950927734375e+00,-8.474734425544738770e-01
-4.989257335662841797e+00,-8.317777633666992188e+00,-5.083225965499877930e-01
-4.995988368988037109e+00,-8.328999519348144531e+00,-1.695315837860107422e-01
-5.002930641174316406e+00,-8.340573310852050781e+00,1.697671711444854736e-01
-5.009266376495361328e+00,-8.351136207580566406e+00,5.103611946105957031e-01
-5.016136169433593750e+00,-8.362588882446289062e+00,8.531568050384521484e-01
-5.022901058197021484e+00,-8.373866081237792969e+00,1.198963999748229980e+00
-2.052955865859985352e+00,-3.536330461502075195e+00,-1.095653653144836426e+00
-2.460539579391479492e+00,-4.238415718078613281e+00,-1.131450772285461426e+00
-3.035096406936645508e+00,-5.228121757507324219e+00,-1.175076127052307129e+00
-3.956198453903198242e+00,-6.814771175384521484e+00,-1.248049497604370117e+00
-4.888747215270996094e+00,-8.421137809753417969e+00,-1.195590853691101074e+00
-4.895747184753417969e+00,-8.433196067810058594e+00,-8.531237244606018066e-01
-4.902171611785888672e+00,-8.444262504577636719e+00,-5.117118954658508301e-01
-4.908789634704589844e+00,-8.455662727355957031e+00,-1.706621199846267700e-01
-4.915616512298583984e+00,-8.467421531677246094e+00,1.708994656801223755e-01
-4.921849727630615234e+00,-8.478158950805664062e+00,5.137659907341003418e-01
-4.928608417510986328e+00,-8.489801406860351562e+00,8.588500618934631348e-01
-4.935264587402343750e+00,-8.501266479492187500e+00,1.206967115402221680e+00
-2.002623558044433594e+00,-3.566222429275512695e+00,-1.095921754837036133e+00
-2.400299072265625000e+00,-4.274393081665039062e+00,-1.131767630577087402e+00
-2.960934400558471680e+00,-5.272758483886718750e+00,-1.175462603569030762e+00
-3.859819650650024414e+00,-6.873470783233642578e+00,-1.248553872108459473e+00
-4.804805755615234375e+00,-8.556279182434082031e+00,-1.204890012741088867e+00
-4.811691284179687500e+00,-8.568540573120117188e+00,-8.597601652145385742e-01
-4.818011760711669922e+00,-8.579795837402343750e+00,-5.156931877136230469e-01
-4.824521064758300781e+00,-8.591387748718261719e+00,-1.719901114702224731e-01
-4.831234931945800781e+00,-8.603343009948730469e+00,1.722294390201568604e-01
-4.837363243103027344e+00,-8.614255905151367188e+00,5.177644491195678711e-01
-4.844007968902587891e+00,-8.626089096069335938e+00,8.655345439910888672e-01
-4.850551605224609375e+00,-8.637742042541503906e+00,1.216361641883850098e+00
-1.952163457870483398e+00,-3.595964193344116211e+00,-1.096362471580505371e+00
-2.319842576980590820e+00,-4.273243904113769531e+00,-1.122556328773498535e+00
-2.886558055877685547e+00,-5.317156791687011719e+00,-1.176029205322265625e+00
-3.763122558593750000e+00,-6.931824207305908203e+00,-1.249241590499877930e+00
-4.715354919433593750e+00,-8.685874938964843750e+00,-1.213510990142822266e+00
-4.722122192382812500e+00,-8.698340415954589844e+00,-8.659135699272155762e-01
-4.728332519531250000e+00,-8.709779739379882812e+00,-5.193849205970764160e-01
-4.734725475311279297e+00,-8.721555709838867188e+00,-1.732214987277984619e-01
-4.741314888000488281e+00,-8.733694076538085938e+00,1.734625846147537231e-01
-4.747328281402587891e+00,-8.744771003723144531e+00,5.214715003967285156e-01
-4.753844261169433594e+00,-8.756773948669433594e+00,8.717306256294250488e-01
-4.760258674621582031e+00,-8.768589019775390625e+00,1.225067019462585449e+00
-1.901592373847961426e+00,-3.625621557235717773e+00,-1.096993684768676758e+00
-2.259825468063354492e+00,-4.308637619018554688e+00,-1.123241901397705078e+00
-2.812017917633056641e+00,-5.361461162567138672e+00,-1.176805377006530762e+00
-3.666207075119018555e+00,-6.990077972412109375e+00,-1.250154733657836914e+00
-4.557173728942871094e+00,-8.688816070556640625e+00,-1.204685330390930176e+00
-4.564483165740966797e+00,-8.702753067016601562e+00,-8.597608804702758789e-01
-4.571290493011474609e+00,-8.715731620788574219e+00,-5.157851576805114746e-01
-4.578271389007568359e+00,-8.729042053222656250e+00,-1.720510423183441162e-01
-4.585441112518310547e+00,-8.742712020874023438e+00,1.723204702138900757e-01
-4.592011928558349609e+00,-8.755240440368652344e+00,5.181232094764709473e-01
-4.599105834960937500e+00,-8.768765449523925781e+00,8.662824034690856934e-01
-4.606098651885986328e+00,-8.782097816467285156e+00,1.217618703842163086e+00
-1.851088404655456543e+00,-3.655587434768676758e+00,-1.097931265830993652e+00
-2.199900865554809570e+00,-4.344433307647705078e+00,-1.124249696731567383e+00
-2.737609624862670898e+00,-5.406317234039306641e+00,-1.177929639816284180e+00
-3.569488286972045898e+00,-7.049137592315673828e+00,-1.251451611518859863e+00
-4.331312179565429688e+00,-8.553610801696777344e+00,-1.177223205566406250e+00
-4.338243961334228516e+00,-8.567300796508789062e+00,-8.401587009429931641e-01
-4.344690799713134766e+00,-8.580031394958496094e+00,-5.040228366851806641e-01
-4.351294517517089844e+00,-8.593072891235351562e+00,-1.681262403726577759e-01
-4.358068943023681641e+00,-8.606451034545898438e+00,1.683880090713500977e-01
-4.364270210266113281e+00,-8.618697166442871094e+00,5.062941908836364746e-01
-4.370957851409912109e+00,-8.631904602050781250e+00,8.464941382408142090e-01
-4.377549171447753906e+00,-8.644921302795410156e+00,1.189790129661560059e+00
-1.800276279449462891e+00,-3.685178041458129883e+00,-1.098966717720031738e+00
-2.139600276947021484e+00,-4.379776477813720703e+00,-1.125355362892150879e+00
-2.662714004516601562e+00,-5.450593471527099609e+00,-1.179151773452758789e+00
-3.472092866897583008e+00,-7.107398033142089844e+00,-1.252843379974365234e+00
-4.125767707824707031e+00,-8.445475578308105469e+00,-1.154094815254211426e+00
-4.132363319396972656e+00,-8.458976745605468750e+00,-8.236510157585144043e-01
-4.138487815856933594e+00,-8.471512794494628906e+00,-4.941176474094390869e-01
-4.144752025604248047e+00,-8.484335899353027344e+00,-1.648211628198623657e-01
-4.151171207427978516e+00,-8.497476577758789062e+00,1.650764346122741699e-01
-4.157036781311035156e+00,-8.509483337402343750e+00,4.963323771953582764e-01
-4.163355827331542969e+00,-8.522418022155761719e+00,8.298283815383911133e-01
-4.169575214385986328e+00,-8.535148620605468750e+00,1.166348934173583984e+00
-1.737192273139953613e+00,-3.688996553421020508e+00,-1.092578411102294922e+00
-2.079428195953369141e+00,-4.415747642517089844e+00,-1.126834869384765625e+00
-2.560397863388061523e+00,-5.437106132507324219e+00,-1.168186068534851074e+00
-3.374951362609863281e+00,-7.166842460632324219e+00,-1.254678130149841309e+00
-3.918870449066162109e+00,-8.321876525878906250e+00,-1.129423856735229492e+00
-3.925131559371948242e+00,-8.335171699523925781e+00,-8.060431480407714844e-01
-3.930933713912963867e+00,-8.347493171691894531e+00,-4.835526645183563232e-01
-3.936858177185058594e+00,-8.360074043273925781e+00,-1.612959802150726318e-01
-3.942918062210083008e+00,-8.372941970825195312e+00,1.615442484617233276e-01
-3.948443174362182617e+00,-8.384675025939941406e+00,4.857065379619598389e-01
-3.954386711120605469e+00,-8.397295951843261719e+00,8.120508193969726562e-01
-3.961308240890502930e+00,-8.411994934082031250e+00,1.141654491424560547e+00
-1.686710834503173828e+00,-3.718978881835937500e+00,-1.094195961952209473e+00
-2.019109249114990234e+00,-4.451874732971191406e+00,-1.128563404083251953e+00
-2.486305713653564453e+00,-5.481981754302978516e+00,-1.170061826705932617e+00
-3.277558565139770508e+00,-7.226592063903808594e+00,-1.256796598434448242e+00
-3.721362352371215820e+00,-8.205121994018554688e+00,-1.106235861778259277e+00
-3.726814508438110352e+00,-8.217143058776855469e+00,-7.893899083137512207e-01
-3.732312917709350586e+00,-8.229267120361328125e+00,-4.735608994960784912e-01
-3.737914323806762695e+00,-8.241616249084472656e+00,-1.579620689153671265e-01
