1.502099782228469849e-01,8.479340672492980957e-01,-2.307403385639190674e-01
1.504127383232116699e-01,8.490787148475646973e-01,-1.990769803524017334e-01
1.505990624427795410e-01,8.501304984092712402e-01,-1.678212136030197144e-01
1.507789492607116699e-01,8.511459231376647949e-01,-1.369069665670394897e-01
1.509767323732376099e-01,8.522624373435974121e-01,-1.062737777829170227e-01
1.511685401201248169e-01,8.533452153205871582e-01,-7.582031190395355225e-02
1.513582170009613037e-01,8.544159531593322754e-01,-4.547514766454696655e-02
1.515478044748306274e-01,8.554860949516296387e-01,-1.516503654420375824e-02
1.517381370067596436e-01,8.565605878829956055e-01,1.518408302217721939e-02
1.519276797771453857e-01,8.576305508613586426e-01,4.564623907208442688e-02
1.521133780479431152e-01,8.586787581443786621e-01,7.629419863224029541e-02
1.523203253746032715e-01,8.598470091819763184e-01,1.072195395827293396e-01
1.525254249572753906e-01,8.610048294067382812e-01,1.384927779436111450e-01
1.527191102504730225e-01,8.620981574058532715e-01,1.701837182044982910e-01
1.529407799243927002e-01,8.633494973182678223e-01,2.024229466915130615e-01
1.374385207891464233e-01,8.461771011352539062e-01,-2.297033816576004028e-01
1.376126259565353394e-01,8.472490310668945312e-01,-1.981658786535263062e-01
1.377758234739303589e-01,8.482538461685180664e-01,-1.670443415641784668e-01
1.379584670066833496e-01,8.493782877922058105e-01,-1.362910568714141846e-01
1.381341516971588135e-01,8.504599928855895996e-01,-1.057916432619094849e-01
1.383171677589416504e-01,8.515866994857788086e-01,-7.548043131828308105e-02
1.384867727756500244e-01,8.526310324668884277e-01,-4.527000710368156433e-02
1.386602967977523804e-01,8.536993265151977539e-01,-1.509663276374340057e-02
1.388384550809860229e-01,8.547962307929992676e-01,1.511603035032749176e-02
1.390039026737213135e-01,8.558148145675659180e-01,4.543905332684516907e-02
1.391791701316833496e-01,8.568938970565795898e-01,7.595083117485046387e-02
1.393502652645111084e-01,8.579473495483398438e-01,1.067230105400085449e-01
1.395453810691833496e-01,8.591485619544982910e-01,1.378587931394577026e-01
1.397338509559631348e-01,8.603089451789855957e-01,1.694183349609375000e-01
1.399064064025878906e-01,8.613713383674621582e-01,2.014689892530441284e-01
1.247643306851387024e-01,8.443378806114196777e-01,-2.286959141492843628e-01
1.249122768640518188e-01,8.453391194343566895e-01,-1.972807645797729492e-01
1.250791549682617188e-01,8.464684486389160156e-01,-1.663231551647186279e-01
1.252367794513702393e-01,8.475351929664611816e-01,-1.356937736272811890e-01
1.254054754972457886e-01,8.486768007278442383e-01,-1.053357496857643127e-01
1.255561709403991699e-01,8.496965765953063965e-01,-7.514590770006179810e-02
1.257153302431106567e-01,8.507737517356872559e-01,-4.507124423980712891e-02
1.258728951215744019e-01,8.518400192260742188e-01,-1.503035426139831543e-02
1.260291039943695068e-01,8.528972268104553223e-01,1.504900772124528885e-02
1.261954158544540405e-01,8.540227413177490234e-01,4.524336382746696472e-02
1.263448148965835571e-01,8.550336956977844238e-01,7.561791688203811646e-02
1.265084147453308105e-01,8.561409115791320801e-01,1.062621697783470154e-01
1.266662180423736572e-01,8.572088479995727539e-01,1.372425705194473267e-01
1.268479675054550171e-01,8.584388494491577148e-01,1.686752289533615112e-01
1.270181834697723389e-01,8.595907092094421387e-01,2.006067186594009399e-01
1.122156530618667603e-01,8.426448702812194824e-01,-2.277789562940597534e-01
1.123692095279693604e-01,8.437979221343994141e-01,-1.965255886316299438e-01
1.125100553035736084e-01,8.448556065559387207e-01,-1.656728386878967285e-01
1.126451492309570312e-01,8.458700180053710938e-01,-1.351551860570907593e-01
1.127936169505119324e-01,8.469848632812500000e-01,-1.049146205186843872e-01
1.129361763596534729e-01,8.480553627014160156e-01,-7.485013455152511597e-02
1.130761876702308655e-01,8.491067290306091309e-01,-4.489258676767349243e-02
1.132180541753768921e-01,8.501720428466796875e-01,-1.497079618275165558e-02
1.133615598082542419e-01,8.512496352195739746e-01,1.498977094888687134e-02
1.135036498308181763e-01,8.523166179656982422e-01,4.506229609251022339e-02
1.136415898799896240e-01,8.533524274826049805e-01,7.531765848398208618e-02
1.137955337762832642e-01,8.545084595680236816e-01,1.058465465903282166e-01
1.139470487833023071e-01,8.556461930274963379e-01,1.367172449827194214e-01
1.140894368290901184e-01,8.567153811454772949e-01,1.679985076189041138e-01
1.142534613609313965e-01,8.579471111297607422e-01,1.998210251331329346e-01
9.972900152206420898e-02,8.406643867492675781e-01,-2.268344908952713013e-01
9.985801577568054199e-02,8.417518734931945801e-01,-1.956961303949356079e-01
9.997827559709548950e-02,8.427656292915344238e-01,-1.649654954671859741e-01
1.001125350594520569e-01,8.438974022865295410e-01,-1.345972567796707153e-01
1.002408489584922791e-01,8.449789881706237793e-01,-1.044777259230613708e-01
1.003666818141937256e-01,8.460397124290466309e-01,-7.453780621290206909e-02
1.004931777715682983e-01,8.471059799194335938e-01,-4.470617696642875671e-02
1.006188914179801941e-01,8.481656908988952637e-01,-1.490857731550931931e-02
1.007445380091667175e-01,8.492248654365539551e-01,1.492719538509845734e-02
1.008718460798263550e-01,8.502979874610900879e-01,4.487463831901550293e-02
1.009981632232666016e-01,8.513627648353576660e-01,7.500676810741424561e-02
1.011203974485397339e-01,8.523930907249450684e-01,1.053944453597068787e-01
1.012597903609275818e-01,8.535681366920471191e-01,1.361396908760070801e-01
1.013941392302513123e-01,8.547006249427795410e-01,1.673016846179962158e-01
1.015160307288169861e-01,8.557281494140625000e-01,1.989454180002212524e-01
8.735702186822891235e-02,8.388351202011108398e-01,-2.259803712368011475e-01
8.748686313629150391e-02,8.400818705558776855e-01,-1.949967592954635620e-01
8.758503943681716919e-02,8.410245776176452637e-01,-1.643624752759933472e-01
8.769803494215011597e-02,8.421096205711364746e-01,-1.340981721878051758e-01
8.780761808156967163e-02,8.431618809700012207e-01,-1.040869876742362976e-01
8.792380988597869873e-02,8.442776203155517578e-01,-7.426407188177108765e-02
8.803227543830871582e-02,8.453191518783569336e-01,-4.454081505537033081e-02
8.814251422882080078e-02,8.463776707649230957e-01,-1.485345140099525452e-02
8.825496584177017212e-02,8.474574685096740723e-01,1.487240102142095566e-02
8.836029469966888428e-02,8.484688997268676758e-01,4.470678046345710754e-02
8.847353607416152954e-02,8.495562672615051270e-01,7.472839206457138062e-02
8.858554810285568237e-02,8.506318330764770508e-01,1.050091385841369629e-01
8.871511369943618774e-02,8.518760204315185547e-01,1.356533765792846680e-01
8.881534636020660400e-02,8.528385162353515625e-01,1.666712760925292969e-01
8.892992883920669556e-02,8.539386987686157227e-01,1.982131600379943848e-01
7.506901770830154419e-02,8.369484543800354004e-01,-2.251595854759216309e-01
7.517612725496292114e-02,8.381426334381103516e-01,-1.942769736051559448e-01
7.527384907007217407e-02,8.392321467399597168e-01,-1.637848317623138428e-01
7.536684721708297729e-02,8.402689695358276367e-01,-1.336195915937423706e-01
7.546792924404144287e-02,8.413959145545959473e-01,-1.037250086665153503e-01
7.555864751338958740e-02,8.424073457717895508e-01,-7.399684935808181763e-02
7.565531879663467407e-02,8.434851765632629395e-01,-4.438257962465286255e-02
7.574994117021560669e-02,8.445401191711425781e-01,-1.480065844953060150e-02
7.584299892187118530e-02,8.455775976181030273e-01,1.481884159147739410e-02
7.594300061464309692e-02,8.466925621032714844e-01,4.455134272575378418e-02
7.603331655263900757e-02,8.476994633674621582e-01,7.446170598268508911e-02
7.613370567560195923e-02,8.488187193870544434e-01,1.046400666236877441e-01
7.623131573200225830e-02,8.499069809913635254e-01,1.351522207260131836e-01
7.632201164960861206e-02,8.509181737899780273e-01,1.660654693841934204e-01
7.642703503370285034e-02,8.520890474319458008e-01,1.975096613168716431e-01
6.289558857679367065e-02,8.354486823081970215e-01,-2.244909256696701050e-01
6.297969073057174683e-02,8.365658521652221680e-01,-1.936826854944229126e-01
6.305728107690811157e-02,8.375964760780334473e-01,-1.632727384567260742e-01
6.313228607177734375e-02,8.385927081108093262e-01,-1.331956982612609863e-01
6.321569532155990601e-02,8.397006392478942871e-01,-1.033938750624656677e-01
6.329628080129623413e-02,8.407711386680603027e-01,-7.376598566770553589e-02
6.337583065032958984e-02,8.418278098106384277e-01,-4.424310848116874695e-02
6.345517188310623169e-02,8.428816795349121094e-01,-1.475416589528322220e-02
6.353459507226943970e-02,8.439366817474365234e-01,1.477263402193784714e-02
6.361352652311325073e-02,8.449850678443908691e-01,4.440904036164283752e-02
6.369052082300186157e-02,8.460078239440917969e-01,7.422543317079544067e-02
6.377749890089035034e-02,8.471631407737731934e-01,1.043127477169036865e-01
6.386367231607437134e-02,8.483078479766845703e-01,1.347387731075286865e-01
6.394540518522262573e-02,8.493934869766235352e-01,1.655723303556442261e-01
6.401824951171875000e-02,8.503611087799072266e-01,1.968765705823898315e-01
5.077224597334861755e-02,8.336367607116699219e-01,-2.237858474254608154e-01
5.083796754479408264e-02,8.347158432006835938e-01,-1.930661201477050781e-01
5.091054737567901611e-02,8.359075188636779785e-01,-1.627847999334335327e-01
5.097749084234237671e-02,8.370066881179809570e-01,-1.328142881393432617e-01
5.104135349392890930e-02,8.380553126335144043e-01,-1.030907705426216125e-01
5.110409110784530640e-02,8.390854001045227051e-01,-7.354637235403060913e-02
5.116715282201766968e-02,8.401207923889160156e-01,-4.411038383841514587e-02
5.123126506805419922e-02,8.411734700202941895e-01,-1.470992248505353928e-02
5.129649490118026733e-02,8.422445058822631836e-01,1.472865231335163116e-02
5.136261880397796631e-02,8.433302044868469238e-01,4.427889361977577209e-02
5.142832547426223755e-02,8.444090485572814941e-01,7.401300221681594849e-02
5.149198323488235474e-02,8.454542756080627441e-01,1.040009260177612305e-01
5.155133083462715149e-02,8.464286923408508301e-01,1.343093514442443848e-01
5.161956697702407837e-02,8.475490808486938477e-01,1.650518774986267090e-01
5.170013755559921265e-02,8.488719463348388672e-01,1.963403671979904175e-01
3.873153403401374817e-02,8.320330381393432617e-01,-2.231836467981338501e-01
3.877828642725944519e-02,8.330373764038085938e-01,-1.925297975540161133e-01
3.883119672536849976e-02,8.341740369796752930e-01,-1.623223423957824707e-01
3.888064995408058167e-02,8.352363109588623047e-01,-1.324314922094345093e-01
3.892860934138298035e-02,8.362666368484497070e-01,-1.027916669845581055e-01
3.897662088274955750e-02,8.372979760169982910e-01,-7.333330065011978149e-02
3.902669250965118408e-02,8.383736610412597656e-01,-4.398481547832489014e-02
3.907556831836700439e-02,8.394235968589782715e-01,-1.466803811490535736e-02
3.912334144115447998e-02,8.404498696327209473e-01,1.468597073107957840e-02
3.917358070611953735e-02,8.415291309356689453e-01,4.415036365389823914e-02
3.922443836927413940e-02,8.426216840744018555e-01,7.379956543445587158e-02
3.927465155720710754e-02,8.437003493309020996e-01,1.037053987383842468e-01
3.932243958115577698e-02,8.447269201278686523e-01,1.339362710714340210e-01
3.937792405486106873e-02,8.459188342094421387e-01,1.646077781915664673e-01
3.942968323826789856e-02,8.470307588577270508e-01,1.957639157772064209e-01
2.674314193427562714e-02,8.301314711570739746e-01,-2.225480973720550537e-01
2.678151614964008331e-02,8.313226103782653809e-01,-1.920252293348312378e-01
2.681639604270458221e-02,8.324053287506103516e-01,-1.618869006633758545e-01
2.684946544468402863e-02,8.334317803382873535e-01,-1.320709139108657837e-01
2.688211202621459961e-02,8.344451785087585449e-01,-1.025099828839302063e-01
2.691736444830894470e-02,8.355394601821899414e-01,-7.313805073499679565e-02
2.695135585963726044e-02,8.365945816040039062e-01,-4.386674240231513977e-02
2.698513679206371307e-02,8.376432061195373535e-01,-1.462867949157953262e-02
2.701868861913681030e-02,8.386846780776977539e-01,1.464686822146177292e-02
2.705117315053939819e-02,8.396930098533630371e-01,4.402920976281166077e-02
2.708684466779232025e-02,8.408002853393554688e-01,7.359854876995086670e-02
2.712261676788330078e-02,8.419107198715209961e-01,1.034271121025085449e-01
2.715728990733623505e-02,8.429870009422302246e-01,1.335850954055786133e-01
2.718938142061233521e-02,8.439831137657165527e-01,1.641385555267333984e-01
2.722680009901523590e-02,8.451446294784545898e-01,1.952179372310638428e-01
1.482428982853889465e-02,8.284577131271362305e-01,-2.220197618007659912e-01
1.484436634927988052e-02,8.295797109603881836e-01,-1.915539354085922241e-01
1.486279815435409546e-02,8.306097388267517090e-01,-1.614797860383987427e-01
1.488053984940052032e-02,8.316012620925903320e-01,-1.317335963249206543e-01
1.490024197846651077e-02,8.327023386955261230e-01,-1.022592037916183472e-01
1.491914875805377960e-02,8.337589502334594727e-01,-7.295602560043334961e-02
1.493766158819198608e-02,8.347935676574707031e-01,-4.375661537051200867e-02
1.495636813342571259e-02,8.358389735221862793e-01,-1.459193695336580276e-02
1.497530750930309296e-02,8.368973731994628906e-01,1.461041532456874847e-02
1.499397680163383484e-02,8.379407525062561035e-01,4.392157867550849915e-02
1.501209195703268051e-02,8.389530777931213379e-01,7.341052591800689697e-02
1.503250002861022949e-02,8.400935530662536621e-01,1.031668782234191895e-01
1.505265105515718460e-02,8.412197232246398926e-01,1.332572400569915771e-01
1.507165189832448959e-02,8.422815799713134766e-01,1.637489199638366699e-01
1.508849766105413437e-02,8.432229757308959961e-01,1.947042346000671387e-01
2.959816483780741692e-03,8.268884420394897461e-01,-2.215651720762252808e-01
2.963617676869034767e-03,8.279504179954528809e-01,-1.911483556032180786e-01
2.967149019241333008e-03,8.289369344711303711e-01,-1.611298024654388428e-01
2.971123671159148216e-03,8.300473690032958984e-01,-1.314672380685806274e-01
2.974508330225944519e-03,8.309929370880126953e-01,-1.020336076617240906e-01
2.978315111249685287e-03,8.320564627647399902e-01,-7.279586791992187500e-02
2.982100239023566246e-03,8.331139087677001953e-01,-4.366186261177062988e-02
2.985832048580050468e-03,8.341565132141113281e-01,-1.456032693386077881e-02
2.989521715790033340e-03,8.351872563362121582e-01,1.457831915467977524e-02
2.993213478475809097e-03,8.362186551094055176e-01,4.382457956671714783e-02
2.997391391545534134e-03,8.373858332633972168e-01,7.326212525367736816e-02
3.001022851094603539e-03,8.384003639221191406e-01,1.029431298375129700e-01
3.005198203027248383e-03,8.395667672157287598e-01,1.329749673604965210e-01
3.009202657267451286e-03,8.406855463981628418e-01,1.634135097265243530e-01
3.012828761711716652e-03,8.416985869407653809e-01,1.943223774433135986e-01
-8.854055777192115784e-03,8.249032497406005859e-01,-2.210445404052734375e-01
-8.865160867571830750e-03,8.259378671646118164e-01,-1.906934678554534912e-01
-8.877651765942573547e-03,8.271016478538513184e-01,-1.607812941074371338e-01
-8.889242075383663177e-03,8.281815052032470703e-01,-1.311784237623214722e-01
-8.900365792214870453e-03,8.292177915573120117e-01,-1.018208488821983337e-01
-8.911378681659698486e-03,8.302438855171203613e-01,-7.264100015163421631e-02
-8.922521956264972687e-03,8.312820196151733398e-01,-4.356808960437774658e-02
-8.933675475418567657e-03,8.323211073875427246e-01,-1.452903449535369873e-02
-8.944905363023281097e-03,8.333674669265747070e-01,1.454729959368705750e-02
-8.956347592175006866e-03,8.344333767890930176e-01,4.373325407505035400e-02
-8.967814035713672638e-03,8.355016708374023438e-01,7.310102880001068115e-02
-8.978998288512229919e-03,8.365437388420104980e-01,1.027204245328903198e-01
-8.989509195089340210e-03,8.375229835510253906e-01,1.326580494642257690e-01
-9.001770056784152985e-03,8.386652469635009766e-01,1.630291640758514404e-01
-9.013090282678604126e-03,8.397200107574462891e-01,1.938755065202713013e-01
-2.062369138002395630e-02,8.232762217521667480e-01,-2.206650525331497192e-01
-2.064820006489753723e-02,8.242545723915100098e-01,-1.903535723686218262e-01
-2.067638188600540161e-02,8.253795504570007324e-01,-1.604876220226287842e-01
-2.070283144712448120e-02,8.264353871345520020e-01,-1.309353709220886230e-01
-2.072860486805438995e-02,8.274642229080200195e-01,-1.016315519809722900e-01
-2.075610868632793427e-02,8.285621404647827148e-01,-7.251242548227310181e-02
-2.078166231513023376e-02,8.295822143554687500e-01,-4.349013790488243103e-02
-2.080765739083290100e-02,8.306199312210083008e-01,-1.450305152684450150e-02
-2.083421312272548676e-02,8.316799402236938477e-01,1.452156063169240952e-02
-2.085894532501697540e-02,8.326672911643981934e-01,4.365186765789985657e-02
-2.088579535484313965e-02,8.337391018867492676e-01,7.296549528837203979e-02
-2.091240324079990387e-02,8.348013162612915039e-01,1.025327146053314209e-01
-2.093782462179660797e-02,8.358160853385925293e-01,1.324215978384017944e-01
-2.096776850521564484e-02,8.370113968849182129e-01,1.627493202686309814e-01
-2.099588327109813690e-02,8.381336927413940430e-01,1.935588121414184570e-01
-3.235427662730216980e-02,8.216263055801391602e-01,-2.203243970870971680e-01
-3.239067271351814270e-02,8.225505352020263672e-01,-1.900476366281509399e-01
-3.243349865078926086e-02,8.236380815505981445e-01,-1.602228581905364990e-01
-3.248004615306854248e-02,8.248201608657836914e-01,-1.307397335767745972e-01
-3.251863643527030945e-02,8.258001804351806641e-01,-1.014739423990249634e-01
-3.256057947874069214e-02,8.268653154373168945e-01,-7.239729911088943481e-02
-3.260004147887229919e-02,8.278674483299255371e-01,-4.342025518417358398e-02
-3.264082595705986023e-02,8.289031386375427246e-01,-1.447974983602762222e-02
-3.268314152956008911e-02,8.299776911735534668e-01,1.449852157384157181e-02
-3.272313997149467468e-02,8.309934139251708984e-01,4.358420893549919128e-02
-3.276714310050010681e-02,8.321108818054199219e-01,7.285658270120620728e-02
-3.280368074774742126e-02,8.330387473106384277e-01,1.023634225130081177e-01
-3.284498304128646851e-02,8.340876102447509766e-01,1.322086900472640991e-01
-3.289403393864631653e-02,8.353332281112670898e-01,1.624979376792907715e-01
-3.294084593653678894e-02,8.365220427513122559e-01,1.932757049798965454e-01
-4.405378550291061401e-02,8.200313448905944824e-01,-2.200432419776916504e-01
-4.410109668970108032e-02,8.209119439125061035e-01,-1.897954642772674561e-01
-4.416815936565399170e-02,8.221603035926818848e-01,-1.600419878959655762e-01
-4.422063380479812622e-02,8.231371045112609863e-01,-1.305599063634872437e-01
-4.427897930145263672e-02,8.242231011390686035e-01,-1.013476550579071045e-01
-4.433117434382438660e-02,8.251947760581970215e-01,-7.229918241500854492e-02
-4.438758641481399536e-02,8.262447714805603027e-01,-4.336402937769889832e-02
-4.444314166903495789e-02,8.272789120674133301e-01,-1.446100790053606033e-02
-4.449792206287384033e-02,8.282986283302307129e-01,1.447883341461420059e-02
-4.455748200416564941e-02,8.294073343276977539e-01,4.353000968694686890e-02
-4.461145028471946716e-02,8.304119110107421875e-01,7.275628298521041870e-02
-4.467236623167991638e-02,8.315457701683044434e-01,1.022480577230453491e-01
-4.471959173679351807e-02,8.324248790740966797e-01,1.320330649614334106e-01
-4.478870704770088196e-02,8.337114453315734863e-01,1.622905284166336060e-01
-4.483850672841072083e-02,8.346383571624755859e-01,1.929690092802047729e-01
-5.571921169757843018e-02,8.183424472808837891e-01,-2.197815328836441040e-01
-5.579153448343276978e-02,8.194046020507812500e-01,-1.896121650934219360e-01
-5.585845187306404114e-02,8.203874230384826660e-01,-1.598361283540725708e-01
-5.592365190386772156e-02,8.213450312614440918e-01,-1.303892731666564941e-01
-5.599733069539070129e-02,8.224271535873413086e-01,-1.012150049209594727e-01
-5.606859922409057617e-02,8.234738111495971680e-01,-7.221132516860961914e-02
-5.613894760608673096e-02,8.245070576667785645e-01,-4.331056401133537292e-02
-5.620920658111572266e-02,8.255389332771301270e-01,-1.444317679852247238e-02
-5.627955496311187744e-02,8.265721201896667480e-01,1.446125376969575882e-02
-5.634943768382072449e-02,8.275985121726989746e-01,4.347295686602592468e-02
-5.641780421137809753e-02,8.286026120185852051e-01,7.266107201576232910e-02
-5.649604648351669312e-02,8.297516703605651855e-01,1.021164283156394958e-01
-5.657412856817245483e-02,8.308985233306884766e-01,1.319058984518051147e-01
-5.664870515465736389e-02,8.319938182830810547e-01,1.620974093675613403e-01
-5.671589449048042297e-02,8.329806327819824219e-01,1.927536875009536743e-01
-6.736227124929428101e-02,8.166931271553039551e-01,-2.195750474929809570e-01
-6.744661927223205566e-02,8.177158236503601074e-01,-1.894253641366958618e-01
-6.752554327249526978e-02,8.186726570129394531e-01,-1.596739888191223145e-01
-6.761589646339416504e-02,8.197680711746215820e-01,-1.302792131900787354e-01
-6.770175695419311523e-02,8.208090662956237793e-01,-1.011247709393501282e-01
-6.778576225042343140e-02,8.218275308609008789e-01,-7.214464992284774780e-02
-6.786972284317016602e-02,8.228454589843750000e-01,-4.326988011598587036e-02
-6.795468181371688843e-02,8.238754868507385254e-01,-1.442961394786834717e-02
-6.804084032773971558e-02,8.249200582504272461e-01,1.444790791720151901e-02
-6.812753528356552124e-02,8.259711265563964844e-01,4.343424737453460693e-02
-6.821343302726745605e-02,8.270125389099121094e-01,7.259981334209442139e-02
-6.829623132944107056e-02,8.280164003372192383e-01,1.020127311348915100e-01
-6.839265674352645874e-02,8.291854262351989746e-01,1.317758411169052124e-01
-6.848596781492233276e-02,8.303167223930358887e-01,1.619450598955154419e-01
-6.857135146856307983e-02,8.313519358634948730e-01,1.925842016935348511e-01
-7.898046821355819702e-02,8.149911165237426758e-01,-2.193989008665084839e-01
-7.907520979642868042e-02,8.159686923027038574e-01,-1.892634481191635132e-01
-7.916498184204101562e-02,8.168950676918029785e-01,-1.595319509506225586e-01
-7.926959544420242310e-02,8.179745078086853027e-01,-1.301611810922622681e-01
-7.937034964561462402e-02,8.190142512321472168e-01,-1.010332629084587097e-01
-7.947659492492675781e-02,8.201106190681457520e-01,-7.208640873432159424e-02
-7.957368344068527222e-02,8.211124539375305176e-01,-4.323421418666839600e-02
-7.967329025268554688e-02,8.221402764320373535e-01,-1.441771909594535828e-02
-7.977572828531265259e-02,8.231973052024841309e-01,1.443625614047050476e-02
-7.986937463283538818e-02,8.241636157035827637e-01,4.339486733078956604e-02
-7.997000962495803833e-02,8.252021074295043945e-01,7.253394275903701782e-02
-8.006843179464340210e-02,8.262176513671875000e-01,1.019218713045120239e-01
-8.018429577350616455e-02,8.274132013320922852e-01,1.316631138324737549e-01
-8.029793202877044678e-02,8.285858631134033203e-01,1.618150621652603149e-01
-8.040361851453781128e-02,8.296764492988586426e-01,1.924429535865783691e-01
-9.058460593223571777e-02,8.133111000061035156e-01,-2.192732244729995728e-01
-9.068959951400756836e-02,8.142538070678710938e-01,-1.891473978757858276e-01
-9.081188589334487915e-02,8.153516650199890137e-01,-1.594680696725845337e-01
-9.092641621828079224e-02,8.163800239562988281e-01,-1.301012188196182251e-01
-9.103780239820480347e-02,8.173801302909851074e-01,-1.009820774197578430e-01
-9.114970266819000244e-02,8.183848261833190918e-01,-7.204201072454452515e-02
-9.126690030097961426e-02,8.194370269775390625e-01,-4.321035742759704590e-02
-9.138117730617523193e-02,8.204630613327026367e-01,-1.440976746380329132e-02
-9.149252623319625854e-02,8.214628100395202637e-01,1.442732661962509155e-02
-9.161026775836944580e-02,8.225199580192565918e-01,4.337292537093162537e-02
-9.172992408275604248e-02,8.235942721366882324e-01,7.250060141086578369e-02
-9.184837341308593750e-02,8.246577382087707520e-01,1.018811836838722229e-01
-9.196149557828903198e-02,8.256734609603881836e-01,1.315822452306747437e-01
-9.209562093019485474e-02,8.268776535987854004e-01,1.617223322391510010e-01
-9.222198277711868286e-02,8.280122280120849609e-01,1.923434138298034668e-01
-1.021758690476417542e-01,8.116170167922973633e-01,-2.191883474588394165e-01
-1.022903844714164734e-01,8.125267028808593750e-01,-1.890669465065002441e-01
-1.024260818958282471e-01,8.136045932769775391e-01,-1.593967825174331665e-01
-1.025545597076416016e-01,8.146251440048217773e-01,-1.300421655178070068e-01
-1.026948764920234680e-01,8.157397508621215820e-01,-1.009506806731224060e-01
-1.028179898858070374e-01,8.167176842689514160e-01,-7.201743125915527344e-02
-1.029487028717994690e-01,8.177559375762939453e-01,-4.319498687982559204e-02
-1.030776202678680420e-01,8.187800049781799316e-01,-1.440464518964290619e-02
-1.032047644257545471e-01,8.197899460792541504e-01,1.442241296172142029e-02
-1.033407226204872131e-01,8.208698630332946777e-01,4.335946962237358093e-02
-1.034606695175170898e-01,8.218226432800292969e-01,7.246758043766021729e-02
-1.035949885845184326e-01,8.228896260261535645e-01,1.018355041742324829e-01
-1.037248969078063965e-01,8.239215016365051270e-01,1.315261870622634888e-01
-1.038801670074462891e-01,8.251548409461975098e-01,1.616596281528472900e-01
-1.039875224232673645e-01,8.260076642036437988e-01,1.922038197517395020e-01
-1.137591376900672913e-01,8.099141120910644531e-01,-2.191457301378250122e-01
-1.139159202575683594e-01,8.110302686691284180e-01,-1.890787780284881592e-01
-1.140589416027069092e-01,8.120485544204711914e-01,-1.593954414129257202e-01
-1.141954138875007629e-01,8.130201697349548340e-01,-1.300335675477981567e-01
-1.143313571810722351e-01,8.139880299568176270e-01,-1.009260863065719604e-01
-1.144805327057838440e-01,8.150500655174255371e-01,-7.200749963521957397e-02
-1.146244332194328308e-01,8.160746097564697266e-01,-4.318841546773910522e-02
-1.147679984569549561e-01,8.170967102050781250e-01,-1.440245658159255981e-02
-1.149112209677696228e-01,8.181164264678955078e-01,1.442043017596006393e-02
-1.150501742959022522e-01,8.191056847572326660e-01,4.334882646799087524e-02
-1.152044907212257385e-01,8.202043771743774414e-01,7.246286422014236450e-02
-1.153607815504074097e-01,8.213170766830444336e-01,1.018348038196563721e-01
-1.155136749148368835e-01,8.224055767059326172e-01,1.315346509218215942e-01
-1.156565770506858826e-01,8.234230279922485352e-01,1.616281121969223022e-01
-1.157816797494888306e-01,8.243136405944824219e-01,1.921755820512771606e-01
-1.253340989351272583e-01,8.081715703010559082e-01,-2.191372066736221313e-01
-1.255038678646087646e-01,8.092663288116455078e-01,-1.890669763088226318e-01
-1.256600767374038696e-01,8.102735877037048340e-01,-1.593837589025497437e-01
-1.258108019828796387e-01,8.112454414367675781e-01,-1.300244182348251343e-01
-1.259795874357223511e-01,8.123338222503662109e-01,-1.009342148900032043e-01
-1.261408478021621704e-01,8.133736252784729004e-01,-7.201152294874191284e-02
-1.262978166341781616e-01,8.143857121467590332e-01,-4.319028183817863464e-02
-1.264560073614120483e-01,8.154058456420898438e-01,-1.440308149904012680e-02
-1.266154646873474121e-01,8.164340257644653320e-01,1.442124228924512863e-02
-1.267717480659484863e-01,8.174417018890380859e-01,4.335235431790351868e-02
-1.269222944974899292e-01,8.184125423431396484e-01,7.245764136314392090e-02
-1.270941644906997681e-01,8.195207118988037109e-01,1.018272042274475098e-01
-1.272640079259872437e-01,8.206159472465515137e-01,1.315262913703918457e-01
-1.274244934320449829e-01,8.216508030891418457e-01,1.616216897964477539e-01
-1.275669336318969727e-01,8.225692510604858398e-01,1.921748965978622437e-01
-1.369139552116394043e-01,8.064490556716918945e-01,-2.191790789365768433e-01
-1.370954513549804688e-01,8.075180649757385254e-01,-1.890976130962371826e-01
-1.372640132904052734e-01,8.085109591484069824e-01,-1.594071835279464722e-01
-1.374545991420745850e-01,8.096334934234619141e-01,-1.300680786371231079e-01
-1.376335322856903076e-01,8.106874227523803711e-01,-1.009640842676162720e-01
-1.378059536218643188e-01,8.117030858993530273e-01,-7.203087955713272095e-02
-1.379755586385726929e-01,8.127020597457885742e-01,-4.320130497217178345e-02
-1.381484270095825195e-01,8.137202858924865723e-01,-1.440676022320985794e-02
-1.383245289325714111e-01,8.147575855255126953e-01,1.442512590438127518e-02
-1.384990662336349487e-01,8.157856464385986328e-01,4.336521774530410767e-02
-1.386691182851791382e-01,8.167872428894042969e-01,7.248204946517944336e-02
-1.388303190469741821e-01,8.177367448806762695e-01,1.018420159816741943e-01
-1.390180289745330811e-01,8.188424110412597656e-01,1.315474957227706909e-01
-1.391974389553070068e-01,8.198992013931274414e-01,1.616525053977966309e-01
-1.394143998622894287e-01,8.211771249771118164e-01,1.922961771488189697e-01
-1.485018432140350342e-01,8.047321438789367676e-01,-2.192676812410354614e-01
-1.487390697002410889e-01,8.060177564620971680e-01,-1.892254352569580078e-01
-1.489121913909912109e-01,8.069558739662170410e-01,-1.595044732093811035e-01
-1.491113007068634033e-01,8.080348372459411621e-01,-1.301407963037490845e-01
-1.492791026830673218e-01,8.089441061019897461e-01,-1.010027304291725159e-01
-1.494704037904739380e-01,8.099808096885681152e-01,-7.206051796674728394e-02
-1.496607214212417603e-01,8.110121488571166992e-01,-4.322091490030288696e-02
-1.498477607965469360e-01,8.120257258415222168e-01,-1.441325526684522629e-02
-1.500325351953506470e-01,8.130269646644592285e-01,1.443102862685918808e-02
-1.502175927162170410e-01,8.140297532081604004e-01,4.338173195719718933e-02
-1.504290252923965454e-01,8.151755332946777344e-01,7.252267003059387207e-02
-1.506116688251495361e-01,8.161652684211730957e-01,1.019043475389480591e-01
-1.508252024650573730e-01,8.173224329948425293e-01,1.316366344690322876e-01
-1.509785056114196777e-01,8.181532025337219238e-01,1.617177575826644897e-01
-1.512200981378555298e-01,8.194624185562133789e-01,1.923817843198776245e-01
-1.601426899433135986e-01,8.032202124595642090e-01,-2.194578051567077637e-01
-1.603400111198425293e-01,8.042098879814147949e-01,-1.893204152584075928e-01
-1.605260372161865234e-01,8.051429390907287598e-01,-1.595839560031890869e-01
-1.607420891523361206e-01,8.062266111373901367e-01,-1.302067786455154419e-01
-1.609482765197753906e-01,8.072607517242431641e-01,-1.010698378086090088e-01
-1.611509323120117188e-01,8.082772493362426758e-01,-7.210677862167358398e-02
-1.613542735576629639e-01,8.092970848083496094e-01,-4.324816539883613586e-02
-1.615560203790664673e-01,8.103089928627014160e-01,-1.442235242575407028e-02
-1.617570668458938599e-01,8.113173842430114746e-01,1.444029994308948517e-02
-1.619602888822555542e-01,8.123366832733154297e-01,4.341059923171997070e-02
-1.621622443199157715e-01,8.133496642112731934e-01,7.255928963422775269e-02
-1.623578220605850220e-01,8.143305182456970215e-01,1.019549816846847534e-01
-1.625887006521224976e-01,8.154885768890380859e-01,1.317026019096374512e-01
-1.628138124942779541e-01,8.166176676750183105e-01,1.618583053350448608e-01
-1.630216389894485474e-01,8.176600337028503418e-01,1.924867480993270874e-01
-1.717424094676971436e-01,8.014079928398132324e-01,-2.196118086576461792e-01
-1.719517558813095093e-01,8.023849129676818848e-01,-1.894507855176925659e-01
-1.721934080123901367e-01,8.035125136375427246e-01,-1.597329378128051758e-01
-1.724176704883575439e-01,8.045589923858642578e-01,-1.303226798772811890e-01
-1.726331561803817749e-01,8.055645227432250977e-01,-1.011564731597900391e-01
-1.728467196226119995e-01,8.065611124038696289e-01,-7.216700166463851929e-02
-1.730629354715347290e-01,8.075700402259826660e-01,-4.328381642699241638e-02
-1.732793748378753662e-01,8.085799813270568848e-01,-1.443424448370933533e-02
-1.734969019889831543e-01,8.095950484275817871e-01,1.445236429572105408e-02
-1.737188100814819336e-01,8.106305599212646484e-01,4.344785213470458984e-02
-1.739411652088165283e-01,8.116681575775146484e-01,7.262395322322845459e-02
-1.741585433483123779e-01,8.126825094223022461e-01,1.020502969622612000e-01
-1.743630319833755493e-01,8.136367201805114746e-01,1.317930817604064941e-01
-1.746068745851516724e-01,8.147745728492736816e-01,1.619717627763748169e-01
-1.748341321945190430e-01,8.158349990844726562e-01,1.926264911890029907e-01
-1.833851337432861328e-01,7.996990084648132324e-01,-2.198402732610702515e-01
-1.836607158184051514e-01,8.009006977081298828e-01,-1.897016167640686035e-01
-1.839084029197692871e-01,8.019807934761047363e-01,-1.599353551864624023e-01
-1.841036081314086914e-01,8.028320074081420898e-01,-1.304564327001571655e-01
-1.843630075454711914e-01,8.039632439613342285e-01,-1.012763977050781250e-01
-1.845866590738296509e-01,8.049385547637939453e-01,-7.225082069635391235e-02
-1.848153620958328247e-01,8.059358596801757812e-01,-4.333357512950897217e-02
-1.850465536117553711e-01,8.069440126419067383e-01,-1.445084158331155777e-02
-1.852811276912689209e-01,8.079669475555419922e-01,1.446916069835424423e-02
-1.855225265026092529e-01,8.090196251869201660e-01,4.349938407540321350e-02
-1.857300400733947754e-01,8.099246025085449219e-01,7.269836217164993286e-02
-1.860075592994689941e-01,8.111346960067749023e-01,1.021797955036163330e-01
-1.862366348505020142e-01,8.121336698532104492e-01,1.319679021835327148e-01
-1.864437609910964966e-01,8.130369186401367188e-01,1.621402353048324585e-01
-1.866920143365859985e-01,8.141195178031921387e-01,1.928326189517974854e-01
-1.950961947441101074e-01,7.981565594673156738e-01,-2.201613783836364746e-01
-1.953187435865402222e-01,7.990670800209045410e-01,-1.899100244045257568e-01
-1.955827176570892334e-01,8.001469969749450684e-01,-1.601115465164184570e-01
-1.958311796188354492e-01,8.011634945869445801e-01,-1.306273937225341797e-01
-1.960739940404891968e-01,8.021568655967712402e-01,-1.013919934630393982e-01
-1.963353157043457031e-01,8.032259345054626465e-01,-7.234193384647369385e-02
-1.965764462947845459e-01,8.042124509811401367e-01,-4.338775202631950378e-02
-1.968223899602890015e-01,8.052185773849487305e-01,-1.446891203522682190e-02
-1.970740556716918945e-01,8.062481880187988281e-01,1.448741275817155838e-02
-1.973067671060562134e-01,8.072002530097961426e-01,4.354894533753395081e-02
-1.975613832473754883e-01,8.082419633865356445e-01,7.279369235038757324e-02
-1.978149116039276123e-01,8.092790842056274414e-01,1.022922396659851074e-01
-1.980579793453216553e-01,8.102735280990600586e-01,1.321127563714981079e-01
-1.983504742383956909e-01,8.114701509475708008e-01,1.623773276805877686e-01
-1.986283957958221436e-01,8.126071691513061523e-01,1.931280493736267090e-01
-2.067689895629882812e-01,7.963207960128784180e-01,-2.204487770795822144e-01
-2.070668041706085205e-01,7.974677681922912598e-01,-1.902148574590682983e-01
-2.073367238044738770e-01,7.985072731971740723e-01,-1.603608429431915283e-01
-2.075921148061752319e-01,7.994908690452575684e-01,-1.308257430791854858e-01
-2.078434228897094727e-01,8.004587292671203613e-01,-1.015429794788360596e-01
-2.081164419651031494e-01,8.015101552009582520e-01,-7.244826853275299072e-02
-2.083700895309448242e-01,8.024870157241821289e-01,-4.345112293958663940e-02
-2.086308896541595459e-01,8.034914135932922363e-01,-1.449005119502544403e-02
-2.088995873928070068e-01,8.045262694358825684e-01,1.450871396809816360e-02
-2.091503441333770752e-01,8.054919838905334473e-01,4.361382871866226196e-02
-2.094264924526214600e-01,8.065555095672607422e-01,7.290431857109069824e-02
-2.097033560276031494e-01,8.076218366622924805e-01,1.024516597390174866e-01
-2.099711149930953979e-01,8.086529970169067383e-01,1.323250085115432739e-01
-2.102178931236267090e-01,8.096033930778503418e-01,1.625892370939254761e-01
-2.105157971382141113e-01,8.107507228851318359e-01,1.933831423521041870e-01
-2.185521423816680908e-01,7.947614192962646484e-01,-2.208604663610458374e-01
-2.187882810831069946e-01,7.956201434135437012e-01,-1.905016154050827026e-01
-2.190754860639572144e-01,7.966645359992980957e-01,-1.606040596961975098e-01
-2.193923294544219971e-01,7.978167533874511719e-01,-1.310522407293319702e-01
-2.196518480777740479e-01,7.987605333328247070e-01,-1.017159670591354370e-01
-2.199365049600601196e-01,7.997956275939941406e-01,-7.257041335105895996e-02
-2.202024608850479126e-01,8.007627725601196289e-01,-4.352395981550216675e-02
-2.204778939485549927e-01,8.017643690109252930e-01,-1.451433077454566956e-02
-2.207642048597335815e-01,8.028055429458618164e-01,1.453317888081073761e-02
-2.210331708192825317e-01,8.037836551666259766e-01,4.368815571069717407e-02
-2.213311493396759033e-01,8.048672676086425781e-01,7.303059101104736328e-02
-2.215756028890609741e-01,8.057562112808227539e-01,1.026068106293678284e-01
-2.218568325042724609e-01,8.067789077758789062e-01,1.325244009494781494e-01
-2.221980690956115723e-01,8.080197572708129883e-01,1.628932207822799683e-01
-2.224354892969131470e-01,8.088831305503845215e-01,1.936772614717483521e-01
-2.302994877099990845e-01,7.929124236106872559e-01,-2.212400287389755249e-01
-2.306189388036727905e-01,7.940123677253723145e-01,-1.908874511718750000e-01
-2.309115678071975708e-01,7.950198650360107422e-01,-1.609223186969757080e-01
-2.311921566724777222e-01,7.959858775138854980e-01,-1.312816143035888672e-01
-2.315051704645156860e-01,7.970635890960693359e-01,-1.019114032387733459e-01
-2.317814677953720093e-01,7.980148196220397949e-01,-7.270240783691406250e-02
-2.320794910192489624e-01,7.990409731864929199e-01,-4.360646381974220276e-02
-2.323698103427886963e-01,8.000404834747314453e-01,-1.454184390604496002e-02
-2.326533496379852295e-01,8.010167479515075684e-01,1.455958839505910873e-02
-2.329614162445068359e-01,8.020774126052856445e-01,4.377217218279838562e-02
-2.332348525524139404e-01,8.030188083648681641e-01,7.315829396247863770e-02
-2.335472851991653442e-01,8.040944933891296387e-01,1.028103604912757874e-01
-2.338537722826004028e-01,8.051497340202331543e-01,1.327930092811584473e-01
-2.341410815715789795e-01,8.061389327049255371e-01,1.631729602813720703e-01
-2.344899624586105347e-01,8.073400855064392090e-01,1.940915584564208984e-01
-2.421780377626419067e-01,7.913454174995422363e-01,-2.217472791671752930e-01
-2.424276173114776611e-01,7.921609282493591309e-01,-1.912569850683212280e-01
-2.428000718355178833e-01,7.933779358863830566e-01,-1.612769067287445068e-01
-2.430868446826934814e-01,7.943150401115417480e-01,-1.315664201974868774e-01
-2.434100508689880371e-01,7.953711152076721191e-01,-1.021300107240676880e-01
-2.436965256929397583e-01,7.963072061538696289e-01,-7.285716384649276733e-02
-2.440077364444732666e-01,7.973241806030273438e-01,-4.369889944791793823e-02
-2.443130314350128174e-01,7.983217239379882812e-01,-1.457267254590988159e-02
-2.446131706237792969e-01,7.993024587631225586e-01,1.459057535976171494e-02
-2.449414581060409546e-01,8.003752231597900391e-01,4.386611655354499817e-02
-2.452349513769149780e-01,8.013342022895812988e-01,7.331710308790206909e-02
-2.455717772245407104e-01,8.024348020553588867e-01,1.030370295047760010e-01
-2.458280026912689209e-01,8.032720685005187988e-01,1.330500245094299316e-01
-2.462183386087417603e-01,8.045475482940673828e-01,1.635474562644958496e-01
-2.464972138404846191e-01,8.054587841033935547e-01,1.944675743579864502e-01
-2.540239393711090088e-01,7.894920110702514648e-01,-2.222240269184112549e-01
-2.543658614158630371e-01,7.905547022819519043e-01,-1.917285770177841187e-01
-2.546820938587188721e-01,7.915375828742980957e-01,-1.616272628307342529e-01
-2.550398111343383789e-01,7.926493287086486816e-01,-1.318816691637039185e-01
-2.553367316722869873e-01,7.935721278190612793e-01,-1.023578196763992310e-01
-2.556692659854888916e-01,7.946056723594665527e-01,-7.302881777286529541e-02
-2.559939920902252197e-01,7.956148982048034668e-01,-4.380155354738235474e-02
-2.563142776489257812e-01,7.966102361679077148e-01,-1.460690516978502274e-02
-2.566313743591308594e-01,7.975957989692687988e-01,1.462497655302286148e-02
-2.569423615932464600e-01,7.985622882843017578e-01,4.396381974220275879e-02
-2.572938799858093262e-01,7.996548414230346680e-01,7.349286973476409912e-02
-2.575889825820922852e-01,8.005720376968383789e-01,1.032606884837150574e-01
-2.579338550567626953e-01,8.016439080238342285e-01,1.333781927824020386e-01
-2.582617104053497314e-01,8.026627898216247559e-01,1.638989746570587158e-01
-2.586621642112731934e-01,8.039073944091796875e-01,1.949669271707534790e-01
-2.660226523876190186e-01,7.879245281219482422e-01,-2.228317707777023315e-01
-2.663692831993103027e-01,7.889512181282043457e-01,-1.922446638345718384e-01
-2.666908800601959229e-01,7.899037003517150879e-01,-1.620565056800842285e-01
-2.670578658580780029e-01,7.909907102584838867e-01,-1.322281509637832642e-01
-2.673627436161041260e-01,7.918937206268310547e-01,-1.026244238018989563e-01
-2.677072584629058838e-01,7.929140925407409668e-01,-7.321802526712417603e-02
-2.680451571941375732e-01,7.939149141311645508e-01,-4.391468688845634460e-02
-2.683807611465454102e-01,7.949088811874389648e-01,-1.464464608579874039e-02
-2.687143981456756592e-01,7.958970665931701660e-01,1.466285157948732376e-02
-2.690443098545074463e-01,7.968742847442626953e-01,4.407837986946105957e-02
-2.694183588027954102e-01,7.979821562767028809e-01,7.368601113557815552e-02
-2.697353661060333252e-01,7.989210486412048340e-01,1.035351157188415527e-01
-2.701063454151153564e-01,8.000198602676391602e-01,1.337375342845916748e-01
-2.704612016677856445e-01,8.010709285736083984e-01,1.643475741147994995e-01
-2.707814574241638184e-01,8.020194768905639648e-01,1.954290270805358887e-01
-2.779928743839263916e-01,7.860743999481201172e-01,-2.234109491109848022e-01
-2.783584892749786377e-01,7.871082425117492676e-01,-1.927466839551925659e-01
-2.787716984748840332e-01,7.882766127586364746e-01,-1.625246703624725342e-01
-2.790918350219726562e-01,7.891818881034851074e-01,-1.325799971818923950e-01
-2.794604003429412842e-01,7.902240753173828125e-01,-1.029158905148506165e-01
-2.798169851303100586e-01,7.912323474884033203e-01,-7.342504709959030151e-02
-2.801679968833923340e-01,7.922249436378479004e-01,-4.403851553797721863e-02
-2.805190086364746094e-01,7.932174801826477051e-01,-1.468595303595066071e-02
-2.808699011802673340e-01,7.942096590995788574e-01,1.470432337373495102e-02
-2.812186479568481445e-01,7.951958179473876953e-01,4.420366138219833374e-02
-2.815584242343902588e-01,7.961565852165222168e-01,7.388200610876083374e-02
-2.819545865058898926e-01,7.972768545150756836e-01,1.038344129920005798e-01
-2.822634577751159668e-01,7.981502413749694824e-01,1.340866535902023315e-01
-2.826308012008666992e-01,7.991889119148254395e-01,1.647745370864868164e-01
-2.830823361873626709e-01,8.004657030105590820e-01,1.960176676511764526e-01
-2.900322377681732178e-01,7.842257618904113770e-01,-2.240424752235412598e-01
-2.904042899608612061e-01,7.852317690849304199e-01,-1.932852864265441895e-01
-2.908272445201873779e-01,7.863754630088806152e-01,-1.629742681980133057e-01
-2.911547422409057617e-01,7.872610092163085938e-01,-1.329437941312789917e-01
-2.915341258049011230e-01,7.882868051528930664e-01,-1.031964719295501709e-01
-2.919025719165802002e-01,7.892830371856689453e-01,-7.362433522939682007e-02
-2.922676205635070801e-01,7.902701497077941895e-01,-4.415787383913993835e-02
-2.926335632801055908e-01,7.912596464157104492e-01,-1.472574565559625626e-02
-2.930012941360473633e-01,7.922539114952087402e-01,1.474425103515386581e-02
-2.933684587478637695e-01,7.932467460632324219e-01,4.432419687509536743e-02
-2.937279343605041504e-01,7.942187190055847168e-01,7.408472895622253418e-02
-2.941479980945587158e-01,7.953546047210693359e-01,1.041217297315597534e-01
-2.944783568382263184e-01,7.962478399276733398e-01,1.344613879919052124e-01
-2.948715090751647949e-01,7.973108291625976562e-01,1.652406007051467896e-01
-2.952305376529693604e-01,7.982816696166992188e-01,1.964975148439407349e-01
-3.022509217262268066e-01,7.826475501060485840e-01,-2.248045206069946289e-01
-3.026284277439117432e-01,7.836250066757202148e-01,-1.939361542463302612e-01
-3.029827177524566650e-01,7.845425009727478027e-01,-1.634764224290847778e-01
-3.033945858478546143e-01,7.856089472770690918e-01,-1.333844810724258423e-01
-3.037848770618438721e-01,7.866196036338806152e-01,-1.035368368029594421e-01
-3.041655421257019043e-01,7.876052260398864746e-01,-7.386636734008789062e-02
-3.045438230037689209e-01,7.885847687721252441e-01,-4.430273547768592834e-02
-3.049251735210418701e-01,7.895722389221191406e-01,-1.477405522018671036e-02
-3.053102195262908936e-01,7.905692458152770996e-01,1.479271147400140762e-02
-3.056964576244354248e-01,7.915694117546081543e-01,4.447041079401969910e-02
-3.060764968395233154e-01,7.925534844398498535e-01,7.433044910430908203e-02
-3.064421117305755615e-01,7.935001850128173828e-01,1.044424846768379211e-01
-3.068747520446777344e-01,7.946204543113708496e-01,1.349145025014877319e-01
-3.072952628135681152e-01,7.957093715667724609e-01,1.658032834529876709e-01
-3.076816499233245850e-01,7.967098355293273926e-01,1.971744447946548462e-01
-3.144473731517791748e-01,7.807895541191101074e-01,-2.255405485630035400e-01
-3.149450123310089111e-01,7.820252776145935059e-01,-1.946359425783157349e-01
-3.153055608272552490e-01,7.829204797744750977e-01,-1.640620380640029907e-01
-3.157275617122650146e-01,7.839683294296264648e-01,-1.338595151901245117e-01
-3.161289691925048828e-01,7.849650979042053223e-01,-1.039040014147758484e-01
-3.165213763713836670e-01,7.859394550323486328e-01,-7.412745058536529541e-02
-3.169136345386505127e-01,7.869133949279785156e-01,-4.445912316441535950e-02
-3.173104822635650635e-01,7.878988385200500488e-01,-1.482620928436517715e-02
-3.177129328250885010e-01,7.888981103897094727e-01,1.484501268714666367e-02
-3.181180655956268311e-01,7.899041175842285156e-01,4.462809115648269653e-02
-3.185189366340637207e-01,7.908995151519775391e-01,7.459526509046554565e-02
-3.189056515693664551e-01,7.918597459793090820e-01,1.048166379332542419e-01
-3.193649351596832275e-01,7.930001020431518555e-01,1.354016512632369995e-01
-3.196948468685150146e-01,7.938193082809448242e-01,1.663459092378616333e-01
-3.202266991138458252e-01,7.951399087905883789e-01,1.979000121355056763e-01
-3.267092406749725342e-01,7.788779735565185547e-01,-2.263159900903701782e-01
-3.271162509918212891e-01,7.798482179641723633e-01,-1.952394396066665649e-01
-3.275857567787170410e-01,7.809675931930541992e-01,-1.646185070276260376e-01
-3.280186355113983154e-01,7.819995284080505371e-01,-1.343112438917160034e-01
-3.284310698509216309e-01,7.829828262329101562e-01,-1.042531952261924744e-01
-3.288359045982360840e-01,7.839479446411132812e-01,-7.437592744827270508e-02
-3.292423188686370850e-01,7.849168777465820312e-01,-4.460800439119338989e-02
-3.296546339988708496e-01,7.858998179435729980e-01,-1.487585902214050293e-02
-3.300745487213134766e-01,7.869008779525756836e-01,1.489480677992105484e-02
-3.304980099201202393e-01,7.879104018211364746e-01,4.477813094854354858e-02
-3.309189379215240479e-01,7.889139652252197266e-01,7.484707236289978027e-02
-3.313263952732086182e-01,7.898852825164794922e-01,1.051722466945648193e-01
-3.317061960697174072e-01,7.907907366752624512e-01,1.358211785554885864e-01
-3.321618437767028809e-01,7.918770313262939453e-01,1.669180840253829956e-01
-3.325844109058380127e-01,7.928844094276428223e-01,1.985031217336654663e-01
-3.392077088356018066e-01,7.772952318191528320e-01,-2.272435873746871948e-01
-3.396215736865997314e-01,7.782435417175292969e-01,-1.960346400737762451e-01
-3.401018679141998291e-01,7.793441414833068848e-01,-1.652854979038238525e-01
-3.405457437038421631e-01,7.803613543510437012e-01,-1.348532587289810181e-01
-3.409695029258728027e-01,7.813323736190795898e-01,-1.046725437045097351e-01
-3.413871228694915771e-01,7.822893857955932617e-01,-7.467451691627502441e-02
-3.418068587779998779e-01,7.832511663436889648e-01,-4.478679597377777100e-02
-3.422349393367767334e-01,7.842320799827575684e-01,-1.493548322468996048e-02
-3.426724374294281006e-01,7.852346301078796387e-01,1.495457626879215240e-02
-3.431154787540435791e-01,7.862498164176940918e-01,4.495826363563537598e-02
-3.435566425323486328e-01,7.872608304023742676e-01,7.514907419681549072e-02
-3.439862728118896484e-01,7.882452607154846191e-01,1.055986434221267700e-01
-3.443877398967742920e-01,7.891652584075927734e-01,1.363746523857116699e-01
-3.448698520660400391e-01,7.902700304985046387e-01,1.676026880741119385e-01
