1.099676728248596191e+00,-3.687385320663452148e+00,-7.479489445686340332e-01
1.100979447364807129e+00,-3.691753625869750977e+00,-6.101637482643127441e-01
1.102383732795715332e+00,-3.696462631225585938e+00,-4.736213088035583496e-01
1.103734493255615234e+00,-3.700991630554199219e+00,-3.378866612911224365e-01
1.105060100555419922e+00,-3.705436944961547852e+00,-2.026452124118804932e-01
1.106399536132812500e+00,-3.709928035736083984e+00,-6.757532060146331787e-02
1.107756733894348145e+00,-3.714478731155395508e+00,6.765821576118469238e-02
1.109098672866821289e+00,-3.718978404998779297e+00,2.033857852220535278e-01
1.110402941703796387e+00,-3.723351955413818359e+00,3.399280905723571777e-01
1.111832976341247559e+00,-3.728147029876708984e+00,4.776809811592102051e-01
1.113226532936096191e+00,-3.732819795608520508e+00,6.169510483741760254e-01
1.114519953727722168e+00,-3.737156867980957031e+00,7.580446004867553711e-01
1.115961909294128418e+00,-3.741992235183715820e+00,9.015049934387207031e-01
1.168123722076416016e+00,-3.721561670303344727e+00,-1.045156002044677734e+00
1.169596552848815918e+00,-3.726253986358642578e+00,-9.016541838645935059e-01
1.171177864074707031e+00,-3.731291770935058594e+00,-7.601773738861083984e-01
1.172646045684814453e+00,-3.735969543457031250e+00,-6.201822161674499512e-01
1.174060940742492676e+00,-3.740477085113525391e+00,-4.813646972179412842e-01
1.175468087196350098e+00,-3.744960308074951172e+00,-3.434017300605773926e-01
1.176923155784606934e+00,-3.749596118927001953e+00,-2.059603929519653320e-01
1.178349852561950684e+00,-3.754141330718994141e+00,-6.868083029985427856e-02
1.179751634597778320e+00,-3.758607149124145508e+00,6.876253336668014526e-02
1.181211590766906738e+00,-3.763258457183837891e+00,2.067108452320098877e-01
1.182681798934936523e+00,-3.767942428588867188e+00,3.455091118812561035e-01
1.184123039245605469e+00,-3.772534132003784180e+00,4.854901432991027832e-01
1.185482740402221680e+00,-3.776866197586059570e+00,6.269711852073669434e-01
1.186992049217224121e+00,-3.781674861907958984e+00,7.704419493675231934e-01
1.188699603080749512e+00,-3.787114858627319336e+00,9.163808822631835938e-01
1.242557644844055176e+00,-3.769042968750000000e+00,-1.063376426696777344e+00
1.243963122367858887e+00,-3.773306131362915039e+00,-9.172540307044982910e-01
1.245523810386657715e+00,-3.778040170669555664e+00,-7.732542753219604492e-01
1.247181296348571777e+00,-3.783067703247070312e+00,-6.308994293212890625e-01
1.248611688613891602e+00,-3.787406682968139648e+00,-4.896538555622100830e-01
1.250156283378601074e+00,-3.792091846466064453e+00,-3.493285775184631348e-01
1.251677989959716797e+00,-3.796707391738891602e+00,-2.095107883214950562e-01
1.253194928169250488e+00,-3.801308870315551758e+00,-6.986475735902786255e-02
1.254711270332336426e+00,-3.805908441543579102e+00,6.994929164648056030e-02
1.256215691566467285e+00,-3.810472011566162109e+00,2.102703452110290527e-01
1.257853627204895020e+00,-3.815439939498901367e+00,3.514794409275054932e-01
1.259289741516113281e+00,-3.819796085357666016e+00,4.938413500785827637e-01
1.260857224464416504e+00,-3.824550867080688477e+00,6.378175616264343262e-01
1.262625694274902344e+00,-3.829915046691894531e+00,7.838715314865112305e-01
1.264285564422607422e+00,-3.834949970245361328e+00,9.322390556335449219e-01
1.309212088584899902e+00,-3.788021564483642578e+00,-1.073907971382141113e+00
1.320214986801147461e+00,-3.819857120513916016e+00,-9.330682158470153809e-01
1.321750044822692871e+00,-3.824298620223999023e+00,-7.865135669708251953e-01
1.323432207107543945e+00,-3.829165697097778320e+00,-6.416805386543273926e-01
1.325053691864013672e+00,-3.833857297897338867e+00,-4.980602562427520752e-01
1.326743602752685547e+00,-3.838746547698974609e+00,-3.553394377231597900e-01
1.328332304954528809e+00,-3.843343496322631836e+00,-2.131116241216659546e-01
1.329941868782043457e+00,-3.848000526428222656e+00,-7.106549292802810669e-02
1.331576824188232422e+00,-3.852731227874755859e+00,7.115285843610763550e-02
1.333122611045837402e+00,-3.857203483581542969e+00,2.138801664113998413e-01
1.334756135940551758e+00,-3.861929655075073242e+00,3.574854135513305664e-01
1.336356878280639648e+00,-3.866561412811279297e+00,5.023088455200195312e-01
1.338142752647399902e+00,-3.871728658676147461e+00,6.488130688667297363e-01
1.339857459068298340e+00,-3.876689910888671875e+00,7.972885370254516602e-01
1.341408014297485352e+00,-3.881176233291625977e+00,9.480464458465576172e-01
1.366465330123901367e+00,-3.777668714523315430e+00,-1.076407551765441895e+00
1.399559259414672852e+00,-3.869158744812011719e+00,-9.499069452285766602e-01
1.401315689086914062e+00,-3.874014377593994141e+00,-8.007813096046447754e-01
1.402982592582702637e+00,-3.878623008728027344e+00,-6.532667279243469238e-01
1.404766201972961426e+00,-3.883553504943847656e+00,-5.070765018463134766e-01
1.406483292579650879e+00,-3.888300657272338867e+00,-3.617529571056365967e-01
1.408171176910400391e+00,-3.892966747283935547e+00,-2.169586271047592163e-01
1.409877181053161621e+00,-3.897683143615722656e+00,-7.234831899404525757e-02
1.411606431007385254e+00,-3.902463912963867188e+00,7.243706285953521729e-02
1.413318872451782227e+00,-3.907197952270507812e+00,2.177517414093017578e-01
1.414985775947570801e+00,-3.911806344985961914e+00,3.639398217201232910e-01
1.416799426078796387e+00,-3.916820049285888672e+00,5.114201307296752930e-01
1.418562293052673340e+00,-3.921693801879882812e+00,6.605210304260253906e-01
1.420193433761596680e+00,-3.926203012466430664e+00,8.115690350532531738e-01
1.422371864318847656e+00,-3.932225465774536133e+00,9.653903245925903320e-01
1.418694972991943359e+00,-3.753237247467041016e+00,-1.075122117996215820e+00
1.482187867164611816e+00,-3.921211242675781250e+00,-9.677956104278564453e-01
1.483952283859252930e+00,-3.925879001617431641e+00,-8.158090114593505859e-01
1.485859274864196777e+00,-3.930924177169799805e+00,-6.655895709991455078e-01
1.487686276435852051e+00,-3.935757637023925781e+00,-5.166202783584594727e-01
1.489490985870361328e+00,-3.940531969070434570e+00,-3.685581088066101074e-01
1.491341590881347656e+00,-3.945427894592285156e+00,-2.210493385791778564e-01
1.493148326873779297e+00,-3.950207710266113281e+00,-7.371243089437484741e-02
1.494916677474975586e+00,-3.954885959625244141e+00,7.379972934722900391e-02
1.496743202209472656e+00,-3.959717988967895508e+00,2.218499630689620972e-01
1.498569846153259277e+00,-3.964550733566284180e+00,3.708045780658721924e-01
1.500347375869750977e+00,-3.969253301620483398e+00,5.210170149803161621e-01
1.502310276031494141e+00,-3.974446058273315430e+00,6.729587316513061523e-01
1.504178047180175781e+00,-3.979387521743774414e+00,8.269282579421997070e-01
1.506249547004699707e+00,-3.984867811203002930e+00,9.835067391395568848e-01
1.470835566520690918e+00,-3.728922128677368164e+00,-1.074077486991882324e+00
1.566958785057067871e+00,-3.972617387771606445e+00,-9.859178066253662109e-01
1.568985342979431152e+00,-3.977755308151245117e+00,-8.311706781387329102e-01
1.570893883705139160e+00,-3.982594013214111328e+00,-6.780760884284973145e-01
1.572908759117126465e+00,-3.987702131271362305e+00,-5.263400077819824219e-01
1.574746847152709961e+00,-3.992362022399902344e+00,-3.754754960536956787e-01
1.576681613922119141e+00,-3.997267246246337891e+00,-2.251950502395629883e-01
1.578591585159301758e+00,-4.002109527587890625e+00,-7.509487867355346680e-02
1.580482125282287598e+00,-4.006902694702148438e+00,7.518481463193893433e-02
1.582482695579528809e+00,-4.011974334716796875e+00,2.260235995054244995e-01
1.584330320358276367e+00,-4.016658306121826172e+00,3.777605295181274414e-01
1.586317300796508789e+00,-4.021696090698242188e+00,5.308268666267395020e-01
1.588229298591613770e+00,-4.026543140411376953e+00,6.855589151382446289e-01
1.590342640876770020e+00,-4.031901359558105469e+00,8.424847126007080078e-01
1.592287898063659668e+00,-4.036832809448242188e+00,1.001854658126831055e+00
1.525279283523559570e+00,-3.710471868515014648e+00,-1.074941515922546387e+00
1.656994819641113281e+00,-4.030889987945556641e+00,-1.006162881851196289e+00
1.659017086029052734e+00,-4.035809516906738281e+00,-8.481763601303100586e-01
1.660953998565673828e+00,-4.040521144866943359e+00,-6.919156908988952637e-01
1.663041591644287109e+00,-4.045599937438964844e+00,-5.370687842369079590e-01
1.665078401565551758e+00,-4.050554752349853516e+00,-3.831506073474884033e-01
1.667109370231628418e+00,-4.055494785308837891e+00,-2.297962307929992676e-01
1.669129133224487305e+00,-4.060408592224121094e+00,-7.662922888994216919e-02
1.671141743659973145e+00,-4.065304279327392578e+00,7.672163099050521851e-02
1.673163294792175293e+00,-4.070222377777099609e+00,2.306307256221771240e-01
1.675158858299255371e+00,-4.075077056884765625e+00,3.854702413082122803e-01
1.677341222763061523e+00,-4.080385684967041016e+00,5.416867733001708984e-01
1.679484009742736816e+00,-4.085598468780517578e+00,6.996348500251770020e-01
1.681491136550903320e+00,-4.090480804443359375e+00,8.596662878990173340e-01
1.683682441711425781e+00,-4.095811367034912109e+00,1.022368192672729492e+00
1.579760193824768066e+00,-3.691844463348388672e+00,-1.075985670089721680e+00
1.749121785163879395e+00,-4.087636947631835938e+00,-1.026471734046936035e+00
1.751471400260925293e+00,-4.093127727508544922e+00,-8.654025793075561523e-01
1.753652691841125488e+00,-4.098225593566894531e+00,-7.060232162475585938e-01
1.755755186080932617e+00,-4.103138923645019531e+00,-5.479874014854431152e-01
1.757847189903259277e+00,-4.108027458190917969e+00,-3.909271061420440674e-01
1.760008454322814941e+00,-4.113078117370605469e+00,-2.344624847173690796e-01
1.762139797210693359e+00,-4.118059158325195312e+00,-7.818522304296493530e-02
1.764247417449951172e+00,-4.122984409332275391e+00,7.827874273061752319e-02
1.766439557075500488e+00,-4.128107547760009766e+00,2.353192269802093506e-01
1.768647789955139160e+00,-4.133268356323242188e+00,3.933290541172027588e-01
1.770813703536987305e+00,-4.138329982757568359e+00,5.526873469352722168e-01
1.772858738899230957e+00,-4.143109321594238281e+00,7.137556076049804688e-01
1.775077462196350098e+00,-4.148294448852539062e+00,8.770663738250732422e-01
1.777521371841430664e+00,-4.154005527496337891e+00,1.043138027191162109e+00
1.628830075263977051e+00,-3.660752534866333008e+00,-1.073608756065368652e+00
1.845525979995727539e+00,-4.147770881652832031e+00,-1.048098564147949219e+00
1.847900032997131348e+00,-4.153106212615966797e+00,-8.835855126380920410e-01
1.850134968757629395e+00,-4.158129692077636719e+00,-7.208315730094909668e-01
1.852486968040466309e+00,-4.163415431976318359e+00,-5.595214962959289551e-01
1.854643702507019043e+00,-4.168262481689453125e+00,-3.991445004940032959e-01
1.856912970542907715e+00,-4.173362731933593750e+00,-2.393895387649536133e-01
1.859161496162414551e+00,-4.178416252136230469e+00,-7.982821762561798096e-02
1.861395001411437988e+00,-4.183435916900634766e+00,7.992412149906158447e-02
1.863757729530334473e+00,-4.188746452331542969e+00,2.402719557285308838e-01
1.865952730178833008e+00,-4.193679332733154297e+00,4.015783369541168213e-01
1.868304491043090820e+00,-4.198965072631835938e+00,5.642989873886108398e-01
1.870567440986633301e+00,-4.204051017761230469e+00,7.287922501564025879e-01
1.873043537139892578e+00,-4.209615707397460938e+00,8.956080079078674316e-01
1.875315785408020020e+00,-4.214722633361816406e+00,1.065016508102416992e+00
1.685811161994934082e+00,-3.647354125976562500e+00,-1.076645731925964355e+00
1.946083188056945801e+00,-4.210468292236328125e+00,-1.070870518684387207e+00
1.948503017425537109e+00,-4.215703487396240234e+00,-9.027444124221801758e-01
1.951041698455810547e+00,-4.221196174621582031e+00,-7.365301251411437988e-01
1.953274130821228027e+00,-4.226026058197021484e+00,-5.716344714164733887e-01
1.955672621726989746e+00,-4.231215476989746094e+00,-4.078114628791809082e-01
1.958059310913085938e+00,-4.236379146575927734e+00,-2.445868402719497681e-01
1.960430622100830078e+00,-4.241509914398193359e+00,-8.156135678291320801e-02
1.962791204452514648e+00,-4.246616840362548828e+00,8.165956288576126099e-02
1.965156912803649902e+00,-4.251735210418701172e+00,2.454734146595001221e-01
1.967718958854675293e+00,-4.257278442382812500e+00,4.103234410285949707e-01
1.970015168190002441e+00,-4.262246608734130859e+00,5.765338540077209473e-01
1.972484350204467773e+00,-4.267588615417480469e+00,7.446249127388000488e-01
1.974783182144165039e+00,-4.272562503814697266e+00,9.149200916290283203e-01
1.977739691734313965e+00,-4.278958797454833984e+00,1.088290095329284668e+00
1.737344980239868164e+00,-3.621822357177734375e+00,-1.076339483261108398e+00
2.050990581512451172e+00,-4.275675773620605469e+00,-1.094809412956237793e+00
2.053480625152587891e+00,-4.280866622924804688e+00,-9.228978157043457031e-01
2.056120872497558594e+00,-4.286370754241943359e+00,-7.529600262641906738e-01
2.058647394180297852e+00,-4.291637420654296875e+00,-5.844353437423706055e-01
2.061140060424804688e+00,-4.296833992004394531e+00,-4.169366061687469482e-01
2.063688993453979492e+00,-4.302147865295410156e+00,-2.500637769699096680e-01
2.066186904907226562e+00,-4.307355403900146484e+00,-8.338767290115356445e-02
2.068640947341918945e+00,-4.312471389770507812e+00,8.348671346902847290e-02
2.071168899536132812e+00,-4.317741394042968750e+00,2.509701251983642578e-01
2.073693990707397461e+00,-4.323005199432373047e+00,4.194760918617248535e-01
2.076148509979248047e+00,-4.328122138977050781e+00,5.894038081169128418e-01
2.078810214996337891e+00,-4.333671092987060547e+00,7.612689733505249023e-01
2.081322908401489258e+00,-4.338909149169921875e+00,9.354110360145568848e-01
2.084039449691772461e+00,-4.344572544097900391e+00,1.112450838088989258e+00
1.783294796943664551e+00,-3.585111856460571289e+00,-1.072905421257019043e+00
2.119901418685913086e+00,-4.261821269989013672e+00,-1.098918914794921875e+00
2.163345336914062500e+00,-4.349160194396972656e+00,-9.441999197006225586e-01
2.166044235229492188e+00,-4.354586124420166016e+00,-7.703102827072143555e-01
2.168650627136230469e+00,-4.359826087951660156e+00,-5.978871583938598633e-01
2.171357393264770508e+00,-4.365267753601074219e+00,-4.265490472316741943e-01
2.173938751220703125e+00,-4.370457172393798828e+00,-2.558167278766632080e-01
2.176570177078247070e+00,-4.375747680664062500e+00,-8.530608564615249634e-02
2.179257154464721680e+00,-4.381149291992187500e+00,8.541139215230941772e-02
2.181839227676391602e+00,-4.386340141296386719e+00,2.567464113235473633e-01
2.184552907943725586e+00,-4.391795635223388672e+00,4.291412234306335449e-01
2.187221288681030273e+00,-4.397160053253173828e+00,6.030070185661315918e-01
2.190128564834594727e+00,-4.403005123138427734e+00,7.788754105567932129e-01
2.192900896072387695e+00,-4.408578395843505859e+00,9.570995569229125977e-01
2.195388317108154297e+00,-4.413578987121582031e+00,1.138049840927124023e+00
1.837381720542907715e+00,-3.564964294433593750e+00,-1.074636340141296387e+00
2.186358213424682617e+00,-4.242063045501708984e+00,-1.101780652999877930e+00
2.278004169464111328e+00,-4.419878005981445312e+00,-9.665325284004211426e-01
2.280782699584960938e+00,-4.425269126892089844e+00,-7.885080575942993164e-01
2.283488512039184570e+00,-4.430519104003906250e+00,-6.120012402534484863e-01
2.286320447921752930e+00,-4.436013698577880859e+00,-4.366149306297302246e-01
2.289086818695068359e+00,-4.441380977630615234e+00,-2.618591189384460449e-01
2.291856050491333008e+00,-4.446754455566406250e+00,-8.732096105813980103e-02
2.294637203216552734e+00,-4.452150344848632812e+00,8.742693066596984863e-02
2.297372341156005859e+00,-4.457457542419433594e+00,2.628069818019866943e-01
2.300269126892089844e+00,-4.463077545166015625e+00,4.392786622047424316e-01
2.303140163421630859e+00,-4.468647956848144531e+00,6.172680854797363281e-01
2.305883646011352539e+00,-4.473971366882324219e+00,7.971858978271484375e-01
2.308831214904785156e+00,-4.479690074920654297e+00,9.796121120452880859e-01
2.312026262283325195e+00,-4.485889434814453125e+00,1.165109038352966309e+00
1.887248396873474121e+00,-3.536490678787231445e+00,-1.074086070060729980e+00
2.246168613433837891e+00,-4.209066867828369141e+00,-1.101448059082031250e+00
2.399574041366577148e+00,-4.496531486511230469e+00,-9.907042384147644043e-01
2.402477502822875977e+00,-4.501971721649169922e+00,-8.082196712493896484e-01
2.405317306518554688e+00,-4.507293701171875000e+00,-6.272977590560913086e-01
2.408302545547485352e+00,-4.512887477874755859e+00,-4.475282132625579834e-01
2.411236286163330078e+00,-4.518384933471679688e+00,-2.684065401554107666e-01
2.414153575897216797e+00,-4.523851394653320312e+00,-8.950430899858474731e-02
2.417062044143676758e+00,-4.529301643371582031e+00,8.961214125156402588e-02
2.419939994812011719e+00,-4.534694671630859375e+00,2.693754136562347412e-01
2.422998666763305664e+00,-4.540426254272460938e+00,4.502591490745544434e-01
2.426046371459960938e+00,-4.546137332916259766e+00,6.327037811279296875e-01
2.428972482681274414e+00,-4.551620483398437500e+00,8.171328306198120117e-01
2.432116031646728516e+00,-4.557510852813720703e+00,1.004139661788940430e+00
2.434973716735839844e+00,-4.562866210937500000e+00,1.194031953811645508e+00
1.938463926315307617e+00,-3.510557174682617188e+00,-1.074526548385620117e+00
2.307627677917480469e+00,-4.179112911224365234e+00,-1.102140188217163086e+00
2.526484012603759766e+00,-4.575461387634277344e+00,-1.015958070755004883e+00
2.529540061950683594e+00,-4.580996036529541016e+00,-8.288215994834899902e-01
2.532730817794799805e+00,-4.586774349212646484e+00,-6.433388590812683105e-01
2.535811424255371094e+00,-4.592353343963623047e+00,-4.589609503746032715e-01
2.538809537887573242e+00,-4.597783088684082031e+00,-2.752535045146942139e-01
2.541880846023559570e+00,-4.603344917297363281e+00,-9.178752452135086060e-02
2.545031785964965820e+00,-4.609051227569580078e+00,9.190130233764648438e-02
2.548123598098754883e+00,-4.614650726318359375e+00,2.762633264064788818e-01
2.551143169403076172e+00,-4.620118618011474609e+00,4.617358446121215820e-01
2.554350852966308594e+00,-4.625927925109863281e+00,6.488305330276489258e-01
2.557439804077148438e+00,-4.631522178649902344e+00,8.379631042480468750e-01
2.560754776000976562e+00,-4.637525558471679688e+00,1.029739141464233398e+00
2.563772916793823242e+00,-4.642991542816162109e+00,1.224477052688598633e+00
1.991037368774414062e+00,-3.486883163452148438e+00,-1.075893044471740723e+00
2.360737323760986328e+00,-4.134335041046142578e+00,-1.099129915237426758e+00
2.658933877944946289e+00,-4.656563282012939453e+00,-1.042310357093811035e+00
2.662448644638061523e+00,-4.662718772888183594e+00,-8.504151701927185059e-01
2.665551900863647461e+00,-4.668153285980224609e+00,-6.600368022918701172e-01
2.668821096420288086e+00,-4.673878669738769531e+00,-4.708781242370605469e-01
2.672051906585693359e+00,-4.679536819458007812e+00,-2.824085950851440430e-01
2.675283432006835938e+00,-4.685195922851562500e+00,-9.417346119880676270e-02
2.678523540496826172e+00,-4.690870761871337891e+00,9.428752213716506958e-02
2.681749105453491211e+00,-4.696519374847412109e+00,2.834334969520568848e-01
2.685180664062500000e+00,-4.702529430389404297e+00,4.737645685672760010e-01
2.688255786895751953e+00,-4.707914829254150391e+00,6.656587123870849609e-01
2.691914319992065430e+00,-4.714321613311767578e+00,8.598268032073974609e-01
2.694941997528076172e+00,-4.719624042510986328e+00,1.056425690650939941e+00
2.698661327362060547e+00,-4.726137638092041016e+00,1.256463050842285156e+00
2.039415121078491211e+00,-3.455789089202880859e+00,-1.075195789337158203e+00
2.421277999877929688e+00,-4.102855682373046875e+00,-1.099862098693847656e+00
2.801373720169067383e+00,-4.746928215026855469e+00,-1.071402788162231445e+00
2.804643869400024414e+00,-4.752469539642333984e+00,-8.740167021751403809e-01
2.808117866516113281e+00,-4.758356094360351562e+00,-6.784043312072753906e-01
2.811531782150268555e+00,-4.764141082763671875e+00,-4.839764833450317383e-01
2.815003156661987305e+00,-4.770023345947265625e+00,-2.902713418006896973e-01
2.818404436111450195e+00,-4.775786876678466797e+00,-9.679530560970306396e-02
2.821742773056030273e+00,-4.781443595886230469e+00,9.690995514392852783e-02
2.825166702270507812e+00,-4.787245273590087891e+00,2.913193404674530029e-01
2.828571319580078125e+00,-4.793014526367187500e+00,4.869096875190734863e-01
2.832240819931030273e+00,-4.799232482910156250e+00,6.842321157455444336e-01
2.835835695266723633e+00,-4.805324077606201172e+00,8.837370872497558594e-01
2.839193344116210938e+00,-4.811013698577880859e+00,1.085867166519165039e+00
2.842731714248657227e+00,-4.817008972167968750e+00,1.291306853294372559e+00
2.086170911788940430e+00,-3.422155141830444336e+00,-1.073911666870117188e+00
2.486919403076171875e+00,-4.079543113708496094e+00,-1.103041887283325195e+00
2.950107812881469727e+00,-4.839357376098632812e+00,-1.101682305335998535e+00
2.953924894332885742e+00,-4.845618724822998047e+00,-8.988313078880310059e-01
2.957557916641235352e+00,-4.851578712463378906e+00,-6.976591348648071289e-01
2.961120843887329102e+00,-4.857423305511474609e+00,-4.977074861526489258e-01
2.964693784713745117e+00,-4.863284587860107422e+00,-2.984983026981353760e-01
2.968275785446166992e+00,-4.869160175323486328e+00,-9.953869879245758057e-02
2.971874713897705078e+00,-4.875063896179199219e+00,9.965938329696655273e-02
2.975507497787475586e+00,-4.881022930145263672e+00,2.995870709419250488e-01
2.979118347167968750e+00,-4.886946201324462891e+00,5.007325410842895508e-01
2.982605457305908203e+00,-4.892666339874267578e+00,7.035675644874572754e-01
2.986330270767211914e+00,-4.898776531219482422e+00,9.086917042732238770e-01
2.990381240844726562e+00,-4.905421733856201172e+00,1.116721868515014648e+00
2.994143009185791016e+00,-4.911592960357666016e+00,1.328014612197875977e+00
2.135796546936035156e+00,-3.393316030502319336e+00,-1.074344992637634277e+00
2.545642852783203125e+00,-4.044472694396972656e+00,-1.103298425674438477e+00
3.106200933456420898e+00,-4.935077190399169922e+00,-1.133478403091430664e+00
3.110250949859619141e+00,-4.941511631011962891e+00,-9.247820377349853516e-01
3.114087581634521484e+00,-4.947607517242431641e+00,-7.178042531013488770e-01
3.117830276489257812e+00,-4.953553676605224609e+00,-5.120775103569030762e-01
3.121562957763671875e+00,-4.959484100341796875e+00,-3.071137666702270508e-01
3.125331878662109375e+00,-4.965472221374511719e+00,-1.024115756154060364e-01
3.129148244857788086e+00,-4.971535682678222656e+00,1.025366336107254028e-01
3.132980585098266602e+00,-4.977624416351318359e+00,3.082371056079864502e-01
3.136769056320190430e+00,-4.983643531799316406e+00,5.151880383491516113e-01
3.140408277511596680e+00,-4.989425182342529297e+00,7.238712310791015625e-01
3.144289493560791016e+00,-4.995591640472412109e+00,9.349027872085571289e-01
3.148514270782470703e+00,-5.002304077148437500e+00,1.148918867111206055e+00
3.152424335479736328e+00,-5.008516311645507812e+00,1.366281509399414062e+00
2.187111377716064453e+00,-3.366970539093017578e+00,-1.075805068016052246e+00
2.594487190246582031e+00,-3.994109630584716797e+00,-1.099577546119689941e+00
3.204102993011474609e+00,-4.932588577270507812e+00,-1.143323063850402832e+00
3.276930570602416992e+00,-5.044703960418701172e+00,-9.527742266654968262e-01
3.281008720397949219e+00,-5.050981998443603516e+00,-7.395395636558532715e-01
3.284798860549926758e+00,-5.056816577911376953e+00,-5.275587439537048340e-01
3.288813114166259766e+00,-5.062996387481689453e+00,-3.164063692092895508e-01
3.292783975601196289e+00,-5.069109439849853516e+00,-1.055103242397308350e-01
3.296719789505004883e+00,-5.075168609619140625e+00,1.056364476680755615e-01
3.300907373428344727e+00,-5.081615447998046875e+00,3.175699412822723389e-01
3.304860115051269531e+00,-5.087700366973876953e+00,5.307807326316833496e-01
3.308627605438232422e+00,-5.093500137329101562e+00,7.457649111747741699e-01
3.313204288482666016e+00,-5.100545883178710938e+00,9.633209109306335449e-01
3.316992759704589844e+00,-5.106378078460693359e+00,1.183605670928955078e+00
3.321003198623657227e+00,-5.112552165985107422e+00,1.407484650611877441e+00
2.231706142425537109e+00,-3.330296277999877930e+00,-1.074183344841003418e+00
2.656964302062988281e+00,-3.964893817901611328e+00,-1.101891398429870605e+00
3.261338472366333008e+00,-4.866779804229736328e+00,-1.138772845268249512e+00
3.454971551895141602e+00,-5.155731678009033203e+00,-9.829828739166259766e-01
3.459050655364990234e+00,-5.161818981170654297e+00,-7.629387378692626953e-01
3.463350296020507812e+00,-5.168234825134277344e+00,-5.442985892295837402e-01
3.467566967010498047e+00,-5.174527168273925781e+00,-3.264446854591369629e-01
3.471751451492309570e+00,-5.180771827697753906e+00,-1.088576763868331909e-01
3.475915431976318359e+00,-5.186985492706298828e+00,1.089882403612136841e-01
3.480023860931396484e+00,-5.193116188049316406e+00,3.276174068450927734e-01
3.484407663345336914e+00,-5.199658393859863281e+00,5.476079583168029785e-01
3.488778829574584961e+00,-5.206181049346923828e+00,7.694956660270690918e-01
3.492976903915405273e+00,-5.212445735931396484e+00,9.937959313392639160e-01
3.497528314590454102e+00,-5.219237804412841797e+00,1.221244096755981445e+00
2.277743101119995117e+00,-3.295992374420166016e+00,-1.073524594306945801e+00
2.709100723266601562e+00,-3.920185565948486328e+00,-1.100130200386047363e+00
3.339751243591308594e+00,-4.832764148712158203e+00,-1.141882061958312988e+00
3.645465135574340820e+00,-5.275145053863525391e+00,-1.015594363212585449e+00
3.650166273117065430e+00,-5.281947612762451172e+00,-7.883358001708984375e-01
3.654443502426147461e+00,-5.288137435913085938e+00,-5.623774528503417969e-01
3.658885002136230469e+00,-5.294564247131347656e+00,-3.372868299484252930e-01
3.663297653198242188e+00,-5.300949573516845703e+00,-1.124730631709098816e-01
3.667695999145507812e+00,-5.307313919067382812e+00,1.126081049442291260e-01
3.672291040420532227e+00,-5.313963413238525391e+00,3.385226428508758545e-01
3.676513671875000000e+00,-5.320073604583740234e+00,5.657737851142883301e-01
3.680982828140258789e+00,-5.326540470123291016e+00,7.949913740158081055e-01
3.685887813568115234e+00,-5.333638191223144531e+00,1.026855826377868652e+00
3.690585851669311523e+00,-5.340436935424804688e+00,1.261834621429443359e+00
2.325452089309692383e+00,-3.264136791229248047e+00,-1.073880314826965332e+00
2.763046741485595703e+00,-3.878369331359863281e+00,-1.099381327629089355e+00
3.401081562042236328e+00,-4.773951530456542969e+00,-1.139371514320373535e+00
3.850053548812866211e+00,-5.404153823852539062e+00,-1.050933718681335449e+00
3.854694604873657227e+00,-5.410668373107910156e+00,-8.156986832618713379e-01
3.859274387359619141e+00,-5.417097091674804688e+00,-5.819068551063537598e-01
3.863898038864135742e+00,-5.423586845397949219e+00,-3.489935994148254395e-01
3.868559122085571289e+00,-5.430129528045654297e+00,-1.163768917322158813e-01
3.873265027999877930e+00,-5.436734676361083984e+00,1.165184527635574341e-01
3.878049850463867188e+00,-5.443450927734375000e+00,3.502717912197113037e-01
3.882828712463378906e+00,-5.450159072875976562e+00,5.854583978652954102e-01
3.887482404708862305e+00,-5.456690788269042969e+00,8.226369619369506836e-01
3.892546892166137695e+00,-5.463799953460693359e+00,1.062532901763916016e+00
3.897339344024658203e+00,-5.470526695251464844e+00,1.305619120597839355e+00
2.376894474029541016e+00,-3.237281799316406250e+00,-1.076127767562866211e+00
2.821258783340454102e+00,-3.842496871948242188e+00,-1.100546836853027344e+00
3.467359066009521484e+00,-4.722472190856933594e+00,-1.138813495635986328e+00
4.063052654266357422e+00,-5.533794403076171875e+00,-1.087342739105224609e+00
4.068143844604492188e+00,-5.540728569030761719e+00,-8.439983129501342773e-01
4.073083400726318359e+00,-5.547456264495849609e+00,-6.021110415458679199e-01
4.077980518341064453e+00,-5.554125785827636719e+00,-3.611124157905578613e-01
4.082896232604980469e+00,-5.560821056365966797e+00,-1.204179748892784119e-01
4.087841987609863281e+00,-5.567557334899902344e+00,1.205638498067855835e-01
4.092782497406005859e+00,-5.574285984039306641e+00,3.624231517314910889e-01
4.097628116607666016e+00,-5.580885410308837891e+00,6.057394146919250488e-01
4.102889060974121094e+00,-5.588050842285156250e+00,8.512067198753356934e-01
4.108017921447753906e+00,-5.595036506652832031e+00,1.099376320838928223e+00
4.112780570983886719e+00,-5.601522922515869141e+00,1.350794553756713867e+00
2.418567895889282227e+00,-3.197095632553100586e+00,-1.074166893959045410e+00
2.879719257354736328e+00,-3.806689977645874023e+00,-1.101984024047851562e+00
3.533502101898193359e+00,-4.670923233032226562e+00,-1.138462305068969727e+00
4.298027992248535156e+00,-5.681546688079833984e+00,-1.128347277641296387e+00
4.303098201751708984e+00,-5.688249111175537109e+00,-8.757619857788085938e-01
4.308444023132324219e+00,-5.695315837860107422e+00,-6.247888803482055664e-01
4.313647270202636719e+00,-5.702193737030029297e+00,-3.747152984142303467e-01
4.318842411041259766e+00,-5.709061145782470703e+00,-1.249539181590080261e-01
4.324049472808837891e+00,-5.715944290161132812e+00,1.251045614480972290e-01
4.329149723052978516e+00,-5.722686767578125000e+00,3.760619759559631348e-01
4.334588527679443359e+00,-5.729876041412353516e+00,6.285802125930786133e-01
4.339990139007568359e+00,-5.737016677856445312e+00,8.832702040672302246e-01
4.345167160034179688e+00,-5.743860244750976562e+00,1.140722632408142090e+00
2.461831569671630859e+00,-3.159272193908691406e+00,-1.073188066482543945e+00
2.925703048706054688e+00,-3.754559278488159180e+00,-1.098903179168701172e+00
3.602498292922973633e+00,-4.623091697692871094e+00,-1.139255523681640625e+00
4.550645828247070312e+00,-5.839850425720214844e+00,-1.172601938247680664e+00
4.556116104125976562e+00,-5.846870422363281250e+00,-9.101303815841674805e-01
4.561518192291259766e+00,-5.853803634643554688e+00,-6.492714285850524902e-01
4.566975593566894531e+00,-5.860806941986083984e+00,-3.893942534923553467e-01
4.572477340698242188e+00,-5.867866992950439453e+00,-1.298488378524780273e-01
4.578031063079833984e+00,-5.874994277954101562e+00,1.300065666437149048e-01
4.583683490753173828e+00,-5.882247924804687500e+00,3.908187747001647949e-01
4.589334487915039062e+00,-5.889499664306640625e+00,6.532306671142578125e-01
4.594832420349121094e+00,-5.896555900573730469e+00,9.178643822669982910e-01
4.600876808166503906e+00,-5.904312133789062500e+00,1.185545325279235840e+00
2.506918430328369141e+00,-3.123868703842163086e+00,-1.073240876197814941e+00
2.989160060882568359e+00,-3.724789857864379883e+00,-1.102599740028381348e+00
3.674702882766723633e+00,-4.579043865203857422e+00,-1.141245484352111816e+00
4.724099159240722656e+00,-5.886695861816406250e+00,-1.195462942123413086e+00
4.827888011932373047e+00,-6.016026973724365234e+00,-9.471212029457092285e-01
4.833799839019775391e+00,-6.023393154144287109e+00,-6.756861805915832520e-01
4.839632987976074219e+00,-6.030662536621093750e+00,-4.052404463291168213e-01
4.845457553863525391e+00,-6.037920475006103516e+00,-1.351328194141387939e-01
4.851289272308349609e+00,-6.045186996459960938e+00,1.352954655885696411e-01
4.857085704803466797e+00,-6.052410125732421875e+00,4.067018330097198486e-01
4.863364219665527344e+00,-6.060234069824218750e+00,6.798188090324401855e-01
4.868898391723632812e+00,-6.067129611968994141e+00,9.551664590835571289e-01
4.874895095825195312e+00,-6.074602603912353516e+00,1.233622789382934570e+00
2.554043769836425781e+00,-3.090904951095581055e+00,-1.074365496635437012e+00
3.039560079574584961e+00,-3.678477048873901367e+00,-1.101656198501586914e+00
3.725631475448608398e+00,-4.508761405944824219e+00,-1.136903047561645508e+00
4.807624340057373047e+00,-5.818189620971679688e+00,-1.195402979850769043e+00
5.120804309844970703e+00,-6.197199821472167969e+00,-9.870819449424743652e-01
5.126825809478759766e+00,-6.204486846923828125e+00,-7.041603922843933105e-01
5.133079528808593750e+00,-6.212055206298828125e+00,-4.223232865333557129e-01
5.139252185821533203e+00,-6.219525814056396484e+00,-1.408291906118392944e-01
5.145364761352539062e+00,-6.226922988891601562e+00,1.409966945648193359e-01
5.151752471923828125e+00,-6.234653472900390625e+00,4.238595962524414062e-01
5.158211231231689453e+00,-6.242469787597656250e+00,7.084711790084838867e-01
5.164572238922119141e+00,-6.250167846679687500e+00,9.955185651779174805e-01
5.170598506927490234e+00,-6.257461071014404297e+00,1.285655498504638672e+00
2.601361036300659180e+00,-3.057963609695434570e+00,-1.075747489929199219e+00
3.089779138565063477e+00,-3.632111072540283203e+00,-1.100902318954467773e+00
3.801215887069702148e+00,-4.468421936035156250e+00,-1.140333890914916992e+00
4.891125202178955078e+00,-5.749637126922607422e+00,-1.195579767227172852e+00
5.447602748870849609e+00,-6.403789997100830078e+00,-1.032301187515258789e+00
5.454258918762207031e+00,-6.411614894866943359e+00,-7.364526391029357910e-01
5.460881710052490234e+00,-6.419399738311767578e+00,-4.416881799697875977e-01
5.467449188232421875e+00,-6.427120208740234375e+00,-1.472866833209991455e-01
5.473970413208007812e+00,-6.434785842895507812e+00,1.474623531103134155e-01
5.480506420135498047e+00,-6.442469120025634766e+00,4.432754814624786377e-01
5.487668037414550781e+00,-6.450888156890869141e+00,7.409635782241821289e-01
5.494029045104980469e+00,-6.458365440368652344e+00,1.041098833084106445e+00
5.500991821289062500e+00,-6.466550350189208984e+00,1.344654679298400879e+00
2.641024589538574219e+00,-3.016039371490478516e+00,-1.074187397956848145e+00
3.144989013671875000e+00,-3.591564655303955078e+00,-1.102144122123718262e+00
3.857467889785766602e+00,-4.405212879180908203e+00,-1.138176798820495605e+00
4.983074665069580078e+00,-5.690650939941406250e+00,-1.198022723197937012e+00
5.788337230682373047e+00,-6.610257625579833984e+00,-1.078829288482666016e+00
5.795517921447753906e+00,-6.618458271026611328e+00,-7.696605324745178223e-01
5.802322387695312500e+00,-6.626228332519531250e+00,-4.615861773490905762e-01
5.809293270111083984e+00,-6.634189605712890625e+00,-1.539217382669448853e-01
5.816443920135498047e+00,-6.642355442047119141e+00,1.541111916303634644e-01
5.823273658752441406e+00,-6.650155067443847656e+00,4.632529020309448242e-01
5.830559730529785156e+00,-6.658475399017333984e+00,7.743141651153564453e-01
5.837769985198974609e+00,-6.666709423065185547e+00,1.088042616844177246e+00
2.690778017044067383e+00,-2.985541820526123047e+00,-1.076932311058044434e+00
3.197808504104614258e+00,-3.548115491867065430e+00,-1.102743864059448242e+00
3.937421560287475586e+00,-4.368750095367431641e+00,-1.143200159072875977e+00
5.071506023406982422e+00,-5.627068996429443359e+00,-1.199796438217163086e+00
6.167129039764404297e+00,-6.842712879180908203e+00,-1.131058096885681152e+00
6.174525260925292969e+00,-6.850919246673583984e+00,-8.068883419036865234e-01
6.181894302368164062e+00,-6.859096050262451172e+00,-4.839220941066741943e-01
6.189330101013183594e+00,-6.867346286773681641e+00,-1.613701581954956055e-01
6.196850776672363281e+00,-6.875690460205078125e+00,1.615662425756454468e-01
6.204401016235351562e+00,-6.884068012237548828e+00,4.856839179992675781e-01
6.211851119995117188e+00,-6.892334461212158203e+00,8.117661476135253906e-01
6.218999385833740234e+00,-6.900265693664550781e+00,1.140571236610412598e+00
2.732459306716918945e+00,-2.945893287658691406e+00,-1.076628088951110840e+00
3.237571954727172852e+00,-3.490460395812988281e+00,-1.099114894866943359e+00
3.996807575225830078e+00,-4.309000492095947266e+00,-1.142418146133422852e+00
5.169188976287841797e+00,-5.572957515716552734e+00,-1.203911304473876953e+00
6.552150249481201172e+00,-7.063941955566406250e+00,-1.183006644248962402e+00
6.559772014617919922e+00,-7.072159290313720703e+00,-8.439177274703979492e-01
6.567749023437500000e+00,-7.080759048461914062e+00,-5.061414241790771484e-01
6.575641155242919922e+00,-7.089267730712890625e+00,-1.687792837619781494e-01
6.583477973937988281e+00,-7.097717285156250000e+00,1.689804494380950928e-01
6.591721057891845703e+00,-7.106604099273681641e+00,5.079888105392456055e-01
6.599185943603515625e+00,-7.114652156829833984e+00,8.489883542060852051e-01
6.607150077819824219e+00,-7.123238086700439453e+00,1.192937016487121582e+00
2.774076223373413086e+00,-2.906207084655761719e+00,-1.076525330543518066e+00
3.295716047286987305e+00,-3.452692985534667969e+00,-1.101963758468627930e+00
4.056003093719482422e+00,-4.249192714691162109e+00,-1.141836643218994141e+00
5.218794345855712891e+00,-5.467368125915527344e+00,-1.197115659713745117e+00
6.983935356140136719e+00,-7.316584110260009766e+00,-1.241930723190307617e+00
6.992522716522216797e+00,-7.325580596923828125e+00,-8.860109448432922363e-01
7.001040935516357422e+00,-7.334504604339599609e+00,-5.313881039619445801e-01
7.009455204010009766e+00,-7.343319892883300781e+00,-1.771981418132781982e-01
7.017776012420654297e+00,-7.352036952972412109e+00,1.774084866046905518e-01
7.026089668273925781e+00,-7.360746383666992188e+00,5.332893133163452148e-01
7.035107612609863281e+00,-7.370193958282470703e+00,8.914068341255187988e-01
7.043232917785644531e+00,-7.378705978393554688e+00,1.252475500106811523e+00
2.815665245056152344e+00,-2.866491556167602539e+00,-1.076632142066955566e+00
3.334763765335083008e+00,-3.394960403442382812e+00,-1.098659396171569824e+00
4.115103721618652344e+00,-4.189386367797851562e+00,-1.141476392745971680e+00
5.317222595214843750e+00,-5.413205146789550781e+00,-1.201797366142272949e+00
7.474093437194824219e+00,-7.609010219573974609e+00,-1.309592604637145996e+00
7.483494281768798828e+00,-7.618580341339111328e+00,-9.343081116676330566e-01
7.492321968078613281e+00,-7.627567768096923828e+00,-5.603328943252563477e-01
7.501316547393798828e+00,-7.636724472045898438e+00,-1.868499070405960083e-01
7.510489940643310547e+00,-7.646063804626464844e+00,1.870784014463424683e-01
7.519058704376220703e+00,-7.654786586761474609e+00,5.623324513435363770e-01
7.528178691864013672e+00,-7.664071559906005859e+00,9.398869276046752930e-01
2.845494747161865234e+00,-2.815109252929687500e+00,-1.072520971298217773e+00
3.396245002746582031e+00,-3.359978437423706055e+00,-1.102957248687744141e+00
4.177649021148681641e+00,-4.133038043975830078e+00,-1.142298936843872070e+00
5.369488716125488281e+00,-5.312150955200195312e+00,-1.196302652359008789e+00
7.607218742370605469e+00,-7.525985240936279297e+00,-1.313908934593200684e+00
8.018101692199707031e+00,-7.932480812072753906e+00,-9.867768287658691406e-01
8.027773857116699219e+00,-7.942049503326416016e+00,-5.918157100677490234e-01
8.037398338317871094e+00,-7.951571464538574219e+00,-1.973479390144348145e-01
8.046924591064453125e+00,-7.960995674133300781e+00,1.975818276405334473e-01
8.056136131286621094e+00,-7.970109462738037109e+00,5.939066410064697266e-01
8.066694259643554688e+00,-7.980554103851318359e+00,9.927570223808288574e-01
2.891515493392944336e+00,-2.779886007308959961e+00,-1.074759483337402344e+00
3.440496206283569336e+00,-3.307672977447509766e+00,-1.101839900016784668e+00
4.243908405303955078e+00,-4.080068588256835938e+00,-1.144330859184265137e+00
5.478420257568359375e+00,-5.266921043395996094e+00,-1.203652739524841309e+00
7.717152595520019531e+00,-7.419225215911865234e+00,-1.314420104026794434e+00
8.600439071655273438e+00,-8.268411636352539062e+00,-1.043772220611572266e+00
8.610512733459472656e+00,-8.278097152709960938e+00,-6.259766221046447754e-01
8.620792388916015625e+00,-8.287979125976562500e+00,-2.087382227182388306e-01
8.631024360656738281e+00,-8.297816276550292969e+00,2.089859694242477417e-01
8.640758514404296875e+00,-8.307174682617187500e+00,6.281754374504089355e-01
8.651396751403808594e+00,-8.317401885986328125e+00,1.049956560134887695e+00
2.937862873077392578e+00,-2.744624853134155273e+00,-1.077274203300476074e+00
3.484530210494995117e+00,-3.255334854125976562e+00,-1.100906968116760254e+00
4.277804851531982422e+00,-3.996431827545166016e+00,-1.137929916381835938e+00
5.534155845642089844e+00,-5.170146465301513672e+00,-1.199516415596008301e+00
7.827280998229980469e+00,-7.312441349029541016e+00,-1.315215706825256348e+00
9.269186019897460938e+00,-8.659504890441894531e+00,-1.109776973724365234e+00
9.280326843261718750e+00,-8.669912338256835938e+00,-6.655816435813903809e-01
9.291054725646972656e+00,-8.679935455322265625e+00,-2.219365388154983521e-01
9.301766395568847656e+00,-8.689942359924316406e+00,2.221923917531967163e-01
9.312805175781250000e+00,-8.700255393981933594e+00,6.679109930992126465e-01
9.324801445007324219e+00,-8.711462020874023438e+00,1.116435647010803223e+00
2.969237804412841797e+00,-2.695393085479736328e+00,-1.074521899223327637e+00
3.528417587280273438e+00,-3.203001260757446289e+00,-1.100175380706787109e+00
4.343977451324462891e+00,-3.943344354629516602e+00,-1.140401363372802734e+00
5.589007377624511719e+00,-5.073548793792724609e+00,-1.195542693138122559e+00
7.937738418579101562e+00,-7.205662727355957031e+00,-1.316310763359069824e+00
1.004706096649169922e+01,-9.120448112487792969e+00,-1.187158465385437012e+00
1.005885028839111328e+01,-9.131150245666503906e+00,-7.119704484939575195e-01
1.007044029235839844e+01,-9.141671180725097656e+00,-2.374038845300674438e-01
1.008226394653320312e+01,-9.152403831481933594e+00,2.376826107501983643e-01
1.009450244903564453e+01,-9.163514137268066406e+00,7.144939899444580078e-01
3.002675533294677734e+00,-2.648357152938842773e+00,-1.072794675827026367e+00
3.575117349624633789e+00,-3.153250455856323242e+00,-1.100550889968872070e+00
4.414396286010742188e+00,-3.893493652343750000e+00,-1.144140481948852539e+00
5.705556392669677734e+00,-5.032295703887939453e+00,-1.204942345619201660e+00
7.940026760101318359e+00,-7.003096580505371094e+00,-1.299934506416320801e+00
1.091124820709228516e+01,-9.623711585998535156e+00,-1.272863984107971191e+00
1.092356395721435547e+01,-9.634573936462402344e+00,-7.633362412452697754e-01
1.093611621856689453e+01,-9.645645141601562500e+00,-2.545308172702789307e-01
1.094973087310791016e+01,-9.657652854919433594e+00,2.548476755619049072e-01
1.096370220184326172e+01,-9.669976234436035156e+00,7.661410570144653320e-01
3.051928758621215820e+00,-2.615100622177124023e+00,-1.076908111572265625e+00
3.621864080429077148e+00,-3.103460073471069336e+00,-1.101153969764709473e+00
4.450140476226806641e+00,-3.813183546066284180e+00,-1.139141798019409180e+00
5.764906406402587891e+00,-4.939764499664306641e+00,-1.202421069145202637e+00
8.055179595947265625e+00,-6.902226924896240234e+00,-1.302479267120361328e+00
1.193281459808349609e+01,-1.022484874725341797e+01,-1.374822139739990234e+00
1.194666290283203125e+01,-1.023671531677246094e+01,-8.245067000389099121e-01
1.196090793609619141e+01,-1.024892139434814453e+01,-2.749396860599517822e-01
1.197537040710449219e+01,-1.026131343841552734e+01,2.752721309661865234e-01
1.199086856842041016e+01,-1.027459335327148438e+01,8.275575637817382812e-01
3.087699651718139648e+00,-2.570035219192504883e+00,-1.076439619064331055e+00
3.671681880950927734e+00,-3.056110382080078125e+00,-1.102887749671936035e+00
4.524869918823242188e+00,-3.766258239746093750e+00,-1.144354462623596191e+00
5.828529834747314453e+00,-4.851354598999023438e+00,-1.201084971427917480e+00
8.178048133850097656e+00,-6.806967258453369141e+00,-1.306458473205566406e+00
1.308347606658935547e+01,-1.088998126983642578e+01,-1.489282608032226562e+00
1.309835433959960938e+01,-1.090236568450927734e+01,-8.931300640106201172e-01
1.311443901062011719e+01,-1.091575336456298828e+01,-2.978334128856658936e-01
1.313067817687988281e+01,-1.092927074432373047e+01,2.982021868228912354e-01
1.314695262908935547e+01,-1.094281578063964844e+01,8.964437842369079590e-01
3.120913505554199219e+00,-2.522951602935791016e+00,-1.075319051742553711e+00
3.718784809112548828e+00,-3.006271839141845703e+00,-1.103998064994812012e+00
4.559746265411376953e+00,-3.686106443405151367e+00,-1.139714717864990234e+00
5.887015342712402344e+00,-4.759072780609130859e+00,-1.198976993560791016e+00
8.295407295227050781e+00,-6.706020832061767578e+00,-1.309738636016845703e+00
1.401525878906250000e+01,-1.132995796203613281e+01,-1.576725482940673828e+00
1.458962821960449219e+01,-1.179427909851074219e+01,-9.832029342651367188e-01
1.460755538940429688e+01,-1.180877208709716797e+01,-3.278703987598419189e-01
1.462509250640869141e+01,-1.182294940948486328e+01,3.282640278339385986e-01
3.158977985382080078e+00,-2.479813098907470703e+00,-1.076094269752502441e+00
3.747298002243041992e+00,-2.941647291183471680e+00,-1.099850416183471680e+00
4.601377964019775391e+00,-3.612103939056396484e+00,-1.137081146240234375e+00
5.954865932464599609e+00,-4.674598693847656250e+00,-1.199045896530151367e+00
8.427927970886230469e+00,-6.615964412689208984e+00,-1.315575718879699707e+00
1.402511119842529297e+01,-1.100977993011474609e+01,-1.559945344924926758e+00
1.621005249023437500e+01,-1.272497081756591797e+01,-1.080019235610961914e+00
1.622998809814453125e+01,-1.274062061309814453e+01,-3.601562678813934326e-01
1.624990844726562500e+01,-1.275625705718994141e+01,3.605982959270477295e-01
3.194589376449584961e+00,-2.434686183929443359e+00,-1.076243758201599121e+00
3.797430038452148438e+00,-2.894127845764160156e+00,-1.102293014526367188e+00
4.677382946014404297e+00,-3.564764738082885742e+00,-1.143137216567993164e+00
6.017778396606445312e+00,-4.586317539215087891e+00,-1.198372721672058105e+00
8.425302505493164062e+00,-6.421158790588378906e+00,-1.300685882568359375e+00
1.438516998291015625e+01,-1.096334171295166016e+01,-1.582377076148986816e+00
1.838864326477050781e+01,-1.401450061798095703e+01,-1.211681962013244629e+00
1.841035652160644531e+01,-1.403104972839355469e+01,-4.040423333644866943e-01
1.843250656127929688e+01,-1.404792976379394531e+01,4.045284390449523926e-01
3.232745885848999023e+00,-2.391407251358032227e+00,-1.077456474304199219e+00
3.825156450271606445e+00,-2.829640150070190430e+00,-1.098472118377685547e+00
4.718712329864501953e+00,-3.490643501281738281e+00,-1.140910267829895020e+00
6.085518836975097656e+00,-4.501731872558593750e+00,-1.198907971382141113e+00
8.557632446289062500e+00,-6.330464839935302734e+00,-1.306992530822753906e+00
1.438809585571289062e+01,-1.064352035522460938e+01,-1.565780401229858398e+00
2.102530097961425781e+01,-1.555335903167724609e+01,-1.370609402656555176e+00
2.105001068115234375e+01,-1.557163810729980469e+01,-4.570350944995880127e-01
2.107481002807617188e+01,-1.558998298645019531e+01,4.575735032558441162e-01
3.252576589584350586e+00,-2.334799766540527344e+00,-1.072817683219909668e+00
3.878652572631835938e+00,-2.784216403961181641e+00,-1.102277517318725586e+00
4.759686470031738281e+00,-3.416649818420410156e+00,-1.138876318931579590e+00
6.153383731842041016e+00,-4.417088508605957031e+00,-1.199699521064758301e+00
8.692163467407226562e+00,-6.239503383636474609e+00,-1.313764810562133789e+00
1.438778018951416016e+01,-1.032799243927001953e+01,-1.549499869346618652e+00
2.853868484497070312e+01,-2.048594856262207031e+01,-1.841092824935913086e+00
2.857222938537597656e+01,-2.051002883911132812e+01,-6.139196753501892090e-01
3.290624618530273438e+00,-2.291467666625976562e+00,-1.074439048767089844e+00
3.905809402465820312e+00,-2.719859361648559570e+00,-1.098818898200988770e+00
4.800336837768554688e+00,-3.342774629592895508e+00,-1.137037992477416992e+00
6.221455574035644531e+00,-4.332388401031494141e+00,-1.200757980346679688e+00
8.690659523010253906e+00,-6.051849365234375000e+00,-1.300311684608459473e+00
1.476925945281982422e+01,-1.028475856781005859e+01,-1.574568271636962891e+00
3.608344650268554688e+01,-2.512715911865234375e+01,-2.304383516311645508e+00
3.612406921386718750e+01,-2.515544891357421875e+01,-7.683677673339843750e-01
3.331403017044067383e+00,-2.249756097793579102e+00,-1.077129006385803223e+00
3.962966203689575195e+00,-2.676262140274047852e+00,-1.104008913040161133e+00
4.844471931457519531e+00,-3.271558523178100586e+00,-1.136283755302429199e+00
6.294723987579345703e+00,-4.250939846038818359e+00,-1.203032493591308594e+00
8.832790374755859375e+00,-5.964941501617431641e+00,-1.308668971061706543e+00
1.477465438842773438e+01,-9.977588653564453125e+00,-1.559758186340332031e+00
4.491613769531250000e+01,-3.033267211914062500e+01,-2.840444564819335938e+00
4.781320190429687500e+01,-3.228911209106445312e+01,-1.007064938545227051e+00
