6.652635931968688965e-01,-2.119483947753906250e+00,-5.952316522598266602e-01
6.661103963851928711e-01,-2.122181892395019531e+00,-5.135114789009094238e-01
6.670187115669250488e-01,-2.125075578689575195e+00,-4.329423904418945312e-01
6.678628325462341309e-01,-2.127764940261840820e+00,-3.532153964042663574e-01
6.686764359474182129e-01,-2.130357027053833008e+00,-2.741571962833404541e-01
6.694856882095336914e-01,-2.132935285568237305e+00,-1.955838203430175781e-01
6.703220605850219727e-01,-2.135599851608276367e+00,-1.173057034611701965e-01
6.711423397064208984e-01,-2.138213157653808594e+00,-3.911793604493141174e-02
6.719483733177185059e-01,-2.140781164169311523e+00,3.916491940617561340e-02
6.727877855300903320e-01,-2.143455505371093750e+00,1.177371963858604431e-01
6.736329793930053711e-01,-2.146148204803466797e+00,1.967954188585281372e-01
6.744617819786071777e-01,-2.148788690567016602e+00,2.765291631221771240e-01
6.752441525459289551e-01,-2.151281356811523438e+00,3.571191728115081787e-01
6.761120557785034180e-01,-2.154046297073364258e+00,4.388446211814880371e-01
6.770930290222167969e-01,-2.157171726226806641e+00,5.219780802726745605e-01
7.026299834251403809e-01,-2.131283283233642578e+00,-6.013082265853881836e-01
7.034333348274230957e-01,-2.133720397949218750e+00,-5.186866521835327148e-01
7.043244242668151855e-01,-2.136423110961914062e+00,-4.372633099555969238e-01
7.052699327468872070e-01,-2.139291286468505859e+00,-3.567680418491363525e-01
7.060873508453369141e-01,-2.141770601272583008e+00,-2.768982648849487305e-01
7.069689631462097168e-01,-2.144444942474365234e+00,-1.975468844175338745e-01
7.078377008438110352e-01,-2.147079944610595703e+00,-1.184806674718856812e-01
7.087039947509765625e-01,-2.149707555770874023e+00,-3.950975835323333740e-02
7.095696926116943359e-01,-2.152333498001098633e+00,3.955802321434020996e-02
7.104287743568420410e-01,-2.154939413070678711e+00,1.189143732190132141e-01
7.113635540008544922e-01,-2.157774925231933594e+00,1.987748444080352783e-01
7.121839523315429688e-01,-2.160263299942016602e+00,2.792890965938568115e-01
7.130792140960693359e-01,-2.162979125976562500e+00,3.607184290885925293e-01
7.140881419181823730e-01,-2.166039466857910156e+00,4.433248937129974365e-01
7.150358557701110840e-01,-2.168914079666137695e+00,5.272419452667236328e-01
7.403408885002136230e-01,-2.142072677612304688e+00,-6.072797179222106934e-01
7.412771582603454590e-01,-2.144781589508056641e+00,-5.239011049270629883e-01
7.421482205390930176e-01,-2.147301912307739258e+00,-4.416187703609466553e-01
7.431015968322753906e-01,-2.150060415267944336e+00,-3.603008985519409180e-01
7.440210580825805664e-01,-2.152720689773559570e+00,-2.796621024608612061e-01
7.449786067008972168e-01,-2.155491352081298828e+00,-1.995263397693634033e-01
7.458795309066772461e-01,-2.158097982406616211e+00,-1.196655333042144775e-01
7.467922568321228027e-01,-2.160738706588745117e+00,-3.990487381815910339e-02
7.477192282676696777e-01,-2.163420915603637695e+00,3.995440527796745300e-02
7.485958933830261230e-01,-2.165957450866699219e+00,1.201013401150703430e-01
7.495220899581909180e-01,-2.168637275695800781e+00,2.007432132959365845e-01
7.504299879074096680e-01,-2.171264171600341797e+00,2.820711135864257812e-01
7.514420747756958008e-01,-2.174192428588867188e+00,3.643448948860168457e-01
7.524144649505615234e-01,-2.177005767822265625e+00,4.477277696132659912e-01
7.532945871353149414e-01,-2.179552316665649414e+00,5.323945283889770508e-01
7.789254188537597656e-01,-2.153382301330566406e+00,-6.135839819908142090e-01
7.800128459930419922e-01,-2.156388521194458008e+00,-5.294092893600463867e-01
7.810012698173522949e-01,-2.159121036529541016e+00,-4.463028907775878906e-01
7.819400429725646973e-01,-2.161716461181640625e+00,-3.640924692153930664e-01
7.829434275627136230e-01,-2.164490222930908203e+00,-2.826180160045623779e-01
7.839099168777465820e-01,-2.167162179946899414e+00,-2.016246616840362549e-01
7.848600149154663086e-01,-2.169788837432861328e+00,-1.209243237972259521e-01
7.858206629753112793e-01,-2.172444581985473633e+00,-4.032465070486068726e-02
7.867938280105590820e-01,-2.175134897232055664e+00,4.037459194660186768e-02
7.877579331398010254e-01,-2.177800178527832031e+00,1.213708072900772095e-01
7.886963486671447754e-01,-2.180394649505615234e+00,2.028557658195495605e-01
7.897170782089233398e-01,-2.183216571807861328e+00,2.850630879402160645e-01
7.907094359397888184e-01,-2.185959815979003906e+00,3.681757152080535889e-01
7.916284799575805664e-01,-2.188500642776489258e+00,4.523757994174957275e-01
7.928530573844909668e-01,-2.191885948181152344e+00,5.381242036819458008e-01
8.186139464378356934e-01,-2.165689229965209961e+00,-6.203658580780029297e-01
8.196802139282226562e-01,-2.168509960174560547e+00,-5.352107286453247070e-01
8.206663727760314941e-01,-2.171118974685668945e+00,-4.511648118495941162e-01
8.217312693595886230e-01,-2.173936367034912109e+00,-3.680939078330993652e-01
8.227518200874328613e-01,-2.176636219024658203e+00,-2.857123017311096191e-01
8.237600326538085938e-01,-2.179303407669067383e+00,-2.038303464651107788e-01
8.247933983802795410e-01,-2.182037115097045898e+00,-1.222523525357246399e-01
8.258028626441955566e-01,-2.184707880020141602e+00,-4.076750949025154114e-02
8.267906308174133301e-01,-2.187320947647094727e+00,4.081626981496810913e-02
8.278111219406127930e-01,-2.190020799636840820e+00,1.226996481418609619e-01
8.288316130638122559e-01,-2.192720651626586914e+00,2.050852328538894653e-01
8.298249244689941406e-01,-2.195348501205444336e+00,2.881685197353363037e-01
8.309211730957031250e-01,-2.198248624801635742e+00,3.722105324268341064e-01
8.319648504257202148e-01,-2.201009750366210938e+00,4.573761820793151855e-01
8.331217765808105469e-01,-2.204070329666137695e+00,5.439874529838562012e-01
8.588550686836242676e-01,-2.177404165267944336e+00,-6.271787881851196289e-01
8.598987460136413574e-01,-2.180050134658813477e+00,-5.410413742065429688e-01
8.610218763351440430e-01,-2.182897567749023438e+00,-4.561266899108886719e-01
8.620800971984863281e-01,-2.185580492019653320e+00,-3.721167147159576416e-01
8.631965517997741699e-01,-2.188410997390747070e+00,-2.888500988483428955e-01
8.642163276672363281e-01,-2.190996170043945312e+00,-2.060598134994506836e-01
8.652886152267456055e-01,-2.193714857101440430e+00,-1.235878616571426392e-01
8.663476109504699707e-01,-2.196399688720703125e+00,-4.121285676956176758e-02
8.673957586288452148e-01,-2.199056863784790039e+00,4.126271605491638184e-02
8.685048222541809082e-01,-2.201868772506713867e+00,1.240472346544265747e-01
8.695293664932250977e-01,-2.204466104507446289e+00,2.073266357183456421e-01
8.706312179565429688e-01,-2.207259654998779297e+00,2.913379371166229248e-01
8.716916441917419434e-01,-2.209948062896728516e+00,3.762655556201934814e-01
8.728628158569335938e-01,-2.212917327880859375e+00,4.623994529247283936e-01
8.739420771598815918e-01,-2.215653419494628906e+00,5.498772859573364258e-01
9.004799723625183105e-01,-2.190553426742553711e+00,-6.346138715744018555e-01
9.016960263252258301e-01,-2.193511724472045898e+00,-5.475292205810546875e-01
9.028083086013793945e-01,-2.196217536926269531e+00,-4.615628421306610107e-01
9.038742184638977051e-01,-2.198810338973999023e+00,-3.765334486961364746e-01
9.050217866897583008e-01,-2.201601982116699219e+00,-2.922710776329040527e-01
9.061416387557983398e-01,-2.204326391220092773e+00,-2.085119485855102539e-01
9.072583317756652832e-01,-2.207042932510375977e+00,-1.250575184822082520e-01
9.083687663078308105e-01,-2.209744215011596680e+00,-4.170294478535652161e-02
9.094756841659545898e-01,-2.212436914443969727e+00,4.175376147031784058e-02
9.105873703956604004e-01,-2.215141057968139648e+00,1.255163848400115967e-01
9.116849899291992188e-01,-2.217811346054077148e+00,2.097875177860260010e-01
9.128845334053039551e-01,-2.220729351043701172e+00,2.948102951049804688e-01
9.140627384185791016e-01,-2.223595619201660156e+00,3.807777464389801025e-01
9.151670932769775391e-01,-2.226282119750976562e+00,4.678813219070434570e-01
9.163721799850463867e-01,-2.229213714599609375e+00,5.564408898353576660e-01
9.426875114440917969e-01,-2.203027725219726562e+00,-6.420710086822509766e-01
9.439070224761962891e-01,-2.205877780914306641e+00,-5.539316534996032715e-01
9.451870918273925781e-01,-2.208869457244873047e+00,-4.670172631740570068e-01
9.463769197463989258e-01,-2.211649894714355469e+00,-3.810127675533294678e-01
9.475237727165222168e-01,-2.214330196380615234e+00,-2.957309484481811523e-01
9.486652016639709473e-01,-2.216997623443603516e+00,-2.109733670949935913e-01
9.498434662818908691e-01,-2.219751119613647461e+00,-1.265349984169006348e-01
9.510061740875244141e-01,-2.222468137741088867e+00,-4.219564795494079590e-02
9.521557092666625977e-01,-2.225154638290405273e+00,4.224665462970733643e-02
9.533510804176330566e-01,-2.227948188781738281e+00,1.270022690296173096e-01
9.545553922653198242e-01,-2.230762720108032227e+00,2.122832834720611572e-01
9.557368159294128418e-01,-2.233523607254028320e+00,2.982943058013916016e-01
9.568530917167663574e-01,-2.236132383346557617e+00,3.852304816246032715e-01
9.580637216567993164e-01,-2.238961458206176758e+00,4.733795821666717529e-01
9.593959450721740723e-01,-2.242074966430664062e+00,5.630213022232055664e-01
9.861277341842651367e-01,-2.216295957565307617e+00,-6.499851942062377930e-01
9.873320460319519043e-01,-2.219002723693847656e+00,-5.607188940048217773e-01
9.886153936386108398e-01,-2.221886873245239258e+00,-4.727129340171813965e-01
9.898244142532348633e-01,-2.224604129791259766e+00,-3.856457471847534180e-01
9.910955429077148438e-01,-2.227461099624633789e+00,-2.993485331535339355e-01
9.922627210617065430e-01,-2.230084180831909180e+00,-2.135484069585800171e-01
9.934896826744079590e-01,-2.232841968536376953e+00,-1.280787289142608643e-01
9.947058558464050293e-01,-2.235575199127197266e+00,-4.271043464541435242e-02
9.959138035774230957e-01,-2.238289833068847656e+00,4.276230186223983765e-02
9.971911311149597168e-01,-2.241160631179809570e+00,1.285559087991714478e-01
9.983786940574645996e-01,-2.243829727172851562e+00,2.148646414279937744e-01
9.996501803398132324e-01,-2.246687412261962891e+00,3.019323647022247314e-01
1.000874519348144531e+00,-2.249439001083374023e+00,3.899509310722351074e-01
1.002213120460510254e+00,-2.252447605133056641e+00,4.792147874832153320e-01
1.003442764282226562e+00,-2.255211114883422852e+00,5.698683857917785645e-01
1.030400156974792480e+00,-2.229332685470581055e+00,-6.580665111541748047e-01
1.031821966171264648e+00,-2.232409000396728516e+00,-5.677802562713623047e-01
1.033119201660156250e+00,-2.235215425491333008e+00,-4.786456823348999023e-01
1.034479022026062012e+00,-2.238157749176025391e+00,-3.905221521854400635e-01
1.035676836967468262e+00,-2.240749359130859375e+00,-3.030955195426940918e-01
1.036962628364562988e+00,-2.243531227111816406e+00,-2.162351906299591064e-01
1.038242220878601074e+00,-2.246299505233764648e+00,-1.296898275613784790e-01
1.039512872695922852e+00,-2.249048709869384766e+00,-4.324768111109733582e-02
1.040778279304504395e+00,-2.251786708831787109e+00,4.330033063888549805e-02
1.042046666145324707e+00,-2.254530668258666992e+00,1.301650553941726685e-01
1.043419599533081055e+00,-2.257501125335693359e+00,2.175816446542739868e-01
1.044651150703430176e+00,-2.260165691375732422e+00,3.057218790054321289e-01
1.045974969863891602e+00,-2.263029813766479492e+00,3.948619365692138672e-01
1.047208309173583984e+00,-2.265698194503784180e+00,4.851731956005096436e-01
1.048791408538818359e+00,-2.269123315811157227e+00,5.771180391311645508e-01
1.075959801673889160e+00,-2.243040561676025391e+00,-6.665906906127929688e-01
1.077397704124450684e+00,-2.246038198471069336e+00,-5.751099586486816406e-01
1.078721046447753906e+00,-2.248796939849853516e+00,-4.848106801509857178e-01
1.080122709274291992e+00,-2.251718997955322266e+00,-3.955454230308532715e-01
1.081464886665344238e+00,-2.254516839981079102e+00,-3.070201873779296875e-01
1.082789301872253418e+00,-2.257277965545654297e+00,-2.190314531326293945e-01
1.084142804145812988e+00,-2.260099649429321289e+00,-1.313690394163131714e-01
1.085469961166381836e+00,-2.262866258621215820e+00,-4.380765929818153381e-02
1.086773633956909180e+00,-2.265584230422973633e+00,4.386027529835700989e-02
1.088116645812988281e+00,-2.268383979797363281e+00,1.318505704402923584e-01
1.089458227157592773e+00,-2.271180629730224609e+00,2.203804850578308105e-01
1.090762495994567871e+00,-2.273899555206298828e+00,3.096597194671630859e-01
1.092176556587219238e+00,-2.276847362518310547e+00,3.999595940113067627e-01
1.093512058258056641e+00,-2.279631614685058594e+00,4.914582073688507080e-01
1.094955086708068848e+00,-2.282639741897583008e+00,5.844820141792297363e-01
1.122838020324707031e+00,-2.257338523864746094e+00,-6.755467653274536133e-01
1.124273777008056641e+00,-2.260224819183349609e+00,-5.828033089637756348e-01
1.125601649284362793e+00,-2.262894392013549805e+00,-4.912729561328887939e-01
1.127021670341491699e+00,-2.265749216079711914e+00,-4.008027315139770508e-01
1.128393769264221191e+00,-2.268507719039916992e+00,-3.110930621623992920e-01
1.129817843437194824e+00,-2.271370649337768555e+00,-2.219453603029251099e-01
1.131176948547363281e+00,-2.274102926254272461e+00,-1.331104487180709839e-01
1.132561683654785156e+00,-2.276886701583862305e+00,-4.438836872577667236e-02
1.133975744247436523e+00,-2.279729604721069336e+00,4.444379359483718872e-02
1.135334730148315430e+00,-2.282461643218994141e+00,1.335997283458709717e-01
1.136762976646423340e+00,-2.285332918167114258e+00,2.233096808195114136e-01
1.138167142868041992e+00,-2.288156032562255859e+00,3.137875199317932129e-01
1.139696598052978516e+00,-2.291230678558349609e+00,4.053103029727935791e-01
1.141156077384948730e+00,-2.294164657592773438e+00,4.980617165565490723e-01
1.142466783523559570e+00,-2.296799898147583008e+00,5.922342538833618164e-01
1.170591473579406738e+00,-2.271229982376098633e+00,-6.846482157707214355e-01
1.172073602676391602e+00,-2.274105787277221680e+00,-5.906479358673095703e-01
1.173619866371154785e+00,-2.277106046676635742e+00,-4.979542195796966553e-01
1.175068616867065430e+00,-2.279916763305664062e+00,-4.062425792217254639e-01
1.176479339599609375e+00,-2.282654047012329102e+00,-3.153100311756134033e-01
1.177955269813537598e+00,-2.285517692565917969e+00,-2.249522209167480469e-01
1.179396867752075195e+00,-2.288314819335937500e+00,-1.349166184663772583e-01
1.180840969085693359e+00,-2.291116476058959961e+00,-4.499068111181259155e-02
1.182290434837341309e+00,-2.293929100036621094e+00,4.504591226577758789e-02
1.183716416358947754e+00,-2.296695709228515625e+00,1.354107409715652466e-01
1.185225725173950195e+00,-2.299624204635620117e+00,2.263406515121459961e-01
1.186722278594970703e+00,-2.302527666091918945e+00,3.180552423000335693e-01
1.188152790069580078e+00,-2.305303335189819336e+00,4.107660055160522461e-01
1.189689159393310547e+00,-2.308284282684326172e+00,5.047722458839416504e-01
1.191353917121887207e+00,-2.311514377593994141e+00,6.003639101982116699e-01
1.220217227935791016e+00,-2.286549568176269531e+00,-6.944598555564880371e-01
1.221743702888488770e+00,-2.289409875869750977e+00,-5.991033911705017090e-01
1.223336935043334961e+00,-2.292395353317260742e+00,-5.050750374794006348e-01
1.224835157394409180e+00,-2.295202970504760742e+00,-4.120479226112365723e-01
1.226301312446594238e+00,-2.297950506210327148e+00,-3.198148012161254883e-01
1.227840900421142578e+00,-2.300835609436035156e+00,-2.281662970781326294e-01
1.229354262351989746e+00,-2.303671121597290039e+00,-1.368454545736312866e-01
1.230859279632568359e+00,-2.306491374969482422e+00,-4.563388600945472717e-02
1.232359886169433594e+00,-2.309303522109985352e+00,4.568952322006225586e-02
1.233844995498657227e+00,-2.312086343765258789e+00,1.373453438282012939e-01
1.235422968864440918e+00,-2.315043210983276367e+00,2.295752316713333130e-01
1.236994862556457520e+00,-2.317988872528076172e+00,3.226036429405212402e-01
1.238505005836486816e+00,-2.320818901062011719e+00,4.166466295719146729e-01
1.240126967430114746e+00,-2.323858261108398438e+00,5.120071172714233398e-01
1.241603016853332520e+00,-2.326624155044555664e+00,6.088417768478393555e-01
1.270988941192626953e+00,-2.301760435104370117e+00,-7.045328021049499512e-01
1.272576451301574707e+00,-2.304635286331176758e+00,-6.077919602394104004e-01
1.274231672286987305e+00,-2.307632923126220703e+00,-5.123983025550842285e-01
1.275792360305786133e+00,-2.310459136962890625e+00,-4.180223345756530762e-01
1.277420401573181152e+00,-2.313407659530639648e+00,-3.244774937629699707e-01
1.278993129730224609e+00,-2.316255807876586914e+00,-2.314871996641159058e-01
1.280524492263793945e+00,-2.319029331207275391e+00,-1.388323456048965454e-01
1.282092213630676270e+00,-2.321868419647216797e+00,-4.629645496606826782e-02
1.283700704574584961e+00,-2.324781417846679688e+00,4.635453596711158752e-02
1.285279273986816406e+00,-2.327640056610107422e+00,1.393478363752365112e-01
1.286821126937866211e+00,-2.330432415008544922e+00,2.329040020704269409e-01
1.288458585739135742e+00,-2.333397865295410156e+00,3.272813260555267334e-01
1.290036201477050781e+00,-2.336254835128784180e+00,4.226894378662109375e-01
1.291728138923645020e+00,-2.339318990707397461e+00,5.194339752197265625e-01
1.293270707130432129e+00,-2.342112779617309570e+00,6.176757216453552246e-01
1.322902441024780273e+00,-2.316785573959350586e+00,-7.148543000221252441e-01
1.324781417846679688e+00,-2.320075988769531250e+00,-6.168017387390136719e-01
1.326303124427795410e+00,-2.322741031646728516e+00,-5.199149847030639648e-01
1.328076362609863281e+00,-2.325846433639526367e+00,-4.242021143436431885e-01
1.329645037651062012e+00,-2.328593492507934570e+00,-3.292431235313415527e-01
1.331295847892761230e+00,-2.331484556198120117e+00,-2.348895072937011719e-01
1.332927465438842773e+00,-2.334342241287231445e+00,-1.408768296241760254e-01
1.334559559822082520e+00,-2.337200403213500977e+00,-4.697823524475097656e-02
1.336196184158325195e+00,-2.340066432952880859e+00,4.703584685921669006e-02
1.337825417518615723e+00,-2.342919826507568359e+00,1.413944810628890991e-01
1.339558005332946777e+00,-2.345953941345214844e+00,2.363472580909729004e-01
1.341112256050109863e+00,-2.348675966262817383e+00,3.320826292037963867e-01
1.342958688735961914e+00,-2.351909637451171875e+00,4.289556741714477539e-01
1.344489812850952148e+00,-2.354591131210327148e+00,5.270442366600036621e-01
1.346367478370666504e+00,-2.357879400253295898e+00,6.268519163131713867e-01
1.377237796783447266e+00,-2.333729743957519531e+00,-7.260906696319580078e-01
1.379109978675842285e+00,-2.336901903152465820e+00,-6.264587044715881348e-01
1.380819439888000488e+00,-2.339798688888549805e+00,-5.281029939651489258e-01
1.382454156875610352e+00,-2.342568635940551758e+00,-4.308168888092041016e-01
1.384188771247863770e+00,-2.345508098602294922e+00,-3.344017863273620605e-01
1.385893583297729492e+00,-2.348397016525268555e+00,-2.385674417018890381e-01
1.387626647949218750e+00,-2.351333618164062500e+00,-1.430862396955490112e-01
1.389325499534606934e+00,-2.354212284088134766e+00,-4.771500453352928162e-02
1.390994191169738770e+00,-2.357039690017700195e+00,4.777231439948081970e-02
1.392703533172607422e+00,-2.359936237335205078e+00,1.436097472906112671e-01
1.394404053688049316e+00,-2.362817764282226562e+00,2.400324195623397827e-01
1.396235346794128418e+00,-2.365921020507812500e+00,3.373120725154876709e-01
1.398029923439025879e+00,-2.368961811065673828e+00,4.356708228588104248e-01
1.399707674980163574e+00,-2.371804714202880859e+00,5.353268980979919434e-01
1.401474714279174805e+00,-2.374799013137817383e+00,6.366178989410400391e-01
1.432958245277404785e+00,-2.350625038146972656e+00,-7.376531958580017090e-01
1.434658288955688477e+00,-2.353413820266723633e+00,-6.363247036933898926e-01
1.436465740203857422e+00,-2.356378555297851562e+00,-5.364308953285217285e-01
1.438348174095153809e+00,-2.359466552734375000e+00,-4.376659691333770752e-01
1.440140962600708008e+00,-2.362407445907592773e+00,-3.397152125835418701e-01
1.441899538040161133e+00,-2.365292310714721680e+00,-2.423555850982666016e-01
1.443663239479064941e+00,-2.368185281753540039e+00,-1.453543007373809814e-01
1.445430517196655273e+00,-2.371084451675415039e+00,-4.847133159637451172e-02
1.447206735610961914e+00,-2.373998165130615234e+00,4.853089526295661926e-02
1.449000716209411621e+00,-2.376941204071044922e+00,1.458917111158370972e-01
1.450781941413879395e+00,-2.379862785339355469e+00,2.438485324382781982e-01
1.452503681182861328e+00,-2.382687330245971680e+00,3.426314592361450195e-01
1.454341173171997070e+00,-2.385701656341552734e+00,4.425323903560638428e-01
1.456338644027709961e+00,-2.388978242874145508e+00,5.438522100448608398e-01
1.458195090293884277e+00,-2.392023563385009766e+00,6.467641592025756836e-01
1.489929199218750000e+00,-2.367173194885253906e+00,-7.494617700576782227e-01
1.491715431213378906e+00,-2.370011329650878906e+00,-6.465193629264831543e-01
1.493613600730895996e+00,-2.373026847839355469e+00,-5.450319051742553711e-01
1.495586037635803223e+00,-2.376160860061645508e+00,-4.446879625320434570e-01
1.497456192970275879e+00,-2.379132032394409180e+00,-3.451670706272125244e-01
1.499281167984008789e+00,-2.382031440734863281e+00,-2.462443709373474121e-01
1.501101255416870117e+00,-2.384923219680786133e+00,-1.476852744817733765e-01
1.502939343452453613e+00,-2.387843608856201172e+00,-4.924865439534187317e-02
1.504799723625183105e+00,-2.390799283981323242e+00,4.930961504578590393e-02
1.506668925285339355e+00,-2.393769264221191406e+00,1.482330560684204102e-01
1.508515477180480957e+00,-2.396702766418457031e+00,2.477610260248184204e-01
1.510290384292602539e+00,-2.399522781372070312e+00,3.481253683567047119e-01
1.512182354927062988e+00,-2.402528762817382812e+00,4.496226012706756592e-01
1.514240384101867676e+00,-2.405798435211181641e+00,5.525588393211364746e-01
1.516147017478942871e+00,-2.408827781677246094e+00,6.571081876754760742e-01
1.548963546752929688e+00,-2.384567737579345703e+00,-7.619103789329528809e-01
1.551130533218383789e+00,-2.387903690338134766e+00,-6.573894023895263672e-01
1.552875041961669922e+00,-2.390589237213134766e+00,-5.541138648986816406e-01
1.554957032203674316e+00,-2.393794298171997070e+00,-4.521069228649139404e-01
1.556918621063232422e+00,-2.396814107894897461e+00,-3.509295582771301270e-01
1.558744788169860840e+00,-2.399625539779663086e+00,-2.503439486026763916e-01
1.560676455497741699e+00,-2.402599096298217773e+00,-1.501477807760238647e-01
1.562587380409240723e+00,-2.405540943145751953e+00,-5.006982386112213135e-02
1.564482331275939941e+00,-2.408458232879638672e+00,5.013054236769676208e-02
1.566497921943664551e+00,-2.411561012268066406e+00,1.507078409194946289e-01
1.568400382995605469e+00,-2.414489746093750000e+00,2.518946826457977295e-01
1.570214390754699707e+00,-2.417282342910766602e+00,3.539264202117919922e-01
1.572414398193359375e+00,-2.420669078826904297e+00,4.571827054023742676e-01
1.574239373207092285e+00,-2.423478841781616211e+00,5.617373585700988770e-01
1.576170682907104492e+00,-2.426451921463012695e+00,6.680017709732055664e-01
1.610500454902648926e+00,-2.403292894363403320e+00,-7.751794457435607910e-01
1.612495779991149902e+00,-2.406270503997802734e+00,-6.687313318252563477e-01
1.614598751068115234e+00,-2.409408569335937500e+00,-5.637750625610351562e-01
1.616577982902526855e+00,-2.412362098693847656e+00,-4.599367976188659668e-01
1.618516087532043457e+00,-2.415254354476928711e+00,-3.569848537445068359e-01
1.620556473731994629e+00,-2.418299198150634766e+00,-2.546859383583068848e-01
1.622558236122131348e+00,-2.421286106109619141e+00,-1.527513414621353149e-01
1.624544978141784668e+00,-2.424251079559326172e+00,-5.093804001808166504e-02
1.626522064208984375e+00,-2.427201271057128906e+00,5.100002884864807129e-02
1.628474473953247070e+00,-2.430114984512329102e+00,1.533083170652389526e-01
1.630554914474487305e+00,-2.433219432830810547e+00,2.562572658061981201e-01
1.632628917694091797e+00,-2.436314344406127930e+00,3.600975871086120605e-01
1.634622812271118164e+00,-2.439289808273315430e+00,4.650707840919494629e-01
1.636782169342041016e+00,-2.442512035369873047e+00,5.715209245681762695e-01
1.638755559921264648e+00,-2.445456981658935547e+00,6.796216964721679688e-01
1.674349665641784668e+00,-2.422856092453002930e+00,-7.891388535499572754e-01
1.676470756530761719e+00,-2.425925254821777344e+00,-6.807927489280700684e-01
1.678440093994140625e+00,-2.428775072097778320e+00,-5.738692283630371094e-01
1.680561900138854980e+00,-2.431845426559448242e+00,-4.681897163391113281e-01
1.682759642601013184e+00,-2.435025691986083984e+00,-3.634299337863922119e-01
1.684762477874755859e+00,-2.437923908233642578e+00,-2.592658400535583496e-01
1.686840534210205078e+00,-2.440930843353271484e+00,-1.554979383945465088e-01
1.688906788825988770e+00,-2.443920850753784180e+00,-5.185396969318389893e-02
1.690964937210083008e+00,-2.446899175643920898e+00,5.191716179251670837e-02
1.693114757537841797e+00,-2.450010061264038086e+00,1.560763120651245117e-01
1.695093035697937012e+00,-2.452872753143310547e+00,2.608556151390075684e-01
1.697184324264526367e+00,-2.455898761749267578e+00,3.665452599525451660e-01
1.699477195739746094e+00,-2.459216833114624023e+00,4.734593629837036133e-01
1.701675534248352051e+00,-2.462397813796997070e+00,5.818135738372802734e-01
1.703661203384399414e+00,-2.465270996093750000e+00,6.918343901634216309e-01
1.740607500076293945e+00,-2.443215608596801758e+00,-8.038024306297302246e-01
1.742888092994689941e+00,-2.446416616439819336e+00,-6.934731006622314453e-01
1.744986414909362793e+00,-2.449362039566040039e+00,-5.845751762390136719e-01
1.747221589088439941e+00,-2.452499389648437500e+00,-4.769320785999298096e-01
1.749361276626586914e+00,-2.455502986907958984e+00,-3.701854050159454346e-01
1.751473069190979004e+00,-2.458467006683349609e+00,-2.640895843505859375e-01
1.753604769706726074e+00,-2.461459159851074219e+00,-1.583884507417678833e-01
1.755752325057983398e+00,-2.464473724365234375e+00,-5.281785130500793457e-02
1.757921695709228516e+00,-2.467518568038940430e+00,5.288311466574668884e-02
1.760126709938049316e+00,-2.470613956451416016e+00,1.589775234460830688e-01
1.762330770492553711e+00,-2.473707675933837891e+00,2.657267153263092041e-01
1.764475345611572266e+00,-2.476717710494995117e+00,3.733837008476257324e-01
1.766808032989501953e+00,-2.479992151260375977e+00,4.822784960269927979e-01
1.769016742706298828e+00,-2.483092308044433594e+00,5.926253199577331543e-01
1.771415233612060547e+00,-2.486459016799926758e+00,7.048236727714538574e-01
1.807861804962158203e+00,-2.462270975112915039e+00,-8.185009360313415527e-01
1.810359239578247070e+00,-2.465672254562377930e+00,-7.062042951583862305e-01
1.812633752822875977e+00,-2.468770027160644531e+00,-5.953383445739746094e-01
1.814800143241882324e+00,-2.471720695495605469e+00,-4.856717288494110107e-01
1.817109107971191406e+00,-2.474865436553955078e+00,-3.769869208335876465e-01
1.819351077079772949e+00,-2.477918863296508789e+00,-2.689489126205444336e-01
1.821573853492736816e+00,-2.480946302413940430e+00,-1.613035947084426880e-01
1.823804974555969238e+00,-2.483985185623168945e+00,-5.378998070955276489e-02
1.826049923896789551e+00,-2.487042665481567383e+00,5.385619029402732849e-02
1.828292131423950195e+00,-2.490096569061279297e+00,1.618985086679458618e-01
1.830494046211242676e+00,-2.493095397949218750e+00,2.705961465835571289e-01
1.832879781723022461e+00,-2.496344804763793945e+00,3.802587985992431641e-01
1.835206747055053711e+00,-2.499514102935791016e+00,4.911329150199890137e-01
1.837370276451110840e+00,-2.502460718154907227e+00,6.034627556800842285e-01
1.839706897735595703e+00,-2.505643367767333984e+00,7.176525592803955078e-01
1.879429221153259277e+00,-2.484410524368286133e+00,-8.347173929214477539e-01
1.881749629974365234e+00,-2.487477779388427734e+00,-7.200903296470642090e-01
1.884220957756042480e+00,-2.490744590759277344e+00,-6.070789098739624023e-01
1.886540889739990234e+00,-2.493811368942260742e+00,-4.952674508094787598e-01
1.888805270195007324e+00,-2.496804475784301758e+00,-3.844076395034790039e-01
1.891189336776733398e+00,-2.499956130981445312e+00,-2.742507755756378174e-01
1.893510580062866211e+00,-2.503024339675903320e+00,-1.644843369722366333e-01
1.895830273628234863e+00,-2.506090879440307617e+00,-5.485067516565322876e-02
1.898153662681579590e+00,-2.509161949157714844e+00,5.491789430379867554e-02
1.900430440902709961e+00,-2.512171745300292969e+00,1.650854498147964478e-01
1.902856945991516113e+00,-2.515379428863525391e+00,2.759427428245544434e-01
1.905268311500549316e+00,-2.518567085266113281e+00,3.877581655979156494e-01
1.907578945159912109e+00,-2.521621465682983398e+00,5.007905364036560059e-01
1.910108804702758789e+00,-2.524965524673461914e+00,6.154197454452514648e-01
1.912424087524414062e+00,-2.528026103973388672e+00,7.318285703659057617e-01
1.953640460968017578e+00,-2.507109880447387695e+00,-8.516519665718078613e-01
1.956164240837097168e+00,-2.510348558425903320e+00,-7.347413301467895508e-01
1.958492159843444824e+00,-2.513335943222045898e+00,-6.193543076515197754e-01
1.960996627807617188e+00,-2.516550064086914062e+00,-5.053059458732604980e-01
1.963395357131958008e+00,-2.519628286361694336e+00,-3.922080993652343750e-01
1.965764641761779785e+00,-2.522668838500976562e+00,-2.798004150390625000e-01
1.968157887458801270e+00,-2.525739908218383789e+00,-1.678111255168914795e-01
1.970568656921386719e+00,-2.528833866119384766e+00,-5.596005171537399292e-02
1.973003864288330078e+00,-2.531958818435668945e+00,5.602920800447463989e-02
1.975480914115905762e+00,-2.535137653350830078e+00,1.684355139732360840e-01
1.977958083152770996e+00,-2.538316488265991211e+00,2.815359830856323242e-01
1.980370759963989258e+00,-2.541412830352783203e+00,3.955991268157958984e-01
1.983017683029174805e+00,-2.544809579849243164e+00,5.109803080558776855e-01
1.985534310340881348e+00,-2.548039197921752930e+00,6.279060840606689453e-01
1.987784147262573242e+00,-2.550926446914672852e+00,7.466178536415100098e-01
2.030519485473632812e+00,-2.530228614807128906e+00,-8.692890405654907227e-01
2.032890081405639648e+00,-2.533182382583618164e+00,-7.498641014099121094e-01
2.035478591918945312e+00,-2.536407947540283203e+00,-6.321547031402587891e-01
2.038202524185180664e+00,-2.539802551269531250e+00,-5.157799720764160156e-01
2.040571928024291992e+00,-2.542754888534545898e+00,-4.003135263919830322e-01
2.043115139007568359e+00,-2.545923948287963867e+00,-2.855941057205200195e-01
2.045624256134033203e+00,-2.549050569534301758e+00,-1.712877154350280762e-01
2.048130512237548828e+00,-2.552173852920532227e+00,-5.711941048502922058e-02
2.050639629364013672e+00,-2.555300235748291016e+00,5.718938633799552917e-02
2.053133726119995117e+00,-2.558408021926879883e+00,1.719165146350860596e-01
2.055833578109741211e+00,-2.561772584915161133e+00,2.873719334602355957e-01
2.058218955993652344e+00,-2.564744710922241211e+00,4.037754535675048828e-01
2.060798645019531250e+00,-2.567959547042846680e+00,5.214980244636535645e-01
2.063671350479125977e+00,-2.571538925170898438e+00,6.409105062484741211e-01
2.066353321075439453e+00,-2.574881076812744141e+00,7.622076272964477539e-01
2.110058784484863281e+00,-2.553594350814819336e+00,-8.876019716262817383e-01
2.112708806991577148e+00,-2.556801080703735352e+00,-7.657287716865539551e-01
2.115532398223876953e+00,-2.560218334197998047e+00,-6.455698013305664062e-01
2.118162631988525391e+00,-2.563401460647583008e+00,-5.266754627227783203e-01
2.120706796646118164e+00,-2.566480398178100586e+00,-4.087856411933898926e-01
2.123248100280761719e+00,-2.569555997848510742e+00,-2.916243672370910645e-01
2.125885248184204102e+00,-2.572747230529785156e+00,-1.749068498611450195e-01
2.128489971160888672e+00,-2.575899839401245117e+00,-5.832629278302192688e-02
2.131068468093872070e+00,-2.579020261764526367e+00,5.839695036411285400e-02
2.133762598037719727e+00,-2.582280635833740234e+00,1.755549758672714233e-01
2.136487007141113281e+00,-2.585577726364135742e+00,2.934427261352539062e-01
2.139169931411743164e+00,-2.588824510574340820e+00,4.123445749282836914e-01
2.141715764999389648e+00,-2.591905593872070312e+00,5.325319170951843262e-01
2.144512176513671875e+00,-2.595289707183837891e+00,6.544131636619567871e-01
2.147053718566894531e+00,-2.598365545272827148e+00,7.781767845153808594e-01
2.194712638854980469e+00,-2.579938411712646484e+00,-9.075851440429687500e-01
2.197675704956054688e+00,-2.583421468734741211e+00,-7.830418348312377930e-01
2.200389862060546875e+00,-2.586611986160278320e+00,-6.600990891456604004e-01
2.203286886215209961e+00,-2.590017557144165039e+00,-5.385683178901672363e-01
2.205814838409423828e+00,-2.592989206314086914e+00,-4.179940223693847656e-01
2.208561897277832031e+00,-2.596218585968017578e+00,-2.982075512409210205e-01
2.211294889450073242e+00,-2.599431276321411133e+00,-1.788544207811355591e-01
2.214004278182983398e+00,-2.602616071701049805e+00,-5.964268371462821960e-02
2.216697216033935547e+00,-2.605781793594360352e+00,5.971523001790046692e-02
2.219395637512207031e+00,-2.608953952789306641e+00,1.795096397399902344e-01
2.222349405288696289e+00,-2.612425804138183594e+00,3.000691533088684082e-01
2.224977493286132812e+00,-2.615515470504760742e+00,4.216252565383911133e-01
2.227852582931518555e+00,-2.618895292282104492e+00,5.445731282234191895e-01
2.230551958084106445e+00,-2.622068166732788086e+00,6.691474914550781250e-01
2.233535051345825195e+00,-2.625575065612792969e+00,7.958186864852905273e-01
2.280200719833374023e+00,-2.603979825973510742e+00,-9.274289608001708984e-01
2.283005952835083008e+00,-2.607183456420898438e+00,-8.000668287277221680e-01
2.286030769348144531e+00,-2.610637664794921875e+00,-6.745116710662841797e-01
2.288861036300659180e+00,-2.613870143890380859e+00,-5.502843260765075684e-01
2.291613340377807617e+00,-2.617013216018676758e+00,-4.271105229854583740e-01
2.294511318206787109e+00,-2.620322704315185547e+00,-3.047173619270324707e-01
2.297261714935302734e+00,-2.623463630676269531e+00,-1.827517002820968628e-01
2.300076961517333984e+00,-2.626678705215454102e+00,-6.094232574105262756e-02
2.302964687347412109e+00,-2.629976272583007812e+00,6.101883575320243835e-02
2.305724143981933594e+00,-2.633127689361572266e+00,1.834248900413513184e-01
2.308665990829467773e+00,-2.636487245559692383e+00,3.065971136093139648e-01
2.311578035354614258e+00,-2.639812707901000977e+00,4.308315217494964600e-01
2.314356803894042969e+00,-2.642986297607421875e+00,5.564139485359191895e-01
2.317439556121826172e+00,-2.646506547927856445e+00,6.837791204452514648e-01
2.320264816284179688e+00,-2.649733066558837891e+00,8.131240606307983398e-01
2.373669862747192383e+00,-2.633695840835571289e+00,-9.500159025192260742e-01
2.376864194869995117e+00,-2.637239933013916016e+00,-8.196464776992797852e-01
2.379800319671630859e+00,-2.640497922897338867e+00,-6.909568309783935547e-01
2.382956027984619141e+00,-2.643999338150024414e+00,-5.637501478195190430e-01
2.385946035385131836e+00,-2.647316694259643555e+00,-4.375850558280944824e-01
2.388861894607543945e+00,-2.650552034378051758e+00,-3.121770322322845459e-01
2.391767263412475586e+00,-2.653775691986083984e+00,-1.872288733720779419e-01
2.394698858261108398e+00,-2.657028436660766602e+00,-6.243534386157989502e-02
2.397663593292236328e+00,-2.660317897796630859e+00,6.251263618469238281e-02
2.400639772415161133e+00,-2.663619995117187500e+00,1.879234015941619873e-01
2.403576850891113281e+00,-2.666878938674926758e+00,3.140999972820281982e-01
2.406397819519042969e+00,-2.670009136199951172e+00,4.413359463214874268e-01
2.409507751464843750e+00,-2.673459529876708984e+00,5.700316429138183594e-01
2.412439346313476562e+00,-2.676712274551391602e+00,7.004332542419433594e-01
2.415711164474487305e+00,-2.680342674255371094e+00,8.330426216125488281e-01
2.467816114425659180e+00,-2.660578489303588867e+00,-9.723548293113708496e-01
2.471407651901245117e+00,-2.664450645446777344e+00,-8.390117287635803223e-01
2.474195003509521484e+00,-2.667455673217773438e+00,-7.072056531906127930e-01
2.477306127548217773e+00,-2.670809984207153320e+00,-5.769680738449096680e-01
2.480582952499389648e+00,-2.674342632293701172e+00,-4.478752613067626953e-01
2.483528614044189453e+00,-2.677518367767333984e+00,-3.195071220397949219e-01
2.486606121063232422e+00,-2.680836439132690430e+00,-1.916294842958450317e-01
2.489654302597045898e+00,-2.684122562408447266e+00,-6.390283256769180298e-02
2.492679595947265625e+00,-2.687384128570556641e+00,6.398048251867294312e-02
2.495861053466796875e+00,-2.690814018249511719e+00,1.923427134752273560e-01
2.498745918273925781e+00,-2.693924188613891602e+00,3.214648067951202393e-01
2.501850843429565430e+00,-2.697271823883056641e+00,4.517152309417724609e-01
2.505354166030883789e+00,-2.701048851013183594e+00,5.835005044937133789e-01
2.508127689361572266e+00,-2.704038858413696289e+00,7.169047594070434570e-01
2.511893510818481445e+00,-2.708098888397216797e+00,8.527562022209167480e-01
2.568386077880859375e+00,-2.690719842910766602e+00,-9.967039227485656738e-01
2.571859359741210938e+00,-2.694358587265014648e+00,-8.599331974983215332e-01
2.575044631958007812e+00,-2.697695493698120117e+00,-7.249205708503723145e-01
2.578469514846801758e+00,-2.701283454895019531e+00,-5.914634466171264648e-01
2.581438302993774414e+00,-2.704393625259399414e+00,-4.590488970279693604e-01
2.584676504135131836e+00,-2.707786083221435547e+00,-3.275000751018524170e-01
2.587888956069946289e+00,-2.711151599884033203e+00,-1.964241117238998413e-01
2.591061115264892578e+00,-2.714474916458129883e+00,-6.550169736146926880e-02
2.594201326370239258e+00,-2.717764616012573242e+00,6.558108329772949219e-02
2.597338914871215820e+00,-2.721051454544067383e+00,1.971413791179656982e-01
2.600787639617919922e+00,-2.724664688110351562e+00,3.295415043830871582e-01
2.603831052780151367e+00,-2.727853059768676758e+00,4.630309045314788818e-01
2.607189416885375977e+00,-2.731371402740478516e+00,5.980513691902160645e-01
2.610345363616943359e+00,-2.734677553176879883e+00,7.348583936691284180e-01
2.613883495330810547e+00,-2.738384246826171875e+00,8.739845156669616699e-01
2.676262855529785156e+00,-2.724572658538818359e+00,-1.023328542709350586e+00
2.680200576782226562e+00,-2.728581666946411133e+00,-8.830093741416931152e-01
2.683236360549926758e+00,-2.731672048568725586e+00,-7.442950010299682617e-01
2.686626434326171875e+00,-2.735123157501220703e+00,-6.072306632995605469e-01
2.689911127090454102e+00,-2.738467454910278320e+00,-4.713197350502014160e-01
2.693363189697265625e+00,-2.741981744766235352e+00,-3.362641930580139160e-01
2.696611642837524414e+00,-2.745288848876953125e+00,-2.016731500625610352e-01
2.699917554855346680e+00,-2.748654365539550781e+00,-6.725210696458816528e-02
2.703290700912475586e+00,-2.752088546752929688e+00,6.733612716197967529e-02
2.706482410430908203e+00,-2.755337715148925781e+00,2.024113535881042480e-01
2.709883213043212891e+00,-2.758800029754638672e+00,3.383266925811767578e-01
2.713236570358276367e+00,-2.762213706970214844e+00,4.754067361354827881e-01
2.717024564743041992e+00,-2.766070127487182617e+00,6.141012907028198242e-01
2.719990253448486328e+00,-2.769089460372924805e+00,7.544900774955749512e-01
2.724066019058227539e+00,-2.773238897323608398e+00,8.974611163139343262e-01
2.788597583770751953e+00,-2.758819818496704102e+00,-1.051075458526611328e+00
2.791719675064086914e+00,-2.761908292770385742e+00,-9.066329002380371094e-01
2.795243740081787109e+00,-2.765394926071166992e+00,-7.643064856529235840e-01
2.799018859863281250e+00,-2.769129753112792969e+00,-6.236112713813781738e-01
2.802261590957641602e+00,-2.772337675094604492e+00,-4.840029776096343994e-01
2.805779695510864258e+00,-2.775818109512329102e+00,-3.453034758567810059e-01
2.809240341186523438e+00,-2.779242038726806641e+00,-2.071000784635543823e-01
2.812685012817382812e+00,-2.782649993896484375e+00,-6.906184554100036621e-02
2.816122293472290039e+00,-2.786050558090209961e+00,6.914624571800231934e-02
2.819526910781860352e+00,-2.789418697357177734e+00,2.078584134578704834e-01
2.823252677917480469e+00,-2.793104648590087891e+00,3.474538624286651611e-01
2.826500415802001953e+00,-2.796317577362060547e+00,4.881894588470458984e-01
2.830079555511474609e+00,-2.799858570098876953e+00,6.305314302444458008e-01
2.834166526794433594e+00,-2.803901910781860352e+00,7.749491333961486816e-01
2.837177753448486328e+00,-2.806880950927734375e+00,9.213957786560058594e-01
2.888658046722412109e+00,-2.777138948440551758e+00,-1.073697447776794434e+00
2.907342672348022461e+00,-2.795102119445800781e+00,-9.310942292213439941e-01
2.910772562026977539e+00,-2.798399686813354492e+00,-7.848629951477050781e-01
2.914564609527587891e+00,-2.802045345306396484e+00,-6.403531432151794434e-01
2.918201684951782227e+00,-2.805541992187500000e+00,-4.970411956310272217e-01
2.921982765197753906e+00,-2.809177160263061523e+00,-3.546196222305297852e-01
2.925489902496337891e+00,-2.812548875808715820e+00,-2.126805186271667480e-01
2.929077863693237305e+00,-2.815998077392578125e+00,-7.092277705669403076e-02
2.932755947113037109e+00,-2.819534301757812500e+00,7.101183384656906128e-02
2.936183929443359375e+00,-2.822829961776733398e+00,2.134579569101333618e-01
2.939801931381225586e+00,-2.826308250427246094e+00,3.567821979522705078e-01
2.943325757980346680e+00,-2.829695940017700195e+00,5.013204216957092285e-01
2.947297334671020508e+00,-2.833514451980590820e+00,6.475447416305541992e-01
2.951112270355224609e+00,-2.837182044982910156e+00,7.957402467727661133e-01
2.954566001892089844e+00,-2.840502500534057617e+00,9.462178349494934082e-01
2.934904813766479492e+00,-2.741861343383789062e+00,-1.076189517974853516e+00
3.031664848327636719e+00,-2.832256793975830078e+00,-9.578280448913574219e-01
3.035571098327636719e+00,-2.835906028747558594e+00,-8.074858784675598145e-01
3.039256811141967773e+00,-2.839349508285522461e+00,-6.587523818016052246e-01
3.042878389358520508e+00,-2.842732667922973633e+00,-5.112939476966857910e-01
3.046752452850341797e+00,-2.846352100372314453e+00,-3.647801876068115234e-01
3.050505399703979492e+00,-2.849858283996582031e+00,-2.187811285257339478e-01
3.054247617721557617e+00,-2.853354215621948242e+00,-7.295717298984527588e-02
3.057986974716186523e+00,-2.856847763061523438e+00,7.304649800062179565e-02
3.061631679534912109e+00,-2.860252618789672852e+00,2.195790857076644897e-01
3.065578222274780273e+00,-2.863939523696899414e+00,3.670341372489929199e-01
3.069525718688964844e+00,-2.867627382278442383e+00,5.157715082168579102e-01
3.073335170745849609e+00,-2.871186256408691406e+00,6.661388278007507324e-01
3.076832056045532227e+00,-2.874453067779541016e+00,8.184616565704345703e-01
3.080763816833496094e+00,-2.878126382827758789e+00,9.733404517173767090e-01
2.966213941574096680e+00,-2.692647933959960938e+00,-1.073427557945251465e+00
3.165918350219726562e+00,-2.873934268951416016e+00,-9.871466755867004395e-01
3.169745683670043945e+00,-2.877408742904663086e+00,-8.321364521980285645e-01
3.173926353454589844e+00,-2.881203651428222656e+00,-6.789335012435913086e-01
3.177529573440551758e+00,-2.884474754333496094e+00,-5.269279479980468750e-01
3.181505680084228516e+00,-2.888083934783935547e+00,-3.759259879589080811e-01
3.185458898544311523e+00,-2.891672849655151367e+00,-2.254683822393417358e-01
3.189366102218627930e+00,-2.895219564437866211e+00,-7.518716901540756226e-02
3.193238258361816406e+00,-2.898734807968139648e+00,7.527845352888107300e-02
3.197115659713745117e+00,-2.902254343032836914e+00,2.262934446334838867e-01
3.201418876647949219e+00,-2.906160831451416016e+00,3.782789409160614014e-01
3.205206632614135742e+00,-2.909599304199218750e+00,5.315176248550415039e-01
3.209440469741821289e+00,-2.913442611694335938e+00,6.865303516387939453e-01
3.213450908660888672e+00,-2.917083263397216797e+00,8.436101675033569336e-01
3.218025445938110352e+00,-2.921235799789428711e+00,1.003393888473510742e+00
2.999573230743408203e+00,-2.645621061325073242e+00,-1.071686267852783203e+00
3.304607868194580078e+00,-2.914661407470703125e+00,-1.017278313636779785e+00
3.308376073837280273e+00,-2.917984724044799805e+00,-8.574777841567993164e-01
3.312619686126708984e+00,-2.921727895736694336e+00,-6.995840072631835938e-01
3.317088365554809570e+00,-2.925669193267822266e+00,-5.430709123611450195e-01
3.321035623550415039e+00,-2.929150581359863281e+00,-3.874191343784332275e-01
3.325061082839965820e+00,-2.932701110839843750e+00,-2.323545366525650024e-01
3.329140663146972656e+00,-2.936299324035644531e+00,-7.748352736234664917e-02
3.333285808563232422e+00,-2.939955234527587891e+00,7.758000493049621582e-02
3.337540864944458008e+00,-2.943708181381225586e+00,2.332266122102737427e-01
3.341317892074584961e+00,-2.947039365768432617e+00,3.897851705551147461e-01
3.345393419265747070e+00,-2.950634002685546875e+00,5.477049946784973145e-01
3.350044250488281250e+00,-2.954735994338989258e+00,7.074875831604003906e-01
3.354563474655151367e+00,-2.958722114562988281e+00,8.694488406181335449e-01
3.358714103698730469e+00,-2.962383031845092773e+00,1.033934235572814941e+00
3.048719406127929688e+00,-2.612350702285766602e+00,-1.075775742530822754e+00
3.454817295074462891e+00,-2.960323095321655273e+00,-1.050366878509521484e+00
3.459206581115722656e+00,-2.964083909988403320e+00,-8.854836821556091309e-01
3.463374137878417969e+00,-2.967655181884765625e+00,-7.223767638206481934e-01
3.467885971069335938e+00,-2.971521139144897461e+00,-5.607385635375976562e-01
3.471953153610229492e+00,-2.975006103515625000e+00,-4.000160992145538330e-01
3.476286888122558594e+00,-2.978719711303710938e+00,-2.399182021617889404e-01
3.480553150177001953e+00,-2.982375144958496094e+00,-8.000581711530685425e-02
3.484761476516723633e+00,-2.985981225967407227e+00,8.010254800319671631e-02
3.489270925521850586e+00,-2.989845275878906250e+00,2.408143132925033569e-01
3.493384599685668945e+00,-2.993370056152343750e+00,4.024852812290191650e-01
3.497920513153076172e+00,-2.997256755828857422e+00,5.655949115753173828e-01
3.502327203750610352e+00,-3.001032829284667969e+00,7.305014133453369141e-01
3.506410121917724609e+00,-3.004531145095825195e+00,8.975668549537658691e-01
3.511058092117309570e+00,-3.008513927459716797e+00,1.067465662956237793e+00
3.084416389465332031e+00,-2.567302227020263672e+00,-1.075294971466064453e+00
3.609673023223876953e+00,-3.004497766494750977e+00,-1.084261775016784668e+00
3.614062309265136719e+00,-3.008151054382324219e+00,-9.140082001686096191e-01
3.618890047073364258e+00,-3.012169361114501953e+00,-7.457445859909057617e-01
3.623459577560424805e+00,-3.015972852706909180e+00,-5.788544416427612305e-01
3.627909183502197266e+00,-3.019676446914672852e+00,-4.129622876644134521e-01
3.632336378097534180e+00,-3.023361444473266602e+00,-2.476760596036911011e-01
3.636795043945312500e+00,-3.027072429656982422e+00,-8.259285986423492432e-02
3.641296386718750000e+00,-3.030819177627563477e+00,8.269508928060531616e-02
3.645808219909667969e+00,-3.034574508666992188e+00,2.485946565866470337e-01
3.650254011154174805e+00,-3.038275003433227539e+00,4.155057668685913086e-01
3.654514074325561523e+00,-3.041820764541625977e+00,5.838154554367065430e-01
3.659321546554565430e+00,-3.045822381973266602e+00,7.540763020515441895e-01
3.663891077041625977e+00,-3.049625873565673828e+00,9.266100525856018066e-01
3.669162988662719727e+00,-3.054013729095458984e+00,1.102131128311157227e+00
3.117552280426025391e+00,-2.520234346389770508e+00,-1.074160933494567871e+00
3.714023351669311523e+00,-3.002422571182250977e+00,-1.102584600448608398e+00
3.792530536651611328e+00,-3.065887928009033203e+00,-9.479480385780334473e-01
3.797312736511230469e+00,-3.069753885269165039e+00,-7.733784317970275879e-01
3.801935434341430664e+00,-3.073490858078002930e+00,-6.002769470214843750e-01
3.806546688079833984e+00,-3.077218770980834961e+00,-4.282389283180236816e-01
3.811337471008300781e+00,-3.081091403961181641e+00,-2.568480968475341797e-01
3.816017150878906250e+00,-3.084874391555786133e+00,-8.565150201320648193e-02
3.820595979690551758e+00,-3.088576078414916992e+00,8.575427532196044922e-02
3.825389385223388672e+00,-3.092451095581054688e+00,2.577950656414031982e-01
3.830231189727783203e+00,-3.096365213394165039e+00,4.309034347534179688e-01
3.834990739822387695e+00,-3.100212812423706055e+00,6.054959893226623535e-01
