-2.988870382308959961e+00,-1.473402261734008789e+00,-8.928872346878051758e-01
-2.992917060852050781e+00,-1.475397109985351562e+00,-7.703637480735778809e-01
-2.996693611145019531e+00,-1.477258801460266113e+00,-6.494289636611938477e-01
-3.000896930694580078e+00,-1.479330897331237793e+00,-5.299082398414611816e-01
-3.004898786544799805e+00,-1.481303572654724121e+00,-4.113492369651794434e-01
-3.008811235427856445e+00,-1.483232378959655762e+00,-2.934835851192474365e-01
-3.012715578079223633e+00,-1.485157012939453125e+00,-1.760317385196685791e-01
-3.016664266586303711e+00,-1.487103581428527832e+00,-5.870641022920608521e-02
-3.020659685134887695e+00,-1.489073157310485840e+00,5.878416448831558228e-02
-3.024674654006958008e+00,-1.491052389144897461e+00,1.767305135726928711e-01
-3.028650045394897461e+00,-1.493012070655822754e+00,2.954186797142028809e-01
-3.032481908798217773e+00,-1.494901180267333984e+00,4.151251912117004395e-01
-3.036853551864624023e+00,-1.497056245803833008e+00,5.362576246261596680e-01
-3.041057825088500977e+00,-1.499128699302673340e+00,6.590433716773986816e-01
-3.044883489608764648e+00,-1.501014590263366699e+00,7.837396860122680664e-01
-2.917057514190673828e+00,-1.490269660949707031e+00,-8.777164220809936523e-01
-2.921644687652587891e+00,-1.492613196372985840e+00,-7.574401497840881348e-01
-2.925136089324951172e+00,-1.494396924972534180e+00,-6.384915113449096680e-01
-2.929115056991577148e+00,-1.496429681777954102e+00,-5.209616422653198242e-01
-2.932961225509643555e+00,-1.498394608497619629e+00,-4.043960273265838623e-01
-2.936787128448486328e+00,-1.500349164009094238e+00,-2.885234057903289795e-01
-2.940738916397094727e+00,-1.502368092536926270e+00,-1.730649322271347046e-01
-2.944589138031005859e+00,-1.504335165023803711e+00,-5.771690234541893005e-02
-2.948326110839843750e+00,-1.506244182586669922e+00,5.779014900326728821e-02
-2.952234268188476562e+00,-1.508240818977355957e+00,1.737414300441741943e-01
-2.956167936325073242e+00,-1.510250568389892578e+00,2.904274761676788330e-01
-2.960031032562255859e+00,-1.512224078178405762e+00,4.081284403800964355e-01
-2.964493513107299805e+00,-1.514503836631774902e+00,5.272539258003234863e-01
-2.967919349670410156e+00,-1.516254067420959473e+00,6.478301882743835449e-01
-2.971845865249633789e+00,-1.518260002136230469e+00,7.704548239707946777e-01
-2.847582817077636719e+00,-1.506551742553710938e+00,-8.632121086120605469e-01
-2.851064205169677734e+00,-1.508393645286560059e+00,-7.446630597114562988e-01
-2.855041503906250000e+00,-1.510497927665710449e+00,-6.278464198112487793e-01
-2.858803987503051758e+00,-1.512488484382629395e+00,-5.122543573379516602e-01
-2.862848758697509766e+00,-1.514628410339355469e+00,-3.976773917675018311e-01
-2.866454362869262695e+00,-1.516536116600036621e+00,-2.837171256542205811e-01
-2.870247125625610352e+00,-1.518542528152465820e+00,-1.701781451702117920e-01
-2.874002933502197266e+00,-1.520529747009277344e+00,-5.675412341952323914e-02
-2.877709865570068359e+00,-1.522490859031677246e+00,5.682732537388801575e-02
-2.881652832031250000e+00,-1.524576902389526367e+00,1.708543896675109863e-01
-2.885175466537475586e+00,-1.526440620422363281e+00,2.855701148509979248e-01
-2.889061212539672852e+00,-1.528496503829956055e+00,4.013185501098632812e-01
-2.892812013626098633e+00,-1.530480861663818359e+00,5.183480381965637207e-01
-2.897188901901245117e+00,-1.532796621322631836e+00,6.371150016784667969e-01
-2.901328086853027344e+00,-1.534986495971679688e+00,7.577913999557495117e-01
-2.778659105300903320e+00,-1.521379947662353516e+00,-8.488329052925109863e-01
-2.782687664031982422e+00,-1.523585796356201172e+00,-7.324248552322387695e-01
-2.786396503448486328e+00,-1.525616407394409180e+00,-6.174896955490112305e-01
-2.790436744689941406e+00,-1.527828454971313477e+00,-5.038708448410034180e-01
-2.793859481811523438e+00,-1.529702544212341309e+00,-3.910955488681793213e-01
-2.797590732574462891e+00,-1.531745553016662598e+00,-2.790426015853881836e-01
-2.801228284835815430e+00,-1.533737063407897949e+00,-1.673704534769058228e-01
-2.804893016815185547e+00,-1.535743713378906250e+00,-5.581774562597274780e-02
-2.808572292327880859e+00,-1.537758111953735352e+00,5.589096248149871826e-02
-2.812180280685424805e+00,-1.539733648300170898e+00,1.680248230695724487e-01
-2.816164255142211914e+00,-1.541914939880371094e+00,2.808952033519744873e-01
-2.819564104080200195e+00,-1.543776392936706543e+00,3.946937620639801025e-01
-2.823397159576416016e+00,-1.545875072479248047e+00,5.098224878311157227e-01
-2.826997756958007812e+00,-1.547846436500549316e+00,6.264872550964355469e-01
-2.831207752227783203e+00,-1.550151586532592773e+00,7.451957464218139648e-01
-2.712025165557861328e+00,-1.535750389099121094e+00,-8.351069688796997070e-01
-2.715741157531738281e+00,-1.537854671478271484e+00,-7.205239534378051758e-01
-2.719196081161499023e+00,-1.539811134338378906e+00,-6.074195504188537598e-01
-2.723036527633666992e+00,-1.541985869407653809e+00,-4.956349730491638184e-01
-2.726666927337646484e+00,-1.544041752815246582e+00,-3.847439885139465332e-01
-2.729991674423217773e+00,-1.545924425125122070e+00,-2.744789719581604004e-01
-2.733618259429931641e+00,-1.547978043556213379e+00,-1.646378189325332642e-01
-2.737171173095703125e+00,-1.549990057945251465e+00,-5.490595102310180664e-02
-2.740681171417236328e+00,-1.551977634429931641e+00,5.497635528445243835e-02
-2.744539260864257812e+00,-1.554162383079528809e+00,1.652955561876296997e-01
-2.748110055923461914e+00,-1.556184411048889160e+00,2.763006389141082764e-01
-2.751526832580566406e+00,-1.558119297027587891e+00,3.882518112659454346e-01
-2.755429029464721680e+00,-1.560328841209411621e+00,5.015308856964111328e-01
-2.759162187576293945e+00,-1.562442898750305176e+00,6.163472533226013184e-01
-2.762538433074951172e+00,-1.564354777336120605e+00,7.329398989677429199e-01
-2.650257587432861328e+00,-1.551280975341796875e+00,-8.228399753570556641e-01
-2.653705358505249023e+00,-1.553299069404602051e+00,-7.098910212516784668e-01
-2.656949281692504883e+00,-1.555197954177856445e+00,-5.984259843826293945e-01
-2.660624742507934570e+00,-1.557349324226379395e+00,-4.882823526859283447e-01
-2.664147853851318359e+00,-1.559411406517028809e+00,-3.790329694747924805e-01
-2.667617797851562500e+00,-1.561442613601684570e+00,-2.704271674156188965e-01
-2.671108007431030273e+00,-1.563485503196716309e+00,-1.622042059898376465e-01
-2.674578905105590820e+00,-1.565517067909240723e+00,-5.409433320164680481e-02
-2.678060054779052734e+00,-1.567554712295532227e+00,5.416474118828773499e-02
-2.681582689285278320e+00,-1.569616556167602539e+00,1.628402769565582275e-01
-2.685095548629760742e+00,-1.571672916412353516e+00,2.721989452838897705e-01
-2.688507080078125000e+00,-1.573669791221618652e+00,3.824985921382904053e-01
-2.692450046539306641e+00,-1.575977683067321777e+00,4.941230118274688721e-01
-2.696281909942626953e+00,-1.578220605850219727e+00,6.072849035263061523e-01
-2.699810504913330078e+00,-1.580286026000976562e+00,7.222245931625366211e-01
-2.588793277740478516e+00,-1.565474271774291992e+00,-8.106307387351989746e-01
-2.592821598052978516e+00,-1.567910313606262207e+00,-6.995358467102050781e-01
-2.595866203308105469e+00,-1.569751381874084473e+00,-5.896683931350708008e-01
-2.599388122558593750e+00,-1.571881175041198730e+00,-4.811238944530487061e-01
-2.603134632110595703e+00,-1.574146747589111328e+00,-3.735198378562927246e-01
-2.606422185897827148e+00,-1.576134800910949707e+00,-2.664832174777984619e-01
-2.609779834747314453e+00,-1.578165173530578613e+00,-1.598353832960128784e-01
-2.613172292709350586e+00,-1.580216646194458008e+00,-5.330437049269676208e-02
-2.616619825363159180e+00,-1.582301497459411621e+00,5.337469652295112610e-02
-2.620165824890136719e+00,-1.584445595741271973e+00,1.604714542627334595e-01
-2.623264551162719727e+00,-1.586319565773010254e+00,2.682051956653594971e-01
-2.626667261123657227e+00,-1.588377237319946289e+00,3.768965005874633789e-01
-2.630644083023071289e+00,-1.590782046318054199e+00,4.869090914726257324e-01
-2.633694410324096680e+00,-1.592626690864562988e+00,5.982613563537597656e-01
-2.637242317199707031e+00,-1.594771981239318848e+00,7.115204334259033203e-01
-2.529305696487426758e+00,-1.579374909400939941e+00,-7.990002632141113281e-01
-2.533083200454711914e+00,-1.581733703613281250e+00,-6.894562244415283203e-01
-2.536515951156616211e+00,-1.583877205848693848e+00,-5.812768936157226562e-01
-2.539765357971191406e+00,-1.585906267166137695e+00,-4.742412269115447998e-01
-2.542962551116943359e+00,-1.587902784347534180e+00,-3.681094050407409668e-01
-2.546396970748901367e+00,-1.590047240257263184e+00,-2.626461684703826904e-01
-2.549626350402832031e+00,-1.592063665390014648e+00,-1.575307995080947876e-01
-2.552938938140869141e+00,-1.594132304191589355e+00,-5.253576859831809998e-02
-2.556356430053710938e+00,-1.596266150474548340e+00,5.260609090328216553e-02
-2.559573173522949219e+00,-1.598274827003479004e+00,1.581453680992126465e-01
-2.563086271286010742e+00,-1.600468635559082031e+00,2.643675804138183594e-01
-2.566600322723388672e+00,-1.602662801742553711e+00,3.715310990810394287e-01
-2.570000648498535156e+00,-1.604786038398742676e+00,4.798869192600250244e-01
-2.573137998580932617e+00,-1.606745123863220215e+00,5.896692872047424316e-01
-2.576813697814941406e+00,-1.609040379524230957e+00,7.013588547706604004e-01
-2.470939159393310547e+00,-1.592530488967895508e+00,-7.876825332641601562e-01
-2.474479913711547852e+00,-1.594812512397766113e+00,-6.796491146087646484e-01
-2.477729797363281250e+00,-1.596907019615173340e+00,-5.729845762252807617e-01
-2.480844259262084961e+00,-1.598914265632629395e+00,-4.674645960330963135e-01
-2.484269142150878906e+00,-1.601121783256530762e+00,-3.628934621810913086e-01
-2.487344741821289062e+00,-1.603103995323181152e+00,-2.588954865932464600e-01
-2.490637302398681641e+00,-1.605226039886474609e+00,-1.552898287773132324e-01
-2.493872404098510742e+00,-1.607311010360717773e+00,-5.178838968276977539e-02
-2.497051239013671875e+00,-1.609359741210937500e+00,5.185440555214881897e-02
-2.500489711761474609e+00,-1.611575841903686523e+00,1.559041142463684082e-01
-2.503596305847167969e+00,-1.613578081130981445e+00,2.605870366096496582e-01
-2.507087945938110352e+00,-1.615828514099121094e+00,3.662267625331878662e-01
-2.510514020919799805e+00,-1.618036627769470215e+00,4.730553030967712402e-01
-2.513728618621826172e+00,-1.620108366012573242e+00,5.813094377517700195e-01
-2.517518281936645508e+00,-1.622550845146179199e+00,6.914701461791992188e-01
-2.416689157485961914e+00,-1.606981754302978516e+00,-7.776414752006530762e-01
-2.420033454895019531e+00,-1.609205722808837891e+00,-6.709523797035217285e-01
-2.423129796981811523e+00,-1.611264586448669434e+00,-5.656335353851318359e-01
-2.426577091217041016e+00,-1.613556861877441406e+00,-4.615437090396881104e-01
-2.429496526718139648e+00,-1.615498065948486328e+00,-3.582335412502288818e-01
-2.432730436325073242e+00,-1.617648482322692871e+00,-2.555947899818420410e-01
-2.435910463333129883e+00,-1.619763016700744629e+00,-1.533074527978897095e-01
-2.439072608947753906e+00,-1.621865630149841309e+00,-5.112724751234054565e-02
-2.442219972610473633e+00,-1.623958587646484375e+00,5.119322240352630615e-02
-2.445335149765014648e+00,-1.626029968261718750e+00,1.539006084203720093e-01
-2.448825359344482422e+00,-1.628350853919982910e+00,2.572858035564422607e-01
-2.451816797256469727e+00,-1.630339980125427246e+00,3.615247011184692383e-01
-2.455245256423950195e+00,-1.632619738578796387e+00,4.669964611530303955e-01
-2.458506584167480469e+00,-1.634788393974304199e+00,5.738915205001831055e-01
-2.461433649063110352e+00,-1.636734724044799805e+00,6.824305057525634766e-01
-2.360431194305419922e+00,-1.618765950202941895e+00,-7.669159770011901855e-01
-2.363565206527709961e+00,-1.620915293693542480e+00,-6.616612076759338379e-01
-2.366499423980712891e+00,-1.622927546501159668e+00,-5.577796697616577148e-01
-2.369816780090332031e+00,-1.625202536582946777e+00,-4.551256299018859863e-01
-2.372968912124633789e+00,-1.627364277839660645e+00,-3.532969057559967041e-01
-2.376042127609252930e+00,-1.629471778869628906e+00,-2.520634531974792480e-01
-2.379105091094970703e+00,-1.631572365760803223e+00,-1.511866301298141479e-01
-2.382191658020019531e+00,-1.633689045906066895e+00,-5.041992291808128357e-02
-2.385307550430297852e+00,-1.635825872421264648e+00,5.048586800694465637e-02
-2.388431549072265625e+00,-1.637968420982360840e+00,1.517793089151382446e-01
-2.391518115997314453e+00,-1.640085101127624512e+00,2.537052631378173828e-01
-2.394486188888549805e+00,-1.642120599746704102e+00,3.565004467964172363e-01
-2.397922515869140625e+00,-1.644477248191833496e+00,4.605233669281005859e-01
-2.401240825653076172e+00,-1.646752953529357910e+00,5.659681558609008789e-01
-2.404271841049194336e+00,-1.648831486701965332e+00,6.730566620826721191e-01
-2.308048486709594727e+00,-1.631897211074829102e+00,-7.574081420898437500e-01
-2.311011075973510742e+00,-1.633991956710815430e+00,-6.534294486045837402e-01
-2.314354181289672852e+00,-1.636355638504028320e+00,-5.509531497955322266e-01
-2.317031145095825195e+00,-1.638248443603515625e+00,-4.494454562664031982e-01
-2.320122241973876953e+00,-1.640434026718139648e+00,-3.488889634609222412e-01
-2.323355913162231445e+00,-1.642720341682434082e+00,-2.489431351423263550e-01
-2.326311111450195312e+00,-1.644809722900390625e+00,-1.493124961853027344e-01
-2.329329252243041992e+00,-1.646943688392639160e+00,-4.979491233825683594e-02
-2.332412242889404297e+00,-1.649123549461364746e+00,4.986081644892692566e-02
-2.335222959518432617e+00,-1.651110768318176270e+00,1.498844921588897705e-01
-2.338225364685058594e+00,-1.653233647346496582e+00,2.505363523960113525e-01
-2.341713666915893555e+00,-1.655700087547302246e+00,3.521358072757720947e-01
-2.344576358795166016e+00,-1.657724142074584961e+00,4.547885358333587646e-01
-2.347923278808593750e+00,-1.660090565681457520e+00,5.589445829391479492e-01
-2.351026773452758789e+00,-1.662284851074218750e+00,6.647437810897827148e-01
-2.256537437438964844e+00,-1.644417285919189453e+00,-7.481516003608703613e-01
-2.259338855743408203e+00,-1.646458745002746582e+00,-6.454165577888488770e-01
-2.262550592422485352e+00,-1.648799419403076172e+00,-5.441833138465881348e-01
-2.265558481216430664e+00,-1.650991320610046387e+00,-4.439994692802429199e-01
-2.268475294113159180e+00,-1.653116941452026367e+00,-3.446453809738159180e-01
-2.271391391754150391e+00,-1.655241966247558594e+00,-2.458886206150054932e-01
-2.274420738220214844e+00,-1.657449603080749512e+00,-1.474895477294921875e-01
-2.277369260787963867e+00,-1.659598231315612793e+00,-4.918691515922546387e-02
-2.280226945877075195e+00,-1.661680817604064941e+00,4.924863949418067932e-02
-2.283235073089599609e+00,-1.663872838020324707e+00,1.480611264705657959e-01
-2.286276102066040039e+00,-1.666088938713073730e+00,2.474999576807022095e-01
-2.289272546768188477e+00,-1.668272495269775391e+00,3.478050827980041504e-01
-2.292127847671508789e+00,-1.670353293418884277e+00,4.492064714431762695e-01
-2.295494079589843750e+00,-1.672806501388549805e+00,5.521067976951599121e-01
-2.298655033111572266e+00,-1.675109982490539551e+00,6.566478610038757324e-01
-2.205891370773315430e+00,-1.656360864639282227e+00,-7.391447424888610840e-01
-2.209179401397705078e+00,-1.658829808235168457e+00,-6.378051638603210449e-01
-2.211631298065185547e+00,-1.660670757293701172e+00,-5.375983715057373047e-01
-2.214554548263549805e+00,-1.662865757942199707e+00,-4.386234283447265625e-01
-2.217714071273803711e+00,-1.665238261222839355e+00,-3.405197262763977051e-01
-2.220496654510498047e+00,-1.667327642440795898e+00,-2.429376691579818726e-01
-2.223423480987548828e+00,-1.669525384902954102e+00,-1.457172334194183350e-01
-2.226305723190307617e+00,-1.671689510345458984e+00,-4.859585314989089966e-02
-2.229130983352661133e+00,-1.673810839653015137e+00,4.865752160549163818e-02
-2.232139110565185547e+00,-1.676069617271423340e+00,1.462884247303009033e-01
-2.234782218933105469e+00,-1.678054451942443848e+00,2.445006221532821655e-01
-2.237731695175170898e+00,-1.680269002914428711e+00,3.435932993888854980e-01
-2.241230010986328125e+00,-1.682895898818969727e+00,4.439068734645843506e-01
-2.243946313858032227e+00,-1.684935569763183594e+00,5.454534292221069336e-01
-2.247157573699951172e+00,-1.687346816062927246e+00,6.487697362899780273e-01
-2.156105756759643555e+00,-1.667763710021972656e+00,-7.303866744041442871e-01
-2.159240007400512695e+00,-1.670187950134277344e+00,-6.302245855331420898e-01
-2.162106037139892578e+00,-1.672405004501342773e+00,-5.313242077827453613e-01
-2.164835691452026367e+00,-1.674516320228576660e+00,-4.334787428379058838e-01
-2.167542934417724609e+00,-1.676610350608825684e+00,-3.364664912223815918e-01
-2.170484304428100586e+00,-1.678885698318481445e+00,-2.400705069303512573e-01
-2.173312664031982422e+00,-1.681073307991027832e+00,-1.439952999353408813e-01
-2.176130294799804688e+00,-1.683252930641174316e+00,-4.802161455154418945e-02
-2.178920984268188477e+00,-1.685411453247070312e+00,4.808319360017776489e-02
-2.181622505187988281e+00,-1.687500953674316406e+00,1.445458680391311646e-01
-2.184603452682495117e+00,-1.689806818962097168e+00,2.416321635246276855e-01
-2.187610149383544922e+00,-1.692132472991943359e+00,3.395815193653106689e-01
-2.190541505813598633e+00,-1.694400072097778320e+00,4.386259913444519043e-01
-2.193274259567260742e+00,-1.696513891220092773e+00,5.389836430549621582e-01
-2.196523904800415039e+00,-1.699027538299560547e+00,6.411068439483642578e-01
-2.107167720794677734e+00,-1.678656101226806641e+00,-7.218742370605468750e-01
-2.110163450241088867e+00,-1.681042432785034180e+00,-6.228595376014709473e-01
-2.112921476364135742e+00,-1.683239698410034180e+00,-5.251043438911437988e-01
-2.115977764129638672e+00,-1.685674309730529785e+00,-4.284829795360565186e-01
-2.118530750274658203e+00,-1.687708258628845215e+00,-3.325741589069366455e-01
-2.121345043182373047e+00,-1.689950227737426758e+00,-2.372865229845046997e-01
-2.124080419540405273e+00,-1.692129254341125488e+00,-1.423235237598419189e-01
-2.126831054687500000e+00,-1.694320559501647949e+00,-4.746400937438011169e-02
-2.129589557647705078e+00,-1.696518182754516602e+00,4.752557352185249329e-02
-2.132285594940185547e+00,-1.698665976524353027e+00,1.428733170032501221e-01
-2.135293483734130859e+00,-1.701062083244323730e+00,2.388467341661453247e-01
-2.137824296951293945e+00,-1.703078150749206543e+00,3.356029093265533447e-01
-2.140727996826171875e+00,-1.705391407012939453e+00,4.334948658943176270e-01
-2.143466711044311523e+00,-1.707573294639587402e+00,5.326954722404479980e-01
-2.146746397018432617e+00,-1.710185885429382324e+00,6.336578130722045898e-01
-2.059071302413940430e+00,-1.689072728157043457e+00,-7.136065959930419922e-01
-2.061935901641845703e+00,-1.691422820091247559e+00,-6.157072782516479492e-01
-2.065095186233520508e+00,-1.694014310836791992e+00,-5.191912651062011719e-01
-2.067579507827758789e+00,-1.696052074432373047e+00,-4.235549271106719971e-01
-2.070377349853515625e+00,-1.698347210884094238e+00,-3.287973403930664062e-01
-2.073069572448730469e+00,-1.700555801391601562e+00,-2.345852553844451904e-01
-2.075712680816650391e+00,-1.702723860740661621e+00,-1.407012790441513062e-01
-2.078398942947387695e+00,-1.704927444458007812e+00,-4.692296311259269714e-02
-2.081124782562255859e+00,-1.707163453102111816e+00,4.698450490832328796e-02
-2.083814859390258789e+00,-1.709370136260986328e+00,1.412504762411117554e-01
-2.086433649063110352e+00,-1.711518406867980957e+00,2.360974997282028198e-01
-2.089425802230834961e+00,-1.713972806930541992e+00,3.318224251270294189e-01
-2.091779947280883789e+00,-1.715903997421264648e+00,4.285125434398651123e-01
-2.094516277313232422e+00,-1.718148708343505859e+00,5.265880823135375977e-01
-2.097813606262207031e+00,-1.720853447914123535e+00,6.264206171035766602e-01
-2.014689207077026367e+00,-1.701480746269226074e+00,-7.065930962562561035e-01
-2.017348051071166992e+00,-1.703726291656494141e+00,-6.096124649047851562e-01
-2.019832134246826172e+00,-1.705824255943298340e+00,-5.138974785804748535e-01
-2.022653341293334961e+00,-1.708206892013549805e+00,-4.193174242973327637e-01
-2.025317430496215820e+00,-1.710456848144531250e+00,-3.254961073398590088e-01
-2.027740478515625000e+00,-1.712503075599670410e+00,-2.322058081626892090e-01
-2.030411958694458008e+00,-1.714759349822998047e+00,-1.392800360918045044e-01
-2.033025979995727539e+00,-1.716966986656188965e+00,-4.644867777824401855e-02
-2.035602807998657227e+00,-1.719143152236938477e+00,4.650754854083061218e-02
-2.038460731506347656e+00,-1.721556782722473145e+00,1.398321539163589478e-01
-2.041093587875366211e+00,-1.723780274391174316e+00,2.337349355220794678e-01
-2.043610572814941406e+00,-1.725906014442443848e+00,3.284360468387603760e-01
-2.046539068222045898e+00,-1.728379249572753906e+00,4.242691695690155029e-01
-2.049359560012817383e+00,-1.730761170387268066e+00,5.214099884033203125e-01
-2.051931619644165039e+00,-1.732933402061462402e+00,6.200631260871887207e-01
-1.968136191368103027e+00,-1.711019158363342285e+00,-6.987838149070739746e-01
-1.970686078071594238e+00,-1.713235855102539062e+00,-6.028604507446289062e-01
-1.973568320274353027e+00,-1.715741634368896484e+00,-5.083229541778564453e-01
-1.975849509239196777e+00,-1.717724800109863281e+00,-4.146690666675567627e-01
-1.978481054306030273e+00,-1.720012545585632324e+00,-3.218925595283508301e-01
-1.981064200401306152e+00,-1.722258210182189941e+00,-2.296601384878158569e-01
-1.983647704124450684e+00,-1.724504232406616211e+00,-1.377512663602828979e-01
-1.986199855804443359e+00,-1.726722955703735352e+00,-4.593880474567413330e-02
-1.988742113113403320e+00,-1.728933095932006836e+00,4.599760472774505615e-02
-1.991303563117980957e+00,-1.731159925460815430e+00,1.382829099893569946e-01
-1.993841886520385742e+00,-1.733366727828979492e+00,2.311414182186126709e-01
-1.996795177459716797e+00,-1.735934138298034668e+00,3.248721957206726074e-01
-1.999177098274230957e+00,-1.738004922866821289e+00,4.195648133754730225e-01
-2.001982688903808594e+00,-1.740443944931030273e+00,5.156414508819580078e-01
-2.004569530487060547e+00,-1.742692828178405762e+00,6.132258772850036621e-01
-1.924402832984924316e+00,-1.721971392631530762e+00,-6.919364929199218750e-01
-1.927440643310546875e+00,-1.724689602851867676e+00,-5.971217751502990723e-01
-1.929681539535522461e+00,-1.726694822311401367e+00,-5.033333897590637207e-01
-1.932295441627502441e+00,-1.729033827781677246e+00,-4.106802940368652344e-01
-1.934805035591125488e+00,-1.731279373168945312e+00,-3.187856674194335938e-01
-1.937286496162414551e+00,-1.733499765396118164e+00,-2.274382263422012329e-01
-1.939792037010192871e+00,-1.735741734504699707e+00,-1.364170759916305542e-01
-1.942287921905517578e+00,-1.737975120544433594e+00,-4.549387097358703613e-02
-1.944793224334716797e+00,-1.740216970443725586e+00,4.555255547165870667e-02
-1.947342753410339355e+00,-1.742498159408569336e+00,1.369480937719345093e-01
-1.949888467788696289e+00,-1.744776129722595215e+00,2.289177030324935913e-01
-1.952371239662170410e+00,-1.746997833251953125e+00,3.216799497604370117e-01
-1.955300688743591309e+00,-1.749619126319885254e+00,4.155697226524353027e-01
-1.957475304603576660e+00,-1.751564979553222656e+00,5.105830430984497070e-01
-1.960053920745849609e+00,-1.753872275352478027e+00,6.072253584861755371e-01
-1.880027770996093750e+00,-1.731348752975463867e+00,-6.848213672637939453e-01
-1.882299780845642090e+00,-1.733440995216369629e+00,-5.907632112503051758e-01
-1.884940862655639648e+00,-1.735873222351074219e+00,-4.980931580066680908e-01
-1.887405157089233398e+00,-1.738142609596252441e+00,-4.063855409622192383e-01
-1.889786839485168457e+00,-1.740335941314697266e+00,-3.154402971267700195e-01
-1.892164468765258789e+00,-1.742525577545166016e+00,-2.250459790229797363e-01
-1.894587874412536621e+00,-1.744757294654846191e+00,-1.349805146455764771e-01
-1.897025108337402344e+00,-1.747001886367797852e+00,-4.501478374004364014e-02
-1.899494767189025879e+00,-1.749276280403137207e+00,4.507338628172874451e-02
-1.902027726173400879e+00,-1.751608848571777344e+00,1.355105787515640259e-01
-1.904583334922790527e+00,-1.753962397575378418e+00,2.265230268239974976e-01
-1.907097935676574707e+00,-1.756278038024902344e+00,3.183298408985137939e-01
-1.909488320350646973e+00,-1.758479356765747070e+00,4.111403524875640869e-01
-1.912328839302062988e+00,-1.761095285415649414e+00,5.053303837776184082e-01
-1.914999365806579590e+00,-1.763554573059082031e+00,6.010260581970214844e-01
-1.837602853775024414e+00,-1.741537451744079590e+00,-6.783781647682189941e-01
-1.839807987213134766e+00,-1.743627309799194336e+00,-5.852000713348388672e-01
-1.842391490936279297e+00,-1.746075749397277832e+00,-4.934032261371612549e-01
-1.844825148582458496e+00,-1.748382210731506348e+00,-4.025645554065704346e-01
-1.847198128700256348e+00,-1.750631093978881836e+00,-3.124820291996002197e-01
-1.849736928939819336e+00,-1.753037214279174805e+00,-2.229613363742828369e-01
-1.852086067199707031e+00,-1.755263447761535645e+00,-1.337287276983261108e-01
-1.854469299316406250e+00,-1.757522225379943848e+00,-4.459733888506889343e-02
-1.856901049613952637e+00,-1.759826779365539551e+00,4.465581476688385010e-02
-1.859148025512695312e+00,-1.761956334114074707e+00,1.342386305332183838e-01
-1.861599802970886230e+00,-1.764279842376708984e+00,2.243912369012832642e-01
-1.864032149314880371e+00,-1.766585111618041992e+00,3.153297603130340576e-01
-1.866361856460571289e+00,-1.768792986869812012e+00,4.072641432285308838e-01
-1.869154572486877441e+00,-1.771439790725708008e+00,5.005705356597900391e-01
-1.871802330017089844e+00,-1.773949027061462402e+00,5.953767299652099609e-01
-1.795784711837768555e+00,-1.751366972923278809e+00,-6.721258163452148438e-01
-1.798468351364135742e+00,-1.753984212875366211e+00,-5.799769759178161621e-01
-1.800908565521240234e+00,-1.756364107131958008e+00,-4.889762997627258301e-01
-1.803214192390441895e+00,-1.758612751960754395e+00,-3.989364504814147949e-01
-1.805480003356933594e+00,-1.760822534561157227e+00,-3.096565902233123779e-01
-1.807927012443542480e+00,-1.763208985328674316e+00,-2.209411263465881348e-01
-1.810203433036804199e+00,-1.765429019927978516e+00,-1.325156092643737793e-01
-1.812530875205993652e+00,-1.767698884010314941e+00,-4.419272392988204956e-02
-1.814926624298095703e+00,-1.770035386085510254e+00,4.425113648176193237e-02
-1.817156314849853516e+00,-1.772210001945495605e+00,1.330245882272720337e-01
-1.819606900215148926e+00,-1.774600028991699219e+00,2.223684936761856079e-01
-1.822055697441101074e+00,-1.776988148689270020e+00,3.124994933605194092e-01
-1.824419379234313965e+00,-1.779293417930603027e+00,4.036278128623962402e-01
-1.826597213745117188e+00,-1.781417369842529297e+00,4.959512054920196533e-01
-1.829216003417968750e+00,-1.783971309661865234e+00,5.898926258087158203e-01
-1.755185365676879883e+00,-1.761483907699584961e+00,-6.662987470626831055e-01
-1.757179141044616699e+00,-1.763484835624694824e+00,-5.747430324554443359e-01
-1.759575366973876953e+00,-1.765889644622802734e+00,-4.845668673515319824e-01
-1.762200951576232910e+00,-1.768524765968322754e+00,-3.954226374626159668e-01
-1.764364123344421387e+00,-1.770695567131042480e+00,-3.069202601909637451e-01
-1.766722202301025391e+00,-1.773062109947204590e+00,-2.189846336841583252e-01
-1.768928527832031250e+00,-1.775276422500610352e+00,-1.313408017158508301e-01
-1.771202564239501953e+00,-1.777558565139770508e+00,-4.380092769861221313e-02
-1.773561120033264160e+00,-1.779925584793090820e+00,4.385925084352493286e-02
-1.775772452354431152e+00,-1.782144784927368164e+00,1.318489462137222290e-01
-1.778215646743774414e+00,-1.784596800804138184e+00,2.204092442989349365e-01
-1.780220150947570801e+00,-1.786608576774597168e+00,3.096785247325897217e-01
-1.782516956329345703e+00,-1.788913607597351074e+00,3.999813795089721680e-01
-1.785292744636535645e+00,-1.791699290275573730e+00,4.916491210460662842e-01
-1.787967324256896973e+00,-1.794383525848388672e+00,5.848132967948913574e-01
-1.714536547660827637e+00,-1.770665526390075684e+00,-6.604212522506713867e-01
-1.717004299163818359e+00,-1.773213982582092285e+00,-5.698457956314086914e-01
-1.719269156455993652e+00,-1.775552988052368164e+00,-4.804166257381439209e-01
-1.721438169479370117e+00,-1.777793049812316895e+00,-3.919456303119659424e-01
-1.723841190338134766e+00,-1.780274748802185059e+00,-3.042726218700408936e-01
-1.725970506668090820e+00,-1.782473683357238770e+00,-2.170736044645309448e-01
-1.728253006935119629e+00,-1.784830927848815918e+00,-1.302041858434677124e-01
-1.730473399162292480e+00,-1.787124037742614746e+00,-4.342184588313102722e-02
-1.732638597488403320e+00,-1.789360165596008301e+00,4.347617551684379578e-02
-1.734984040260314941e+00,-1.791782379150390625e+00,1.307113021612167358e-01
-1.737068295478820801e+00,-1.793934822082519531e+00,2.184693664312362671e-01
-1.739436507225036621e+00,-1.796380519866943359e+00,3.070253431797027588e-01
-1.741755485534667969e+00,-1.798775553703308105e+00,3.965715765953063965e-01
-1.743929386138916016e+00,-1.801020503044128418e+00,4.873074293136596680e-01
-1.746558547019958496e+00,-1.803735733032226562e+00,5.796543359756469727e-01
-1.675063252449035645e+00,-1.780190706253051758e+00,-6.549643874168395996e-01
-1.677392601966857910e+00,-1.782666325569152832e+00,-5.651097893714904785e-01
-1.679532408714294434e+00,-1.784940481185913086e+00,-4.764032363891601562e-01
-1.681593537330627441e+00,-1.787130832672119141e+00,-3.886579871177673340e-01
-1.683899164199829102e+00,-1.789581179618835449e+00,-3.017129004001617432e-01
-1.685947895050048828e+00,-1.791758537292480469e+00,-2.152434736490249634e-01
-1.688163280487060547e+00,-1.794112920761108398e+00,-1.291053444147109985e-01
-1.690332293510437012e+00,-1.796418070793151855e+00,-4.305539652705192566e-02
-1.692460656166076660e+00,-1.798680067062377930e+00,4.310961067676544189e-02
-1.694780468940734863e+00,-1.801145434379577637e+00,1.296114176511764526e-01
-1.696858167648315430e+00,-1.803353428840637207e+00,2.166363596916198730e-01
-1.699228763580322266e+00,-1.805872797966003418e+00,3.044595718383789062e-01
-1.701567053794860840e+00,-1.808357954025268555e+00,3.932743668556213379e-01
-1.703772425651550293e+00,-1.810701608657836914e+00,4.832789301872253418e-01
-1.705730915069580078e+00,-1.812783122062683105e+00,5.746569037437438965e-01
-1.635545969009399414e+00,-1.788814783096313477e+00,-6.494576930999755859e-01
-1.637825846672058105e+00,-1.791308164596557617e+00,-5.603604316711425781e-01
-1.639941096305847168e+00,-1.793621778488159180e+00,-4.724068641662597656e-01
-1.642314076423645020e+00,-1.796217083930969238e+00,-3.854822516441345215e-01
-1.644295096397399902e+00,-1.798383712768554688e+00,-2.991983592510223389e-01
-1.646498680114746094e+00,-1.800793886184692383e+00,-2.134758979082107544e-01
-1.648648381233215332e+00,-1.803144931793212891e+00,-1.280440688133239746e-01
-1.650765776634216309e+00,-1.805460810661315918e+00,-4.270144924521446228e-02
-1.652857184410095215e+00,-1.807748198509216309e+00,4.275554791092872620e-02
-1.654907345771789551e+00,-1.809990525245666504e+00,1.285301893949508667e-01
-1.657218217849731445e+00,-1.812517881393432617e+00,2.148657441139221191e-01
-1.659157395362854004e+00,-1.814638853073120117e+00,3.019027113914489746e-01
-1.661414623260498047e+00,-1.817107558250427246e+00,3.899655342102050781e-01
-1.663558483123779297e+00,-1.819452285766601562e+00,4.792101681232452393e-01
-1.666167259216308594e+00,-1.822305560111999512e+00,5.700570940971374512e-01
-1.597155213356018066e+00,-1.797831773757934570e+00,-6.443654894828796387e-01
-1.599311470985412598e+00,-1.800258994102478027e+00,-5.559424757957458496e-01
-1.601315379142761230e+00,-1.802514791488647461e+00,-4.686642885208129883e-01
-1.603586673736572266e+00,-1.805071353912353516e+00,-3.824174404144287109e-01
-1.605483174324035645e+00,-1.807206153869628906e+00,-2.968125343322753906e-01
-1.607611775398254395e+00,-1.809602141380310059e+00,-2.117706090211868286e-01
-1.609696984291076660e+00,-1.811949491500854492e+00,-1.270201504230499268e-01
-1.611764073371887207e+00,-1.814276337623596191e+00,-4.235997423529624939e-02
-1.613817453384399414e+00,-1.816587567329406738e+00,4.241393879055976868e-02
-1.615842700004577637e+00,-1.818867325782775879e+00,1.275051087141036987e-01
-1.618134975433349609e+00,-1.821447610855102539e+00,2.131568342447280884e-01
-1.620075941085815430e+00,-1.823632478713989258e+00,2.995103895664215088e-01
-1.622340202331542969e+00,-1.826181173324584961e+00,3.868896961212158203e-01
-1.624504208564758301e+00,-1.828617095947265625e+00,4.754510819911956787e-01
-1.626457691192626953e+00,-1.830816030502319336e+00,5.653789043426513672e-01
-1.559283018112182617e+00,-1.806627988815307617e+00,-6.394533514976501465e-01
-1.561323881149291992e+00,-1.808992624282836914e+00,-5.516816973686218262e-01
-1.563225150108337402e+00,-1.811195492744445801e+00,-4.650560319423675537e-01
-1.565087676048278809e+00,-1.813353538513183594e+00,-3.793871998786926270e-01
-1.567214131355285645e+00,-1.815817356109619141e+00,-2.945124208927154541e-01
-1.569270253181457520e+00,-1.818199515342712402e+00,-2.101265937089920044e-01
-1.571294546127319336e+00,-1.820544838905334473e+00,-1.260331720113754272e-01
-1.573311686515808105e+00,-1.822882056236267090e+00,-4.203080758452415466e-02
-1.575326085090637207e+00,-1.825215935707092285e+00,4.208462312817573547e-02
-1.577324390411376953e+00,-1.827531218528747559e+00,1.265168190002441406e-01
-1.579273819923400879e+00,-1.829789996147155762e+00,2.114660888910293579e-01
-1.581533670425415039e+00,-1.832408189773559570e+00,2.972033321857452393e-01
-1.583799004554748535e+00,-1.835032939910888672e+00,3.839229643344879150e-01
-1.585976481437683105e+00,-1.837555885314941406e+00,4.718245267868041992e-01
-1.587957262992858887e+00,-1.839850902557373047e+00,5.610924363136291504e-01
-1.522602915763854980e+00,-1.816040396690368652e+00,-6.350059509277343750e-01
-1.524625420570373535e+00,-1.818452715873718262e+00,-5.478553771972656250e-01
-1.526909470558166504e+00,-1.821176886558532715e+00,-4.619598686695098877e-01
-1.528691411018371582e+00,-1.823302268981933594e+00,-3.768521845340728760e-01
-1.530742526054382324e+00,-1.825748562812805176e+00,-2.925395667552947998e-01
-1.532731533050537109e+00,-1.828120946884155273e+00,-2.087163925170898438e-01
-1.534699559211730957e+00,-1.830468297004699707e+00,-1.251865923404693604e-01
-1.536670088768005371e+00,-1.832818627357482910e+00,-4.174849390983581543e-02
-1.538645625114440918e+00,-1.835174918174743652e+00,4.180216789245605469e-02
-1.540615677833557129e+00,-1.837524533271789551e+00,1.256691813468933105e-01
-1.542545080184936523e+00,-1.839825868606567383e+00,2.100527435541152954e-01
-1.544787883758544922e+00,-1.842500805854797363e+00,2.952237725257873535e-01
-1.546557545661926270e+00,-1.844611525535583496e+00,3.812565207481384277e-01
-1.548655629158020020e+00,-1.847113966941833496e+00,4.685390591621398926e-01
-1.550569772720336914e+00,-1.849396944046020508e+00,5.571781992912292480e-01
-1.485673546791076660e+00,-1.824405193328857422e+00,-6.304305791854858398e-01
-1.487591862678527832e+00,-1.826761007308959961e+00,-5.438878536224365234e-01
-1.489395022392272949e+00,-1.828975081443786621e+00,-4.584833979606628418e-01
-1.491478204727172852e+00,-1.831533312797546387e+00,-3.741027414798736572e-01
-1.493451595306396484e+00,-1.833956718444824219e+00,-2.903998494148254395e-01
-1.495373725891113281e+00,-1.836316943168640137e+00,-2.071872353553771973e-01
-1.497283220291137695e+00,-1.838661909103393555e+00,-1.242685392498970032e-01
-1.499204993247985840e+00,-1.841021776199340820e+00,-4.144230857491493225e-02
-1.501142144203186035e+00,-1.843400597572326660e+00,4.149585589766502380e-02
-1.503081202507019043e+00,-1.845781803131103516e+00,1.247497498989105225e-01
-1.504990816116333008e+00,-1.848126769065856934e+00,2.085196971893310547e-01
-1.506823301315307617e+00,-1.850377082824707031e+00,2.929999530315399170e-01
-1.508986115455627441e+00,-1.853032946586608887e+00,3.784941732883453369e-01
-1.511086106300354004e+00,-1.855611801147460938e+00,4.651606082916259766e-01
-1.513015031814575195e+00,-1.857980489730834961e+00,5.531829595565795898e-01
-1.449223160743713379e+00,-1.832599043846130371e+00,-6.260299086570739746e-01
-1.451046705245971680e+00,-1.834905028343200684e+00,-5.400735139846801758e-01
-1.452764987945556641e+00,-1.837077856063842773e+00,-4.552552998065948486e-01
-1.454764366149902344e+00,-1.839606046676635742e+00,-3.714604079723358154e-01
-1.456664562225341797e+00,-1.842008948326110840e+00,-2.883438467979431152e-01
-1.458522319793701172e+00,-1.844358086585998535e+00,-2.057179659605026245e-01
-1.460377335548400879e+00,-1.846703886985778809e+00,-1.233866661787033081e-01
-1.462250590324401855e+00,-1.849072694778442383e+00,-4.114818200469017029e-02
-1.464147806167602539e+00,-1.851471900939941406e+00,4.120157286524772644e-02
-1.466054916381835938e+00,-1.853883504867553711e+00,1.238663643598556519e-01
-1.467941403388977051e+00,-1.856268882751464844e+00,2.070464938879013062e-01
-1.469759583473205566e+00,-1.858568191528320312e+00,2.909359931945800781e-01
-1.471909999847412109e+00,-1.861287355422973633e+00,3.758383691310882568e-01
-1.474006533622741699e+00,-1.863938570022583008e+00,4.619117677211761475e-01
-1.475942969322204590e+00,-1.866387367248535156e+00,5.493397712707519531e-01
-1.413770794868469238e+00,-1.841332077980041504e+00,-6.220366954803466797e-01
-1.415588140487670898e+00,-1.843698978424072266e+00,-5.366431474685668945e-01
-1.417674064636230469e+00,-1.846415758132934570e+00,-4.524944126605987549e-01
-1.419598817825317383e+00,-1.848922610282897949e+00,-3.692008554935455322e-01
-1.421434283256530762e+00,-1.851313114166259766e+00,-2.865861058235168457e-01
-1.423233032226562500e+00,-1.853655934333801270e+00,-2.044618874788284302e-01
-1.425036191940307617e+00,-1.856004357337951660e+00,-1.226326823234558105e-01
-1.426864624023437500e+00,-1.858385801315307617e+00,-4.089675098657608032e-02
-1.428722143173217773e+00,-1.860805034637451172e+00,4.094999283552169800e-02
-1.430594325065612793e+00,-1.863243460655212402e+00,1.231109946966171265e-01
-1.432454228401184082e+00,-1.865665793418884277e+00,2.057866007089614868e-01
-1.434253454208374023e+00,-1.868009209632873535e+00,2.891706824302673340e-01
-1.435929656028747559e+00,-1.870192408561706543e+00,3.734481036663055420e-01
-1.437934398651123047e+00,-1.872803449630737305e+00,4.589611589908599854e-01
-1.439793348312377930e+00,-1.875224471092224121e+00,5.458192229270935059e-01
-1.378188848495483398e+00,-1.849188804626464844e+00,-6.179635524749755859e-01
-1.379922986030578613e+00,-1.851515531539916992e+00,-5.331146121025085449e-01
-1.381925821304321289e+00,-1.854202866554260254e+00,-4.495092928409576416e-01
-1.383776545524597168e+00,-1.856686115264892578e+00,-3.667584657669067383e-01
-1.385545730590820312e+00,-1.859059929847717285e+00,-2.846861183643341064e-01
-1.387287020683288574e+00,-1.861396312713623047e+00,-2.031046152114868164e-01
-1.389037609100341797e+00,-1.863745212554931641e+00,-1.218179985880851746e-01
-1.390818238258361816e+00,-1.866134405136108398e+00,-4.062501713633537292e-02
-1.392634749412536621e+00,-1.868571758270263672e+00,4.067807644605636597e-02
-1.394473314285278320e+00,-1.871038556098937988e+00,1.222947090864181519e-01
-1.396305441856384277e+00,-1.873496770858764648e+00,2.044249475002288818e-01
-1.398083209991455078e+00,-1.875882148742675781e+00,2.872622013092041016e-01
-1.399747133255004883e+00,-1.878114819526672363e+00,3.709913492202758789e-01
-1.401739239692687988e+00,-1.880787611007690430e+00,4.559541642665863037e-01
-1.403593301773071289e+00,-1.883275270462036133e+00,5.422593355178833008e-01
-1.343046069145202637e+00,-1.856922030448913574e+00,-6.140607595443725586e-01
-1.344703078269958496e+00,-1.859213113784790039e+00,-5.297347903251647949e-01
-1.346627950668334961e+00,-1.861874341964721680e+00,-4.466505646705627441e-01
-1.348410487174987793e+00,-1.864338874816894531e+00,-3.644203245639801025e-01
-1.350117683410644531e+00,-1.866699218750000000e+00,-2.828676998615264893e-01
-1.351802587509155273e+00,-1.869028925895690918e+00,-2.018055170774459839e-01
-1.353502750396728516e+00,-1.871379613876342773e+00,-1.210383251309394836e-01
-1.355238318443298340e+00,-1.873779296875000000e+00,-4.036501795053482056e-02
-1.357013106346130371e+00,-1.876233100891113281e+00,4.041787981986999512e-02
-1.358815193176269531e+00,-1.878724694252014160e+00,1.215133965015411377e-01
-1.360615968704223633e+00,-1.881214499473571777e+00,2.031212449073791504e-01
-1.362369775772094727e+00,-1.883639335632324219e+00,2.854346930980682373e-01
-1.364016890525817871e+00,-1.885916590690612793e+00,3.686381280422210693e-01
-1.365990281105041504e+00,-1.888645172119140625e+00,4.530726671218872070e-01
-1.367834329605102539e+00,-1.891194820404052734e+00,5.388471484184265137e-01
-1.309199690818786621e+00,-1.865788578987121582e+00,-6.107334494590759277e-01
-1.310790538787841797e+00,-1.868055701255798340e+00,-5.268545746803283691e-01
-1.312646269798278809e+00,-1.870700478553771973e+00,-4.442151188850402832e-01
-1.314102768898010254e+00,-1.872776150703430176e+00,-3.623557984828948975e-01
-1.315829992294311523e+00,-1.875237703323364258e+00,-2.812787592411041260e-01
-1.317652225494384766e+00,-1.877834558486938477e+00,-2.006993442773818970e-01
-1.319304943084716797e+00,-1.880189895629882812e+00,-1.203744560480117798e-01
-1.320996284484863281e+00,-1.882600307464599609e+00,-4.014361277222633362e-02
-1.322730541229248047e+00,-1.885071873664855957e+00,4.019631445407867432e-02
-1.324297428131103516e+00,-1.887304902076721191e+00,1.208299696445465088e-01
-1.325988292694091797e+00,-1.889714598655700684e+00,2.019690573215484619e-01
-1.327988028526306152e+00,-1.892564535140991211e+00,2.838777005672454834e-01
-1.329613327980041504e+00,-1.894880771636962891e+00,3.666327297687530518e-01
-1.331561088562011719e+00,-1.897656679153442383e+00,4.506161212921142578e-01
-1.333385705947875977e+00,-1.900256991386413574e+00,5.359364151954650879e-01
-1.274365186691284180e+00,-1.872583270072937012e+00,-6.069246530532836914e-01
-1.276360034942626953e+00,-1.875514626502990723e+00,-5.237520933151245117e-01
-1.277817606925964355e+00,-1.877656340599060059e+00,-4.414785206317901611e-01
-1.279549598693847656e+00,-1.880201458930969238e+00,-3.602119386196136475e-01
-1.281219840049743652e+00,-1.882655739784240723e+00,-2.796120345592498779e-01
-1.282986283302307129e+00,-1.885251522064208984e+00,-1.995089054107666016e-01
-1.284591197967529297e+00,-1.887609601020812988e+00,-1.196600496768951416e-01
-1.286237716674804688e+00,-1.890029072761535645e+00,-3.990535438060760498e-02
-1.287929534912109375e+00,-1.892515182495117188e+00,3.995784372091293335e-02
-1.289462208747863770e+00,-1.894767403602600098e+00,1.201137900352478027e-01
-1.291119337081909180e+00,-1.897202253341674805e+00,2.007736116647720337e-01
-1.292741298675537109e+00,-1.899585604667663574e+00,2.821264863014221191e-01
-1.294683456420898438e+00,-1.902439594268798828e+00,3.644723594188690186e-01
-1.296119093894958496e+00,-1.904549121856689453e+00,4.478015899658203125e-01
-1.297853350639343262e+00,-1.907097458839416504e+00,5.325718522071838379e-01
-1.241170167922973633e+00,-1.881136298179626465e+00,-6.038769483566284180e-01
-1.243096470832824707e+00,-1.884055972099304199e+00,-5.211150646209716797e-01
-1.244502544403076172e+00,-1.886186957359313965e+00,-4.392510056495666504e-01
-1.246178507804870605e+00,-1.888726949691772461e+00,-3.583913147449493408e-01
-1.247796058654785156e+00,-1.891178607940673828e+00,-2.781967520713806152e-01
-1.249511361122131348e+00,-1.893778324127197266e+00,-1.984982490539550781e-01
-1.251071333885192871e+00,-1.896142601966857910e+00,-1.190535947680473328e-01
-1.252674221992492676e+00,-1.898571968078613281e+00,-3.970308974385261536e-02
-1.254324793815612793e+00,-1.901073694229125977e+00,3.975540399551391602e-02
-1.255822300910949707e+00,-1.903343319892883301e+00,1.195057108998298645e-01
-1.257444143295288086e+00,-1.905801415443420410e+00,1.997584700584411621e-01
-1.259034276008605957e+00,-1.908211469650268555e+00,2.807023227214813232e-01
-1.260939359664916992e+00,-1.911098837852478027e+00,3.626364171504974365e-01
-1.262353301048278809e+00,-1.913241744041442871e+00,4.455514550209045410e-01
-1.264059901237487793e+00,-1.915828347206115723e+00,5.299030542373657227e-01
-1.207536339759826660e+00,-1.888411045074462891e+00,-6.006022691726684570e-01
-1.209397077560424805e+00,-1.891320943832397461e+00,-5.182834267616271973e-01
-1.210752725601196289e+00,-1.893441081047058105e+00,-4.368597865104675293e-01
-1.212373018264770508e+00,-1.895974993705749512e+00,-3.564372956752777100e-01
-1.213939785957336426e+00,-1.898425102233886719e+00,-2.766783833503723145e-01
-1.215604066848754883e+00,-1.901027798652648926e+00,-1.974141448736190796e-01
-1.217117905616760254e+00,-1.903395295143127441e+00,-1.184030175209045410e-01
-1.218677401542663574e+00,-1.905833959579467773e+00,-3.948612883687019348e-02
-1.220285177230834961e+00,-1.908348321914672852e+00,3.953822329640388489e-02
-1.221746563911437988e+00,-1.910633683204650879e+00,1.188532933592796326e-01
-1.223330855369567871e+00,-1.913111329078674316e+00,1.986689716577529907e-01
-1.224887490272521973e+00,-1.915545701980590820e+00,2.791735529899597168e-01
-1.226752638816833496e+00,-1.918462514877319336e+00,3.606648743152618408e-01
-1.228140592575073242e+00,-1.920633077621459961e+00,4.431335926055908203e-01
-1.229817986488342285e+00,-1.923256278038024902e+00,5.270347595214843750e-01
-1.174931883811950684e+00,-1.896695613861083984e+00,-5.978272557258605957e-01
-1.176732897758483887e+00,-1.899603128433227539e+00,-5.158846378326416016e-01
-1.178045272827148438e+00,-1.901721596717834473e+00,-4.348353445529937744e-01
-1.179615736007690430e+00,-1.904256820678710938e+00,-3.547836840152740479e-01
-1.181135177612304688e+00,-1.906709790229797363e+00,-2.753936946392059326e-01
-1.182751297950744629e+00,-1.909318685531616211e+00,-1.964969635009765625e-01
-1.184222579002380371e+00,-1.911693692207336426e+00,-1.178527399897575378e-01
-1.185739755630493164e+00,-1.914142966270446777e+00,-3.930261731147766113e-02
-1.187305212020874023e+00,-1.916669964790344238e+00,3.935450315475463867e-02
-1.188729643821716309e+00,-1.918969511985778809e+00,1.183012872934341431e-01
-1.190275311470031738e+00,-1.921464562416076660e+00,1.977469474077224731e-01
-1.191795468330383301e+00,-1.923918724060058594e+00,2.778792381286621094e-01
-1.193616867065429688e+00,-1.926859021186828613e+00,3.589947223663330078e-01
-1.194975972175598145e+00,-1.929052948951721191e+00,4.410847425460815430e-01
-1.196617364883422852e+00,-1.931702613830566406e+00,5.246020555496215820e-01
-1.141961336135864258e+00,-1.903806447982788086e+00,-5.948556065559387207e-01
-1.143347620964050293e+00,-1.906117558479309082e+00,-5.131568312644958496e-01
-1.144976377487182617e+00,-1.908833026885986328e+00,-4.326697587966918945e-01
-1.146498560905456543e+00,-1.911370635032653809e+00,-3.530154824256896973e-01
-1.147971868515014648e+00,-1.913826823234558105e+00,-2.740203142166137695e-01
-1.149540185928344727e+00,-1.916441440582275391e+00,-1.955166161060333252e-01
-1.150969147682189941e+00,-1.918823838233947754e+00,-1.172646731138229370e-01
-1.152443289756774902e+00,-1.921281337738037109e+00,-3.910648450255393982e-02
-1.153965592384338379e+00,-1.923819303512573242e+00,3.915814310312271118e-02
-1.155351400375366211e+00,-1.926129698753356934e+00,1.177111566066741943e-01
-1.156856536865234375e+00,-1.928638815879821777e+00,1.967609971761703491e-01
-1.158337593078613281e+00,-1.931107997894287109e+00,2.764946222305297852e-01
-1.159741997718811035e+00,-1.933449387550354004e+00,3.570932447910308838e-01
-1.161438941955566406e+00,-1.936278343200683594e+00,4.388906955718994141e-01
-1.163041114807128906e+00,-1.938949346542358398e+00,5.219956636428833008e-01
-1.109895944595336914e+00,-1.911857247352600098e+00,-5.923466682434082031e-01
-1.111241579055786133e+00,-1.914175152778625488e+00,-5.109916329383850098e-01
-1.112821936607360840e+00,-1.916897535324096680e+00,-4.308431446552276611e-01
-1.114299893379211426e+00,-1.919443249702453613e+00,-3.515246808528900146e-01
