2.166601270437240601e-01,1.466239213943481445e+00,-3.971430361270904541e-01
2.169112414121627808e-01,1.467938661575317383e+00,-3.425797522068023682e-01
2.171953618526458740e-01,1.469861388206481934e+00,-2.888140678405761719e-01
2.174631357192993164e-01,1.471673488616943359e+00,-2.356208264827728271e-01
2.177507430315017700e-01,1.473619937896728516e+00,-1.829022020101547241e-01
2.180067300796508789e-01,1.475352287292480469e+00,-1.304779797792434692e-01
2.182770669460296631e-01,1.477181792259216309e+00,-7.825631648302078247e-02
2.185449451208114624e-01,1.478994607925415039e+00,-2.609622851014137268e-02
2.188108712434768677e-01,1.480794310569763184e+00,2.612798474729061127e-02
2.190933227539062500e-01,1.482705712318420410e+00,7.854896038770675659e-02
2.193471044301986694e-01,1.484423160552978516e+00,1.312801986932754517e-01
2.196256071329116821e-01,1.486307978630065918e+00,1.844770163297653198e-01
2.198936790227890015e-01,1.488122224807739258e+00,2.382543236017227173e-01
2.202029675245285034e-01,1.490215301513671875e+00,2.928133904933929443e-01
2.204927653074264526e-01,1.492176413536071777e+00,3.482362031936645508e-01
1.957234740257263184e-01,1.469718098640441895e+00,-3.972858190536499023e-01
1.959861218929290771e-01,1.471690416336059570e+00,-3.427655100822448730e-01
1.962264329195022583e-01,1.473494887351989746e+00,-2.889465391635894775e-01
1.964568644762039185e-01,1.475225210189819336e+00,-2.357151210308074951e-01
1.967105418443679810e-01,1.477130174636840820e+00,-1.829696744680404663e-01
1.969543248414993286e-01,1.478960752487182617e+00,-1.305344104766845703e-01
1.971934437751770020e-01,1.480756282806396484e+00,-7.828813046216964722e-02
1.974354386329650879e-01,1.482573509216308594e+00,-2.610683999955654144e-02
1.976808607578277588e-01,1.484416365623474121e+00,2.613929100334644318e-02
1.979233473539352417e-01,1.486237287521362305e+00,7.857792079448699951e-02
1.981588453054428101e-01,1.488005638122558594e+00,1.313327252864837646e-01
1.984220892190933228e-01,1.489982485771179199e+00,1.845616698265075684e-01
1.986809372901916504e-01,1.491926193237304688e+00,2.383836209774017334e-01
1.989239454269409180e-01,1.493750929832458496e+00,2.929186820983886719e-01
1.992043703794479370e-01,1.495856761932373047e+00,3.483940064907073975e-01
1.747817844152450562e-01,1.473320960998535156e+00,-3.975427448749542236e-01
1.750030666589736938e-01,1.475186228752136230e+00,-3.429611623287200928e-01
1.752091795206069946e-01,1.476923584938049316e+00,-2.890974879264831543e-01
1.754400730133056641e-01,1.478869915008544922e+00,-2.358720749616622925e-01
1.756602376699447632e-01,1.480725765228271484e+00,-1.830848604440689087e-01
1.758763790130615234e-01,1.482547879219055176e+00,-1.306154429912567139e-01
1.760932952165603638e-01,1.484376192092895508e+00,-7.833823561668395996e-02
1.763093173503875732e-01,1.486197233200073242e+00,-2.612353488802909851e-02
1.765251159667968750e-01,1.488016366958618164e+00,2.615551091730594635e-02
1.767432391643524170e-01,1.489855051040649414e+00,7.862737774848937988e-02
1.769599765539169312e-01,1.491682052612304688e+00,1.314201802015304565e-01
1.771696060895919800e-01,1.493449091911315918e+00,1.846580356359481812e-01
1.774093210697174072e-01,1.495469689369201660e+00,2.385196536779403687e-01
1.776398271322250366e-01,1.497412681579589844e+00,2.931081056594848633e-01
1.778487116098403931e-01,1.499173641204833984e+00,3.485379219055175781e-01
1.537960469722747803e-01,1.476807594299316406e+00,-3.978488147258758545e-01
1.540206223726272583e-01,1.478964090347290039e+00,-3.432917892932891846e-01
1.541893184185028076e-01,1.480584025382995605e+00,-2.893523573875427246e-01
1.543840765953063965e-01,1.482454180717468262e+00,-2.360671162605285645e-01
1.545732319355010986e-01,1.484270572662353516e+00,-1.832308173179626465e-01
1.547738611698150635e-01,1.486197113990783691e+00,-1.307283788919448853e-01
1.549607664346694946e-01,1.487991690635681152e+00,-7.840395718812942505e-02
1.551508754491806030e-01,1.489817261695861816e+00,-2.614545449614524841e-02
1.553447991609573364e-01,1.491679310798645020e+00,2.617813274264335632e-02
1.555262058973312378e-01,1.493421316146850586e+00,7.869005203247070312e-02
1.557215750217437744e-01,1.495297312736511230e+00,1.315288543701171875e-01
1.559146046638488770e-01,1.497150897979736328e+00,1.848208755254745483e-01
1.561384350061416626e-01,1.499300122261047363e+00,2.387496829032897949e-01
1.563109159469604492e-01,1.500956296920776367e+00,2.933337390422821045e-01
1.565084010362625122e-01,1.502852797508239746e+00,3.488367497920989990e-01
1.327751129865646362e-01,1.480316758155822754e+00,-3.982413709163665771e-01
1.329611986875534058e-01,1.482391476631164551e+00,-3.436104059219360352e-01
1.331305354833602905e-01,1.484279394149780273e+00,-2.896724641323089600e-01
1.332915127277374268e-01,1.486074090003967285e+00,-2.363155335187911987e-01
1.334669888019561768e-01,1.488030433654785156e+00,-1.834403574466705322e-01
1.336239278316497803e-01,1.489780187606811523e+00,-1.308619230985641479e-01
1.337914764881134033e-01,1.491648197174072266e+00,-7.848767936229705811e-02
1.339556425809860229e-01,1.493478417396545410e+00,-2.617337554693222046e-02
1.341167837381362915e-01,1.495275139808654785e+00,2.620486170053482056e-02
1.342898905277252197e-01,1.497205138206481934e+00,7.878006994724273682e-02
1.344462782144546509e-01,1.498948693275451660e+00,1.316672712564468384e-01
1.346202045679092407e-01,1.500887751579284668e+00,1.850253790616989136e-01
1.347894072532653809e-01,1.502774238586425781e+00,2.389712035655975342e-01
1.349462419748306274e-01,1.504522800445556641e+00,2.936231791973114014e-01
1.351283192634582520e-01,1.506552815437316895e+00,3.492108583450317383e-01
1.117285266518592834e-01,1.484101653099060059e+00,-3.987885415554046631e-01
1.118750646710395813e-01,1.486048102378845215e+00,-3.440515697002410889e-01
1.120099201798439026e-01,1.487839460372924805e+00,-2.900246381759643555e-01
1.121402829885482788e-01,1.489571094512939453e+00,-2.365921437740325928e-01
1.122855618596076965e-01,1.491500854492187500e+00,-1.836512386798858643e-01
1.124259233474731445e-01,1.493365287780761719e+00,-1.310220658779144287e-01
1.125643253326416016e-01,1.495203614234924316e+00,-7.858192920684814453e-02
1.127024441957473755e-01,1.497038364410400391e+00,-2.620480768382549286e-02
1.128406152129173279e-01,1.498873710632324219e+00,2.623693458735942841e-02
1.129778474569320679e-01,1.500696539878845215e+00,7.887061685323715210e-02
1.131117939949035645e-01,1.502475738525390625e+00,1.318213790655136108e-01
1.132632717490196228e-01,1.504487872123718262e+00,1.852503567934036255e-01
1.134133860468864441e-01,1.506481766700744629e+00,2.392781227827072144e-01
1.135555431246757507e-01,1.508370161056518555e+00,2.940267026424407959e-01
1.136819869279861450e-01,1.510049700736999512e+00,3.496084213256835938e-01
9.059213101863861084e-02,1.487445116043090820e+00,-3.992976248264312744e-01
9.070697426795959473e-02,1.489330768585205078e+00,-3.444756865501403809e-01
9.083419293165206909e-02,1.491419553756713867e+00,-2.904393374919891357e-01
9.095136821269989014e-02,1.493343472480773926e+00,-2.369602918624877930e-01
9.106301516294479370e-02,1.495176672935485840e+00,-1.839245110750198364e-01
9.117268025875091553e-02,1.496977329254150391e+00,-1.312110275030136108e-01
9.128281474113464355e-02,1.498785614967346191e+00,-7.869345694780349731e-02
9.139484167098999023e-02,1.500625014305114746e+00,-2.624200284481048584e-02
9.150900691747665405e-02,1.502499461174011230e+00,2.627478353679180145e-02
9.162449836730957031e-02,1.504395723342895508e+00,7.898801565170288086e-02
9.173936396837234497e-02,1.506281733512878418e+00,1.320265680551528931e-01
9.185060858726501465e-02,1.508108258247375488e+00,1.855152547359466553e-01
9.195419400930404663e-02,1.509809136390686035e+00,2.395730018615722656e-01
9.207351505756378174e-02,1.511768221855163574e+00,2.944020330905914307e-01
9.221467375755310059e-02,1.514086008071899414e+00,3.502014577388763428e-01
6.941971927881240845e-02,1.491278409957885742e+00,-4.000189304351806641e-01
6.950165331363677979e-02,1.493038415908813477e+00,-3.450678288936614990e-01
6.959472596645355225e-02,1.495037913322448730e+00,-2.909201979637145996e-01
6.968159973621368408e-02,1.496904015541076660e+00,-2.373426854610443115e-01
6.976579874753952026e-02,1.498712778091430664e+00,-1.842177957296371460e-01
6.985007226467132568e-02,1.500523209571838379e+00,-1.314207315444946289e-01
6.993804872035980225e-02,1.502413153648376465e+00,-7.882328331470489502e-02
7.002387195825576782e-02,1.504256844520568848e+00,-2.628529630601406097e-02
7.010772824287414551e-02,1.506058216094970703e+00,2.631677128374576569e-02
7.019594311714172363e-02,1.507953166961669922e+00,7.911393791437149048e-02
7.028531283140182495e-02,1.509873032569885254e+00,1.322396248579025269e-01
7.037348300218582153e-02,1.511767268180847168e+00,1.858223974704742432e-01
7.045732438564300537e-02,1.513568282127380371e+00,2.399848997592926025e-01
7.055491209030151367e-02,1.515664696693420410e+00,2.949339449405670166e-01
7.064577937126159668e-02,1.517616629600524902e+00,3.507482707500457764e-01
4.815242066979408264e-02,1.494694948196411133e+00,-4.007094502449035645e-01
4.822029173374176025e-02,1.496801614761352539e+00,-3.457426428794860840e-01
4.828186705708503723e-02,1.498713016510009766e+00,-2.914709746837615967e-01
4.834017530083656311e-02,1.500522971153259277e+00,-2.377824187278747559e-01
4.839772731065750122e-02,1.502309441566467285e+00,-1.845558285713195801e-01
4.846003279089927673e-02,1.504243493080139160e+00,-1.316723376512527466e-01
4.852000623941421509e-02,1.506105065345764160e+00,-7.897245138883590698e-02
4.857955127954483032e-02,1.507953524589538574e+00,-2.633504197001457214e-02
4.863879457116127014e-02,1.509792327880859375e+00,2.636715583503246307e-02
4.869611933827400208e-02,1.511571764945983887e+00,7.925910502672195435e-02
4.875899106264114380e-02,1.513523340225219727e+00,1.324846297502517700e-01
4.882214218378067017e-02,1.515483736991882324e+00,1.861742585897445679e-01
4.888334870338439941e-02,1.517383575439453125e+00,2.404542714357376099e-01
4.893983900547027588e-02,1.519137144088745117e+00,2.954430878162384033e-01
4.900591820478439331e-02,1.521188259124755859e+00,3.513756394386291504e-01
2.681659348309040070e-02,1.498649358749389648e+00,-4.016255736351013184e-01
2.685220353305339813e-02,1.500639438629150391e+00,-3.465048670768737793e-01
2.688485756516456604e-02,1.502464413642883301e+00,-2.920958101749420166e-01
2.691627666354179382e-02,1.504220247268676758e+00,-2.382828742265701294e-01
2.695124782621860504e-02,1.506174683570861816e+00,-1.849643290042877197e-01
2.698478102684020996e-02,1.508048653602600098e+00,-1.319580823183059692e-01
2.701758034527301788e-02,1.509881615638732910e+00,-7.914209365844726562e-02
2.705074101686477661e-02,1.511734843254089355e+00,-2.639161422848701477e-02
2.708432637155056000e-02,1.513611793518066406e+00,2.642438188195228577e-02
2.711742371320724487e-02,1.515461444854736328e+00,7.943456619977951050e-02
2.714947611093521118e-02,1.517252564430236816e+00,1.327634602785110474e-01
2.718570455908775330e-02,1.519277334213256836e+00,1.865733861923217773e-01
2.722144499421119690e-02,1.521274685859680176e+00,2.409844547510147095e-01
2.725512534379959106e-02,1.523156881332397461e+00,2.961186468601226807e-01
2.728488296270370483e-02,1.524819970130920410e+00,3.520882427692413330e-01
5.377507302910089493e-03,1.502322435379028320e+00,-4.025480449199676514e-01
5.384274758398532867e-03,1.504213094711303711e+00,-3.472766578197479248e-01
5.390551406890153885e-03,1.505966663360595703e+00,-2.927317023277282715e-01
5.397640634328126907e-03,1.507947087287902832e+00,-2.388365268707275391e-01
5.403650924563407898e-03,1.509626269340515137e+00,-1.853597015142440796e-01
5.410431884229183197e-03,1.511520624160766602e+00,-1.322415620088577271e-01
5.417175590991973877e-03,1.513404607772827148e+00,-7.931456714868545532e-02
5.423821974545717239e-03,1.515261411666870117e+00,-2.644911780953407288e-02
5.430389195680618286e-03,1.517096161842346191e+00,2.648114226758480072e-02
5.436967592686414719e-03,1.518933892250061035e+00,7.960434257984161377e-02
5.444407928735017776e-03,1.521012544631958008e+00,1.330720037221908569e-01
5.450873170047998428e-03,1.522818803787231445e+00,1.869795471429824829e-01
5.458314903080463409e-03,1.524897694587707520e+00,2.415212541818618774e-01
5.465447902679443359e-03,1.526890635490417480e+00,2.967989146709442139e-01
5.471893586218357086e-03,1.528691291809082031e+00,3.529278934001922607e-01
-1.616412773728370667e-02,1.505958676338195801e+00,-4.035430252552032471e-01
-1.618397235870361328e-02,1.507807374000549316e+00,-3.481242954730987549e-01
-1.620637811720371246e-02,1.509894967079162598e+00,-2.935103178024291992e-01
-1.622712984681129456e-02,1.511828184127807617e+00,-2.394635081291198730e-01
-1.624703779816627502e-02,1.513683080673217773e+00,-1.858673393726348877e-01
-1.626673527061939240e-02,1.515518188476562500e+00,-1.325981020927429199e-01
-1.628666743636131287e-02,1.517375230789184570e+00,-7.952672988176345825e-02
-1.630664989352226257e-02,1.519236803054809570e+00,-2.651986666023731232e-02
-1.632674224674701691e-02,1.521108865737915039e+00,2.655254490673542023e-02
-1.634721644222736359e-02,1.523016333580017090e+00,7.982238382101058960e-02
-1.636772602796554565e-02,1.524927139282226562e+00,1.334213316440582275e-01
-1.638773456215858459e-02,1.526791334152221680e+00,1.874769181013107300e-01
-1.640651561319828033e-02,1.528541088104248047e+00,2.421106994152069092e-01
-1.642846316099166870e-02,1.530586004257202148e+00,2.975324690341949463e-01
-1.644870452582836151e-02,1.532471656799316406e+00,3.538188040256500244e-01
-3.782070055603981018e-02,1.509762883186340332e+00,-4.046660363674163818e-01
-3.786465525627136230e-02,1.511517405509948730e+00,-3.490702211856842041e-01
-3.791538625955581665e-02,1.513542532920837402e+00,-2.942947149276733398e-01
-3.796293959021568298e-02,1.515440821647644043e+00,-2.400971949100494385e-01
-3.800927102565765381e-02,1.517290353775024414e+00,-1.863579899072647095e-01
-3.805878013372421265e-02,1.519266724586486816e+00,-1.329601109027862549e-01
-3.810467571020126343e-02,1.521098852157592773e+00,-7.974229753017425537e-02
-3.815143182873725891e-02,1.522965192794799805e+00,-2.659175731241703033e-02
-3.819918259978294373e-02,1.524871468544006348e+00,2.662504091858863831e-02
-3.824362531304359436e-02,1.526645541191101074e+00,8.003308624029159546e-02
-3.829186409711837769e-02,1.528571248054504395e+00,1.337744146585464478e-01
-3.833967447280883789e-02,1.530479788780212402e+00,1.879779547452926636e-01
-3.838533535599708557e-02,1.532302379608154297e+00,2.427686303853988647e-01
-3.843921050429344177e-02,1.534453034400939941e+00,2.983605861663818359e-01
-3.848977759480476379e-02,1.536471605300903320e+00,3.548331558704376221e-01
-5.960476770997047424e-02,1.513643622398376465e+00,-4.058932960033416748e-01
-5.967024713754653931e-02,1.515306472778320312e+00,-3.501066565513610840e-01
-5.974762886762619019e-02,1.517271518707275391e+00,-2.951558530330657959e-01
-5.983195081353187561e-02,1.519412875175476074e+00,-2.408374994993209839e-01
-5.990155041217803955e-02,1.521180272102355957e+00,-1.869219392538070679e-01
-5.997737497091293335e-02,1.523105859756469727e+00,-1.333575695753097534e-01
-6.004854664206504822e-02,1.524913191795349121e+00,-7.997913658618927002e-02
-6.012222543358802795e-02,1.526784300804138184e+00,-2.667073532938957214e-02
-6.019864976406097412e-02,1.528725028038024902e+00,2.670463547110557556e-02
-6.027090549468994141e-02,1.530560016632080078e+00,8.027529716491699219e-02
-6.035038083791732788e-02,1.532578229904174805e+00,1.341869384050369263e-01
-6.041624024510383606e-02,1.534250617027282715e+00,1.885280162096023560e-01
-6.049079447984695435e-02,1.536144018173217773e+00,2.434895038604736328e-01
-6.057955324649810791e-02,1.538398027420043945e+00,2.992655634880065918e-01
-6.066418811678886414e-02,1.540547251701354980e+00,3.559384644031524658e-01
-8.150184154510498047e-02,1.517101407051086426e+00,-4.070916473865509033e-01
-8.158718794584274292e-02,1.518690109252929688e+00,-3.511222898960113525e-01
-8.170931041240692139e-02,1.520963311195373535e+00,-2.960712015628814697e-01
-8.180433511734008789e-02,1.522732257843017578e+00,-2.415245026350021362e-01
-8.191029727458953857e-02,1.524704694747924805e+00,-1.874798685312271118e-01
-8.200477063655853271e-02,1.526463150978088379e+00,-1.337406039237976074e-01
-8.210713416337966919e-02,1.528368592262268066e+00,-8.021378517150878906e-02
-8.220789581537246704e-02,1.530244231224060059e+00,-2.674898877739906311e-02
-8.230727910995483398e-02,1.532094240188598633e+00,2.678132802248001099e-02
-8.241539448499679565e-02,1.534106612205505371e+00,8.051493763923645020e-02
-8.251313865184783936e-02,1.535926103591918945e+00,1.345696896314620972e-01
-8.262373507022857666e-02,1.537984728813171387e+00,1.891128122806549072e-01
-8.270913362503051758e-02,1.539574384689331055e+00,2.441958785057067871e-01
-8.283476531505584717e-02,1.541912913322448730e+00,3.001492321491241455e-01
-8.292479068040847778e-02,1.543588757514953613e+00,3.568788766860961914e-01
-1.035715714097023010e-01,1.521145224571228027e+00,-4.085326790809631348e-01
-1.037033572793006897e-01,1.523080706596374512e+00,-3.524444997310638428e-01
-1.038251444697380066e-01,1.524869441986083984e+00,-2.970904111862182617e-01
-1.039436981081962585e-01,1.526610612869262695e+00,-2.423508167266845703e-01
-1.040781289339065552e-01,1.528584957122802734e+00,-1.881209015846252441e-01
-1.042080596089363098e-01,1.530493140220642090e+00,-1.342106312513351440e-01
-1.043362691998481750e-01,1.532376170158386230e+00,-8.049425482749938965e-02
-1.044643074274063110e-01,1.534256696701049805e+00,-2.684251591563224792e-02
-1.045924946665763855e-01,1.536139369010925293e+00,2.687545493245124817e-02
-1.047198772430419922e-01,1.538010239601135254e+00,8.079019933938980103e-02
-1.048443242907524109e-01,1.539838075637817383e+00,1.350300908088684082e-01
-1.049870923161506653e-01,1.541934728622436523e+00,1.897638440132141113e-01
-1.051295176148414612e-01,1.544026613235473633e+00,2.451156377792358398e-01
-1.052654758095741272e-01,1.546023368835449219e+00,3.012118339538574219e-01
-1.053876504302024841e-01,1.547817826271057129e+00,3.581686913967132568e-01
-1.257616132497787476e-01,1.524720788002014160e+00,-4.099344313144683838e-01
-1.259158998727798462e-01,1.526591300964355469e+00,-3.536376655101776123e-01
-1.260600686073303223e-01,1.528339147567749023e+00,-2.980874180793762207e-01
-1.262256503105163574e-01,1.530346632003784180e+00,-2.432058304548263550e-01
-1.263828724622726440e-01,1.532252788543701172e+00,-1.887755841016769409e-01
-1.265365928411483765e-01,1.534116506576538086e+00,-1.346733868122100830e-01
-1.266902387142181396e-01,1.535979270935058594e+00,-8.077050000429153442e-02
-1.268457174301147461e-01,1.537864327430725098e+00,-2.693463861942291260e-02
-1.270034313201904297e-01,1.539776444435119629e+00,2.696812711656093597e-02
-1.271622180938720703e-01,1.541701436042785645e+00,8.107140660285949707e-02
-1.273193955421447754e-01,1.543607115745544434e+00,1.355065256357192993e-01
-1.274708658456802368e-01,1.545443415641784668e+00,1.904006898403167725e-01
-1.276475787162780762e-01,1.547585844993591309e+00,2.459455281496047974e-01
-1.278184801340103149e-01,1.549657940864562988e+00,3.022454380989074707e-01
-1.279746294021606445e-01,1.551551103591918945e+00,3.594196438789367676e-01
-1.481737941503524780e-01,1.528989672660827637e+00,-4.116102159023284912e-01
-1.483477652072906494e-01,1.530784964561462402e+00,-3.550646305084228516e-01
-1.485123932361602783e-01,1.532483577728271484e+00,-2.992796897888183594e-01
-1.487050205469131470e-01,1.534471392631530762e+00,-2.441745996475219727e-01
-1.488903909921646118e-01,1.536384105682373047e+00,-1.895277202129364014e-01
-1.490862369537353516e-01,1.538405060768127441e+00,-1.352233290672302246e-01
-1.492646336555480957e-01,1.540246009826660156e+00,-8.109891414642333984e-02
-1.494478434324264526e-01,1.542136430740356445e+00,-2.704415656626224518e-02
-1.496363133192062378e-01,1.544081211090087891e+00,2.707826159894466400e-02
-1.498084962368011475e-01,1.545858025550842285e+00,8.139439672231674194e-02
-1.499935537576675415e-01,1.547767519950866699e+00,1.360462903976440430e-01
-1.501744687557220459e-01,1.549634456634521484e+00,1.911622732877731323e-01
-1.503879874944686890e-01,1.551837682723999023e+00,2.469380348920822144e-01
-1.505972892045974731e-01,1.553997397422790527e+00,3.034811615943908691e-01
-1.507916450500488281e-01,1.556002974510192871e+00,3.609139621257781982e-01
-1.707128286361694336e-01,1.532739877700805664e+00,-4.132352471351623535e-01
-1.709062904119491577e-01,1.534476876258850098e+00,-3.564518690109252930e-01
-1.711325198411941528e-01,1.536507964134216309e+00,-3.005132079124450684e-01
-1.713441610336303711e-01,1.538408279418945312e+00,-2.451662123203277588e-01
-1.715498715639114380e-01,1.540255188941955566e+00,-1.902886629104614258e-01
-1.717564910650253296e-01,1.542110443115234375e+00,-1.357512176036834717e-01
-1.719732731580734253e-01,1.544056773185729980e+00,-8.142082393169403076e-02
-1.721843779087066650e-01,1.545952081680297852e+00,-2.715151011943817139e-02
-1.723901480436325073e-01,1.547799587249755859e+00,2.718395739793777466e-02
-1.726077795028686523e-01,1.549753546714782715e+00,8.172123134136199951e-02
-1.728289425373077393e-01,1.551739335060119629e+00,1.365988403558731079e-01
-1.730478554964065552e-01,1.553704857826232910e+00,1.919502913951873779e-01
-1.732567846775054932e-01,1.555580735206604004e+00,2.479028552770614624e-01
-1.735050082206726074e-01,1.557809352874755859e+00,3.046793639659881592e-01
-1.737386435270309448e-01,1.559907078742980957e+00,3.623591959476470947e-01
-1.934424191713333130e-01,1.536577820777893066e+00,-4.149739742279052734e-01
-1.936542242765426636e-01,1.538260221481323242e+00,-3.579379618167877197e-01
-1.939063668251037598e-01,1.540263056755065918e+00,-3.017595708370208740e-01
-1.941448152065277100e-01,1.542157173156738281e+00,-2.461812794208526611e-01
-1.944058537483215332e-01,1.544230580329895020e+00,-1.911040097475051880e-01
-1.946341097354888916e-01,1.546043753623962402e+00,-1.363287419080734253e-01
-1.948769390583038330e-01,1.547972679138183594e+00,-8.176603168249130249e-02
-1.951161623001098633e-01,1.549872875213623047e+00,-2.726662717759609222e-02
-1.953522115945816040e-01,1.551747918128967285e+00,2.729961276054382324e-02
-1.956047564744949341e-01,1.553753972053527832e+00,8.207140862941741943e-02
-1.958271563053131104e-01,1.555520534515380859e+00,1.371643990278244019e-01
-1.960765719413757324e-01,1.557501792907714844e+00,1.927463561296463013e-01
-1.963176280260086060e-01,1.559416532516479492e+00,2.489364743232727051e-01
-1.966064423322677612e-01,1.561710715293884277e+00,3.059614598751068115e-01
-1.968047916889190674e-01,1.563286304473876953e+00,3.637612760066986084e-01
-2.163783907890319824e-01,1.540517091751098633e+00,-4.168315529823303223e-01
-2.166711986064910889e-01,1.542601823806762695e+00,-3.596330285072326660e-01
-2.169378995895385742e-01,1.544500708580017090e+00,-3.031670451164245605e-01
-2.171920984983444214e-01,1.546310424804687500e+00,-2.473152130842208862e-01
-2.174452543258666992e-01,1.548112750053405762e+00,-1.919499337673187256e-01
-2.177238017320632935e-01,1.550095915794372559e+00,-1.369468271732330322e-01
-2.179923057556152344e-01,1.552007436752319336e+00,-8.213555812835693359e-02
-2.182599008083343506e-01,1.553912758827209473e+00,-2.738985419273376465e-02
-2.185271233320236206e-01,1.555815100669860840e+00,2.742338739335536957e-02
-2.187862098217010498e-01,1.557659745216369629e+00,8.243469148874282837e-02
-2.190742641687393188e-01,1.559710621833801270e+00,1.377962678670883179e-01
-2.193660140037536621e-01,1.561787724494934082e+00,1.936454921960830688e-01
-2.196513414382934570e-01,1.563819169998168945e+00,2.501155436038970947e-01
-2.199176251888275146e-01,1.565714955329895020e+00,3.073311746120452881e-01
-2.201500684022903442e-01,1.567369818687438965e+00,3.654072880744934082e-01
-2.394126057624816895e-01,1.543765664100646973e+00,-4.185948669910430908e-01
-2.397309094667434692e-01,1.545818090438842773e+00,-3.611458241939544678e-01
-2.400234043598175049e-01,1.547704100608825684e+00,-3.044390082359313965e-01
-2.403053194284439087e-01,1.549521923065185547e+00,-2.483535408973693848e-01
-2.406219989061355591e-01,1.551563858985900879e+00,-1.927851289510726929e-01
-2.409242093563079834e-01,1.553512573242187500e+00,-1.375392675399780273e-01
-2.412182837724685669e-01,1.555408835411071777e+00,-8.248983323574066162e-02
-2.415143996477127075e-01,1.557318210601806641e+00,-2.750799804925918579e-02
-2.418131977319717407e-01,1.559244990348815918e+00,2.754203043878078461e-02
-2.421059459447860718e-01,1.561132550239562988e+00,8.279339224100112915e-02
-2.423877418041229248e-01,1.562949657440185547e+00,1.383747607469558716e-01
-2.427099198102951050e-01,1.565027117729187012e+00,1.944579631090164185e-01
-2.430282533168792725e-01,1.567079782485961914e+00,2.511676847934722900e-01
-2.433287054300308228e-01,1.569017052650451660e+00,3.086313605308532715e-01
-2.435946464538574219e-01,1.570731878280639648e+00,3.669663667678833008e-01
-2.627929747104644775e-01,1.547900199890136719e+00,-4.206928312778472900e-01
-2.631347477436065674e-01,1.549913287162780762e+00,-3.629453182220458984e-01
-2.634517848491668701e-01,1.551780700683593750e+00,-3.059513270854949951e-01
-2.638112604618072510e-01,1.553898096084594727e+00,-2.496345937252044678e-01
-2.641482949256896973e-01,1.555883288383483887e+00,-1.937717646360397339e-01
-2.644729018211364746e-01,1.557795286178588867e+00,-1.382394134998321533e-01
-2.647920846939086914e-01,1.559675455093383789e+00,-8.290862292051315308e-02
-2.651171982288360596e-01,1.561590433120727539e+00,-2.764765545725822449e-02
-2.654488682746887207e-01,1.563543915748596191e+00,2.768224291503429413e-02
-2.657774686813354492e-01,1.565479516983032227e+00,8.321715891361236572e-02
-2.660975158214569092e-01,1.567364692687988281e+00,1.390886008739471436e-01
-2.664005160331726074e-01,1.569149255752563477e+00,1.954239308834075928e-01
-2.667540311813354492e-01,1.571231603622436523e+00,2.524192333221435547e-01
-2.670916318893432617e-01,1.573220014572143555e+00,3.101783394813537598e-01
-2.675009965896606445e-01,1.575631380081176758e+00,3.689677417278289795e-01
-2.864317893981933594e-01,1.552175164222717285e+00,-4.229256212711334229e-01
-2.868823409080505371e-01,1.554616808891296387e+00,-3.649709224700927734e-01
-2.872091531753540039e-01,1.556387662887573242e+00,-3.076386451721191406e-01
-2.875863313674926758e-01,1.558431625366210938e+00,-2.509984970092773438e-01
-2.879026830196380615e-01,1.560145854949951172e+00,-1.947959065437316895e-01
-2.882646918296813965e-01,1.562107682228088379e+00,-1.389740109443664551e-01
-2.886247634887695312e-01,1.564058899879455566e+00,-8.335270732641220093e-02
-2.889789342880249023e-01,1.565978169441223145e+00,-2.779572643339633942e-02
-2.893282771110534668e-01,1.567871332168579102e+00,2.782932855188846588e-02
-2.896782159805297852e-01,1.569767594337463379e+00,8.365693688392639160e-02
-2.900788187980651855e-01,1.571938514709472656e+00,1.398486196994781494e-01
-2.904240190982818604e-01,1.573809146881103516e+00,1.965018659830093384e-01
-2.908285856246948242e-01,1.576001405715942383e+00,2.538282573223114014e-01
-2.911171913146972656e-01,1.577565431594848633e+00,3.118246793746948242e-01
-2.915754020214080811e-01,1.580048322677612305e+00,3.709414005279541016e-01
-3.102690875530242920e-01,1.556202173233032227e+00,-4.251893758773803711e-01
-3.106435537338256836e-01,1.558080434799194336e+00,-3.667903542518615723e-01
-3.109961748123168945e-01,1.559848904609680176e+00,-3.091710209846496582e-01
-3.114071488380432129e-01,1.561910390853881836e+00,-2.522508203983306885e-01
-3.117991387844085693e-01,1.563876390457153320e+00,-1.957988590002059937e-01
-3.121841251850128174e-01,1.565807461738586426e+00,-1.396863907575607300e-01
-3.125705420970916748e-01,1.567745447158813477e+00,-8.377902209758758545e-02
-3.129541575908660889e-01,1.569669485092163086e+00,-2.793789468705654144e-02
-3.133360445499420166e-01,1.571585059165954590e+00,2.797198668122291565e-02
-3.137222230434417725e-01,1.573521971702575684e+00,8.408770710229873657e-02
-3.141060173511505127e-01,1.575446844100952148e+00,1.405463367700576782e-01
-3.144772946834564209e-01,1.577309131622314453e+00,1.974806487560272217e-01
-3.149166107177734375e-01,1.579512596130371094e+00,2.550936043262481689e-01
-3.153446912765502930e-01,1.581659793853759766e+00,3.134940266609191895e-01
-3.157393038272857666e-01,1.583638906478881836e+00,3.728071451187133789e-01
-3.342567682266235352e-01,1.559754729270935059e+00,-4.274234473705291748e-01
-3.346558213233947754e-01,1.561616897583007812e+00,-3.687127530574798584e-01
-3.351179659366607666e-01,1.563773512840270996e+00,-3.108677566051483154e-01
-3.355463147163391113e-01,1.565772294998168945e+00,-2.536242008209228516e-01
-3.359576165676116943e-01,1.567691564559936523e+00,-1.968584060668945312e-01
-3.363649845123291016e-01,1.569592475891113281e+00,-1.404391825199127197e-01
-3.367776572704315186e-01,1.571518182754516602e+00,-8.422960340976715088e-02
-3.371909558773040771e-01,1.573446750640869141e+00,-2.808814868330955505e-02
-3.376062214374542236e-01,1.575384497642517090e+00,2.812273986637592316e-02
-3.380298018455505371e-01,1.577361106872558594e+00,8.454277366399765015e-02
-3.384545743465423584e-01,1.579343199729919434e+00,1.413116306066513062e-01
-3.388693630695343018e-01,1.581278681755065918e+00,1.985645741224288940e-01
-3.392591476440429688e-01,1.583097577095031738e+00,2.564305663108825684e-01
-3.397249281406402588e-01,1.585271120071411133e+00,3.151413500308990479e-01
-3.401585519313812256e-01,1.587294578552246094e+00,3.747754991054534912e-01
-3.587509393692016602e-01,1.564427614212036133e+00,-4.300670325756072998e-01
-3.592813909053802490e-01,1.566740751266479492e+00,-3.710987567901611328e-01
-3.597570955753326416e-01,1.568815112113952637e+00,-3.128616213798522949e-01
-3.601297140121459961e-01,1.570440053939819336e+00,-2.551891207695007324e-01
-3.606287837028503418e-01,1.572616457939147949e+00,-1.981047242879867554e-01
-3.610575199127197266e-01,1.574486017227172852e+00,-1.413249522447586060e-01
-3.614961802959442139e-01,1.576398968696594238e+00,-8.475984632968902588e-02
-3.619398772716522217e-01,1.578333735466003418e+00,-2.826497331261634827e-02
-3.623899817466735840e-01,1.580296516418457031e+00,2.830012328922748566e-02
-3.628533482551574707e-01,1.582317113876342773e+00,8.507806062698364258e-02
-3.632510006427764893e-01,1.584051251411437988e+00,1.421835273504257202e-01
-3.637845218181610107e-01,1.586377859115600586e+00,1.998382806777954102e-01
-3.642238676548004150e-01,1.588293671607971191e+00,2.580902576446533203e-01
-3.646199703216552734e-01,1.590021014213562012e+00,3.170906007289886475e-01
-3.650962710380554199e-01,1.592097997665405273e+00,3.771048784255981445e-01
-3.834551870822906494e-01,1.568750739097595215e+00,-4.327200055122375488e-01
-3.838830292224884033e-01,1.570501089096069336e+00,-3.732526600360870361e-01
-3.843924999237060547e-01,1.572585344314575195e+00,-3.146784901618957520e-01
-3.848713040351867676e-01,1.574544072151184082e+00,-2.567248642444610596e-01
-3.853390812873840332e-01,1.576457858085632324e+00,-1.992630213499069214e-01
-3.858435451984405518e-01,1.578521609306335449e+00,-1.421683430671691895e-01
-3.863083720207214355e-01,1.580423355102539062e+00,-8.526480197906494141e-02
-3.867825567722320557e-01,1.582363247871398926e+00,-2.843336388468742371e-02
-3.872675001621246338e-01,1.584347248077392578e+00,2.846901491284370422e-02
-3.877159059047698975e-01,1.586181640625000000e+00,8.557546883821487427e-02
-3.882072269916534424e-01,1.588191747665405273e+00,1.430392861366271973e-01
-3.886957168579101562e-01,1.590190172195434570e+00,2.009987831115722656e-01
-3.891639411449432373e-01,1.592105746269226074e+00,2.595882415771484375e-01
-3.897287845611572266e-01,1.594416618347167969e+00,3.190470039844512939e-01
-3.902648091316223145e-01,1.596609473228454590e+00,3.794577121734619141e-01
-4.083381295204162598e-01,1.572615623474121094e+00,-4.353536963462829590e-01
-4.089162051677703857e-01,1.574841976165771484e+00,-3.756369054317474365e-01
-4.094394147396087646e-01,1.576856970787048340e+00,-3.166735470294952393e-01
-4.099335670471191406e-01,1.578760147094726562e+00,-2.583425045013427734e-01
-4.104197919368743896e-01,1.580632686614990234e+00,-2.005127221345901489e-01
-4.109493494033813477e-01,1.582672119140625000e+00,-1.430572718381881714e-01
-4.114403724670410156e-01,1.584563136100769043e+00,-8.579707890748977661e-02
-4.119454026222229004e-01,1.586508154869079590e+00,-2.861086465418338776e-02
-4.124661386013031006e-01,1.588513612747192383e+00,2.864703163504600525e-02
-4.129514992237091064e-01,1.590382933616638184e+00,8.611219376325607300e-02
-4.134869575500488281e-01,1.592445135116577148e+00,1.439406573772430420e-01
-4.140233695507049561e-01,1.594510912895202637e+00,2.022732645273208618e-01
-4.145418405532836914e-01,1.596507787704467773e+00,2.612466514110565186e-01
-4.150189459323883057e-01,1.598345160484313965e+00,3.209889233112335205e-01
-4.155962765216827393e-01,1.600568652153015137e+00,3.817733228206634521e-01
-4.337019622325897217e-01,1.577150344848632812e+00,-4.382826685905456543e-01
-4.341596066951751709e-01,1.578814506530761719e+00,-3.780280053615570068e-01
-4.347186684608459473e-01,1.580847620964050293e+00,-3.186919093132019043e-01
-4.353372454643249512e-01,1.583097100257873535e+00,-2.600452005863189697e-01
-4.358413815498352051e-01,1.584930300712585449e+00,-2.018285989761352539e-01
-4.363957941532135010e-01,1.586946487426757812e+00,-1.439934819936752319e-01
-4.369130134582519531e-01,1.588827371597290039e+00,-8.635773509740829468e-02
-4.374493956565856934e-01,1.590777873992919922e+00,-2.879783138632774353e-02
-4.380065500736236572e-01,1.592803955078125000e+00,2.883451059460639954e-02
-4.385300576686859131e-01,1.594707608222961426e+00,8.667735010385513306e-02
-4.391111135482788086e-01,1.596820712089538574e+00,1.448894292116165161e-01
-4.395855963230133057e-01,1.598546147346496582e+00,2.035624682903289795e-01
-4.401326179504394531e-01,1.600535273551940918e+00,2.629096806049346924e-01
-4.407982826232910156e-01,1.602956056594848633e+00,3.231488764286041260e-01
-4.412585794925689697e-01,1.604629874229431152e+00,3.842091858386993408e-01
-4.592662155628204346e-01,1.581236243247985840e+00,-4.411997199058532715e-01
-4.598921537399291992e-01,1.583391308784484863e+00,-3.806610107421875000e-01
-4.604644179344177246e-01,1.585361599922180176e+00,-3.208977282047271729e-01
-4.610123634338378906e-01,1.587248206138610840e+00,-2.617841660976409912e-01
-4.616255760192871094e-01,1.589359521865844727e+00,-2.032132148742675781e-01
-4.621651470661163330e-01,1.591217160224914551e+00,-1.449663788080215454e-01
-4.627483785152435303e-01,1.593225240707397461e+00,-8.694787323474884033e-02
-4.633164703845977783e-01,1.595181107521057129e+00,-2.899462729692459106e-02
-4.638708233833312988e-01,1.597089767456054688e+00,2.902931906282901764e-02
-4.644734859466552734e-01,1.599164724349975586e+00,8.727201819419860840e-02
-4.650087058544158936e-01,1.601007461547851562e+00,1.458583176136016846e-01
-4.656199216842651367e-01,1.603111863136291504e+00,2.049715816974639893e-01
-4.662196040153503418e-01,1.605176448822021484e+00,2.647410929203033447e-01
-4.667809605598449707e-01,1.607109189033508301e+00,3.252997398376464844e-01
-4.674643874168395996e-01,1.609462261199951172e+00,3.869286775588989258e-01
-4.853737056255340576e-01,1.586016058921813965e+00,-4.444263279438018799e-01
-4.858618676662445068e-01,1.587611198425292969e+00,-3.833081126213073730e-01
-4.865964353084564209e-01,1.590011477470397949e+00,-3.232156038284301758e-01
-4.871591329574584961e-01,1.591850161552429199e+00,-2.636662125587463379e-01
-4.877952635288238525e-01,1.593928813934326172e+00,-2.046691924333572388e-01
-4.883570969104766846e-01,1.595764636993408203e+00,-1.460025459527969360e-01
-4.889694154262542725e-01,1.597765445709228516e+00,-8.756863325834274292e-02
-4.895697534084320068e-01,1.599727153778076172e+00,-2.920163609087467194e-02
-4.901595711708068848e-01,1.601654410362243652e+00,2.923681586980819702e-02
-4.908048510551452637e-01,1.603762984275817871e+00,8.789733797311782837e-02
-4.913825094699859619e-01,1.605650424957275391e+00,1.469070315361022949e-01
-4.920449256896972656e-01,1.607815027236938477e+00,2.064522653818130493e-01
-4.925466775894165039e-01,1.609454512596130371e+00,2.665821313858032227e-01
-4.933161735534667969e-01,1.611968994140625000e+00,3.276790976524353027e-01
-4.938627481460571289e-01,1.613754987716674805e+00,3.896202147006988525e-01
-5.117069482803344727e-01,1.590356349945068359e+00,-4.476490914821624756e-01
-5.123828649520874023e-01,1.592456936836242676e+00,-3.862092196941375732e-01
-5.130073428153991699e-01,1.594397783279418945e+00,-3.255665302276611328e-01
-5.137155652046203613e-01,1.596598863601684570e+00,-2.656434774398803711e-01
-5.143006443977355957e-01,1.598417401313781738e+00,-2.061696797609329224e-01
-5.149585008621215820e-01,1.600461959838867188e+00,-1.470916420221328735e-01
-5.156002640724182129e-01,1.602456450462341309e+00,-8.822117745876312256e-02
-5.162333250045776367e-01,1.604423999786376953e+00,-2.941924147307872772e-02
-5.168592929840087891e-01,1.606369495391845703e+00,2.945491299033164978e-02
-5.174736380577087402e-01,1.608278870582580566e+00,8.854172378778457642e-02
-5.181694030761718750e-01,1.610441207885742188e+00,1.480087786912918091e-01
-5.187515020370483398e-01,1.612250447273254395e+00,2.079539149999618530e-01
-5.194330811500549316e-01,1.614368677139282227e+00,2.686000466346740723e-01
-5.200803875923156738e-01,1.616380572319030762e+00,3.300552964210510254e-01
-5.208731889724731445e-01,1.618844389915466309e+00,3.926087915897369385e-01
-5.386505722999572754e-01,1.595412969589233398e+00,-4.511964023113250732e-01
-5.393388867378234863e-01,1.597451686859130859e+00,-3.892529010772705078e-01
-5.399764776229858398e-01,1.599340081214904785e+00,-3.281203210353851318e-01
-5.407064557075500488e-01,1.601502299308776855e+00,-2.677195668220520020e-01
-5.413101315498352051e-01,1.603290200233459473e+00,-2.077762782573699951e-01
-5.419946908950805664e-01,1.605317831039428711e+00,-1.482357233762741089e-01
-5.426661968231201172e-01,1.607306718826293945e+00,-8.890672028064727783e-02
-5.433325171470642090e-01,1.609280347824096680e+00,-2.964785136282444000e-02
-5.439953804016113281e-01,1.611243605613708496e+00,2.968402020633220673e-02
-5.446500182151794434e-01,1.613182544708251953e+00,8.923173695802688599e-02
-5.453947186470031738e-01,1.615388274192810059e+00,1.491656303405761719e-01
-5.460230708122253418e-01,1.617249369621276855e+00,2.095852941274642944e-01
-5.467605590820312500e-01,1.619433641433715820e+00,2.707171142101287842e-01
-5.474655032157897949e-01,1.621521711349487305e+00,3.326711058616638184e-01
-5.481001138687133789e-01,1.623401284217834473e+00,3.955760896205902100e-01
-5.658488273620605469e-01,1.600038409233093262e+00,-4.547484815120697021e-01
-5.665792226791381836e-01,1.602103710174560547e+00,-3.923223912715911865e-01
-5.674062371253967285e-01,1.604442238807678223e+00,-3.307994008064270020e-01
-5.680438280105590820e-01,1.606245160102844238e+00,-2.698439955711364746e-01
-5.687803626060485840e-01,1.608327865600585938e+00,-2.094627320766448975e-01
-5.694919824600219727e-01,1.610339999198913574e+00,-1.494368612766265869e-01
-5.701936483383178711e-01,1.612324237823486328e+00,-8.962652087211608887e-02
-5.708938837051391602e-01,1.614304184913635254e+00,-2.988788858056068420e-02
-5.715943574905395508e-01,1.616284847259521484e+00,2.992456033825874329e-02
-5.722900032997131348e-01,1.618252038955688477e+00,8.995603770017623901e-02
-5.729689598083496094e-01,1.620171904563903809e+00,1.503492593765258789e-01
-5.737604498863220215e-01,1.622409939765930176e+00,2.112967222929000854e-01
-5.743758082389831543e-01,1.624150037765502930e+00,2.728519439697265625e-01
-5.751091241836547852e-01,1.626223444938659668e+00,3.352902233600616455e-01
-5.760125517845153809e-01,1.628778219223022461e+00,3.988544344902038574e-01
-5.931583642959594727e-01,1.603856563568115234e+00,-4.581996798515319824e-01
-5.939042568206787109e-01,1.605873465538024902e+00,-3.952867090702056885e-01
-5.947550535202026367e-01,1.608173847198486328e+00,-3.332898616790771484e-01
-5.954096913337707520e-01,1.609943866729736328e+00,-2.718692421913146973e-01
-5.961716771125793457e-01,1.612004399299621582e+00,-2.110312581062316895e-01
-5.969108939170837402e-01,1.614003062248229980e+00,-1.505542397499084473e-01
-5.976430177688598633e-01,1.615982651710510254e+00,-9.029616415500640869e-02
-5.983769297599792480e-01,1.617967247962951660e+00,-3.011119738221168518e-02
-5.991145968437194824e-01,1.619961857795715332e+00,3.014831617474555969e-02
-5.998505353927612305e-01,1.621951818466186523e+00,9.062969684600830078e-02
-6.005724072456359863e-01,1.623903512954711914e+00,1.514777541160583496e-01
-6.014160513877868652e-01,1.626184701919555664e+00,2.128876447677612305e-01
-6.020774245262145996e-01,1.627973079681396484e+00,2.749137878417968750e-01
-6.028662323951721191e-01,1.630105853080749512e+00,3.378351926803588867e-01
-6.035850644111633301e-01,1.632049560546875000e+00,4.017299711704254150e-01
-6.215047836303710938e-01,1.609322547912597656e+00,-4.622552990913391113e-01
-6.222648024559020996e-01,1.611290454864501953e+00,-3.987716734409332275e-01
-6.229776144027709961e-01,1.613136172294616699e+00,-3.361318409442901611e-01
-6.238094568252563477e-01,1.615290164947509766e+00,-2.742517590522766113e-01
-6.245969533920288086e-01,1.617329359054565430e+00,-2.128769308328628540e-01
-6.253639459609985352e-01,1.619315266609191895e+00,-1.518691629171371460e-01
-6.261273622512817383e-01,1.621292114257812500e+00,-9.108427911996841431e-02
-6.268963217735290527e-01,1.623283386230468750e+00,-3.037401475012302399e-02
-6.276729106903076172e-01,1.625294208526611328e+00,3.041164018213748932e-02
-6.284514665603637695e-01,1.627310156822204590e+00,9.142237156629562378e-02
-6.292188763618469238e-01,1.629297256469726562e+00,1.528053283691406250e-01
-6.299546957015991211e-01,1.631202578544616699e+00,2.147029638290405273e-01
-6.308289170265197754e-01,1.633466243743896484e+00,2.773377895355224609e-01
-6.316773295402526855e-01,1.635663270950317383e+00,3.408258557319641113e-01
-6.324555873870849609e-01,1.637678384780883789e+00,4.053023159503936768e-01
-6.501541137695312500e-01,1.614367246627807617e+00,-4.663295745849609375e-01
-6.511673927307128906e-01,1.616883277893066406e+00,-4.024212658405303955e-01
-6.518957614898681641e-01,1.618691921234130859e+00,-3.391990661621093750e-01
-6.527525782585144043e-01,1.620819330215454102e+00,-2.767485380172729492e-01
-6.535661816596984863e-01,1.622839689254760742e+00,-2.148115187883377075e-01
-6.543617248535156250e-01,1.624814987182617188e+00,-1.532476693391799927e-01
-6.551569700241088867e-01,1.626789689064025879e+00,-9.191054850816726685e-02
-6.559616923332214355e-01,1.628787875175476074e+00,-3.064955584704875946e-02
-6.567779183387756348e-01,1.630814552307128906e+00,3.068769350647926331e-02
-6.575998067855834961e-01,1.632855296134948730e+00,9.225324541330337524e-02
-6.584133505821228027e-01,1.634875416755676270e+00,1.541965454816818237e-01
-6.591972112655639648e-01,1.636821866035461426e+00,2.166623026132583618e-01
-6.601299643516540527e-01,1.639137983322143555e+00,2.798763513565063477e-01
-6.607958674430847168e-01,1.640791296958923340e+00,3.438300192356109619e-01
-6.618773341178894043e-01,1.643476605415344238e+00,4.090400338172912598e-01
-6.788755059242248535e-01,1.618445754051208496e+00,-4.702664017677307129e-01
-6.797033548355102539e-01,1.620419263839721680e+00,-4.056811928749084473e-01
-6.806626319885253906e-01,1.622706174850463867e+00,-3.420467972755432129e-01
-6.815456748008728027e-01,1.624811410903930664e+00,-2.790672183036804199e-01
-6.823863983154296875e-01,1.626815795898437500e+00,-2.166085094213485718e-01
-6.832111477851867676e-01,1.628781914710998535e+00,-1.545283198356628418e-01
-6.840384602546691895e-01,1.630754232406616211e+00,-9.267821162939071655e-02
-6.848787665367126465e-01,1.632757544517517090e+00,-3.090555593371391296e-02
-6.857340335845947266e-01,1.634796500205993652e+00,3.094414994120597839e-02
-6.865981817245483398e-01,1.636856675148010254e+00,9.302502125501632690e-02
-6.874566078186035156e-01,1.638903141021728516e+00,1.554885655641555786e-01
-6.882869005203247070e-01,1.640882492065429688e+00,2.184814810752868652e-01
-6.890588402748107910e-01,1.642722964286804199e+00,2.821435928344726562e-01
-6.899881362915039062e-01,1.644938349723815918e+00,3.467330634593963623e-01
-6.908479332923889160e-01,1.646988153457641602e+00,4.123328328132629395e-01
-7.088675498962402344e-01,1.624371647834777832e+00,-4.748878180980682373e-01
-7.097136974334716797e-01,1.626310586929321289e+00,-4.096573591232299805e-01
-7.107004523277282715e-01,1.628571629524230957e+00,-3.453920483589172363e-01
-7.116102576255798340e-01,1.630656361579895020e+00,-2.817916870117187500e-01
-7.124787569046020508e-01,1.632646560668945312e+00,-2.187203317880630493e-01
-7.133336067199707031e-01,1.634605526924133301e+00,-1.560335308313369751e-01
-7.141942977905273438e-01,1.636577725410461426e+00,-9.358055889606475830e-02
-7.150716185569763184e-01,1.638588190078735352e+00,-3.120646066963672638e-02
-7.159679532051086426e-01,1.640642166137695312e+00,3.124557808041572571e-02
-7.168766260147094727e-01,1.642724275588989258e+00,9.393201768398284912e-02
-7.177823781967163086e-01,1.644799947738647461e+00,1.570066660642623901e-01
-7.186617851257324219e-01,1.646814942359924316e+00,2.206184267997741699e-01
-7.194830775260925293e-01,1.648697018623352051e+00,2.849092483520507812e-01
-7.204720973968505859e-01,1.650963306427001953e+00,3.501409292221069336e-01
-7.213911414146423340e-01,1.653069376945495605e+00,4.163977503776550293e-01
-7.386482954025268555e-01,1.628623843193054199e+00,-4.791727960109710693e-01
-7.395150065422058105e-01,1.630534768104553223e+00,-4.133453667163848877e-01
-7.405308485031127930e-01,1.632774591445922852e+00,-3.484957218170166016e-01
-7.413182258605957031e-01,1.634510636329650879e+00,-2.842622399330139160e-01
-7.423663139343261719e-01,1.636821508407592773e+00,-2.206805348396301270e-01
-7.432518601417541504e-01,1.638774037361145020e+00,-1.574308425188064575e-01
-7.441460490226745605e-01,1.640745520591735840e+00,-9.441825002431869507e-02
-7.450603246688842773e-01,1.642761468887329102e+00,-3.148581460118293762e-02
-7.459968924522399902e-01,1.644826412200927734e+00,3.152539208531379700e-02
-7.469489574432373047e-01,1.646925687789916992e+00,9.477388858795166016e-02
-7.477478384971618652e-01,1.648687124252319336e+00,1.583831459283828735e-01
-7.488270401954650879e-01,1.651066660881042480e+00,2.226011008024215698e-01
-7.496952414512634277e-01,1.652980923652648926e+00,2.874744832515716553e-01
-7.507412433624267578e-01,1.655287146568298340e+00,3.533007502555847168e-01
-7.517163753509521484e-01,1.657437205314636230e+00,4.201652109622955322e-01
-7.698743343353271484e-01,1.634858608245849609e+00,-4.841997623443603516e-01
-7.707624435424804688e-01,1.636744499206542969e+00,-4.176734983921051025e-01
-7.718088626861572266e-01,1.638966560363769531e+00,-3.521391451358795166e-01
-7.726188302040100098e-01,1.640686511993408203e+00,-2.872301936149597168e-01
-7.735907435417175293e-01,1.642750501632690430e+00,-2.229499071836471558e-01
-7.746216058731079102e-01,1.644939541816711426e+00,-1.590719819068908691e-01
-7.755509018898010254e-01,1.646913051605224609e+00,-9.540219604969024658e-02
-7.765038013458251953e-01,1.648936510086059570e+00,-3.181393444538116455e-02
-7.774827480316162109e-01,1.651015281677246094e+00,3.185404092073440552e-02
-7.783658504486083984e-01,1.652890682220458984e+00,9.574846923351287842e-02
-7.793204784393310547e-01,1.654917836189270020e+00,1.600369215011596680e-01
-7.804561257362365723e-01,1.657329440116882324e+00,2.249285280704498291e-01
-7.813737988471984863e-01,1.659278035163879395e+00,2.904849350452423096e-01
-7.824795842170715332e-01,1.661626338958740234e+00,3.570076823234558105e-01
