8.640731811523437500e+00,-2.285954093933105469e+01,4.265680611133575439e-01
1.469445824623107910e+00,-3.725398778915405273e+00,-1.073062658309936523e+00
1.750569343566894531e+00,-4.438114643096923828e+00,-1.101444125175476074e+00
2.149280548095703125e+00,-5.448943614959716797e+00,-1.138582348823547363e+00
2.780852794647216797e+00,-7.050130844116210938e+00,-1.200354576110839844e+00
3.887115716934204102e+00,-9.854773521423339844e+00,-1.300739407539367676e+00
6.573602199554443359e+00,-1.666566276550292969e+01,-1.567379951477050781e+00
8.996377944946289062e+00,-2.280798149108886719e+01,-1.284939050674438477e+00
9.007537841796875000e+00,-2.283627510070800781e+01,-4.284958839416503906e-01
9.018586158752441406e+00,-2.286428451538085938e+01,4.290214180946350098e-01
1.523710012435913086e+00,-3.706654548645019531e+00,-1.073835611343383789e+00
1.809291124343872070e+00,-4.401373386383056641e+00,-1.098640441894531250e+00
2.224983930587768555e+00,-5.412609577178955078e+00,-1.137528300285339355e+00
2.886422157287597656e+00,-7.021657943725585938e+00,-1.202417850494384766e+00
4.055127143859863281e+00,-9.864708900451660156e+00,-1.309577703475952148e+00
6.801925659179687500e+00,-1.654671096801757812e+01,-1.565188765525817871e+00
9.380732536315917969e+00,-2.282004737854003906e+01,-1.293050765991210938e+00
9.392366409301757812e+00,-2.284834861755371094e+01,-4.312008023262023926e-01
9.403970718383789062e+00,-2.287657737731933594e+01,4.317335486412048340e-01
1.578008055686950684e+00,-3.687749862670898438e+00,-1.074792265892028809e+00
1.877296090126037598e+00,-4.387175559997558594e+00,-1.101690888404846191e+00
2.300634145736694336e+00,-5.376502037048339844e+00,-1.136744141578674316e+00
2.967890977859497070e+00,-6.935857295989990234e+00,-1.194877266883850098e+00
4.175857067108154297e+00,-9.758832931518554688e+00,-1.303323626518249512e+00
7.030028343200683594e+00,-1.642893218994140625e+01,-1.563405871391296387e+00
9.767943382263183594e+00,-2.282734298706054688e+01,-1.301253080368041992e+00
9.780068397521972656e+00,-2.285567855834960938e+01,-4.339365661144256592e-01
9.792051315307617188e+00,-2.288368225097656250e+01,4.344682395458221436e-01
1.626892089843750000e+00,-3.656397104263305664e+00,-1.072331428527832031e+00
1.937357425689697266e+00,-4.354159355163574219e+00,-1.100250840187072754e+00
2.378071784973144531e+00,-5.344653606414794922e+00,-1.137090682983398438e+00
3.075782060623168945e+00,-6.912738800048828125e+00,-1.198356151580810547e+00
4.299559593200683594e+00,-9.663146972656250000e+00,-1.298630475997924805e+00
7.263623714447021484e+00,-1.632480239868164062e+01,-1.563230276107788086e+00
1.016028118133544922e+01,-2.283496284484863281e+01,-1.309843301773071289e+00
1.017288970947265625e+01,-2.286330032348632812e+01,-4.368010461330413818e-01
1.018542003631591797e+01,-2.289146232604980469e+01,4.373390674591064453e-01
1.683671951293945312e+00,-3.642725706100463867e+00,-1.075279593467712402e+00
1.998865008354187012e+00,-4.324665069580078125e+00,-1.099914789199829102e+00
2.457406282424926758e+00,-5.316746711730957031e+00,-1.138520121574401855e+00
3.161575555801391602e+00,-6.840259075164794922e+00,-1.193514108657836914e+00
4.475566387176513672e+00,-9.683156967163085938e+00,-1.309794664382934570e+00
7.503046512603759766e+00,-1.623329353332519531e+01,-1.564591288566589355e+00
1.055801868438720703e+01,-2.284290885925292969e+01,-1.318832516670227051e+00
1.057111835479736328e+01,-2.287125205993652344e+01,-4.397986531257629395e-01
1.058417797088623047e+01,-2.289950561523437500e+01,4.403419494628906250e-01
1.735000491142272949e+00,-3.616935014724731445e+00,-1.074887037277221680e+00
2.061894655227661133e+00,-4.298407554626464844e+00,-1.100629925727844238e+00
2.538735389709472656e+00,-5.292471408843994141e+00,-1.140986323356628418e+00
3.274604082107543945e+00,-6.826528549194335938e+00,-1.199173688888549805e+00
4.606074810028076172e+00,-9.602229118347167969e+00,-1.307631850242614746e+00
5.860562324523925781e+00,-1.221744441986083984e+01,-1.185500741004943848e+00
5.867486953735351562e+00,-1.223188018798828125e+01,-7.109820842742919922e-01
5.874255180358886719e+00,-1.224598979949951172e+01,-2.370746135711669922e-01
5.880907535552978516e+00,-1.225985717773437500e+01,2.373430728912353516e-01
5.887760162353515625e+00,-1.227414321899414062e+01,7.134386301040649414e-01
1.780747294425964355e+00,-3.579990386962890625e+00,-1.071372747421264648e+00
2.116681575775146484e+00,-4.255348205566406250e+00,-1.097249746322631836e+00
2.607044696807861328e+00,-5.241167545318603516e+00,-1.137854218482971191e+00
3.365202426910400391e+00,-6.765357494354248047e+00,-1.196766853332519531e+00
4.740068435668945312e+00,-9.529370307922363281e+00,-1.306815385818481445e+00
5.868888378143310547e+00,-1.179873371124267578e+01,-1.152904868125915527e+00
5.875542163848876953e+00,-1.181211090087890625e+01,-6.914003491401672363e-01
5.882339000701904297e+00,-1.182577514648437500e+01,-2.305458933115005493e-01
5.889276981353759766e+00,-1.183972263336181641e+01,2.308178097009658813e-01
5.895937919616699219e+00,-1.185311412811279297e+01,6.938003897666931152e-01
5.902946472167968750e+00,-1.186720371246337891e+01,1.159595370292663574e+00
1.834612846374511719e+00,-3.559592008590698242e+00,-1.073016881942749023e+00
2.182833909988403320e+00,-4.235224723815917969e+00,-1.100004553794860840e+00
2.677248239517211914e+00,-5.194508075714111328e+00,-1.135927557945251465e+00
3.458291769027709961e+00,-6.709921360015869141e+00,-1.195594310760498047e+00
4.877671241760253906e+00,-9.463859558105468750e+00,-1.307272076606750488e+00
5.877464294433593750e+00,-1.140369987487792969e+01,-1.122409939765930176e+00
5.884264945983886719e+00,-1.141689491271972656e+01,-6.731280088424682617e-01
5.891070365905761719e+00,-1.143009948730468750e+01,-2.244529873132705688e-01
5.897911548614501953e+00,-1.144337272644042969e+01,2.247136533260345459e-01
5.904635906219482422e+00,-1.145641994476318359e+01,6.754583716392517090e-01
5.911763668060302734e+00,-1.147024917602539062e+01,1.128960013389587402e+00
1.884252190589904785e+00,-3.530876159667968750e+00,-1.072380781173706055e+00
2.242342472076416016e+00,-4.201896667480468750e+00,-1.099571824073791504e+00
2.751423597335815430e+00,-5.155857563018798828e+00,-1.135971188545227051e+00
3.556586980819702148e+00,-6.664642810821533203e+00,-1.196474671363830566e+00
5.022747993469238281e+00,-9.412063598632812500e+00,-1.309913873672485352e+00
5.881843566894531250e+00,-1.102191162109375000e+01,-1.093006730079650879e+00
5.888707160949707031e+00,-1.103477287292480469e+01,-6.555009484291076660e-01
5.895535945892333984e+00,-1.104756927490234375e+01,-2.185759246349334717e-01
5.902341365814208984e+00,-1.106032276153564453e+01,2.188282459974288940e-01
5.909071922302246094e+00,-1.107293510437011719e+01,6.577678322792053223e-01
5.916236400604248047e+00,-1.108635997772216797e+01,1.099397897720336914e+00
1.935229301452636719e+00,-3.504699468612670898e+00,-1.072733521461486816e+00
2.303476810455322266e+00,-4.171595096588134766e+00,-1.100157618522644043e+00
2.827633857727050781e+00,-5.120843410491943359e+00,-1.137057423591613770e+00
3.657568216323852539e+00,-6.623854160308837891e+00,-1.198427915573120117e+00
5.120638370513916016e+00,-9.273473739624023438e+00,-1.300693154335021973e+00
5.888285160064697266e+00,-1.066368103027343750e+01,-1.065731048583984375e+00
5.894947528839111328e+00,-1.067574691772460938e+01,-6.391203999519348145e-01
5.901799678802490234e+00,-1.068815612792968750e+01,-2.131144553422927856e-01
5.908819675445556641e+00,-1.070086956024169922e+01,2.133679538965225220e-01
5.915711879730224609e+00,-1.071335124969482422e+01,6.413716673851013184e-01
5.922431945800781250e+00,-1.072552108764648438e+01,1.071911334991455078e+00
1.987560868263244629e+00,-3.480794668197631836e+00,-1.074014425277709961e+00
2.356276035308837891e+00,-4.126522064208984375e+00,-1.097052812576293945e+00
2.905906438827514648e+00,-5.089083671569824219e+00,-1.139124393463134766e+00
3.735625505447387695e+00,-6.542162418365478516e+00,-1.193199634552001953e+00
5.273132324218750000e+00,-9.234782218933105469e+00,-1.305719017982482910e+00
5.896289825439453125e+00,-1.032611179351806641e+01,-1.040322184562683105e+00
5.903144359588623047e+00,-1.033811569213867188e+01,-6.239020824432373047e-01
5.910004615783691406e+00,-1.035013008117675781e+01,-2.080398648977279663e-01
5.916885375976562500e+00,-1.036217975616455078e+01,2.082820683717727661e-01
5.923730850219726562e+00,-1.037416839599609375e+01,6.260778903961181641e-01
5.931025981903076172e+00,-1.038694477081298828e+01,1.046450972557067871e+00
2.035705327987670898e+00,-3.449502706527709961e+00,-1.073239922523498535e+00
2.416490077972412109e+00,-4.094742774963378906e+00,-1.097687125205993652e+00
2.970302820205688477e+00,-5.033178806304931641e+00,-1.136010885238647461e+00
3.850403070449829102e+00,-6.524508953094482422e+00,-1.199908733367919922e+00
5.412773609161376953e+00,-9.171945571899414062e+00,-1.307654738426208496e+00
5.899168491363525391e+00,-9.996142387390136719e+00,-1.015481591224670410e+00
5.906186103820800781e+00,-1.000803279876708984e+01,-6.090211272239685059e-01
5.913051128387451172e+00,-1.001966667175292969e+01,-2.030778825283050537e-01
5.919795989990234375e+00,-1.003109455108642578e+01,2.033095061779022217e-01
5.926703929901123047e+00,-1.004280090332031250e+01,6.111369132995605469e-01
5.933573722839355469e+00,-1.005444145202636719e+01,1.021404147148132324e+00
2.082208633422851562e+00,-3.415655374526977539e+00,-1.071871995925903320e+00
2.481754541397094727e+00,-4.071070671081542969e+00,-1.100751161575317383e+00
3.052449226379394531e+00,-5.007237911224365234e+00,-1.139900445938110352e+00
3.932837247848510742e+00,-6.451426982879638672e+00,-1.196698427200317383e+00
5.520744323730468750e+00,-9.056229591369628906e+00,-1.302289843559265137e+00
5.904592037200927734e+00,-9.685894012451171875e+00,-9.924483895301818848e-01
5.911453723907470703e+00,-9.697149276733398438e+00,-5.951908826828002930e-01
5.918341159820556641e+00,-9.708447456359863281e+00,-1.984667181968688965e-01
5.925254344940185547e+00,-9.719788551330566406e+00,1.986985504627227783e-01
5.932240009307861328e+00,-9.731247901916503906e+00,5.972837805747985840e-01
5.939173698425292969e+00,-9.742621421813964844e+00,9.982609152793884277e-01
2.131573677062988281e+00,-3.386606693267822266e+00,-1.072220802307128906e+00
2.540122985839843750e+00,-4.035702705383300781e+00,-1.100906133651733398e+00
3.122974872589111328e+00,-4.961727619171142578e+00,-1.139599442481994629e+00
4.020440101623535156e+00,-6.387604713439941406e+00,-1.195411920547485352e+00
5.635389328002929688e+00,-8.953407287597656250e+00,-1.298969984054565430e+00
5.912065505981445312e+00,-9.392985343933105469e+00,-9.710072278976440430e-01
5.918889522552490234e+00,-9.403827667236328125e+00,-5.823276638984680176e-01
5.925785541534423828e+00,-9.414783477783203125e+00,-1.941774785518646240e-01
5.932768344879150391e+00,-9.425878524780273438e+00,1.944063007831573486e-01
5.939785957336425781e+00,-9.437027931213378906e+00,5.843836069107055664e-01
5.946713924407958984e+00,-9.448034286499023438e+00,9.766979217529296875e-01
2.182611942291259766e+00,-3.360044002532958984e+00,-1.073591828346252441e+00
2.588630914688110352e+00,-3.985093832015991211e+00,-1.097095608711242676e+00
3.195863723754882812e+00,-4.919904708862304688e+00,-1.140383124351501465e+00
4.110827445983886719e+00,-6.328454971313476562e+00,-1.195231556892395020e+00
5.753263950347900391e+00,-8.856920242309570312e+00,-1.296786069869995117e+00
5.917507171630859375e+00,-9.109766960144042969e+00,-9.503878355026245117e-01
5.924495220184326172e+00,-9.120524406433105469e+00,-5.699770450592041016e-01
5.931413173675537109e+00,-9.131174087524414062e+00,-1.900596469640731812e-01
5.938261985778808594e+00,-9.141717910766601562e+00,1.902791112661361694e-01
5.945559024810791016e+00,-9.152951240539550781e+00,5.720035433769226074e-01
5.952434539794921875e+00,-9.163536071777343750e+00,9.559973478317260742e-01
2.226943969726562500e+00,-3.323189735412597656e+00,-1.071891188621520996e+00
2.650709629058837891e+00,-3.955559968948364258e+00,-1.099297404289245605e+00
3.252560377120971680e+00,-4.853680610656738281e+00,-1.135707736015319824e+00
4.204467773437500000e+00,-6.274178504943847656e+00,-1.196224093437194824e+00
5.914769649505615234e+00,-8.826401710510253906e+00,-1.304579615592956543e+00
5.921887397766113281e+00,-8.837023735046386719e+00,-9.306811690330505371e-01
5.928864002227783203e+00,-8.847434043884277344e+00,-5.581567883491516113e-01
5.935786724090576172e+00,-8.857764244079589844e+00,-1.861181557178497314e-01
5.942673206329345703e+00,-8.868041038513183594e+00,1.863340884447097778e-01
5.949470043182373047e+00,-8.878183364868164062e+00,5.600966811180114746e-01
5.956723690032958984e+00,-8.889007568359375000e+00,9.361559748649597168e-01
2.272705793380737305e+00,-3.288703203201293945e+00,-1.071150541305541992e+00
2.702475070953369141e+00,-3.910597801208496094e+00,-1.097439646720886230e+00
3.330425500869750977e+00,-4.819269180297851562e+00,-1.138693451881408691e+00
4.301865577697753906e+00,-6.224984645843505859e+00,-1.198461771011352539e+00
5.918591499328613281e+00,-8.564456939697265625e+00,-1.278253555297851562e+00
5.925296783447265625e+00,-8.574159622192382812e+00,-9.118359684944152832e-01
5.932274341583251953e+00,-8.584257125854492188e+00,-5.468545556068420410e-01
5.939200401306152344e+00,-8.594278335571289062e+00,-1.823493838310241699e-01
5.946109294891357422e+00,-8.604276657104492188e+00,1.825615018606185913e-01
5.953330039978027344e+00,-8.614725112915039062e+00,5.487955212593078613e-01
5.959957122802734375e+00,-8.624314308166503906e+00,9.171698689460754395e-01
2.320124626159667969e+00,-3.256658554077148438e+00,-1.071420073509216309e+00
2.756030321121215820e+00,-3.868520498275756836e+00,-1.096589565277099609e+00
3.391222953796386719e+00,-4.760113239288330078e+00,-1.136068820953369141e+00
4.369010448455810547e+00,-6.132590770721435547e+00,-1.192591190338134766e+00
5.921280384063720703e+00,-8.311445236206054688e+00,-1.253012537956237793e+00
5.928095817565917969e+00,-8.321011543273925781e+00,-8.938466310501098633e-01
5.934978485107421875e+00,-8.330672264099121094e+00,-5.360569357872009277e-01
5.941923618316650391e+00,-8.340421676635742188e+00,-1.787493824958801270e-01
5.948934555053710938e+00,-8.350262641906738281e+00,1.789602935314178467e-01
5.956065654754638672e+00,-8.360272407531738281e+00,5.379616022109985352e-01
5.963192462921142578e+00,-8.370275497436523438e+00,8.991386294364929199e-01
5.970118522644042969e+00,-8.379997253417968750e+00,1.263347268104553223e+00
2.371263027191162109e+00,-3.229611873626708984e+00,-1.073578238487243652e+00
2.813840389251708984e+00,-3.832392930984497070e+00,-1.097652912139892578e+00
3.456926584243774414e+00,-4.708263397216796875e+00,-1.135387063026428223e+00
4.477456092834472656e+00,-6.098203659057617188e+00,-1.198244333267211914e+00
5.928247928619384766e+00,-8.074152946472167969e+00,-1.229905247688293457e+00
5.935236454010009766e+00,-8.083670616149902344e+00,-8.773872852325439453e-01
5.942163944244384766e+00,-8.093105316162109375e+00,-5.261891484260559082e-01
5.949117183685302734e+00,-8.102576255798339844e+00,-1.754589378833770752e-01
5.956116199493408203e+00,-8.112109184265136719e+00,1.756653785705566406e-01
5.963106632232666016e+00,-8.121628761291503906e+00,5.280436873435974121e-01
5.969964504241943359e+00,-8.130969047546386719e+00,8.825209736824035645e-01
5.977412223815917969e+00,-8.141113281250000000e+00,1.240105152130126953e+00
2.412638187408447266e+00,-3.189257383346557617e+00,-1.071533322334289551e+00
2.871867179870605469e+00,-3.796310424804687500e+00,-1.098979234695434570e+00
3.522468090057373047e+00,-4.656337261199951172e+00,-1.134907364845275879e+00
4.550335407257080078e+00,-6.015070915222167969e+00,-1.194584727287292480e+00
5.930715084075927734e+00,-7.839789867401123047e+00,-1.207012772560119629e+00
5.937884807586669922e+00,-7.849267482757568359e+00,-8.610821962356567383e-01
5.944854736328125000e+00,-7.858480930328369141e+00,-5.164140462875366211e-01
5.951811313629150391e+00,-7.867676734924316406e+00,-1.721994131803512573e-01
5.958788871765136719e+00,-7.876900196075439453e+00,1.724012941122055054e-01
5.965621471405029297e+00,-7.885932445526123047e+00,5.182180404663085938e-01
5.972912788391113281e+00,-7.895570755004882812e+00,8.661617636680603027e-01
5.980156421661376953e+00,-7.905146121978759766e+00,1.217075109481811523e+00
2.455612659454345703e+00,-3.151291370391845703e+00,-1.070477008819580078e+00
2.917479753494262695e+00,-3.744006395339965820e+00,-1.095814466476440430e+00
3.590836286544799805e+00,-4.608125686645507812e+00,-1.135567426681518555e+00
4.626049995422363281e+00,-5.936616897583007812e+00,-1.192031860351562500e+00
5.934066295623779297e+00,-7.615196228027343750e+00,-1.185389876365661621e+00
5.940907955169677734e+00,-7.623976230621337891e+00,-8.456091880798339844e-01
5.947823047637939453e+00,-7.632850646972656250e+00,-5.071294903755187988e-01
5.954799652099609375e+00,-7.641803264617919922e+00,-1.691039204597473145e-01
5.961839199066162109e+00,-7.650837421417236328e+00,1.693038344383239746e-01
5.969007492065429688e+00,-7.660036563873291016e+00,5.089357495307922363e-01
5.976175308227539062e+00,-7.669235229492187500e+00,8.506290316581726074e-01
5.983147144317626953e+00,-7.678181648254394531e+00,1.195194244384765625e+00
2.500393390655517578e+00,-3.115738153457641602e+00,-1.070447564125061035e+00
2.980456829071044922e+00,-3.713944673538208008e+00,-1.099389314651489258e+00
3.662378787994384766e+00,-4.563686847686767578e+00,-1.137418031692504883e+00
4.704976558685302734e+00,-5.862866878509521484e+00,-1.190623760223388672e+00
5.937515735626220703e+00,-7.398733139038085938e+00,-1.164804697036743164e+00
5.944603919982910156e+00,-7.407565593719482422e+00,-8.309584259986877441e-01
5.951594352722167969e+00,-7.416275978088378906e+00,-4.983491003513336182e-01
5.958574771881103516e+00,-7.424974918365478516e+00,-1.661760658025741577e-01
5.965563774108886719e+00,-7.433683872222900391e+00,1.663709878921508789e-01
5.972509860992431641e+00,-7.442338943481445312e+00,5.001004338264465332e-01
5.980044841766357422e+00,-7.451728820800781250e+00,8.359125256538391113e-01
5.986673355102539062e+00,-7.459988594055175781e+00,1.174448370933532715e+00
2.547194004058837891e+00,-3.082615375518798828e+00,-1.071484088897705078e+00
3.030435800552368164e+00,-3.667434930801391602e+00,-1.098349213600158691e+00
3.712764024734497070e+00,-4.493188858032226562e+00,-1.132976412773132324e+00
4.787503242492675781e+00,-5.793838500976562500e+00,-1.190399765968322754e+00
5.942437171936035156e+00,-7.191540241241455078e+00,-1.145459175109863281e+00
5.949246406555175781e+00,-7.199780941009521484e+00,-8.171184659004211426e-01
5.956332206726074219e+00,-7.208356380462646484e+00,-4.900562763214111328e-01
5.963317871093750000e+00,-7.216810226440429688e+00,-1.634107828140258789e-01
5.970239162445068359e+00,-7.225186347961425781e+00,1.636004447937011719e-01
5.977475643157958984e+00,-7.233943939208984375e+00,4.917958378791809082e-01
5.984795570373535156e+00,-7.242802619934082031e+00,8.220010399818420410e-01
5.991999149322509766e+00,-7.251520633697509766e+00,1.155012845993041992e+00
2.594174146652221680e+00,-3.049515008926391602e+00,-1.072775363922119141e+00
3.080223321914672852e+00,-3.620877742767333984e+00,-1.097497582435607910e+00
3.787623167037963867e+00,-4.452443599700927734e+00,-1.136256217956542969e+00
4.869998931884765625e+00,-5.724802970886230469e+00,-1.190415740013122559e+00
5.943214416503906250e+00,-6.986393451690673828e+00,-1.126217842102050781e+00
5.950311183929443359e+00,-6.994736194610595703e+00,-8.034312129020690918e-01
5.957370281219482422e+00,-7.003034591674804688e+00,-4.818452894687652588e-01
5.964374542236328125e+00,-7.011268138885498047e+00,-1.606732755899429321e-01
5.971324443817138672e+00,-7.019437789916992188e+00,1.608604937791824341e-01
5.978289604187011719e+00,-7.027625560760498047e+00,4.835372865200042725e-01
5.985932826995849609e+00,-7.036610603332519531e+00,8.082410097122192383e-01
5.992708683013916016e+00,-7.044575214385986328e+00,1.135596871376037598e+00
2.633543729782104492e+00,-3.007496356964111328e+00,-1.071144700050354004e+00
3.134979724884033203e+00,-3.580134391784667969e+00,-1.098636507987976074e+00
3.843288183212280273e+00,-4.389019489288330078e+00,-1.133993029594421387e+00
4.960843086242675781e+00,-5.665262699127197266e+00,-1.192677855491638184e+00
5.950704097747802734e+00,-6.795680046081542969e+00,-1.109091281890869141e+00
5.957932949066162109e+00,-6.803935050964355469e+00,-7.912296652793884277e-01
5.964768409729003906e+00,-6.811741352081298828e+00,-4.745090603828430176e-01
5.971781253814697266e+00,-6.819749832153320312e+00,-1.582269817590713501e-01
5.978971958160400391e+00,-6.827961444854736328e+00,1.584174931049346924e-01
5.985839843750000000e+00,-6.835804939270019531e+00,4.761853516101837158e-01
5.993171691894531250e+00,-6.844177722930908203e+00,7.959094643592834473e-01
6.000426292419433594e+00,-6.852462291717529297e+00,1.118358492851257324e+00
2.682930946350097656e+00,-2.976835250854492188e+00,-1.073791742324829102e+00
3.187328338623046875e+00,-3.536487340927124023e+00,-1.099129915237426758e+00
3.922436952590942383e+00,-4.352123737335205078e+00,-1.138849496841430664e+00
5.048102378845214844e+00,-5.601101875305175781e+00,-1.194259762763977051e+00
5.950239658355712891e+00,-6.602064609527587891e+00,-1.091280341148376465e+00
5.957213401794433594e+00,-6.609801769256591797e+00,-7.784900069236755371e-01
5.964160919189453125e+00,-6.617510795593261719e+00,-4.668778181076049805e-01
5.971172809600830078e+00,-6.625290393829345703e+00,-1.556822955608367920e-01
5.978266239166259766e+00,-6.633161067962646484e+00,1.558672338724136353e-01
5.985388755798339844e+00,-6.641063690185546875e+00,4.685395061969757080e-01
5.992415428161621094e+00,-6.648860454559326172e+00,7.830902338027954102e-01
5.999150753021240234e+00,-6.656333446502685547e+00,1.100250720977783203e+00
2.724297523498535156e+00,-2.937093734741210938e+00,-1.073412179946899414e+00
3.226713418960571289e+00,-3.478753566741943359e+00,-1.095428466796875000e+00
3.981179237365722656e+00,-4.292151451110839844e+00,-1.137951016426086426e+00
5.144572257995605469e+00,-5.546417236328125000e+00,-1.198177933692932129e+00
5.956358909606933594e+00,-6.421613216400146484e+00,-1.075435042381286621e+00
5.963131904602050781e+00,-6.428915500640869141e+00,-7.671597003936767578e-01
5.970231533050537109e+00,-6.436569213867187500e+00,-4.600939154624938965e-01
5.977250099182128906e+00,-6.444136142730712891e+00,-1.534201651811599731e-01
5.984222888946533203e+00,-6.451653480529785156e+00,1.535991430282592773e-01
5.991560459136962891e+00,-6.459564685821533203e+00,4.617376327514648438e-01
5.998196601867675781e+00,-6.466718673706054688e+00,7.716707587242126465e-01
6.005350112915039062e+00,-6.474431514739990234e+00,1.084280610084533691e+00
2.765574216842651367e+00,-2.897300004959106445e+00,-1.073225975036621094e+00
3.284342527389526367e+00,-3.440777778625488281e+00,-1.098160862922668457e+00
4.039709091186523438e+00,-4.232122898101806641e+00,-1.137249469757080078e+00
5.193325519561767578e+00,-5.440686702728271484e+00,-1.191273570060729980e+00
5.959034442901611328e+00,-6.242866516113281250e+00,-1.059675931930541992e+00
5.966217994689941406e+00,-6.250392436981201172e+00,-7.559695839881896973e-01
5.973340988159179688e+00,-6.257854938507080078e+00,-4.533843398094177246e-01
5.980380535125732422e+00,-6.265229701995849609e+00,-1.511832624673843384e-01
5.987335681915283203e+00,-6.272516250610351562e+00,1.513590961694717407e-01
5.994285106658935547e+00,-6.279796600341796875e+00,4.549739956855773926e-01
6.001943588256835938e+00,-6.287819862365722656e+00,7.604963779449462891e-01
6.008676052093505859e+00,-6.294872760772705078e+00,1.068503618240356445e+00
2.806825399398803711e+00,-2.857492208480834961e+00,-1.073252081871032715e+00
3.322979211807250977e+00,-3.382962942123413086e+00,-1.094776868820190430e+00
4.098115921020507812e+00,-4.172091960906982422e+00,-1.136764168739318848e+00
5.290420532226562500e+00,-5.385919094085693359e+00,-1.195739626884460449e+00
5.959625244140625000e+00,-6.067203998565673828e+00,-1.044231057167053223e+00
5.966988563537597656e+00,-6.074699878692626953e+00,-7.449736595153808594e-01
5.973891258239746094e+00,-6.081727027893066406e+00,-4.467730522155761719e-01
5.980931282043457031e+00,-6.088894367218017578e+00,-1.489786952733993530e-01
5.988110065460205078e+00,-6.096202850341796875e+00,1.491575241088867188e-01
5.994895458221435547e+00,-6.103110790252685547e+00,4.483439326286315918e-01
6.002136230468750000e+00,-6.110481739044189453e+00,7.493617534637451172e-01
6.009269237518310547e+00,-6.117743968963623047e+00,1.052929639816284180e+00
2.836372137069702148e+00,-2.806084156036376953e+00,-1.069082617759704590e+00
3.383906126022338867e+00,-3.347771167755126953e+00,-1.098950147628784180e+00
4.159947395324707031e+00,-4.115525722503662109e+00,-1.137458920478820801e+00
5.341779232025146484e+00,-5.284737110137939453e+00,-1.190129041671752930e+00
5.962506771087646484e+00,-5.898836135864257812e+00,-1.029836416244506836e+00
5.969706535339355469e+00,-5.905959129333496094e+00,-7.346836328506469727e-01
5.976784229278564453e+00,-5.912961483001708984e+00,-4.406146407127380371e-01
5.983826637268066406e+00,-5.919928550720214844e+00,-1.469251215457916260e-01
5.990853309631347656e+00,-5.926880359649658203e+00,1.470976620912551880e-01
5.997809886932373047e+00,-5.933762550354003906e+00,4.421646893024444580e-01
6.005440711975097656e+00,-5.941311836242675781e+00,7.390813827514648438e-01
6.012063503265380859e+00,-5.947863578796386719e+00,1.038395762443542480e+00
6.019382953643798828e+00,-5.955105304718017578e+00,1.341096639633178711e+00
2.882026433944702148e+00,-2.770763158798217773e+00,-1.071232438087463379e+00
3.427717447280883789e+00,-3.295387506484985352e+00,-1.097747445106506348e+00
4.225461006164550781e+00,-4.062333583831787109e+00,-1.139356613159179688e+00
5.449270725250244141e+00,-5.238896846771240234e+00,-1.197248339653015137e+00
5.967823505401611328e+00,-5.737430572509765625e+00,-1.016466498374938965e+00
5.975278377532958984e+00,-5.744597434997558594e+00,-7.251757383346557617e-01
5.982163429260253906e+00,-5.751216888427734375e+00,-4.348979592323303223e-01
5.989212512969970703e+00,-5.757993698120117188e+00,-1.450188755989074707e-01
5.996445178985595703e+00,-5.764946937561035156e+00,1.451939940452575684e-01
6.003175735473632812e+00,-5.771418094635009766e+00,4.364255368709564209e-01
6.010284900665283203e+00,-5.778252601623535156e+00,7.294242382049560547e-01
6.017201900482177734e+00,-5.784903049468994141e+00,1.024876832962036133e+00
6.025025367736816406e+00,-5.792424201965332031e+00,1.323746204376220703e+00
2.927995204925537109e+00,-2.735406160354614258e+00,-1.073655843734741211e+00
3.471297740936279297e+00,-3.242972850799560547e+00,-1.096726298332214355e+00
4.258837699890136719e+00,-3.978712320327758789e+00,-1.132884502410888672e+00
5.504037380218505859e+00,-5.142008781433105469e+00,-1.192988276481628418e+00
5.970872879028320312e+00,-5.578137874603271484e+00,-1.003283977508544922e+00
5.978194713592529297e+00,-5.584978580474853516e+00,-7.157545685768127441e-01
5.985279083251953125e+00,-5.591596603393554688e+00,-4.292620122432708740e-01
5.992331981658935547e+00,-5.598186016082763672e+00,-1.431395411491394043e-01
5.999388217926025391e+00,-5.604777812957763672e+00,1.433081030845642090e-01
6.006258964538574219e+00,-5.611196994781494141e+00,4.307666718959808350e-01
6.013710975646972656e+00,-5.618158817291259766e+00,7.200068831443786621e-01
6.021166324615478516e+00,-5.625123500823974609e+00,1.011734843254089355e+00
6.028350353240966797e+00,-5.631835460662841797e+00,1.306632041931152344e+00
2.959067583084106445e+00,-2.686160802841186523e+00,-1.070841431617736816e+00
3.514713287353515625e+00,-3.190561056137084961e+00,-1.095902442932128906e+00
4.324218750000000000e+00,-3.925408124923706055e+00,-1.135214209556579590e+00
5.557909011840820312e+00,-5.045318126678466797e+00,-1.188890457153320312e+00
5.971780300140380859e+00,-5.421019554138183594e+00,-9.902970194816589355e-01
5.978971958160400391e+00,-5.427547931671142578e+00,-7.064740061759948730e-01
5.986119747161865234e+00,-5.434036254882812500e+00,-4.237005710601806641e-01
5.993191242218017578e+00,-5.440455436706542969e+00,-1.412854641675949097e-01
6.000185012817382812e+00,-5.446804523468017578e+00,1.414503455162048340e-01
6.007188796997070312e+00,-5.453162193298339844e+00,4.251918196678161621e-01
6.014982700347900391e+00,-5.460237026214599609e+00,7.107290029525756836e-01
6.021817684173583984e+00,-5.466442108154296875e+00,9.985947012901306152e-01
6.029483318328857422e+00,-5.473400592803955078e+00,1.289764761924743652e+00
2.992185115814208984e+00,-2.639104843139648438e+00,-1.069046616554260254e+00
3.560925483703613281e+00,-3.140733003616333008e+00,-1.096182107925415039e+00
4.393802642822265625e+00,-3.875330209732055664e+00,-1.138802886009216309e+00
5.672835826873779297e+00,-5.003436565399169922e+00,-1.198032259941101074e+00
5.976147174835205078e+00,-5.270956516265869141e+00,-9.784097671508789062e-01
5.982975006103515625e+00,-5.276978492736816406e+00,-6.979506611824035645e-01
5.989943981170654297e+00,-5.283125400543212891e+00,-4.185759425163269043e-01
5.997019290924072266e+00,-5.289365768432617188e+00,-1.395766139030456543e-01
6.004202365875244141e+00,-5.295701503753662109e+00,1.397438049316406250e-01
6.011581420898437500e+00,-5.302209854125976562e+00,4.200879931449890137e-01
6.018111228942871094e+00,-5.307969093322753906e+00,7.020495533943176270e-01
6.025169372558593750e+00,-5.314194202423095703e+00,9.864357113838195801e-01
6.033255100250244141e+00,-5.321325778961181641e+00,1.274148225784301758e+00
3.041014909744262695e+00,-2.605748891830444336e+00,-1.073057055473327637e+00
3.607172250747680664e+00,-3.090871095657348633e+00,-1.096687197685241699e+00
4.428990840911865234e+00,-3.795061111450195312e+00,-1.133727908134460449e+00
5.731121063232421875e+00,-4.910815238952636719e+00,-1.195374250411987305e+00
5.977939605712890625e+00,-5.122306346893310547e+00,-9.666007161140441895e-01
5.984664916992187500e+00,-5.128068923950195312e+00,-6.895145773887634277e-01
5.991860389709472656e+00,-5.134234428405761719e+00,-4.135321378707885742e-01
5.998937606811523438e+00,-5.140298843383789062e+00,-1.378947198390960693e-01
6.005915164947509766e+00,-5.146277427673339844e+00,1.380551159381866455e-01
6.013401508331298828e+00,-5.152692317962646484e+00,4.150188267230987549e-01
6.020213603973388672e+00,-5.158529758453369141e+00,6.936103105545043945e-01
6.027744770050048828e+00,-5.164982795715332031e+00,9.746539592742919922e-01
6.035058021545410156e+00,-5.171248912811279297e+00,1.258768200874328613e+00
3.076454401016235352e+00,-2.560675144195556641e+00,-1.072519302368164062e+00
3.656470537185668945e+00,-3.043449401855468750e+00,-1.098318696022033691e+00
4.502832889556884766e+00,-3.747915744781494141e+00,-1.138781189918518066e+00
5.793663024902343750e+00,-4.822333335876464844e+00,-1.193899989128112793e+00
5.982700347900390625e+00,-4.979678153991699219e+00,-9.557476043701171875e-01
5.989769935607910156e+00,-4.985562324523925781e+00,-6.818111538887023926e-01
5.996800899505615234e+00,-4.991414546966552734e+00,-4.089004695415496826e-01
6.003883838653564453e+00,-4.997310161590576172e+00,-1.363502591848373413e-01
6.011037826538085938e+00,-5.003264427185058594e+00,1.365127265453338623e-01
6.018207073211669922e+00,-5.009231567382812500e+00,4.103600680828094482e-01
6.025267124176025391e+00,-5.015108108520507812e+00,6.858518123626708984e-01
6.032023906707763672e+00,-5.020732402801513672e+00,9.636271595954895020e-01
6.039673328399658203e+00,-5.027099132537841797e+00,1.244595289230346680e+00
3.109322547912597656e+00,-2.513581514358520508e+00,-1.071325421333312988e+00
3.703038692474365234e+00,-2.993542432785034180e+00,-1.099323511123657227e+00
4.537115097045898438e+00,-3.667811393737792969e+00,-1.134057998657226562e+00
5.851033687591552734e+00,-4.729985237121582031e+00,-1.191648840904235840e+00
5.980999946594238281e+00,-4.835050106048583984e+00,-9.443233609199523926e-01
5.987975120544433594e+00,-4.840688705444335938e+00,-6.736509799957275391e-01
5.995241165161132812e+00,-4.846562862396240234e+00,-4.040225446224212646e-01
6.002322673797607422e+00,-4.852287292480468750e+00,-1.347236931324005127e-01
6.009253025054931641e+00,-4.857890129089355469e+00,1.348792612552642822e-01
6.016512870788574219e+00,-4.863759040832519531e+00,4.054560661315917969e-01
6.023846626281738281e+00,-4.869687557220458984e+00,6.776865720748901367e-01
6.031055450439453125e+00,-4.875514984130859375e+00,9.522265195846557617e-01
6.037869930267333984e+00,-4.881023883819580078e+00,1.229700684547424316e+00
3.147029161453247070e+00,-2.470433235168457031e+00,-1.072023868560791016e+00
3.731188535690307617e+00,-2.929001092910766602e+00,-1.095122098922729492e+00
4.578149795532226562e+00,-3.593869924545288086e+00,-1.131341099739074707e+00
5.917734622955322266e+00,-4.645450592041015625e+00,-1.191569209098815918e+00
5.987156867980957031e+00,-4.699947357177734375e+00,-9.345782995223999023e-01
5.994523525238037109e+00,-4.705730438232421875e+00,-6.667419075965881348e-01
6.001643180847167969e+00,-4.711318969726562500e+00,-3.998685181140899658e-01
6.008732318878173828e+00,-4.716884136199951172e+00,-1.333385109901428223e-01
6.015825271606445312e+00,-4.722452163696289062e+00,1.334959119558334351e-01
6.022723197937011719e+00,-4.727867126464843750e+00,4.012730121612548828e-01
6.030263900756835938e+00,-4.733786582946777344e+00,6.707171201705932617e-01
6.037836551666259766e+00,-4.739731311798095703e+00,9.424892663955688477e-01
6.045166969299316406e+00,-4.745485305786132812e+00,1.217228412628173828e+00
3.182273387908935547e+00,-2.425299882888793945e+00,-1.072094559669494629e+00
3.780755996704101562e+00,-2.881420135498046875e+00,-1.097452998161315918e+00
4.653178691864013672e+00,-3.546318054199218750e+00,-1.137221813201904297e+00
5.979466915130615234e+00,-4.557119369506835938e+00,-1.190743327140808105e+00
5.987782001495361328e+00,-4.563456535339355469e+00,-9.243851304054260254e-01
5.994387149810791016e+00,-4.568490505218505859e+00,-6.593860983848571777e-01
6.001618862152099609e+00,-4.574001789093017578e+00,-3.954643607139587402e-01
6.008725166320800781e+00,-4.579417705535888672e+00,-1.318702995777130127e-01
6.015705585479736328e+00,-4.584737777709960938e+00,1.320234984159469604e-01
6.023352622985839844e+00,-4.590565681457519531e+00,3.968964815139770508e-01
6.030428886413574219e+00,-4.595958709716796875e+00,6.633506417274475098e-01
6.037155151367187500e+00,-4.601085186004638672e+00,9.320071935653686523e-01
6.044782638549804688e+00,-4.606898307800292969e+00,1.203750252723693848e+00
3.220051288604736328e+00,-2.382016658782958984e+00,-1.073225498199462891e+00
3.808094501495361328e+00,-2.817018508911132812e+00,-1.093572378158569336e+00
4.693870544433593750e+00,-3.472266912460327148e+00,-1.134903907775878906e+00
5.983846664428710938e+00,-4.426520347595214844e+00,-1.178877592086791992e+00
5.990948200225830078e+00,-4.431773662567138672e+00,-9.149873256683349609e-01
5.997958660125732422e+00,-4.436959266662597656e+00,-6.527261137962341309e-01
6.005041122436523438e+00,-4.442198753356933594e+00,-3.914600908756256104e-01
6.012150764465332031e+00,-4.447458267211914062e+00,-1.305350363254547119e-01
6.019289493560791016e+00,-4.452738761901855469e+00,1.306900233030319214e-01
6.026554107666015625e+00,-4.458112716674804688e+00,3.928624689579010010e-01
6.033819198608398438e+00,-4.463487148284912109e+00,6.566286683082580566e-01
6.040884494781494141e+00,-4.468713760375976562e+00,9.226139783859252930e-01
6.049018383026123047e+00,-4.474730491638183594e+00,1.191717028617858887e+00
3.239626646041870117e+00,-2.325504064559936523e+00,-1.068546295166015625e+00
3.860984325408935547e+00,-2.771533727645874023e+00,-1.097256302833557129e+00
4.734175205230712891e+00,-3.398336887359619141e+00,-1.132772088050842285e+00
5.985825538635253906e+00,-4.296810150146484375e+00,-1.167031288146972656e+00
5.992751598358154297e+00,-4.301782131195068359e+00,-9.057660102844238281e-01
6.000181198120117188e+00,-4.307115077972412109e+00,-6.461927890777587891e-01
6.007111072540283203e+00,-4.312089443206787109e+00,-3.875318169593811035e-01
6.014223575592041016e+00,-4.317195415496826172e+00,-1.292251348495483398e-01
6.021519660949707031e+00,-4.322432518005371094e+00,1.293819099664688110e-01
6.028385639190673828e+00,-4.327361106872558594e+00,3.889043033123016357e-01
6.035830497741699219e+00,-4.332705497741699219e+00,6.500320434570312500e-01
6.043230533599853516e+00,-4.338017463684082031e+00,9.133955240249633789e-01
6.050312042236328125e+00,-4.343100547790527344e+00,1.179604053497314453e+00
3.277274608612060547e+00,-2.282171249389648438e+00,-1.070080041885375977e+00
3.887733459472656250e+00,-2.707271814346313477e+00,-1.093733549118041992e+00
4.774160861968994141e+00,-3.324546575546264648e+00,-1.130837798118591309e+00
5.986537456512451172e+00,-4.168800354003906250e+00,-1.155418157577514648e+00
5.994025230407714844e+00,-4.174014568328857422e+00,-8.968365788459777832e-01
6.000710010528564453e+00,-4.178669452667236328e+00,-6.397427916526794434e-01
6.007930755615234375e+00,-4.183697700500488281e+00,-3.836821913719177246e-01
6.015044212341308594e+00,-4.188651084899902344e+00,-1.279414594173431396e-01
6.022067546844482422e+00,-4.193542003631591797e+00,1.280908435583114624e-01
6.029665946960449219e+00,-4.198833465576171875e+00,3.850702941417694092e-01
6.036565780639648438e+00,-4.203638076782226562e+00,6.435654163360595703e-01
6.044292449951171875e+00,-4.209018707275390625e+00,9.043576717376708984e-01
6.051850795745849609e+00,-4.214282035827636719e+00,1.168023824691772461e+00
3.317638874053955078e+00,-2.240460872650146484e+00,-1.072678685188293457e+00
3.944251060485839844e+00,-2.663623332977294922e+00,-1.098795175552368164e+00
4.817609786987304688e+00,-3.253418207168579102e+00,-1.129983305931091309e+00
5.990538120269775391e+00,-4.045517444610595703e+00,-1.144897103309631348e+00
5.997904777526855469e+00,-4.050492763519287109e+00,-8.886514902114868164e-01
6.005052566528320312e+00,-4.055319786071777344e+00,-6.339525580406188965e-01
6.012140274047851562e+00,-4.060106277465820312e+00,-3.802007734775543213e-01
6.019258499145507812e+00,-4.064913272857666016e+00,-1.267805397510528564e-01
6.026425361633300781e+00,-4.069753170013427734e+00,1.269314885139465332e-01
6.033586025238037109e+00,-4.074588775634765625e+00,3.815569877624511719e-01
6.040616512298583984e+00,-4.079336643218994141e+00,6.377069950103759766e-01
6.048622608184814453e+00,-4.084743499755859375e+00,8.961658477783203125e-01
6.055014610290527344e+00,-4.089059829711914062e+00,1.157219767570495605e+00
3.338837385177612305e+00,-2.185857534408569336e+00,-1.069307327270507812e+00
3.973615884780883789e+00,-2.601432085037231445e+00,-1.096490263938903809e+00
4.903270721435546875e+00,-3.210054874420166016e+00,-1.139181613922119141e+00
5.993366718292236328e+00,-3.923714876174926758e+00,-1.134588003158569336e+00
6.000618934631347656e+00,-3.928462982177734375e+00,-8.806323409080505371e-01
6.008242130279541016e+00,-3.933453321456909180e+00,-6.282811164855957031e-01
6.015194416046142578e+00,-3.938004970550537109e+00,-3.767907619476318359e-01
6.022316455841064453e+00,-3.942667722702026367e+00,-1.256434619426727295e-01
6.029625892639160156e+00,-3.947453022003173828e+00,1.257959604263305664e-01
6.036333560943603516e+00,-3.951844215393066406e+00,3.781149089336395264e-01
6.043485641479492188e+00,-3.956526517868041992e+00,6.319665312767028809e-01
6.050448417663574219e+00,-3.961084842681884766e+00,8.879451751708984375e-01
6.058547973632812500e+00,-3.966387510299682617e+00,1.146927237510681152e+00
3.379379272460937500e+00,-2.143938541412353516e+00,-1.072353482246398926e+00
4.002673625946044922e+00,-2.539367914199829102e+00,-1.094366788864135742e+00
4.947160243988037109e+00,-3.138566970825195312e+00,-1.138824701309204102e+00
5.996154785156250000e+00,-3.804067850112915039e+00,-1.124692916870117188e+00
6.003005027770996094e+00,-3.808413743972778320e+00,-8.728931546211242676e-01
6.009906291961669922e+00,-3.812792062759399414e+00,-6.226845979690551758e-01
6.017182350158691406e+00,-3.817408084869384766e+00,-3.734543919563293457e-01
6.024305820465087891e+00,-3.821927309036254883e+00,-1.245308965444564819e-01
6.031313419342041016e+00,-3.826373100280761719e+00,1.246757581830024719e-01
6.038733482360839844e+00,-3.831080436706542969e+00,3.747919499874114990e-01
6.046297073364257812e+00,-3.835879087448120117e+00,6.264550089836120605e-01
6.052473068237304688e+00,-3.839797258377075195e+00,8.800863027572631836e-01
6.060971260070800781e+00,-3.845188617706298828e+00,1.136850476264953613e+00
6.067471027374267578e+00,-3.849312067031860352e+00,1.396717548370361328e+00
3.400136470794677734e+00,-2.089465856552124023e+00,-1.069340348243713379e+00
4.060282707214355469e+00,-2.495141506195068359e+00,-1.100240230560302734e+00
4.991008281707763672e+00,-3.067095041275024414e+00,-1.138695955276489258e+00
5.996911048889160156e+00,-3.685246229171752930e+00,-1.114826560020446777e+00
6.003655910491943359e+00,-3.689391136169433594e+00,-8.652203679084777832e-01
6.011048316955566406e+00,-3.693933963775634766e+00,-6.172615289688110352e-01
6.018193244934082031e+00,-3.698324680328369141e+00,-3.701937496662139893e-01
6.025318145751953125e+00,-3.702703237533569336e+00,-1.234436258673667908e-01
6.032459735870361328e+00,-3.707091808319091797e+00,1.235899329185485840e-01
6.039405345916748047e+00,-3.711359977722167969e+00,3.714985549449920654e-01
6.047076702117919922e+00,-3.716074228286743164e+00,6.209611892700195312e-01
6.053485393524169922e+00,-3.720012664794921875e+00,8.724015951156616211e-01
6.060745239257812500e+00,-3.724473953247070312e+00,1.126693367958068848e+00
6.069375514984130859e+00,-3.729777574539184570e+00,1.384724736213684082e+00
3.441058635711669922e+00,-2.047351598739624023e+00,-1.072884202003479004e+00
4.089300632476806641e+00,-2.433040857315063477e+00,-1.098554134368896484e+00
4.990164279937744141e+00,-2.969033956527709961e+00,-1.128691911697387695e+00
5.996761798858642578e+00,-3.567936658859252930e+00,-1.105191826820373535e+00
6.004174232482910156e+00,-3.572346925735473633e+00,-8.578382134437561035e-01
6.011306762695312500e+00,-3.576590776443481445e+00,-6.119684576988220215e-01
6.018318176269531250e+00,-3.580762386322021484e+00,-3.670111596584320068e-01
6.025444030761718750e+00,-3.585002183914184570e+00,-1.223823800683021545e-01
6.032718181610107422e+00,-3.589329957962036133e+00,1.225301176309585571e-01
6.039926052093505859e+00,-3.593618392944335938e+00,3.683288395404815674e-01
6.046942710876464844e+00,-3.597793340682983398e+00,6.155962944030761719e-01
6.054926872253417969e+00,-3.602543830871582031e+00,8.650894761085510254e-01
6.061196804046630859e+00,-3.606274127960205078e+00,1.117067098617553711e+00
6.068409442901611328e+00,-3.610565662384033203e+00,1.372573137283325195e+00
3.463974237442016602e+00,-1.994419574737548828e+00,-1.071018695831298828e+00
4.121101856231689453e+00,-2.372767448425292969e+00,-1.097861051559448242e+00
5.036965847015380859e+00,-2.900085926055908203e+00,-1.129773020744323730e+00
5.999942302703857422e+00,-3.454529762268066406e+00,-1.096552729606628418e+00
6.007305145263671875e+00,-3.458769083023071289e+00,-8.511251211166381836e-01
6.014507293701171875e+00,-3.462915658950805664e+00,-6.071860790252685547e-01
6.021709918975830078e+00,-3.467062711715698242e+00,-3.641543984413146973e-01
6.028856754302978516e+00,-3.471177577972412109e+00,-1.214301139116287231e-01
6.035947799682617188e+00,-3.475260257720947266e+00,1.215729340910911560e-01
6.043093204498291016e+00,-3.479374408721923828e+00,3.654475212097167969e-01
6.050167083740234375e+00,-3.483447313308715820e+00,6.107860803604125977e-01
6.058336734771728516e+00,-3.488151073455810547e+00,8.583554029464721680e-01
6.064900398254394531e+00,-3.491930007934570312e+00,1.108424544334411621e+00
6.072533607482910156e+00,-3.496325016021728516e+00,1.362047195434570312e+00
3.486655473709106445e+00,-1.941571712493896484e+00,-1.069329380989074707e+00
4.152762889862060547e+00,-2.312498807907104492e+00,-1.097365379333496094e+00
5.083881855010986328e+00,-2.830999851226806641e+00,-1.131091475486755371e+00
6.003329277038574219e+00,-3.343001365661621094e+00,-1.088315248489379883e+00
6.010347843170166016e+00,-3.346909523010253906e+00,-8.446822762489318848e-01
6.017319202423095703e+00,-3.350791931152343750e+00,-6.025663614273071289e-01
6.024408340454101562e+00,-3.354739189147949219e+00,-3.613767325878143311e-01
6.031558036804199219e+00,-3.358720541000366211e+00,-1.205038726329803467e-01
6.038769245147705078e+00,-3.362736463546752930e+00,1.206479519605636597e-01
6.046154022216796875e+00,-3.366848707199096680e+00,3.626811802387237549e-01
6.053583145141601562e+00,-3.370985507965087891e+00,6.061977744102478027e-01
6.060855388641357422e+00,-3.375035047531127930e+00,8.517805337905883789e-01
6.067701816558837891e+00,-3.378847837448120117e+00,1.099985003471374512e+00
6.075744628906250000e+00,-3.383326292037963867e+00,1.351766824722290039e+00
3.509140968322753906e+00,-1.888810038566589355e+00,-1.067824602127075195e+00
4.184334754943847656e+00,-2.252235889434814453e+00,-1.097077131271362305e+00
5.130977630615234375e+00,-2.761770725250244141e+00,-1.132658720016479492e+00
6.004843235015869141e+00,-3.232132434844970703e+00,-1.080092310905456543e+00
6.011825084686279297e+00,-3.235890388488769531e+00,-8.382947444915771484e-01
6.019353389739990234e+00,-3.239942789077758789e+00,-5.980648994445800781e-01
6.026328086853027344e+00,-3.243696689605712891e+00,-3.586701154708862305e-01
6.033480167388916016e+00,-3.247546195983886719e+00,-1.196013316512107849e-01
6.040810585021972656e+00,-3.251492023468017578e+00,1.197466477751731873e-01
6.047657012939453125e+00,-3.255177021026611328e+00,3.599395453929901123e-01
6.055126667022705078e+00,-3.259197711944580078e+00,6.016191840171813965e-01
6.062557697296142578e+00,-3.263197422027587891e+00,8.453689813613891602e-01
6.069675922393798828e+00,-3.267028808593750000e+00,1.091753721237182617e+00
6.078116893768310547e+00,-3.271572351455688477e+00,1.341738820075988770e+00
3.553253889083862305e+00,-1.847461342811584473e+00,-1.073091387748718262e+00
4.215866565704345703e+00,-2.191976785659790039e+00,-1.097005963325500488e+00
5.178325176239013672e+00,-2.692392826080322266e+00,-1.134487271308898926e+00
6.005634784698486328e+00,-3.122539997100830078e+00,-1.072085618972778320e+00
6.013377666473388672e+00,-3.126565933227539062e+00,-8.321857452392578125e-01
6.020205020904541016e+00,-3.130115509033203125e+00,-5.936371684074401855e-01
6.027546405792236328e+00,-3.133932590484619141e+00,-3.560363650321960449e-01
6.034699916839599609e+00,-3.137652158737182617e+00,-1.187230944633483887e-01
6.041682720184326172e+00,-3.141282796859741211e+00,1.188604757189750671e-01
6.049219131469726562e+00,-3.145201206207275391e+00,3.573165535926818848e-01
6.055941581726074219e+00,-3.148696422576904297e+00,5.971611142158508301e-01
6.063519001007080078e+00,-3.152636051177978516e+00,8.391247987747192383e-01
6.070898056030273438e+00,-3.156472921371459961e+00,1.083736062049865723e+00
6.077733039855957031e+00,-3.160026550292968750e+00,1.331532955169677734e+00
3.575744628906250000e+00,-1.794618010520935059e+00,-1.072016239166259766e+00
4.247411251068115234e+00,-2.131718397140502930e+00,-1.097162246704101562e+00
5.226003646850585938e+00,-2.622860908508300781e+00,-1.136591553688049316e+00
6.006884574890136719e+00,-3.014774560928344727e+00,-1.064496517181396484e+00
6.013505458831787109e+00,-3.018097400665283203e+00,-8.261405229568481445e-01
6.020905971527099609e+00,-3.021811485290527344e+00,-5.893809199333190918e-01
6.028139591217041016e+00,-3.025442123413085938e+00,-3.534772694110870361e-01
6.035294055938720703e+00,-3.029032945632934570e+00,-1.178697496652603149e-01
6.042386531829833984e+00,-3.032592296600341797e+00,1.180082634091377258e-01
6.049364566802978516e+00,-3.036094665527343750e+00,3.547218739986419678e-01
6.057201862335205078e+00,-3.040028095245361328e+00,5.929338932037353516e-01
6.063817024230957031e+00,-3.043348073959350586e+00,8.330523967742919922e-01
