7.653152942657470703e-02,-1.644054651260375977e+00,3.799703717231750488e-01
9.849081933498382568e-02,-1.617134928703308105e+00,-4.341122210025787354e-01
9.861429035663604736e-02,-1.619162082672119141e+00,-3.745051026344299316e-01
9.875126928091049194e-02,-1.621411204338073730e+00,-3.157539367675781250e-01
9.887731820344924927e-02,-1.623480916023254395e+00,-2.576101720333099365e-01
9.899733960628509521e-02,-1.625451445579528809e+00,-1.999498605728149414e-01
9.911521524190902710e-02,-1.627386927604675293e+00,-1.426415145397186279e-01
9.923359751701354980e-02,-1.629330635070800781e+00,-8.554770052433013916e-02
9.935402125120162964e-02,-1.631307959556579590e+00,-2.852730639278888702e-02
9.947677701711654663e-02,-1.633323431015014648e+00,2.856255136430263519e-02
9.960097074508666992e-02,-1.635362625122070312e+00,8.586440235376358032e-02
9.972447901964187622e-02,-1.637390613555908203e+00,1.435183435678482056e-01
9.984403103590011597e-02,-1.639353513717651367e+00,2.016599774360656738e-01
9.995528310537338257e-02,-1.641180038452148438e+00,2.604186534881591797e-01
1.000835597515106201e-01,-1.643286228179931641e+00,3.200138807296752930e-01
1.002355366945266724e-01,-1.645781636238098145e+00,3.806620836257934570e-01
1.218737959861755371e-01,-1.618862271308898926e+00,-4.349996745586395264e-01
1.220319569110870361e-01,-1.620963215827941895e+00,-3.752872645854949951e-01
1.221773475408554077e-01,-1.622894406318664551e+00,-3.163509368896484375e-01
1.223178282380104065e-01,-1.624760508537292480e+00,-2.580645978450775146e-01
1.224746257066726685e-01,-1.626843214035034180e+00,-2.003161907196044922e-01
1.226260513067245483e-01,-1.628854632377624512e+00,-1.429093629121780396e-01
1.227753758430480957e-01,-1.630838155746459961e+00,-8.571033924818038940e-02
1.229243725538253784e-01,-1.632817268371582031e+00,-2.858154103159904480e-02
1.230734288692474365e-01,-1.634797215461730957e+00,2.861619926989078522e-02
1.232214123010635376e-01,-1.636762857437133789e+00,8.602172136306762695e-02
1.233658492565155029e-01,-1.638681411743164062e+00,1.437715291976928711e-01
1.235293224453926086e-01,-1.640852808952331543e+00,2.020412236452102661e-01
1.236913129687309265e-01,-1.643004655838012695e+00,2.609623670578002930e-01
1.238446086645126343e-01,-1.645040869712829590e+00,3.206679224967956543e-01
1.239807531237602234e-01,-1.646849274635314941e+00,3.812804520130157471e-01
1.453040093183517456e-01,-1.620002150535583496e+00,-4.358201622962951660e-01
1.455056369304656982e-01,-1.622250080108642578e+00,-3.760288655757904053e-01
1.456889361143112183e-01,-1.624293684959411621e+00,-3.169977068901062012e-01
1.458630710840225220e-01,-1.626235008239746094e+00,-2.586039304733276367e-01
1.460531651973724365e-01,-1.628354549407958984e+00,-2.007391154766082764e-01
1.462228745222091675e-01,-1.630246520042419434e+00,-1.432004421949386597e-01
1.464042663574218750e-01,-1.632268905639648438e+00,-8.588687330484390259e-02
1.465819627046585083e-01,-1.634250044822692871e+00,-2.864041365683078766e-02
1.467563062906265259e-01,-1.636193752288818359e+00,2.867447771131992340e-02
1.469436883926391602e-01,-1.638282895088195801e+00,8.620331436395645142e-02
1.471128463745117188e-01,-1.640168905258178711e+00,1.440720260143280029e-01
1.473011225461959839e-01,-1.642268061637878418e+00,2.024543434381484985e-01
1.474841684103012085e-01,-1.644308805465698242e+00,2.614780366420745850e-01
1.476537436246871948e-01,-1.646199464797973633e+00,3.212728500366210938e-01
1.478508114814758301e-01,-1.648396492004394531e+00,3.820894658565521240e-01
1.688924878835678101e-01,-1.621769428253173828e+00,-4.369012117385864258e-01
1.691367924213409424e-01,-1.624115347862243652e+00,-3.769837617874145508e-01
1.693196892738342285e-01,-1.625871539115905762e+00,-3.177460730075836182e-01
1.695312261581420898e-01,-1.627902865409851074e+00,-2.592284679412841797e-01
1.697366088628768921e-01,-1.629874944686889648e+00,-2.012054473161697388e-01
1.699546724557876587e-01,-1.631968855857849121e+00,-1.435507088899612427e-01
1.701575815677642822e-01,-1.633917212486267090e+00,-8.609293401241302490e-02
1.703640967607498169e-01,-1.635900259017944336e+00,-2.870912849903106689e-02
1.705746203660964966e-01,-1.637921810150146484e+00,2.874460443854331970e-02
1.707715839147567749e-01,-1.639813184738159180e+00,8.640360087156295776e-02
1.709837168455123901e-01,-1.641850233078002930e+00,1.444198936223983765e-01
1.711933016777038574e-01,-1.643862724304199219e+00,2.029322087764739990e-01
1.714366674423217773e-01,-1.646199464797973633e+00,2.621420323848724365e-01
1.716236323118209839e-01,-1.647994875907897949e+00,3.220696747303009033e-01
1.718380302190780640e-01,-1.650053620338439941e+00,3.830044567584991455e-01
1.925913095474243164e-01,-1.623446106910705566e+00,-4.380506575107574463e-01
1.928324848413467407e-01,-1.625479102134704590e+00,-3.779022693634033203e-01
1.930568814277648926e-01,-1.627370595932006836e+00,-3.185464441776275635e-01
1.933086812496185303e-01,-1.629493117332458496e+00,-2.598956823348999023e-01
1.935485750436782837e-01,-1.631515383720397949e+00,-2.017292827367782593e-01
1.937841475009918213e-01,-1.633501052856445312e+00,-1.439147293567657471e-01
1.940204799175262451e-01,-1.635493278503417969e+00,-8.631346374750137329e-02
1.942559629678726196e-01,-1.637478232383728027e+00,-2.878266759216785431e-02
1.944910436868667603e-01,-1.639459967613220215e+00,2.881750091910362244e-02
1.947287619113922119e-01,-1.641463637351989746e+00,8.662855625152587891e-02
1.949649155139923096e-01,-1.643454432487487793e+00,1.447916328907012939e-01
1.951931715011596680e-01,-1.645378470420837402e+00,2.034433931112289429e-01
1.954544931650161743e-01,-1.647581338882446289e+00,2.627806663513183594e-01
1.957056671380996704e-01,-1.649698495864868164e+00,3.229169845581054688e-01
1.959329992532730103e-01,-1.651614785194396973e+00,3.839784860610961914e-01
2.164417952299118042e-01,-1.625295162200927734e+00,-4.393405318260192871e-01
2.167292237281799316e-01,-1.627453565597534180e+00,-3.790436983108520508e-01
2.169919610023498535e-01,-1.629426479339599609e+00,-3.195240795612335205e-01
2.172437161207199097e-01,-1.631317019462585449e+00,-2.606558501720428467e-01
2.175213396549224854e-01,-1.633401632308959961e+00,-2.023267596960067749e-01
2.177879661321640015e-01,-1.635403752326965332e+00,-1.443422138690948486e-01
2.180493921041488647e-01,-1.637366890907287598e+00,-8.656819164752960205e-02
2.183139920234680176e-01,-1.639353752136230469e+00,-2.886760421097278595e-02
2.185824215412139893e-01,-1.641369581222534180e+00,2.890310063958168030e-02
2.188475579023361206e-01,-1.643360495567321777e+00,8.688507229089736938e-02
2.191049456596374512e-01,-1.645293235778808594e+00,1.452150791883468628e-01
2.193929553031921387e-01,-1.647455930709838867e+00,2.040676474571228027e-01
2.196760475635528564e-01,-1.649581670761108398e+00,2.635742127895355225e-01
2.199416309595108032e-01,-1.651576042175292969e+00,3.238675296306610107e-01
2.202486246824264526e-01,-1.653881192207336426e+00,3.851988613605499268e-01
2.403783202171325684e-01,-1.626751184463500977e+00,-4.406190514564514160e-01
2.406534552574157715e-01,-1.628613114356994629e+00,-3.800770938396453857e-01
2.409653514623641968e-01,-1.630723953247070312e+00,-3.204220533370971680e-01
2.412590980529785156e-01,-1.632711768150329590e+00,-2.614037096500396729e-01
2.415749430656433105e-01,-1.634849309921264648e+00,-2.029136121273040771e-01
2.418556362390518188e-01,-1.636748790740966797e+00,-1.447516530752182007e-01
2.421522885560989380e-01,-1.638756394386291504e+00,-8.681601285934448242e-02
2.424461543560028076e-01,-1.640745162963867188e+00,-2.895024791359901428e-02
2.427378743886947632e-01,-1.642719388008117676e+00,2.898508124053478241e-02
2.430477887392044067e-01,-1.644816756248474121e+00,8.713707327842712402e-02
2.433260977268218994e-01,-1.646700143814086914e+00,1.456317156553268433e-01
2.436316758394241333e-01,-1.648768186569213867e+00,2.046411782503128052e-01
2.439256459474563599e-01,-1.650757551193237305e+00,2.642928957939147949e-01
2.442652136087417603e-01,-1.653055548667907715e+00,3.248099982738494873e-01
2.445831447839736938e-01,-1.655207157135009766e+00,3.862834572792053223e-01
2.644853293895721436e-01,-1.628374814987182617e+00,-4.420389235019683838e-01
2.648094892501831055e-01,-1.630370616912841797e+00,-3.813327550888061523e-01
2.651124596595764160e-01,-1.632236003875732422e+00,-3.214318454265594482e-01
2.654534280300140381e-01,-1.634335160255432129e+00,-2.622450888156890869e-01
2.657807171344757080e-01,-1.636350393295288086e+00,-2.035512328147888184e-01
2.661229074001312256e-01,-1.638457059860229492e+00,-1.452247202396392822e-01
2.664384245872497559e-01,-1.640399575233459473e+00,-8.709618449211120605e-02
2.667616903781890869e-01,-1.642389893531799316e+00,-2.904366701841354370e-02
2.670935690402984619e-01,-1.644433259963989258e+00,2.907980047166347504e-02
2.674012184143066406e-01,-1.646327376365661621e+00,8.741091191768646240e-02
2.677276432514190674e-01,-1.648337125778198242e+00,1.461004316806793213e-01
2.680459618568420410e-01,-1.650296807289123535e+00,2.052860856056213379e-01
2.684100270271301270e-01,-1.652538418769836426e+00,2.651659548282623291e-01
2.687618434429168701e-01,-1.654704451560974121e+00,3.258564770221710205e-01
2.690826654434204102e-01,-1.656679630279541016e+00,3.874862492084503174e-01
2.887273430824279785e-01,-1.629863500595092773e+00,-4.435194730758666992e-01
2.891050279140472412e-01,-1.631995558738708496e+00,-3.826414942741394043e-01
2.894515097141265869e-01,-1.633951544761657715e+00,-3.225525319576263428e-01
2.897853255271911621e-01,-1.635835766792297363e+00,-2.631244659423828125e-01
2.901539504528045654e-01,-1.637916684150695801e+00,-2.042417824268341064e-01
2.905109822750091553e-01,-1.639932036399841309e+00,-1.457090973854064941e-01
2.908637225627899170e-01,-1.641923427581787109e+00,-8.738917857408523560e-02
2.912165820598602295e-01,-1.643915295600891113e+00,-2.914136834442615509e-02
2.915705740451812744e-01,-1.645913600921630859e+00,2.917679026722908020e-02
2.919230759143829346e-01,-1.647903442382812500e+00,8.770745992660522461e-02
2.922679185867309570e-01,-1.649850010871887207e+00,1.465903073549270630e-01
2.926543056964874268e-01,-1.652031302452087402e+00,2.060018032789230347e-01
2.930358052253723145e-01,-1.654184699058532715e+00,2.660758793354034424e-01
2.933958470821380615e-01,-1.656217098236083984e+00,3.269478976726531982e-01
2.938091158866882324e-01,-1.658550024032592773e+00,3.888675272464752197e-01
3.131715953350067139e-01,-1.631541132926940918e+00,-4.451501667499542236e-01
3.136111497879028320e-01,-1.633831143379211426e+00,-3.840849995613098145e-01
3.139454126358032227e-01,-1.635572433471679688e+00,-3.237264156341552734e-01
3.143805265426635742e-01,-1.637839317321777344e+00,-2.641434967517852783e-01
3.147463500499725342e-01,-1.639745235443115234e+00,-2.050105482339859009e-01
3.151175975799560547e-01,-1.641679167747497559e+00,-1.462500989437103271e-01
3.155096769332885742e-01,-1.643721818923950195e+00,-8.771627396345138550e-02
3.158926367759704590e-01,-1.645716905593872070e+00,-2.925045974552631378e-02
3.162670135498046875e-01,-1.647667407989501953e+00,2.928512729704380035e-02
3.166652917861938477e-01,-1.649742245674133301e+00,8.803755044937133789e-02
3.170737624168395996e-01,-1.651870369911193848e+00,1.471579819917678833e-01
3.174190521240234375e-01,-1.653669238090515137e+00,2.067514210939407349e-01
3.178748786449432373e-01,-1.656043887138366699e+00,2.670794427394866943e-01
3.182351887226104736e-01,-1.657920956611633301e+00,3.281498253345489502e-01
3.186431229114532471e-01,-1.660046219825744629e+00,3.902477025985717773e-01
3.377682268619537354e-01,-1.633071303367614746e+00,-4.468409717082977295e-01
3.381942808628082275e-01,-1.635131239891052246e+00,-3.854891061782836914e-01
3.386584222316741943e-01,-1.637375354766845703e+00,-3.250094056129455566e-01
3.390873670578002930e-01,-1.639449238777160645e+00,-2.651587128639221191e-01
3.394984006881713867e-01,-1.641436576843261719e+00,-2.058084905147552490e-01
3.399048149585723877e-01,-1.643401503562927246e+00,-1.468219161033630371e-01
3.403155505657196045e-01,-1.645387291908264160e+00,-8.805608004331588745e-02
3.407284617424011230e-01,-1.647383689880371094e+00,-2.936375886201858521e-02
3.411446213722229004e-01,-1.649395823478698730e+00,2.939962409436702728e-02
3.415680825710296631e-01,-1.651443243026733398e+00,8.838017284870147705e-02
3.419920802116394043e-01,-1.653493285179138184e+00,1.477235108613967896e-01
3.424053490161895752e-01,-1.655491232872009277e+00,2.075707167387008667e-01
3.427923619747161865e-01,-1.657362461090087891e+00,2.680559456348419189e-01
3.432293832302093506e-01,-1.659475445747375488e+00,3.293961286544799805e-01
3.437341749668121338e-01,-1.661916017532348633e+00,3.918037414550781250e-01
3.626161813735961914e-01,-1.634878039360046387e+00,-4.487095475196838379e-01
3.630102574825286865e-01,-1.636654853820800781e+00,-3.870336115360260010e-01
3.635325133800506592e-01,-1.639009475708007812e+00,-3.263331949710845947e-01
3.639513552188873291e-01,-1.640897750854492188e+00,-2.662082612514495850e-01
3.644102811813354492e-01,-1.642966866493225098e+00,-2.066331952810287476e-01
3.648530542850494385e-01,-1.644963145256042480e+00,-1.474128961563110352e-01
3.652894198894500732e-01,-1.646930575370788574e+00,-8.840942382812500000e-02
3.657324612140655518e-01,-1.648928046226501465e+00,-2.948157489299774170e-02
3.661838769912719727e-01,-1.650963187217712402e+00,2.951796352863311768e-02
3.666318356990814209e-01,-1.652982831001281738e+00,8.873432129621505737e-02
3.670690357685089111e-01,-1.654954075813293457e+00,1.483082324266433716e-01
3.675545454025268555e-01,-1.657142996788024902e+00,2.084161043167114258e-01
3.679455518722534180e-01,-1.658905863761901855e+00,2.691297829151153564e-01
3.684790730476379395e-01,-1.661311268806457520e+00,3.307735621929168701e-01
3.689869344234466553e-01,-1.663600921630859375e+00,3.934057950973510742e-01
3.876123726367950439e-01,-1.636423349380493164e+00,-4.506102204322814941e-01
3.881676197052001953e-01,-1.638767480850219727e+00,-3.888072669506072998e-01
3.885920941829681396e-01,-1.640559554100036621e+00,-3.277156651020050049e-01
3.890746831893920898e-01,-1.642596960067749023e+00,-2.673600316047668457e-01
3.895866572856903076e-01,-1.644758343696594238e+00,-2.075385749340057373e-01
3.900436162948608398e-01,-1.646687507629394531e+00,-1.480525732040405273e-01
3.905228078365325928e-01,-1.648710608482360840e+00,-8.879595249891281128e-02
3.909965753555297852e-01,-1.650710701942443848e+00,-2.961047738790512085e-02
3.914662599563598633e-01,-1.652693748474121094e+00,2.964604832231998444e-02
3.919616043567657471e-01,-1.654784917831420898e+00,8.912310004234313965e-02
3.924076855182647705e-01,-1.656668186187744141e+00,1.489499211311340332e-01
3.928915262222290039e-01,-1.658710837364196777e+00,2.092991322278976440e-01
3.934447169303894043e-01,-1.661046266555786133e+00,2.703629732131958008e-01
3.938792645931243896e-01,-1.662880897521972656e+00,3.321745693683624268e-01
3.943648934364318848e-01,-1.664931178092956543e+00,3.950147628784179688e-01
4.128849208354949951e-01,-1.638214230537414551e+00,-4.526843726634979248e-01
4.134120345115661621e-01,-1.640305638313293457e+00,-3.905361294746398926e-01
4.138985574245452881e-01,-1.642236113548278809e+00,-3.292002975940704346e-01
4.144320785999298096e-01,-1.644352912902832031e+00,-2.685838639736175537e-01
4.149394333362579346e-01,-1.646366000175476074e+00,-2.084694951772689819e-01
4.154360890388488770e-01,-1.648336648941040039e+00,-1.487202346324920654e-01
4.159336984157562256e-01,-1.650310993194580078e+00,-8.919364213943481445e-02
4.164382815361022949e-01,-1.652312994003295898e+00,-2.974309399724006653e-02
4.169512093067169189e-01,-1.654348134994506836e+00,2.977973036468029022e-02
4.174686968326568604e-01,-1.656401395797729492e+00,8.952280879020690918e-02
4.179822206497192383e-01,-1.658438920974731445e+00,1.496317088603973389e-01
4.184776246547698975e-01,-1.660404562950134277e+00,2.102471143007278442e-01
4.190322458744049072e-01,-1.662605166435241699e+00,2.715651094913482666e-01
4.195601046085357666e-01,-1.664699554443359375e+00,3.337032794952392578e-01
4.200322926044464111e-01,-1.666573047637939453e+00,3.967900872230529785e-01
4.384391605854034424e-01,-1.640181899070739746e+00,-4.549156129360198975e-01
4.389393627643585205e-01,-1.642053127288818359e+00,-3.924078345298767090e-01
4.394967854022979736e-01,-1.644138336181640625e+00,-3.308087587356567383e-01
4.400243461132049561e-01,-1.646111965179443359e+00,-2.698722779750823975e-01
4.405905008316040039e-01,-1.648229956626892090e+00,-2.094825953245162964e-01
4.411027431488037109e-01,-1.650146245956420898e+00,-1.494378447532653809e-01
4.416466653347015381e-01,-1.652181029319763184e+00,-8.962718397378921509e-02
4.421824812889099121e-01,-1.654185414314270020e+00,-2.988766878843307495e-02
4.427115619182586670e-01,-1.656164765357971191e+00,2.992343157529830933e-02
4.432762563228607178e-01,-1.658277153968811035e+00,8.995789289474487305e-02
4.437935650348663330e-01,-1.660212516784667969e+00,1.503494530916213989e-01
4.443589448928833008e-01,-1.662327527999877930e+00,2.112743258476257324e-01
4.449062347412109375e-01,-1.664374828338623047e+00,2.728663980960845947e-01
4.455276131629943848e-01,-1.666699528694152832e+00,3.353481590747833252e-01
4.461083114147186279e-01,-1.668871760368347168e+00,3.988167941570281982e-01
4.640614688396453857e-01,-1.641495823860168457e+00,-4.570755064487457275e-01
4.646508991718292236e-01,-1.643580913543701172e+00,-3.943218886852264404e-01
4.652843177318572998e-01,-1.645821332931518555e+00,-3.324533402919769287e-01
4.658701419830322266e-01,-1.647893667221069336e+00,-2.712298035621643066e-01
4.664321243762969971e-01,-1.649881482124328613e+00,-2.105194628238677979e-01
4.669882357120513916e-01,-1.651848554611206055e+00,-1.501819491386413574e-01
4.675510823726654053e-01,-1.653839468955993652e+00,-9.007097780704498291e-02
4.681183695793151855e-01,-1.655846118927001953e+00,-3.003566153347492218e-02
4.686912596225738525e-01,-1.657872557640075684e+00,3.007241897284984589e-02
4.692752659320831299e-01,-1.659938335418701172e+00,9.040313214063644409e-02
4.698606431484222412e-01,-1.662009000778198242e+00,1.511057168245315552e-01
4.704316854476928711e-01,-1.664028882980346680e+00,2.123246192932128906e-01
4.709673821926116943e-01,-1.665923714637756348e+00,2.741974294185638428e-01
4.715636670589447021e-01,-1.668033003807067871e+00,3.369400501251220703e-01
4.722414910793304443e-01,-1.670430541038513184e+00,4.007635712623596191e-01
4.901073276996612549e-01,-1.643405318260192871e+00,-4.595134854316711426e-01
4.907805025577545166e-01,-1.645662665367126465e+00,-3.964661061763763428e-01
4.913926124572753906e-01,-1.647715091705322266e+00,-3.342224061489105225e-01
4.919752776622772217e-01,-1.649668931961059570e+00,-2.726531028747558594e-01
4.926033914089202881e-01,-1.651775002479553223e+00,-2.116390615701675415e-01
4.932072758674621582e-01,-1.653799891471862793e+00,-1.509857326745986938e-01
4.938000440597534180e-01,-1.655787587165832520e+00,-9.055273234844207764e-02
4.943990111351013184e-01,-1.657796025276184082e+00,-3.019629977643489838e-02
4.950058460235595703e-01,-1.659830808639526367e+00,3.023336268961429596e-02
4.956060051918029785e-01,-1.661843299865722656e+00,9.088390320539474487e-02
4.961892068386077881e-01,-1.663798809051513672e+00,1.518985927104949951e-01
4.968287348747253418e-01,-1.665943264961242676e+00,2.134544104337692261e-01
4.974519610404968262e-01,-1.668033003807067871e+00,2.756882905960083008e-01
4.980302155017852783e-01,-1.669972062110900879e+00,3.387369811534881592e-01
4.986753463745117188e-01,-1.672135233879089355e+00,4.028437733650207520e-01
5.163487195968627930e-01,-1.645051479339599609e+00,-4.619929790496826172e-01
5.170003771781921387e-01,-1.647127509117126465e+00,-3.985609710216522217e-01
5.176999568939208984e-01,-1.649356365203857422e+00,-3.360239267349243164e-01
5.183494687080383301e-01,-1.651425719261169434e+00,-2.741416394710540771e-01
5.189752578735351562e-01,-1.653419375419616699e+00,-2.127797305583953857e-01
5.195977091789245605e-01,-1.655402421951293945e+00,-1.517954766750335693e-01
5.202416777610778809e-01,-1.657454133033752441e+00,-9.104178100824356079e-02
5.208728313446044922e-01,-1.659464955329895020e+00,-3.035938926041126251e-02
5.214927792549133301e-01,-1.661440014839172363e+00,3.039552271366119385e-02
5.221387147903442383e-01,-1.663497924804687500e+00,9.137375652790069580e-02
5.227892398834228516e-01,-1.665570378303527832e+00,1.527278572320938110e-01
5.234266519546508789e-01,-1.667601108551025391e+00,2.146047949790954590e-01
5.240281820297241211e-01,-1.669517636299133301e+00,2.771449387073516846e-01
5.246958732604980469e-01,-1.671644926071166992e+00,3.405647873878479004e-01
5.254514813423156738e-01,-1.674052119255065918e+00,4.050759971141815186e-01
5.430563688278198242e-01,-1.647249817848205566e+00,-4.647457003593444824e-01
5.436712503433227539e-01,-1.649114966392517090e+00,-4.008837938308715820e-01
5.443538427352905273e-01,-1.651185393333435059e+00,-3.379493355751037598e-01
5.450789332389831543e-01,-1.653384804725646973e+00,-2.757337689399719238e-01
5.457046627998352051e-01,-1.655282855033874512e+00,-2.140028029680252075e-01
5.463803410530090332e-01,-1.657332301139831543e+00,-1.526739299297332764e-01
5.470458865165710449e-01,-1.659351110458374023e+00,-9.156669676303863525e-02
5.477097034454345703e-01,-1.661364674568176270e+00,-3.053443878889083862e-02
5.483728647232055664e-01,-1.663376212120056152e+00,3.057140856981277466e-02
5.490309000015258789e-01,-1.665372133255004883e+00,9.189895540475845337e-02
5.497472286224365234e-01,-1.667545080184936523e+00,1.536147296428680420e-01
5.503754019737243652e-01,-1.669450521469116211e+00,2.158344835042953491e-01
5.510614514350891113e-01,-1.671531438827514648e+00,2.787600755691528320e-01
5.518347024917602539e-01,-1.673877000808715820e+00,3.425936400890350342e-01
5.525612831115722656e-01,-1.676080942153930664e+00,4.074389636516571045e-01
5.698338150978088379e-01,-1.648734211921691895e+00,-4.674178063869476318e-01
5.705481767654418945e-01,-1.650801181793212891e+00,-4.032376110553741455e-01
5.712121129035949707e-01,-1.652722239494323730e+00,-3.399024605751037598e-01
5.719397068023681641e-01,-1.654827475547790527e+00,-2.773112058639526367e-01
5.726410746574401855e-01,-1.656856775283813477e+00,-2.152439355850219727e-01
5.733721256256103516e-01,-1.658971905708312988e+00,-1.535652726888656616e-01
5.740595459938049316e-01,-1.660960912704467773e+00,-9.209951758384704590e-02
5.747554898262023926e-01,-1.662974476814270020e+00,-3.071208111941814423e-02
5.754629969596862793e-01,-1.665021657943725586e+00,3.074988722801208496e-02
5.761313438415527344e-01,-1.666955351829528809e+00,9.243191033601760864e-02
5.768380165100097656e-01,-1.669000029563903809e+00,1.544935256242752075e-01
5.775305628776550293e-01,-1.671003818511962891e+00,2.170817852020263672e-01
5.783032774925231934e-01,-1.673239588737487793e+00,2.803966403007507324e-01
5.790448784828186035e-01,-1.675385355949401855e+00,3.445633947849273682e-01
5.797159671783447266e-01,-1.677326917648315430e+00,4.097169935703277588e-01
5.969617962837219238e-01,-1.650333762168884277e+00,-4.702455103397369385e-01
5.977885723114013672e-01,-1.652619481086730957e+00,-4.057302772998809814e-01
5.985396504402160645e-01,-1.654695868492126465e+00,-3.420352637767791748e-01
5.992522239685058594e-01,-1.656665921211242676e+00,-2.790280580520629883e-01
6.000148653984069824e-01,-1.658774256706237793e+00,-2.165865600109100342e-01
6.007489562034606934e-01,-1.660803675651550293e+00,-1.545149534940719604e-01
6.014707684516906738e-01,-1.662799119949340820e+00,-9.266932308673858643e-02
6.022000908851623535e-01,-1.664815306663513184e+00,-3.090210072696208954e-02
6.029393076896667480e-01,-1.666859030723571777e+00,3.094003535807132721e-02
6.036716699600219727e-01,-1.668883681297302246e+00,9.300842136144638062e-02
6.043844819068908691e-01,-1.670854210853576660e+00,1.554500162601470947e-01
6.051598191261291504e-01,-1.672997713088989258e+00,2.184437215328216553e-01
6.059136986732482910e-01,-1.675081849098205566e+00,2.821298241615295410e-01
6.066111326217651367e-01,-1.677009940147399902e+00,3.466477096080780029e-01
6.075423955917358398e-01,-1.679584383964538574e+00,4.123503565788269043e-01
6.246032714843750000e-01,-1.652423024177551270e+00,-4.733397662639617920e-01
6.254094243049621582e-01,-1.654555797576904297e+00,-4.083615243434906006e-01
6.261549592018127441e-01,-1.656528115272521973e+00,-3.442313373088836670e-01
6.269603967666625977e-01,-1.658658862113952637e+00,-2.808464467525482178e-01
6.277323961257934570e-01,-1.660701274871826172e+00,-2.179890125989913940e-01
6.284946203231811523e-01,-1.662717819213867188e+00,-1.555140614509582520e-01
6.292757987976074219e-01,-1.664784431457519531e+00,-9.327238798141479492e-02
6.300396323204040527e-01,-1.666805148124694824e+00,-3.110324032604694366e-02
6.307865977287292480e-01,-1.668781399726867676e+00,3.114011697471141815e-02
6.315579414367675781e-01,-1.670822024345397949e+00,9.361065179109573364e-02
6.323295831680297852e-01,-1.672863483428955078e+00,1.564629822969436646e-01
6.330806016921997070e-01,-1.674850344657897949e+00,2.198462635278701782e-01
6.339095830917358398e-01,-1.677043437957763672e+00,2.839593291282653809e-01
6.346983313560485840e-01,-1.679130077362060547e+00,3.489280939102172852e-01
6.355738043785095215e-01,-1.681446075439453125e+00,4.149983525276184082e-01
6.524581909179687500e-01,-1.654138445854187012e+00,-4.764575064182281494e-01
6.532436013221740723e-01,-1.656129717826843262e+00,-4.110155999660491943e-01
6.540888547897338867e-01,-1.658272624015808105e+00,-3.465038836002349854e-01
6.548854708671569824e-01,-1.660292148590087891e+00,-2.826811969280242920e-01
6.557266116142272949e-01,-1.662424683570861816e+00,-2.194247692823410034e-01
6.564936637878417969e-01,-1.664369344711303711e+00,-1.565313637256622314e-01
6.573013067245483398e-01,-1.666416883468627930e+00,-9.388134628534317017e-02
6.580986976623535156e-01,-1.668438553810119629e+00,-3.130628913640975952e-02
6.588872075080871582e-01,-1.670437574386596680e+00,3.134379908442497253e-02
6.597223877906799316e-01,-1.672554969787597656e+00,9.422715008258819580e-02
6.604936718940734863e-01,-1.674510359764099121e+00,1.574851125478744507e-01
6.613233685493469238e-01,-1.676613807678222656e+00,2.212975919246673584e-01
6.621213555335998535e-01,-1.678636908531188965e+00,2.858045697212219238e-01
6.630035042762756348e-01,-1.680873394012451172e+00,3.512263894081115723e-01
6.638152599334716797e-01,-1.682931423187255859e+00,4.176672101020812988e-01
6.808810830116271973e-01,-1.656345963478088379e+00,-4.798513948917388916e-01
6.817924976348876953e-01,-1.658563137054443359e+00,-4.139990508556365967e-01
6.826259493827819824e-01,-1.660590648651123047e+00,-3.489941358566284180e-01
6.834235191345214844e-01,-1.662530899047851562e+00,-2.846986949443817139e-01
6.842840313911437988e-01,-1.664624094963073730e+00,-2.209852039813995361e-01
6.851229071617126465e-01,-1.666664958000183105e+00,-1.576534062623977661e-01
6.859599351882934570e-01,-1.668701052665710449e+00,-9.455349296331405640e-02
6.867920160293579102e-01,-1.670725226402282715e+00,-3.153042122721672058e-02
6.876208782196044922e-01,-1.672741532325744629e+00,3.156847134232521057e-02
6.884540319442749023e-01,-1.674768328666687012e+00,9.489727765321731567e-02
6.892761588096618652e-01,-1.676768302917480469e+00,1.586091071367263794e-01
6.901746392250061035e-01,-1.678954005241394043e+00,2.228875607252120972e-01
6.910579204559326172e-01,-1.681102633476257324e+00,2.878790199756622314e-01
6.918853521347045898e-01,-1.683115601539611816e+00,3.537279963493347168e-01
6.927881836891174316e-01,-1.685311794281005859e+00,4.206758737564086914e-01
7.095237374305725098e-01,-1.658132314682006836e+00,-4.832615256309509277e-01
7.104330658912658691e-01,-1.660257339477539062e+00,-4.169175028800964355e-01
7.113887071609497070e-01,-1.662490606307983398e+00,-3.514973819255828857e-01
7.122765183448791504e-01,-1.664565443992614746e+00,-2.867636084556579590e-01
7.131314873695373535e-01,-1.666563391685485840e+00,-2.225749343633651733e-01
7.139823436737060547e-01,-1.668551802635192871e+00,-1.587823033332824707e-01
7.148612737655639648e-01,-1.670605897903442383e+00,-9.523145109415054321e-02
7.157284617424011230e-01,-1.672632455825805664e+00,-3.175649791955947876e-02
7.165850996971130371e-01,-1.674634456634521484e+00,3.179451078176498413e-02
7.174770832061767578e-01,-1.676718950271606445e+00,9.557992219924926758e-02
7.183749675750732422e-01,-1.678817272186279297e+00,1.597591936588287354e-01
7.192564010620117188e-01,-1.680877208709716797e+00,2.244865745306015015e-01
7.200881242752075195e-01,-1.682820796966552734e+00,2.899085283279418945e-01
7.209907174110412598e-01,-1.684930205345153809e+00,3.562417328357696533e-01
7.219848036766052246e-01,-1.687253236770629883e+00,4.236966073513031006e-01
7.387319803237915039e-01,-1.660280704498291016e+00,-4.869195520877838135e-01
7.396255731582641602e-01,-1.662288904190063477e+00,-4.200431108474731445e-01
7.405778169631958008e-01,-1.664429068565368652e+00,-3.541121482849121094e-01
7.414752244949340820e-01,-1.666445970535278320e+00,-2.888863384723663330e-01
7.424194216728210449e-01,-1.668568134307861328e+00,-2.242389023303985596e-01
7.432850003242492676e-01,-1.670513391494750977e+00,-1.599650233983993530e-01
7.441959977149963379e-01,-1.672560811042785645e+00,-9.594026952981948853e-02
7.450984716415405273e-01,-1.674589037895202637e+00,-3.199285641312599182e-02
7.459951639175415039e-01,-1.676604390144348145e+00,3.203135728836059570e-02
7.469435930252075195e-01,-1.678735971450805664e+00,9.629448503255844116e-02
7.478243112564086914e-01,-1.680715322494506836e+00,1.609419286251068115e-01
7.487681508064270020e-01,-1.682836532592773438e+00,2.261564433574676514e-01
7.496765851974487305e-01,-1.684878349304199219e+00,2.920816838741302490e-01
7.506701350212097168e-01,-1.687111377716064453e+00,3.589378595352172852e-01
7.515828609466552734e-01,-1.689162731170654297e+00,4.268338084220886230e-01
7.681921124458312988e-01,-1.662029862403869629e+00,-4.906069934368133545e-01
7.692431211471557617e-01,-1.664303898811340332e+00,-4.232911467552185059e-01
7.702015042304992676e-01,-1.666377425193786621e+00,-3.568355441093444824e-01
7.712063193321228027e-01,-1.668551325798034668e+00,-2.911351025104522705e-01
7.720899581909179688e-01,-1.670463204383850098e+00,-2.259556204080581665e-01
7.730400562286376953e-01,-1.672518730163574219e+00,-1.612000763416290283e-01
7.739849686622619629e-01,-1.674563169479370117e+00,-9.668069332838058472e-02
7.749235033988952637e-01,-1.676593661308288574e+00,-3.223975747823715210e-02
7.758583426475524902e-01,-1.678616285324096680e+00,3.227864950895309448e-02
7.767946124076843262e-01,-1.680641889572143555e+00,9.703165292739868164e-02
7.778093218803405762e-01,-1.682837367057800293e+00,1.621946096420288086e-01
7.787180542945861816e-01,-1.684803485870361328e+00,2.278953641653060913e-01
7.796959877014160156e-01,-1.686919212341308594e+00,2.943400144577026367e-01
7.806060314178466797e-01,-1.688888192176818848e+00,3.616559505462646484e-01
7.817764282226562500e-01,-1.691420435905456543e+00,4.301878213882446289e-01
7.982338666915893555e-01,-1.664068698883056641e+00,-4.945307970046997070e-01
7.992907762527465820e-01,-1.666272044181823730e+00,-4.266577661037445068e-01
8.002633452415466309e-01,-1.668299436569213867e+00,-3.596631586551666260e-01
8.012937307357788086e-01,-1.670447587966918945e+00,-2.934370934963226318e-01
8.022807240486145020e-01,-1.672505021095275879e+00,-2.277617901563644409e-01
8.032536506652832031e-01,-1.674533367156982422e+00,-1.624857336282730103e-01
8.042486906051635742e-01,-1.676607608795166016e+00,-9.745337069034576416e-02
8.052234649658203125e-01,-1.678639769554138184e+00,-3.249740228056907654e-02
8.061816096305847168e-01,-1.680637240409851074e+00,3.253607079386711121e-02
8.071686625480651855e-01,-1.682694911956787109e+00,9.780719876289367676e-02
8.081540465354919434e-01,-1.684749126434326172e+00,1.634770184755325317e-01
8.091129660606384277e-01,-1.686748147010803223e+00,2.297014147043228149e-01
8.101518154144287109e-01,-1.688913822174072266e+00,2.966809570789337158e-01
8.111328482627868652e-01,-1.690959095954895020e+00,3.645482361316680908e-01
8.121938109397888184e-01,-1.693170785903930664e+00,4.335453212261199951e-01
8.288663029670715332e-01,-1.666341662406921387e+00,-4.986809492111206055e-01
8.299166560173034668e-01,-1.668453335762023926e+00,-4.302138984203338623e-01
8.308871984481811523e-01,-1.670404314994812012e+00,-3.626437485218048096e-01
8.319252133369445801e-01,-1.672491192817687988e+00,-2.958575487136840820e-01
8.329282999038696289e-01,-1.674507856369018555e+00,-2.296345680952072144e-01
8.339697122573852539e-01,-1.676601529121398926e+00,-1.638279259204864502e-01
8.349629044532775879e-01,-1.678598165512084961e+00,-9.825367480516433716e-02
8.359756469726562500e-01,-1.680634140968322754e+00,-3.276430442929267883e-02
8.370094895362854004e-01,-1.682712554931640625e+00,3.280482441186904907e-02
8.380029797554016113e-01,-1.684709906578063965e+00,9.861141443252563477e-02
8.390471935272216797e-01,-1.686809182167053223e+00,1.648253649473190308e-01
8.400737047195434570e-01,-1.688872933387756348e+00,2.316045165061950684e-01
8.411928415298461914e-01,-1.691122770309448242e+00,2.991533875465393066e-01
8.422596454620361328e-01,-1.693267464637756348e+00,3.676072955131530762e-01
8.432170152664184570e-01,-1.695192098617553711e+00,4.371085762977600098e-01
8.597524166107177734e-01,-1.668127298355102539e+00,-5.028465986251831055e-01
8.608302474021911621e-01,-1.670218467712402344e+00,-4.338017404079437256e-01
8.619555234909057617e-01,-1.672401905059814453e+00,-3.657183945178985596e-01
8.630095124244689941e-01,-1.674446821212768555e+00,-2.983580529689788818e-01
8.640353679656982422e-01,-1.676437258720397949e+00,-2.315714210271835327e-01
8.651092648506164551e-01,-1.678520798683166504e+00,-1.652085185050964355e-01
8.661579489707946777e-01,-1.680555582046508789e+00,-9.908378124237060547e-02
8.672080636024475098e-01,-1.682593107223510742e+00,-3.304110094904899597e-02
8.682624101638793945e-01,-1.684638738632202148e+00,3.308127075433731079e-02
8.692996501922607422e-01,-1.686651229858398438e+00,9.944317489862442017e-02
8.703974485397338867e-01,-1.688781142234802246e+00,1.662184000015258789e-01
8.714857697486877441e-01,-1.690892934799194336e+00,2.335682362318038940e-01
8.725268244743347168e-01,-1.692912697792053223e+00,3.016483783721923828e-01
8.736433982849121094e-01,-1.695079207420349121e+00,3.706774711608886719e-01
8.748548030853271484e-01,-1.697429656982421875e+00,4.408692121505737305e-01
8.914574384689331055e-01,-1.670490741729736328e+00,-5.073534846305847168e-01
8.925605416297912598e-01,-1.672557830810546875e+00,-4.376826584339141846e-01
8.937132358551025391e-01,-1.674717783927917480e+00,-3.689844012260437012e-01
8.947967886924743652e-01,-1.676748275756835938e+00,-3.010194301605224609e-01
8.958576321601867676e-01,-1.678736209869384766e+00,-2.336363196372985840e-01
8.969712853431701660e-01,-1.680823087692260742e+00,-1.666816920042037964e-01
8.980667591094970703e-01,-1.682875752449035645e+00,-9.996822476387023926e-02
8.991554975509643555e-01,-1.684916019439697266e+00,-3.333602845668792725e-02
9.002407789230346680e-01,-1.686949729919433594e+00,3.337626531720161438e-02
9.013152122497558594e-01,-1.688963055610656738e+00,1.003298237919807434e-01
9.024563431739807129e-01,-1.691101431846618652e+00,1.677009761333465576e-01
9.035943746566772461e-01,-1.693233966827392578e+00,2.356540262699127197e-01
9.046867489814758301e-01,-1.695280909538269043e+00,3.043465018272399902e-01
9.058598875999450684e-01,-1.697479248046875000e+00,3.739993870258331299e-01
9.069269299507141113e-01,-1.699478745460510254e+00,4.447274804115295410e-01
9.235857725143432617e-01,-1.672613382339477539e+00,-5.119607448577880859e-01
9.247267246246337891e-01,-1.674679636955261230e+00,-4.416563510894775391e-01
9.259181618690490723e-01,-1.676837325096130371e+00,-3.723332583904266357e-01
9.270409345626831055e-01,-1.678870677947998047e+00,-3.037514984607696533e-01
9.282127618789672852e-01,-1.680992841720581055e+00,-2.357752919197082520e-01
9.293435215950012207e-01,-1.683040618896484375e+00,-1.682035028934478760e-01
9.304452538490295410e-01,-1.685035824775695801e+00,-1.008773222565650940e-01
9.315745234489440918e-01,-1.687080979347229004e+00,-3.363922983407974243e-02
9.327313303947448730e-01,-1.689175963401794434e+00,3.368100151419639587e-02
9.338666796684265137e-01,-1.691232085227966309e+00,1.012482717633247375e-01
9.349761009216308594e-01,-1.693241238594055176e+00,1.692229509353637695e-01
9.361543655395507812e-01,-1.695375084877014160e+00,2.377925366163253784e-01
9.372892379760742188e-01,-1.697430372238159180e+00,3.071094155311584473e-01
9.385064840316772461e-01,-1.699634790420532227e+00,3.773953318595886230e-01
9.396160244941711426e-01,-1.701644062995910645e+00,4.487675726413726807e-01
9.561284780502319336e-01,-1.674457907676696777e+00,-5.166613459587097168e-01
9.574732184410095215e-01,-1.676813006401062012e+00,-4.457876086235046387e-01
9.585609436035156250e-01,-1.678717851638793945e+00,-3.757588863372802734e-01
9.598308205604553223e-01,-1.680941820144653320e+00,-3.065804541110992432e-01
9.609531760215759277e-01,-1.682907342910766602e+00,-2.379486560821533203e-01
9.621341228485107422e-01,-1.684975504875183105e+00,-1.697558164596557617e-01
9.633017778396606445e-01,-1.687020421028137207e+00,-1.018111631274223328e-01
9.644691348075866699e-01,-1.689064860343933105e+00,-3.395057097077369690e-02
9.656406641006469727e-01,-1.691116571426391602e+00,3.399180993437767029e-02
9.668062329292297363e-01,-1.693157792091369629e+00,1.021815463900566101e-01
9.680459499359130859e-01,-1.695328950881958008e+00,1.707988828420639038e-01
9.691572189331054688e-01,-1.697275042533874512e+00,2.399801313877105713e-01
9.704793691635131836e-01,-1.699590444564819336e+00,3.099817037582397461e-01
9.715738892555236816e-01,-1.701507210731506348e+00,3.808599710464477539e-01
9.729174375534057617e-01,-1.703860282897949219e+00,4.529782533645629883e-01
9.897219538688659668e-01,-1.677083969116210938e+00,-5.217892527580261230e-01
9.910551309585571289e-01,-1.679343104362487793e+00,-4.501853883266448975e-01
9.922713637351989746e-01,-1.681403994560241699e+00,-3.795003890991210938e-01
9.934329390525817871e-01,-1.683372259140014648e+00,-3.095854520797729492e-01
9.946677684783935547e-01,-1.685464739799499512e+00,-2.402986288070678711e-01
9.958806633949279785e-01,-1.687519907951354980e+00,-1.714306920766830444e-01
9.971143603324890137e-01,-1.689610481262207031e+00,-1.028182581067085266e-01
9.983231425285339355e-01,-1.691658735275268555e+00,-3.428641706705093384e-02
9.995103478431701660e-01,-1.693670511245727539e+00,3.432719036936759949e-02
1.000726580619812012e+00,-1.695731282234191895e+00,1.031907275319099426e-01
1.001935958862304688e+00,-1.697780609130859375e+00,1.724730581045150757e-01
1.003239393234252930e+00,-1.699989318847656250e+00,2.423694282770156860e-01
1.004516243934631348e+00,-1.702152848243713379e+00,3.130393624305725098e-01
1.005709171295166016e+00,-1.704174399375915527e+00,3.846397697925567627e-01
1.006966471672058105e+00,-1.706304907798767090e+00,4.574131071567535400e-01
1.023833513259887695e+00,-1.679496765136718750e+00,-5.270454287528991699e-01
1.025035500526428223e+00,-1.681468367576599121e+00,-4.546416401863098145e-01
1.026313066482543945e+00,-1.683564186096191406e+00,-3.832643032073974609e-01
1.027646064758300781e+00,-1.685750722885131836e+00,-3.126959800720214844e-01
1.028914451599121094e+00,-1.687831401824951172e+00,-2.427108883857727051e-01
1.030158400535583496e+00,-1.689871907234191895e+00,-1.731498092412948608e-01
1.031404733657836914e+00,-1.691916465759277344e+00,-1.038463190197944641e-01
1.032655477523803711e+00,-1.693968176841735840e+00,-3.462925553321838379e-02
1.033911347389221191e+00,-1.696028470993041992e+00,3.467137366533279419e-02
1.035180330276489258e+00,-1.698109865188598633e+00,1.042264625430107117e-01
1.036440491676330566e+00,-1.700177192687988281e+00,1.742057204246520996e-01
1.037657976150512695e+00,-1.702174425125122070e+00,2.447734177112579346e-01
1.038957118988037109e+00,-1.704305410385131836e+00,3.161377608776092529e-01
1.040371179580688477e+00,-1.706624984741210938e+00,3.885141313076019287e-01
1.041684150695800781e+00,-1.708778858184814453e+00,4.620259702205657959e-01
1.058358669281005859e+00,-1.681501626968383789e+00,-5.323739051818847656e-01
1.059613585472106934e+00,-1.683495402336120605e+00,-4.592435359954833984e-01
1.060948967933654785e+00,-1.685616970062255859e+00,-3.871490359306335449e-01
1.062336564064025879e+00,-1.687821626663208008e+00,-3.158683180809020996e-01
1.063652157783508301e+00,-1.689911842346191406e+00,-2.451742440462112427e-01
1.064933896064758301e+00,-1.691948294639587402e+00,-1.749064773321151733e-01
1.066214203834533691e+00,-1.693982362747192383e+00,-1.048990786075592041e-01
1.067506194114685059e+00,-1.696035027503967285e+00,-3.498028218746185303e-02
1.068815350532531738e+00,-1.698114991188049316e+00,3.502318263053894043e-02
1.070129990577697754e+00,-1.700203776359558105e+00,1.052843332290649414e-01
1.071427822113037109e+00,-1.702265739440917969e+00,1.759730428457260132e-01
1.072675466537475586e+00,-1.704247832298278809e+00,2.472541183233261108e-01
1.074005007743835449e+00,-1.706360340118408203e+00,3.193377554416656494e-01
1.075452327728271484e+00,-1.708659648895263672e+00,3.924414217472076416e-01
1.076792955398559570e+00,-1.710789561271667480e+00,4.666891694068908691e-01
1.093662023544311523e+00,-1.683649063110351562e+00,-5.379548668861389160e-01
1.095177531242370605e+00,-1.685982227325439453e+00,-4.641505777835845947e-01
1.096395254135131836e+00,-1.687856793403625488e+00,-3.912277817726135254e-01
1.097851753234863281e+00,-1.690098881721496582e+00,-3.192026317119598389e-01
1.099222779273986816e+00,-1.692209720611572266e+00,-2.477648854255676270e-01
1.100497484207153320e+00,-1.694171905517578125e+00,-1.767466068267822266e-01
1.101847767829895020e+00,-1.696250796318054199e+00,-1.060053184628486633e-01
1.103183865547180176e+00,-1.698307514190673828e+00,-3.534920141100883484e-02
1.104507803916931152e+00,-1.700345754623413086e+00,3.539162874221801758e-02
1.105916261672973633e+00,-1.702514052391052246e+00,1.063967347145080566e-01
1.107245445251464844e+00,-1.704560279846191406e+00,1.778303831815719604e-01
1.108511924743652344e+00,-1.706509947776794434e+00,2.498586624860763550e-01
1.110051512718200684e+00,-1.708879947662353516e+00,3.227497339248657227e-01
1.111325263977050781e+00,-1.710840940475463867e+00,3.965552449226379395e-01
1.112673401832580566e+00,-1.712916254997253418e+00,4.715655148029327393e-01
1.130003809928894043e+00,-1.686264634132385254e+00,-5.439028143882751465e-01
1.131388187408447266e+00,-1.688330531120300293e+00,-4.692072570323944092e-01
1.132850050926208496e+00,-1.690512061119079590e+00,-3.955611884593963623e-01
1.134223580360412598e+00,-1.692561626434326172e+00,-3.227008879184722900e-01
1.135568618774414062e+00,-1.694568872451782227e+00,-2.504644691944122314e-01
1.136985301971435547e+00,-1.696682929992675781e+00,-1.786880940198898315e-01
1.138375997543334961e+00,-1.698758244514465332e+00,-1.071693226695060730e-01
1.139755487442016602e+00,-1.700816750526428223e+00,-3.573733568191528320e-02
1.141128540039062500e+00,-1.702865839004516602e+00,3.578038886189460754e-02
1.142483949661254883e+00,-1.704888343811035156e+00,1.075560525059700012e-01
1.143928289413452148e+00,-1.707043766975402832e+00,1.797792613506317139e-01
1.145369291305541992e+00,-1.709194064140319824e+00,2.526261508464813232e-01
1.146752595901489258e+00,-1.711258411407470703e+00,3.262655735015869141e-01
1.148252964019775391e+00,-1.713497281074523926e+00,4.009394943714141846e-01
1.149621844291687012e+00,-1.715539932250976562e+00,4.767690598964691162e-01
1.167198419570922852e+00,-1.688986420631408691e+00,-5.501130819320678711e-01
1.168661475181579590e+00,-1.691103458404541016e+00,-4.745780527591705322e-01
1.170018434524536133e+00,-1.693067073822021484e+00,-4.000366926193237305e-01
1.171481609344482422e+00,-1.695184350013732910e+00,-3.263644278049468994e-01
1.172998666763305664e+00,-1.697379589080810547e+00,-2.533355355262756348e-01
1.174380183219909668e+00,-1.699378848075866699e+00,-1.807238012552261353e-01
1.175813913345336914e+00,-1.701453328132629395e+00,-1.083899959921836853e-01
1.177239060401916504e+00,-1.703515648841857910e+00,-3.614439815282821655e-02
1.178658246994018555e+00,-1.705569267272949219e+00,3.618797287344932556e-02
1.180141210556030273e+00,-1.707715153694152832e+00,1.087889000773429871e-01
1.181504607200622559e+00,-1.709688186645507812e+00,1.818201839923858643e-01
1.182947874069213867e+00,-1.711776614189147949e+00,2.554843127727508545e-01
1.184530019760131836e+00,-1.714065909385681152e+00,3.299996256828308105e-01
1.186046242713928223e+00,-1.716260075569152832e+00,4.055166840553283691e-01
1.187414526939392090e+00,-1.718240022659301758e+00,4.821934401988983154e-01
1.205263137817382812e+00,-1.691775798797607422e+00,-5.565835237503051758e-01
1.206825137138366699e+00,-1.693968415260314941e+00,-4.801804423332214355e-01
1.208262562751770020e+00,-1.695986032485961914e+00,-4.047712087631225586e-01
1.209793925285339355e+00,-1.698135495185852051e+00,-3.302326202392578125e-01
1.211259961128234863e+00,-1.700193285942077637e+00,-2.563168406486511230e-01
1.212705016136169434e+00,-1.702221632003784180e+00,-1.828533709049224854e-01
1.214166402816772461e+00,-1.704272866249084473e+00,-1.096654906868934631e-01
1.215637803077697754e+00,-1.706338167190551758e+00,-3.656972572207450867e-02
1.217123270034790039e+00,-1.708423376083374023e+00,3.661441430449485779e-02
1.218634366989135742e+00,-1.710544466972351074e+00,1.100690513849258423e-01
1.220143437385559082e+00,-1.712662577629089355e+00,1.839749515056610107e-01
1.221613049507141113e+00,-1.714725494384765625e+00,2.585076987743377686e-01
1.223210692405700684e+00,-1.716968059539794922e+00,3.338949382305145264e-01
1.224724411964416504e+00,-1.719092845916748047e+00,4.102859795093536377e-01
1.226367592811584473e+00,-1.721399188041687012e+00,4.879561364650726318e-01
1.243534564971923828e+00,-1.693668603897094727e+00,-5.630043745040893555e-01
1.245234847068786621e+00,-1.695984363555908203e+00,-4.857545197010040283e-01
1.246783018112182617e+00,-1.698092937469482422e+00,-4.094912707805633545e-01
1.248257160186767578e+00,-1.700100660324096680e+00,-3.340550959110260010e-01
1.249827265739440918e+00,-1.702239274978637695e+00,-2.592956721782684326e-01
1.251353859901428223e+00,-1.704318404197692871e+00,-1.849836856126785278e-01
1.252865195274353027e+00,-1.706376671791076660e+00,-1.109434366226196289e-01
1.254382848739624023e+00,-1.708443760871887207e+00,-3.699585795402526855e-02
1.255910992622375488e+00,-1.710525155067443848e+00,3.704093024134635925e-02
1.257436275482177734e+00,-1.712602496147155762e+00,1.113482192158699036e-01
1.258935093879699707e+00,-1.714643836021423340e+00,1.861043870449066162e-01
1.260557532310485840e+00,-1.716853618621826172e+00,2.615218162536621094e-01
1.262141227722167969e+00,-1.719010591506958008e+00,3.377707004547119141e-01
1.263611674308776855e+00,-1.721013307571411133e+00,4.150184690952301025e-01
1.265201330184936523e+00,-1.723178386688232422e+00,4.935432970523834229e-01
1.283578038215637207e+00,-1.696756839752197266e+00,-5.700799226760864258e-01
1.285144925117492676e+00,-1.698828101158142090e+00,-4.917871952056884766e-01
1.286815643310546875e+00,-1.701036691665649414e+00,-4.146003425121307373e-01
1.288381338119506836e+00,-1.703106403350830078e+00,-3.382345736026763916e-01
1.289911150932312012e+00,-1.705128669738769531e+00,-2.625213563442230225e-01
1.291522026062011719e+00,-1.707258105278015137e+00,-1.872900277376174927e-01
1.293089747428894043e+00,-1.709330439567565918e+00,-1.123273372650146484e-01
1.294655323028564453e+00,-1.711399912834167480e+00,-3.745731711387634277e-02
1.296225905418395996e+00,-1.713476061820983887e+00,3.750275820493698120e-02
1.297762870788574219e+00,-1.715507745742797852e+00,1.127332821488380432e-01
1.299402594566345215e+00,-1.717675328254699707e+00,1.884328275918960571e-01
