8.778484463691711426e-01,-1.589783072471618652e+00,2.876332104206085205e-01
8.789297938346862793e-01,-1.591741442680358887e+00,3.534381687641143799e-01
8.799099326133728027e-01,-1.593516469001770020e+00,4.202515184879302979e-01
8.947015404701232910e-01,-1.566881537437438965e+00,-4.834681749343872070e-01
8.959025144577026367e-01,-1.568984746932983398e+00,-4.171210527420043945e-01
8.968610167503356934e-01,-1.570663452148437500e+00,-3.515723049640655518e-01
8.979924321174621582e-01,-1.572644829750061035e+00,-2.868285775184631348e-01
8.989838957786560059e-01,-1.574381232261657715e+00,-2.226039916276931763e-01
9.000325798988342285e-01,-1.576217770576477051e+00,-1.587988138198852539e-01
9.010680317878723145e-01,-1.578031182289123535e+00,-9.523368626832962036e-02
9.021024703979492188e-01,-1.579842686653137207e+00,-3.175518289208412170e-02
9.031397700309753418e-01,-1.581659317016601562e+00,3.179169818758964539e-02
9.041720032691955566e-01,-1.583467006683349609e+00,9.556174278259277344e-02
9.052723050117492676e-01,-1.585394024848937988e+00,1.597232967615127563e-01
9.062537550926208496e-01,-1.587112784385681152e+00,2.244041264057159424e-01
9.074289798736572266e-01,-1.589170932769775391e+00,2.898427248001098633e-01
9.083924889564514160e-01,-1.590858340263366699e+00,3.560926914215087891e-01
9.095867276191711426e-01,-1.592949867248535156e+00,4.234922528266906738e-01
9.245139360427856445e-01,-1.566588997840881348e+00,-4.874110519886016846e-01
9.256985783576965332e-01,-1.568596363067626953e+00,-4.204972684383392334e-01
9.267737269401550293e-01,-1.570418119430541992e+00,-3.544503748416900635e-01
9.277985692024230957e-01,-1.572154760360717773e+00,-2.891317009925842285e-01
9.288921356201171875e-01,-1.574007868766784668e+00,-2.244081050157546997e-01
9.299654364585876465e-01,-1.575826525688171387e+00,-1.600840538740158081e-01
9.310591220855712891e-01,-1.577679872512817383e+00,-9.600691497325897217e-02
9.321267008781433105e-01,-1.579488873481750488e+00,-3.201296553015708923e-02
9.331757426261901855e-01,-1.581266403198242188e+00,3.204899653792381287e-02
9.342500567436218262e-01,-1.583086848258972168e+00,9.633595496416091919e-02
9.353186488151550293e-01,-1.584897637367248535e+00,1.610055565834045410e-01
9.364727735519409180e-01,-1.586853265762329102e+00,2.262394875288009644e-01
9.376021027565002441e-01,-1.588766932487487793e+00,2.921867966651916504e-01
9.386529326438903809e-01,-1.590547442436218262e+00,3.589936494827270508e-01
9.397616982460021973e-01,-1.592426300048828125e+00,4.268854260444641113e-01
9.547173380851745605e-01,-1.566118478775024414e+00,-4.914659857749938965e-01
9.557731747627258301e-01,-1.567850470542907715e+00,-4.239212274551391602e-01
9.569022059440612793e-01,-1.569702506065368652e+00,-3.573436141014099121e-01
9.580826759338378906e-01,-1.571638941764831543e+00,-2.915289700031280518e-01
9.592032432556152344e-01,-1.573477149009704590e+00,-2.262666970491409302e-01
9.603010416030883789e-01,-1.575277924537658691e+00,-1.614081412553787231e-01
9.614017605781555176e-01,-1.577083587646484375e+00,-9.679812192916870117e-02
9.625051617622375488e-01,-1.578893661499023438e+00,-3.227682411670684814e-02
9.636128544807434082e-01,-1.580710649490356445e+00,3.231396898627281189e-02
9.647321105003356934e-01,-1.582546710968017578e+00,9.713342785835266113e-02
9.658427238464355469e-01,-1.584368586540222168e+00,1.623395830392837524e-01
9.669136404991149902e-01,-1.586125373840332031e+00,2.280855029821395874e-01
9.680595397949218750e-01,-1.588004946708679199e+00,2.945647835731506348e-01
9.693097472190856934e-01,-1.590055942535400391e+00,3.619771003723144531e-01
9.704659581184387207e-01,-1.591952562332153320e+00,4.304380416870117188e-01
9.851972460746765137e-01,-1.565263986587524414e+00,-4.955723285675048828e-01
9.862986803054809570e-01,-1.567013978958129883e+00,-4.274683892726898193e-01
9.874755144119262695e-01,-1.568883776664733887e+00,-3.603379726409912109e-01
9.887034893035888672e-01,-1.570834636688232422e+00,-2.939747273921966553e-01
9.898631572723388672e-01,-1.572677135467529297e+00,-2.281657010316848755e-01
9.909931421279907227e-01,-1.574472546577453613e+00,-1.627623289823532104e-01
9.921197295188903809e-01,-1.576262354850769043e+00,-9.760931879281997681e-02
9.932562112808227539e-01,-1.578068017959594727e+00,-3.254724293947219849e-02
9.944079518318176270e-01,-1.579897880554199219e+00,3.258498385548591614e-02
9.955648779869079590e-01,-1.581735968589782715e+00,9.794826805591583252e-02
9.967070221900939941e-01,-1.583550572395324707e+00,1.637007743120193481e-01
9.978014230728149414e-01,-1.585289359092712402e+00,2.299954891204833984e-01
9.989709854125976562e-01,-1.587147474288940430e+00,2.970276176929473877e-01
1.000248074531555176e+00,-1.589176654815673828e+00,3.649988174438476562e-01
1.001424908638000488e+00,-1.591046214103698730e+00,4.340241551399230957e-01
1.016237616539001465e+00,-1.564457178115844727e+00,-4.998710155487060547e-01
1.017578244209289551e+00,-1.566521167755126953e+00,-4.312629699707031250e-01
1.018639564514160156e+00,-1.568154931068420410e+00,-3.634821176528930664e-01
1.019926190376281738e+00,-1.570135712623596191e+00,-2.965456247329711914e-01
1.021133899688720703e+00,-1.571995019912719727e+00,-2.301636636257171631e-01
1.022249937057495117e+00,-1.573713064193725586e+00,-1.641795933246612549e-01
1.023437500000000000e+00,-1.575541138648986816e+00,-9.846170246601104736e-02
1.024611592292785645e+00,-1.577348709106445312e+00,-3.283151984214782715e-02
1.025773286819458008e+00,-1.579137086868286133e+00,3.286874666810035706e-02
1.027011871337890625e+00,-1.581043839454650879e+00,9.880558401346206665e-02
1.028177738189697266e+00,-1.582838535308837891e+00,1.651316136121749878e-01
1.029285788536071777e+00,-1.584544420242309570e+00,2.320010811090469360e-01
1.030642509460449219e+00,-1.586633086204528809e+00,2.996614277362823486e-01
1.031755208969116211e+00,-1.588345885276794434e+00,3.681621849536895752e-01
1.032935142517089844e+00,-1.590162515640258789e+00,4.377714395523071289e-01
1.048073887825012207e+00,-1.564003586769104004e+00,-5.044676661491394043e-01
1.049286246299743652e+00,-1.565812706947326660e+00,-4.351580739021301270e-01
1.050570845603942871e+00,-1.567729711532592773e+00,-3.668314516544342041e-01
1.051774144172668457e+00,-1.569525361061096191e+00,-2.992430031299591064e-01
1.052951097488403320e+00,-1.571281671524047852e+00,-2.322421073913574219e-01
1.054196000099182129e+00,-1.573139429092407227e+00,-1.656769812107086182e-01
1.055416107177734375e+00,-1.574960112571716309e+00,-9.935928881168365479e-02
1.056624650955200195e+00,-1.576763510704040527e+00,-3.313074260950088501e-02
1.057826638221740723e+00,-1.578557252883911133e+00,3.316843509674072266e-02
1.059012770652770996e+00,-1.580327272415161133e+00,9.969788044691085815e-02
1.060279250144958496e+00,-1.582217216491699219e+00,1.666330099105834961e-01
1.061541318893432617e+00,-1.584100604057312012e+00,2.341367900371551514e-01
1.062751412391662598e+00,-1.585906267166137695e+00,3.023661375045776367e-01
1.064066767692565918e+00,-1.587869167327880859e+00,3.715438842773437500e-01
1.065260529518127441e+00,-1.589650511741638184e+00,4.417828917503356934e-01
1.080523967742919922e+00,-1.563564658164978027e+00,-5.092625021934509277e-01
1.081803441047668457e+00,-1.565416097640991211e+00,-4.393061399459838867e-01
1.082985162734985352e+00,-1.567126154899597168e+00,-3.702794313430786133e-01
1.084266901016235352e+00,-1.568980932235717773e+00,-3.020671904087066650e-01
1.085599780082702637e+00,-1.570909619331359863e+00,-2.344597876071929932e-01
1.086804747581481934e+00,-1.572653293609619141e+00,-1.672469228506088257e-01
1.088060021400451660e+00,-1.574469685554504395e+00,-1.003005802631378174e-01
1.089303374290466309e+00,-1.576268792152404785e+00,-3.344453498721122742e-02
1.090544462203979492e+00,-1.578064799308776855e+00,3.348264098167419434e-02
1.091841578483581543e+00,-1.579941868782043457e+00,1.006491780281066895e-01
1.093030452728271484e+00,-1.581662178039550781e+00,1.682049930095672607e-01
1.094289779663085938e+00,-1.583484411239624023e+00,2.363365739583969116e-01
1.095675826072692871e+00,-1.585490107536315918e+00,3.052456080913543701e-01
1.097000956535339355e+00,-1.587407708168029785e+00,3.750715553760528564e-01
1.098189234733581543e+00,-1.589127182960510254e+00,4.459602236747741699e-01
1.113597154617309570e+00,-1.563108205795288086e+00,-5.142527222633361816e-01
1.114964008331298828e+00,-1.565026760101318359e+00,-4.436300396919250488e-01
1.116213798522949219e+00,-1.566781044006347656e+00,-3.739346265792846680e-01
1.117553591728210449e+00,-1.568661689758300781e+00,-3.050541281700134277e-01
1.118831634521484375e+00,-1.570455670356750488e+00,-2.367579340934753418e-01
1.120091676712036133e+00,-1.572224378585815430e+00,-1.688890159130096436e-01
1.121364355087280273e+00,-1.574010729789733887e+00,-1.012834683060646057e-01
1.122648239135742188e+00,-1.575812816619873047e+00,-3.377234190702438354e-02
1.123942971229553223e+00,-1.577630162239074707e+00,3.381129354238510132e-02
1.125260710716247559e+00,-1.579479813575744629e+00,1.016353890299797058e-01
1.126577496528625488e+00,-1.581328153610229492e+00,1.698669493198394775e-01
1.127855777740478516e+00,-1.583122372627258301e+00,2.386675328016281128e-01
1.129251718521118164e+00,-1.585081815719604492e+00,3.082472980022430420e-01
1.130568027496337891e+00,-1.586929559707641602e+00,3.787433505058288574e-01
1.132003307342529297e+00,-1.588944196701049805e+00,4.504097700119018555e-01
1.146769404411315918e+00,-1.561876535415649414e+00,-5.191944837570190430e-01
1.148257970809936523e+00,-1.563903927803039551e+00,-4.479247629642486572e-01
1.149605512619018555e+00,-1.565739154815673828e+00,-3.775744736194610596e-01
1.150883674621582031e+00,-1.567480087280273438e+00,-3.079962730407714844e-01
1.152254939079284668e+00,-1.569347620010375977e+00,-2.390528023242950439e-01
1.153583049774169922e+00,-1.571156501770019531e+00,-1.705305427312850952e-01
1.154899120330810547e+00,-1.572948932647705078e+00,-1.022683680057525635e-01
1.156219005584716797e+00,-1.574746608734130859e+00,-3.410068526864051819e-02
1.157547116279602051e+00,-1.576555609703063965e+00,3.413985669612884521e-02
1.158873200416564941e+00,-1.578361630439758301e+00,1.026202812790870667e-01
1.160173654556274414e+00,-1.580132842063903809e+00,1.715048104524612427e-01
1.161587715148925781e+00,-1.582058787345886230e+00,2.409890443086624146e-01
1.162963986396789551e+00,-1.583933234214782715e+00,3.112291693687438965e-01
1.164236903190612793e+00,-1.585666894912719727e+00,3.823799788951873779e-01
1.165616154670715332e+00,-1.587545394897460938e+00,4.546960294246673584e-01
1.181303262710571289e+00,-1.561560273170471191e+00,-5.246562957763671875e-01
1.182660698890686035e+00,-1.563354611396789551e+00,-4.525695145130157471e-01
1.184115409851074219e+00,-1.565277576446533203e+00,-3.815112411975860596e-01
1.185474395751953125e+00,-1.567074060440063477e+00,-3.112187385559082031e-01
1.186798930168151855e+00,-1.568825006484985352e+00,-2.415360510349273682e-01
1.188200473785400391e+00,-1.570677638053894043e+00,-1.723068505525588989e-01
1.189562678337097168e+00,-1.572478413581848145e+00,-1.033342182636260986e-01
1.190919280052185059e+00,-1.574271678924560547e+00,-3.445599973201751709e-02
1.192280650138854980e+00,-1.576071262359619141e+00,3.449538722634315491e-02
1.193612694740295410e+00,-1.577831983566284180e+00,1.036860272288322449e-01
1.195035457611083984e+00,-1.579712867736816406e+00,1.732980310916900635e-01
1.196448683738708496e+00,-1.581580996513366699e+00,2.434999495744705200e-01
1.197798490524291992e+00,-1.583365321159362793e+00,3.144541382789611816e-01
1.199282646179199219e+00,-1.585327148437500000e+00,3.863979876041412354e-01
1.200631618499755859e+00,-1.587110400199890137e+00,4.594464600086212158e-01
1.216466069221496582e+00,-1.561092734336853027e+00,-5.302949547767639160e-01
1.217933058738708496e+00,-1.562975287437438965e+00,-4.574593901634216309e-01
1.219277858734130859e+00,-1.564701199531555176e+00,-3.855849206447601318e-01
1.220735192298889160e+00,-1.566571354866027832e+00,-3.145567774772644043e-01
1.222126722335815430e+00,-1.568357110023498535e+00,-2.441322058439254761e-01
1.223499417304992676e+00,-1.570118665695190430e+00,-1.741488575935363770e-01
1.224886894226074219e+00,-1.571899175643920898e+00,-1.044375821948051453e-01
1.226286649703979492e+00,-1.573695540428161621e+00,-3.482399135828018188e-02
1.227697849273681641e+00,-1.575506448745727539e+00,3.486406430602073669e-02
1.229135274887084961e+00,-1.577351212501525879e+00,1.047998145222663879e-01
1.230572462081909180e+00,-1.579195499420166016e+00,1.751556098461151123e-01
1.231969237327575684e+00,-1.580987930297851562e+00,2.460983395576477051e-01
1.233508110046386719e+00,-1.582962870597839355e+00,3.178480863571166992e-01
1.234965682029724121e+00,-1.584833383560180664e+00,3.905460238456726074e-01
1.236257553100585938e+00,-1.586491227149963379e+00,4.643421471118927002e-01
1.252233386039733887e+00,-1.560406923294067383e+00,-5.360956788063049316e-01
1.253584623336791992e+00,-1.562090635299682617e+00,-4.624047875404357910e-01
1.255073428153991699e+00,-1.563945770263671875e+00,-3.897857666015625000e-01
1.256648063659667969e+00,-1.565908074378967285e+00,-3.180026710033416748e-01
1.258001208305358887e+00,-1.567594170570373535e+00,-2.467910498380661011e-01
1.259463667869567871e+00,-1.569416522979736328e+00,-1.760524213314056396e-01
1.260905265808105469e+00,-1.571212887763977051e+00,-1.055802851915359497e-01
1.262343406677246094e+00,-1.573004961013793945e+00,-3.520493954420089722e-02
1.263782978057861328e+00,-1.574798941612243652e+00,3.524508699774742126e-02
1.265212893486022949e+00,-1.576580762863159180e+00,1.059409826993942261e-01
1.266766309738159180e+00,-1.578516364097595215e+00,1.770732253789901733e-01
1.268128514289855957e+00,-1.580213785171508789e+00,2.487778067588806152e-01
1.269607424736022949e+00,-1.582056641578674316e+00,3.212821185588836670e-01
1.271263003349304199e+00,-1.584119796752929688e+00,3.948137462139129639e-01
1.272800922393798828e+00,-1.586036086082458496e+00,4.694930613040924072e-01
1.288570165634155273e+00,-1.559428334236145020e+00,-5.420405268669128418e-01
1.290074586868286133e+00,-1.561249017715454102e+00,-4.675738215446472168e-01
1.291687846183776855e+00,-1.563201308250427246e+00,-3.941677808761596680e-01
1.293183088302612305e+00,-1.565010786056518555e+00,-3.215465247631072998e-01
1.294625163078308105e+00,-1.566756010055541992e+00,-2.495508641004562378e-01
1.296065449714660645e+00,-1.568499088287353516e+00,-1.780122816562652588e-01
1.297567129135131836e+00,-1.570316433906555176e+00,-1.067571267485618591e-01
1.299044013023376465e+00,-1.572103738784790039e+00,-3.559726476669311523e-02
1.300507903099060059e+00,-1.573875427246093750e+00,3.563737869262695312e-02
1.302038788795471191e+00,-1.575727939605712891e+00,1.071250289678573608e-01
1.303587317466735840e+00,-1.577602028846740723e+00,1.790454089641571045e-01
1.305110454559326172e+00,-1.579445242881774902e+00,2.515719830989837646e-01
1.306550025939941406e+00,-1.581187605857849121e+00,3.248701691627502441e-01
1.308138608932495117e+00,-1.583110094070434570e+00,3.991878628730773926e-01
1.309571027755737305e+00,-1.584843635559082031e+00,4.746401011943817139e-01
1.326254129409790039e+00,-1.559044122695922852e+00,-5.484492182731628418e-01
1.327927470207214355e+00,-1.561011195182800293e+00,-4.731465578079223633e-01
1.329449892044067383e+00,-1.562800765037536621e+00,-3.988241851329803467e-01
1.331086039543151855e+00,-1.564724206924438477e+00,-3.253687918186187744e-01
1.332495570182800293e+00,-1.566381096839904785e+00,-2.525031566619873047e-01
1.334040403366088867e+00,-1.568197011947631836e+00,-1.801266670227050781e-01
1.335576772689819336e+00,-1.570003151893615723e+00,-1.080244034528732300e-01
1.337100982666015625e+00,-1.571794867515563965e+00,-3.601993620395660400e-02
1.338610529899597168e+00,-1.573569297790527344e+00,3.606060147285461426e-02
1.340123653411865234e+00,-1.575348138809204102e+00,1.083921641111373901e-01
1.341786503791809082e+00,-1.577302932739257812e+00,1.811725795269012451e-01
1.343256473541259766e+00,-1.579030752182006836e+00,2.545422911643981934e-01
1.344871401786804199e+00,-1.580929160118103027e+00,3.287384510040283203e-01
1.346379518508911133e+00,-1.582702040672302246e+00,4.039029479026794434e-01
1.348055481910705566e+00,-1.584672212600708008e+00,4.803182780742645264e-01
1.363977670669555664e+00,-1.557657003402709961e+00,-5.547724366188049316e-01
1.365531921386718750e+00,-1.559431910514831543e+00,-4.785431623458862305e-01
1.367220759391784668e+00,-1.561360597610473633e+00,-4.034094512462615967e-01
1.368792772293090820e+00,-1.563155889511108398e+00,-3.290829658508300781e-01
1.370317935943603516e+00,-1.564897537231445312e+00,-2.553996443748474121e-01
1.371933341026306152e+00,-1.566742300987243652e+00,-1.821964681148529053e-01
1.373457312583923340e+00,-1.568482637405395508e+00,-1.092612370848655701e-01
1.375020980834960938e+00,-1.570268511772155762e+00,-3.643225133419036865e-02
1.376624584197998047e+00,-1.572099685668945312e+00,3.647473827004432678e-02
1.378154277801513672e+00,-1.573846578598022461e+00,1.096348837018013000e-01
1.379789352416992188e+00,-1.575713872909545898e+00,1.832397729158401489e-01
1.381405711174011230e+00,-1.577559828758239746e+00,2.574661672115325928e-01
1.382943034172058105e+00,-1.579315304756164551e+00,3.324849307537078857e-01
1.384657025337219238e+00,-1.581272721290588379e+00,4.085541665554046631e-01
1.386216998100280762e+00,-1.583054184913635254e+00,4.857921302318572998e-01
1.403722047805786133e+00,-1.557494044303894043e+00,-5.618128180503845215e-01
1.405483245849609375e+00,-1.559448361396789551e+00,-4.846719503402709961e-01
1.407091736793518066e+00,-1.561232924461364746e+00,-4.085383117198944092e-01
1.408833742141723633e+00,-1.563165783882141113e+00,-3.332962095737457275e-01
1.410477042198181152e+00,-1.564989209175109863e+00,-2.586830258369445801e-01
1.412076354026794434e+00,-1.566763639450073242e+00,-1.845304667949676514e-01
1.413669586181640625e+00,-1.568531394004821777e+00,-1.106628328561782837e-01
1.415276408195495605e+00,-1.570314168930053711e+00,-3.689952939748764038e-02
1.416902184486389160e+00,-1.572118043899536133e+00,3.694191947579383850e-02
1.418533802032470703e+00,-1.573928475379943848e+00,1.110436096787452698e-01
1.420142531394958496e+00,-1.575713396072387695e+00,1.855845600366592407e-01
1.421681880950927734e+00,-1.577421426773071289e+00,2.607379853725433350e-01
1.423388600349426270e+00,-1.579315066337585449e+00,3.367395102977752686e-01
1.424988269805908203e+00,-1.581089973449707031e+00,4.137344360351562500e-01
1.426784873008728027e+00,-1.583083391189575195e+00,4.920176565647125244e-01
1.443386435508728027e+00,-1.556130051612854004e+00,-5.687149167060852051e-01
1.445356369018554688e+00,-1.558254003524780273e+00,-4.906802773475646973e-01
1.446851253509521484e+00,-1.559865593910217285e+00,-4.135573208332061768e-01
1.448539257049560547e+00,-1.561685562133789062e+00,-3.373668193817138672e-01
1.450328350067138672e+00,-1.563614249229431152e+00,-2.618603110313415527e-01
1.451919198036193848e+00,-1.565329432487487793e+00,-1.867900788784027100e-01
1.453590750694274902e+00,-1.567131519317626953e+00,-1.120205000042915344e-01
1.455241084098815918e+00,-1.568910717964172363e+00,-3.735218197107315063e-02
1.456878542900085449e+00,-1.570676088333129883e+00,3.739421069622039795e-02
1.458603620529174805e+00,-1.572535991668701172e+00,1.124068126082420349e-01
1.460159778594970703e+00,-1.574213624000549316e+00,1.878502219915390015e-01
1.461839795112609863e+00,-1.576024889945983887e+00,2.639387249946594238e-01
1.463748097419738770e+00,-1.578082323074340820e+00,3.409089744091033936e-01
1.465233922004699707e+00,-1.579684138298034668e+00,4.188117086887359619e-01
1.467290639877319336e+00,-1.581901431083679199e+00,4.981266558170318604e-01
1.484594225883483887e+00,-1.555306315422058105e+00,-5.761208534240722656e-01
1.486462950706481934e+00,-1.557263970375061035e+00,-4.970173835754394531e-01
1.488165855407714844e+00,-1.559048056602478027e+00,-4.189449846744537354e-01
1.490010738372802734e+00,-1.560980796813964844e+00,-3.417868316173553467e-01
1.491587281227111816e+00,-1.562632441520690918e+00,-2.652441859245300293e-01
1.493323445320129395e+00,-1.564451336860656738e+00,-1.892165392637252808e-01
1.495044708251953125e+00,-1.566254496574401855e+00,-1.134758293628692627e-01
1.496746540069580078e+00,-1.568037509918212891e+00,-3.783756494522094727e-02
1.498422145843505859e+00,-1.569792866706848145e+00,3.787992149591445923e-02
1.500097393989562988e+00,-1.571547865867614746e+00,1.138593330979347229e-01
1.501946926116943359e+00,-1.573485612869262695e+00,1.903092116117477417e-01
1.503566861152648926e+00,-1.575182676315307617e+00,2.673744559288024902e-01
1.505363702774047852e+00,-1.577064990997314453e+00,3.453085720539093018e-01
1.507043838500976562e+00,-1.578825235366821289e+00,4.242594838142395020e-01
1.508939266204833984e+00,-1.580810904502868652e+00,5.045326352119445801e-01
1.527517795562744141e+00,-1.555091261863708496e+00,-5.840803384780883789e-01
1.529623270034790039e+00,-1.557234883308410645e+00,-5.039442181587219238e-01
1.531208634376525879e+00,-1.558848857879638672e+00,-4.247374534606933594e-01
1.533001065254211426e+00,-1.560673594474792480e+00,-3.464885354042053223e-01
1.534732580184936523e+00,-1.562436461448669434e+00,-2.689121365547180176e-01
1.536564350128173828e+00,-1.564301133155822754e+00,-1.918387860059738159e-01
1.538274526596069336e+00,-1.566042304039001465e+00,-1.150438785552978516e-01
1.540022134780883789e+00,-1.567821383476257324e+00,-3.836033120751380920e-02
1.541799664497375488e+00,-1.569631099700927734e+00,3.840461000800132751e-02
1.543479323387145996e+00,-1.571341037750244141e+00,1.154331415891647339e-01
1.545272827148437500e+00,-1.573166847229003906e+00,1.929260343313217163e-01
1.547038674354553223e+00,-1.574964642524719238e+00,2.710683643817901611e-01
1.549048185348510742e+00,-1.577010393142700195e+00,3.501155078411102295e-01
1.550592541694641113e+00,-1.578582644462585449e+00,4.301142692565917969e-01
1.552760481834411621e+00,-1.580789804458618164e+00,5.115669369697570801e-01
1.571393013000488281e+00,-1.554612874984741211e+00,-5.922878384590148926e-01
1.572996973991394043e+00,-1.556199789047241211e+00,-5.108431577682495117e-01
1.574832320213317871e+00,-1.558015584945678711e+00,-4.306080937385559082e-01
1.576813101768493652e+00,-1.559975147247314453e+00,-3.513082265853881836e-01
1.578488826751708984e+00,-1.561632990837097168e+00,-2.726345360279083252e-01
1.580324411392211914e+00,-1.563449025154113770e+00,-1.944883614778518677e-01
1.582127451896667480e+00,-1.565232753753662109e+00,-1.166360527276992798e-01
1.583920955657958984e+00,-1.567007064819335938e+00,-3.889112919569015503e-02
1.585706949234008789e+00,-1.568773984909057617e+00,3.893498331308364868e-02
1.587474822998046875e+00,-1.570523023605346680e+00,1.170302629470825195e-01
1.589418649673461914e+00,-1.572445988655090332e+00,1.956075727939605713e-01
1.591097235679626465e+00,-1.574106812477111816e+00,2.748122513294219971e-01
1.592957615852355957e+00,-1.575947284698486328e+00,3.549051582813262939e-01
1.595098495483398438e+00,-1.578065276145935059e+00,4.361494779586791992e-01
1.596638202667236328e+00,-1.579588532447814941e+00,5.185208320617675781e-01
1.615258455276489258e+00,-1.552899956703186035e+00,-6.003821492195129395e-01
1.617149353027343750e+00,-1.554717898368835449e+00,-5.179019570350646973e-01
1.618898272514343262e+00,-1.556399226188659668e+00,-4.365209937095642090e-01
1.620853066444396973e+00,-1.558278679847717285e+00,-3.561143577098846436e-01
1.622721910476684570e+00,-1.560075402259826660e+00,-2.763892710208892822e-01
1.624675154685974121e+00,-1.561953186988830566e+00,-1.971749067306518555e-01
1.626470327377319336e+00,-1.563679099082946777e+00,-1.182429492473602295e-01
1.628310084342956543e+00,-1.565447688102722168e+00,-3.942683339118957520e-02
1.630196571350097656e+00,-1.567261457443237305e+00,3.947251290082931519e-02
1.631950020790100098e+00,-1.568947196006774902e+00,1.186413168907165527e-01
1.633803248405456543e+00,-1.570728898048400879e+00,1.982827335596084595e-01
1.635603785514831543e+00,-1.572459936141967773e+00,2.785833775997161865e-01
1.637647390365600586e+00,-1.574424624443054199e+00,3.598042130470275879e-01
1.639603614807128906e+00,-1.576305270195007324e+00,4.421040117740631104e-01
1.641359090805053711e+00,-1.577993035316467285e+00,5.256552696228027344e-01
1.660960912704467773e+00,-1.551711082458496094e+00,-6.090516448020935059e-01
1.663166284561157227e+00,-1.553771376609802246e+00,-5.254629254341125488e-01
1.665145874023437500e+00,-1.555620789527893066e+00,-4.429419636726379395e-01
1.667004585266113281e+00,-1.557357192039489746e+00,-3.613196611404418945e-01
1.668827891349792480e+00,-1.559060573577880859e+00,-2.804126441478729248e-01
1.670794963836669922e+00,-1.560898303985595703e+00,-2.000401765108108521e-01
1.672694087028503418e+00,-1.562672495841979980e+00,-1.199650019407272339e-01
1.674582600593566895e+00,-1.564436793327331543e+00,-4.000095278024673462e-02
1.676470994949340820e+00,-1.566200971603393555e+00,4.004606232047080994e-02
1.678308486938476562e+00,-1.567917585372924805e+00,1.203676611185073853e-01
1.680304646492004395e+00,-1.569782495498657227e+00,2.011787444353103638e-01
1.682301044464111328e+00,-1.571647524833679199e+00,2.826765477657318115e-01
1.684221863746643066e+00,-1.573441982269287109e+00,3.650514781475067139e-01
1.685971498489379883e+00,-1.575076580047607422e+00,4.484817683696746826e-01
1.687953233718872070e+00,-1.576927900314331055e+00,5.332940816879272461e-01
1.709171891212463379e+00,-1.551539659500122070e+00,-6.185232996940612793e-01
1.711246967315673828e+00,-1.553423404693603516e+00,-5.335739850997924805e-01
1.713142991065979004e+00,-1.555144429206848145e+00,-4.497423171997070312e-01
1.715235233306884766e+00,-1.557043790817260742e+00,-3.669053912162780762e-01
1.717009902000427246e+00,-1.558654785156250000e+00,-2.847307920455932617e-01
1.718990445137023926e+00,-1.560452580451965332e+00,-2.031155228614807129e-01
1.720958828926086426e+00,-1.562239527702331543e+00,-1.218103319406509399e-01
1.722908258438110352e+00,-1.564009070396423340e+00,-4.061640799045562744e-02
1.724828720092773438e+00,-1.565752506256103516e+00,4.066168144345283508e-02
1.726753115653991699e+00,-1.567499399185180664e+00,1.222204491496086121e-01
1.728900074958801270e+00,-1.569448351860046387e+00,2.042864561080932617e-01
1.730774044990539551e+00,-1.571149468421936035e+00,2.870132923126220703e-01
1.732884049415588379e+00,-1.573064923286437988e+00,3.706806302070617676e-01
1.734872102737426758e+00,-1.574869513511657715e+00,4.554467201232910156e-01
1.737158298492431641e+00,-1.576944947242736816e+00,5.416532158851623535e-01
1.757778286933898926e+00,-1.550358891487121582e+00,-6.280182600021362305e-01
1.759733319282531738e+00,-1.552083253860473633e+00,-5.417098402976989746e-01
1.761556982994079590e+00,-1.553691744804382324e+00,-4.565671980381011963e-01
1.763639569282531738e+00,-1.555528640747070312e+00,-3.724586963653564453e-01
1.765848755836486816e+00,-1.557477116584777832e+00,-2.891032993793487549e-01
1.767772078514099121e+00,-1.559173464775085449e+00,-2.062214463949203491e-01
1.769737839698791504e+00,-1.560907244682312012e+00,-1.236688941717147827e-01
1.771737933158874512e+00,-1.562671303749084473e+00,-4.123601689934730530e-02
1.773763298988342285e+00,-1.564457654953002930e+00,4.128315672278404236e-02
1.775846123695373535e+00,-1.566294670104980469e+00,1.240957304835319519e-01
1.777682185173034668e+00,-1.567914128303527832e+00,2.073775082826614380e-01
1.779669165611267090e+00,-1.569666743278503418e+00,2.913659512996673584e-01
1.781956434249877930e+00,-1.571684002876281738e+00,3.763269782066345215e-01
1.784173130989074707e+00,-1.573639154434204102e+00,4.624289274215698242e-01
1.786193132400512695e+00,-1.575420737266540527e+00,5.498551130294799805e-01
1.808092355728149414e+00,-1.549296736717224121e+00,-6.380061507225036621e-01
1.810435533523559570e+00,-1.551304578781127930e+00,-5.504260659217834473e-01
1.812548875808715820e+00,-1.553115487098693848e+00,-4.639741778373718262e-01
1.814545512199401855e+00,-1.554826259613037109e+00,-3.784706592559814453e-01
1.816727995872497559e+00,-1.556696414947509766e+00,-2.937551736831665039e-01
1.818671345710754395e+00,-1.558361530303955078e+00,-2.095356136560440063e-01
1.820760250091552734e+00,-1.560151457786560059e+00,-1.256609559059143066e-01
1.822812914848327637e+00,-1.561910390853881836e+00,-4.190013185143470764e-02
1.824832201004028320e+00,-1.563640594482421875e+00,4.194654896855354309e-02
1.827002048492431641e+00,-1.565499901771545410e+00,1.260917335748672485e-01
1.828971505165100098e+00,-1.567187428474426270e+00,2.107223272323608398e-01
1.831154584884643555e+00,-1.569058060646057129e+00,2.960878610610961914e-01
1.833269953727722168e+00,-1.570870637893676758e+00,3.823761045932769775e-01
1.835215687751770020e+00,-1.572537899017333984e+00,4.697764217853546143e-01
1.837449789047241211e+00,-1.574452161788940430e+00,5.586391687393188477e-01
1.859132170677185059e+00,-1.547441601753234863e+00,-6.481341123580932617e-01
1.861383318901062012e+00,-1.549315333366394043e+00,-5.591162443161010742e-01
1.863448381423950195e+00,-1.551034092903137207e+00,-4.712722003459930420e-01
1.865746974945068359e+00,-1.552947402000427246e+00,-3.844744265079498291e-01
1.867911338806152344e+00,-1.554748892784118652e+00,-2.984023392200469971e-01
1.870013594627380371e+00,-1.556498765945434570e+00,-2.128622978925704956e-01
1.872103095054626465e+00,-1.558237910270690918e+00,-1.276520341634750366e-01
1.874209642410278320e+00,-1.559991240501403809e+00,-4.256394132971763611e-02
1.876334428787231445e+00,-1.561759829521179199e+00,4.261219501495361328e-02
1.878463506698608398e+00,-1.563531994819641113e+00,1.280857175588607788e-01
1.880558967590332031e+00,-1.565276145935058594e+00,2.140626758337020874e-01
1.882558941841125488e+00,-1.566940784454345703e+00,3.007423281669616699e-01
1.884832978248596191e+00,-1.568833589553833008e+00,3.884074985980987549e-01
1.886983394622802734e+00,-1.570623397827148438e+00,4.772242903709411621e-01
1.889487862586975098e+00,-1.572708010673522949e+00,5.675581693649291992e-01
1.914930462837219238e+00,-1.548032879829406738e+00,-6.597943902015686035e-01
1.917064428329467773e+00,-1.549758076667785645e+00,-5.691201686859130859e-01
1.919460177421569824e+00,-1.551694750785827637e+00,-4.797716140747070312e-01
1.921677112579345703e+00,-1.553486943244934082e+00,-3.913777470588684082e-01
1.923812866210937500e+00,-1.555213451385498047e+00,-3.037454485893249512e-01
1.925942897796630859e+00,-1.556935429573059082e+00,-2.166697978973388672e-01
1.928170561790466309e+00,-1.558736205101013184e+00,-1.299404501914978027e-01
1.930333495140075684e+00,-1.560484766960144043e+00,-4.332683980464935303e-02
1.932449936866760254e+00,-1.562195777893066406e+00,4.337434470653533936e-02
1.934666991233825684e+00,-1.563987970352172852e+00,1.303782463073730469e-01
1.936908364295959473e+00,-1.565799832344055176e+00,2.179034203290939331e-01
1.939107894897460938e+00,-1.567578077316284180e+00,3.061603307723999023e-01
1.941181063652038574e+00,-1.569253921508789062e+00,3.953500092029571533e-01
1.943571329116821289e+00,-1.571186184883117676e+00,4.857982099056243896e-01
1.945756554603576660e+00,-1.572952866554260254e+00,5.776380300521850586e-01
1.968505740165710449e+00,-1.545286655426025391e+00,-6.705642938613891602e-01
1.971056461334228516e+00,-1.547288894653320312e+00,-5.785147547721862793e-01
1.973348498344421387e+00,-1.549088120460510254e+00,-4.876489937305450439e-01
1.975505471229553223e+00,-1.550781488418579102e+00,-3.977791666984558105e-01
1.977630615234375000e+00,-1.552449584007263184e+00,-3.087025582790374756e-01
1.979946374893188477e+00,-1.554267525672912598e+00,-2.202198803424835205e-01
1.982180237770080566e+00,-1.556021094322204590e+00,-1.320657432079315186e-01
1.984399318695068359e+00,-1.557763218879699707e+00,-4.403539001941680908e-02
1.986620426177978516e+00,-1.559506654739379883e+00,4.408467561006546021e-02
1.988776922225952148e+00,-1.561199665069580078e+00,1.325052678585052490e-01
1.991141438484191895e+00,-1.563055753707885742e+00,2.214650511741638184e-01
1.993515372276306152e+00,-1.564919233322143555e+00,3.111821115016937256e-01
1.995808601379394531e+00,-1.566719412803649902e+00,4.018673300743103027e-01
1.997908115386962891e+00,-1.568367600440979004e+00,4.937181174755096436e-01
2.000336885452270508e+00,-1.570274233818054199e+00,5.871087312698364258e-01
2.027354240417480469e+00,-1.545103430747985840e+00,-6.830071806907653809e-01
2.029820442199707031e+00,-1.546983003616333008e+00,-5.892028808593750000e-01
2.032073974609375000e+00,-1.548700571060180664e+00,-4.966323077678680420e-01
2.034585714340209961e+00,-1.550614714622497559e+00,-4.051647782325744629e-01
2.036934614181518555e+00,-1.552404999732971191e+00,-3.144590258598327637e-01
2.039049863815307617e+00,-1.554017066955566406e+00,-2.242966741323471069e-01
2.041382551193237305e+00,-1.555794835090637207e+00,-1.345127075910568237e-01
2.043676853179931641e+00,-1.557543516159057617e+00,-4.485149309039115906e-02
2.045921087265014648e+00,-1.559253692626953125e+00,4.490074142813682556e-02
2.048385858535766602e+00,-1.561132192611694336e+00,1.349741816520690918e-01
2.050661563873291016e+00,-1.562866687774658203e+00,2.255739718675613403e-01
2.052817583084106445e+00,-1.564509868621826172e+00,3.169110119342803955e-01
2.055274248123168945e+00,-1.566382169723510742e+00,4.092846810817718506e-01
2.057587385177612305e+00,-1.568145155906677246e+00,5.028676986694335938e-01
2.060301780700683594e+00,-1.570213794708251953e+00,5.980508327484130859e-01
2.086323499679565430e+00,-1.543347239494323730e+00,-6.953601837158203125e-01
2.089263439178466797e+00,-1.545521974563598633e+00,-5.999748110771179199e-01
2.091403484344482422e+00,-1.547105073928833008e+00,-5.056684017181396484e-01
2.093865633010864258e+00,-1.548926472663879395e+00,-4.125124812126159668e-01
2.096213817596435547e+00,-1.550663590431213379e+00,-3.201511800289154053e-01
2.098530292510986328e+00,-1.552377223968505859e+00,-2.283719629049301147e-01
2.100871562957763672e+00,-1.554109096527099609e+00,-1.369528323411941528e-01
2.103226900100708008e+00,-1.555851459503173828e+00,-4.566498845815658569e-02
2.105583667755126953e+00,-1.557594776153564453e+00,4.571615532040596008e-02
2.107983827590942383e+00,-1.559370398521423340e+00,1.374164670705795288e-01
2.110383987426757812e+00,-1.561145901679992676e+00,2.296619415283203125e-01
2.112714529037475586e+00,-1.562869787216186523e+00,3.226712942123413086e-01
2.115411520004272461e+00,-1.564864993095397949e+00,4.167572259902954102e-01
2.117390394210815430e+00,-1.566328763961791992e+00,5.119516253471374512e-01
2.120369911193847656e+00,-1.568532824516296387e+00,6.089076995849609375e-01
2.148956537246704102e+00,-1.542587280273437500e+00,-7.088037729263305664e-01
2.151192903518676758e+00,-1.544192671775817871e+00,-6.113492846488952637e-01
2.153776407241821289e+00,-1.546047091484069824e+00,-5.153459310531616211e-01
2.156187057495117188e+00,-1.547777652740478516e+00,-4.203827679157257080e-01
2.158534765243530273e+00,-1.549462914466857910e+00,-3.262487053871154785e-01
2.161069393157958984e+00,-1.551282167434692383e+00,-2.327375411987304688e-01
2.163418054580688477e+00,-1.552968263626098633e+00,-1.395668089389801025e-01
2.165836811065673828e+00,-1.554704546928405762e+00,-4.653644189238548279e-02
2.168313264846801758e+00,-1.556482195854187012e+00,4.658965021371841431e-02
2.170639991760253906e+00,-1.558152318000793457e+00,1.400327086448669434e-01
2.173168897628784180e+00,-1.559967637062072754e+00,2.340406030416488647e-01
2.175681591033935547e+00,-1.561771273612976074e+00,3.288403153419494629e-01
2.178077936172485352e+00,-1.563491582870483398e+00,4.246507585048675537e-01
2.180886030197143555e+00,-1.565507292747497559e+00,5.218325853347778320e-01
2.183496952056884766e+00,-1.567381381988525391e+00,6.205297708511352539e-01
2.214280843734741211e+00,-1.541942119598388672e+00,-7.229963541030883789e-01
2.217029809951782227e+00,-1.543856382369995117e+00,-6.237155795097351074e-01
2.219511270523071289e+00,-1.545584440231323242e+00,-5.257273912429809570e-01
2.221868276596069336e+00,-1.547225832939147949e+00,-4.288266897201538086e-01
2.224494218826293945e+00,-1.549054384231567383e+00,-3.328327238559722900e-01
2.226815700531005859e+00,-1.550670981407165527e+00,-2.374034523963928223e-01
2.229341745376586914e+00,-1.552430033683776855e+00,-1.423716098070144653e-01
2.231828451156616211e+00,-1.554161787033081055e+00,-4.747153818607330322e-02
2.234278202056884766e+00,-1.555867552757263184e+00,4.752364009618759155e-02
2.236934423446655273e+00,-1.557717323303222656e+00,1.428564935922622681e-01
2.239336252212524414e+00,-1.559389829635620117e+00,2.387382835149765015e-01
2.242038726806640625e+00,-1.561271786689758301e+00,3.354577720165252686e-01
2.244677543640136719e+00,-1.563109397888183594e+00,4.332289397716522217e-01
2.247124910354614258e+00,-1.564813613891601562e+00,5.322681665420532227e-01
2.250000000000000000e+00,-1.566815614700317383e+00,6.329910755157470703e-01
2.279422044754028320e+00,-1.539334535598754883e+00,-7.369962930679321289e-01
2.282141923904418945e+00,-1.541171312332153320e+00,-6.357624530792236328e-01
2.285144329071044922e+00,-1.543198823928833008e+00,-5.359866619110107422e-01
2.287460327148437500e+00,-1.544762849807739258e+00,-4.371738731861114502e-01
2.290108680725097656e+00,-1.546551346778869629e+00,-3.393031954765319824e-01
2.292673110961914062e+00,-1.548283219337463379e+00,-2.420371621847152710e-01
2.295214891433715820e+00,-1.549999833106994629e+00,-1.451467275619506836e-01
2.297767639160156250e+00,-1.551723599433898926e+00,-4.839669540524482727e-02
2.300337791442871094e+00,-1.553459286689758301e+00,4.845083132386207581e-02
2.302899837493896484e+00,-1.555189609527587891e+00,1.456327140331268311e-01
2.305414199829101562e+00,-1.556887507438659668e+00,2.433822453022003174e-01
2.308293342590332031e+00,-1.558831810951232910e+00,3.419974744319915771e-01
2.310563325881958008e+00,-1.560364723205566406e+00,4.415892660617828369e-01
2.313178539276123047e+00,-1.562131047248840332e+00,5.425622463226318359e-01
2.316293478012084961e+00,-1.564234495162963867e+00,6.452764272689819336e-01
2.348739385604858398e+00,-1.537663936614990234e+00,-7.522151470184326172e-01
2.351325035095214844e+00,-1.539356708526611328e+00,-6.488310098648071289e-01
2.353735208511352539e+00,-1.540934681892395020e+00,-5.468455553054809570e-01
2.356534719467163086e+00,-1.542767286300659180e+00,-4.461091756820678711e-01
2.359209060668945312e+00,-1.544518113136291504e+00,-3.462302386760711670e-01
2.362036228179931641e+00,-1.546368956565856934e+00,-2.469978332519531250e-01
2.364592075347900391e+00,-1.548042297363281250e+00,-1.481176465749740601e-01
2.367213964462280273e+00,-1.549758791923522949e+00,-4.938713088631629944e-02
2.369910240173339844e+00,-1.551523923873901367e+00,4.944338276982307434e-02
2.372368812561035156e+00,-1.553133487701416016e+00,1.486047804355621338e-01
2.374998331069946289e+00,-1.554855108261108398e+00,2.483533024787902832e-01
2.377552032470703125e+00,-1.556526899337768555e+00,3.489222228527069092e-01
2.380544662475585938e+00,-1.558485984802246094e+00,4.506544470787048340e-01
2.383442401885986328e+00,-1.560383081436157227e+00,5.537474751472473145e-01
2.386077404022216797e+00,-1.562108278274536133e+00,6.584206223487854004e-01
2.421138525009155273e+00,-1.536013484001159668e+00,-7.682820558547973633e-01
2.424355268478393555e+00,-1.538054347038269043e+00,-6.628403663635253906e-01
2.426673412322998047e+00,-1.539524912834167480e+00,-5.586144924163818359e-01
2.429881811141967773e+00,-1.541560530662536621e+00,-4.557705819606781006e-01
2.432467222213745117e+00,-1.543200731277465820e+00,-3.537035286426544189e-01
2.435073137283325195e+00,-1.544853925704956055e+00,-2.522971928119659424e-01
2.437837362289428711e+00,-1.546607613563537598e+00,-1.513035446405410767e-01
2.440532445907592773e+00,-1.548317432403564453e+00,-5.044924840331077576e-02
2.443187475204467773e+00,-1.550001740455627441e+00,5.050412937998771667e-02
2.445994615554809570e+00,-1.551782727241516113e+00,1.518098264932632446e-01
2.448862075805664062e+00,-1.553601980209350586e+00,2.537258565425872803e-01
2.451175451278686523e+00,-1.555069446563720703e+00,3.564238548278808594e-01
2.454411745071411133e+00,-1.557122707366943359e+00,4.603716433048248291e-01
2.456846475601196289e+00,-1.558667302131652832e+00,5.655602812767028809e-01
2.459710597991943359e+00,-1.560484409332275391e+00,6.725068688392639160e-01
2.498532772064208984e+00,-1.535408616065979004e+00,-7.857866883277893066e-01
2.500949859619140625e+00,-1.536893844604492188e+00,-6.776980757713317871e-01
2.503859043121337891e+00,-1.538681745529174805e+00,-5.712541341781616211e-01
2.507065534591674805e+00,-1.540652275085449219e+00,-4.660638570785522461e-01
2.509679079055786133e+00,-1.542258262634277344e+00,-3.616838753223419189e-01
2.512572050094604492e+00,-1.544036149978637695e+00,-2.580105960369110107e-01
2.515360355377197266e+00,-1.545749545097351074e+00,-1.547259539365768433e-01
2.518131732940673828e+00,-1.547452569007873535e+00,-5.159018561244010925e-02
2.520917892456054688e+00,-1.549164772033691406e+00,5.164727196097373962e-02
2.523614883422851562e+00,-1.550822138786315918e+00,1.552337110042572021e-01
2.526608228683471680e+00,-1.552661657333374023e+00,2.594519257545471191e-01
2.529082775115966797e+00,-1.554182291030883789e+00,3.644802272319793701e-01
2.531903743743896484e+00,-1.555915951728820801e+00,4.706812798976898193e-01
2.535287618637084961e+00,-1.557995319366455078e+00,5.784245133399963379e-01
2.538501977920532227e+00,-1.559970736503601074e+00,6.878738403320312500e-01
2.579808473587036133e+00,-1.534927248954772949e+00,-8.043558597564697266e-01
2.582913160324096680e+00,-1.536774516105651855e+00,-6.938765645027160645e-01
2.586347103118896484e+00,-1.538817644119262695e+00,-5.849886536598205566e-01
2.588959693908691406e+00,-1.540372014045715332e+00,-4.771403372287750244e-01
2.591946363449096680e+00,-1.542149066925048828e+00,-3.703208267688751221e-01
2.594811439514160156e+00,-1.543853759765625000e+00,-2.641593217849731445e-01
2.597623348236083984e+00,-1.545526742935180664e+00,-1.584091633558273315e-01
2.600475549697875977e+00,-1.547223687171936035e+00,-5.281807854771614075e-02
2.603400230407714844e+00,-1.548963904380798340e+00,5.287748202681541443e-02
2.606289625167846680e+00,-1.550683021545410156e+00,1.589376479387283325e-01
2.609097242355346680e+00,-1.552353382110595703e+00,2.656136453151702881e-01
2.612312555313110352e+00,-1.554266571998596191e+00,3.732306063175201416e-01
2.614797830581665039e+00,-1.555745244026184082e+00,4.819022715091705322e-01
2.617679357528686523e+00,-1.557459592819213867e+00,5.920754075050354004e-01
2.621142148971557617e+00,-1.559520006179809570e+00,7.041465044021606445e-01
2.661388635635375977e+00,-1.532322525978088379e+00,-8.228690028190612793e-01
2.664398431777954102e+00,-1.534055471420288086e+00,-7.097954750061035156e-01
2.667804002761840820e+00,-1.536016106605529785e+00,-5.983787178993225098e-01
2.670408964157104492e+00,-1.537515997886657715e+00,-4.880454540252685547e-01
2.673455953598022461e+00,-1.539270401000976562e+00,-3.787797689437866211e-01
2.676430940628051758e+00,-1.540983200073242188e+00,-2.701953053474426270e-01
2.679405212402343750e+00,-1.542695641517639160e+00,-1.620332449674606323e-01
2.682363510131835938e+00,-1.544398903846740723e+00,-5.402677878737449646e-02
2.685286998748779297e+00,-1.546082139015197754e+00,5.408566072583198547e-02
2.688228368759155273e+00,-1.547775745391845703e+00,1.625668108463287354e-01
2.691138267517089844e+00,-1.549451112747192383e+00,2.716800570487976074e-01
2.694525003433227539e+00,-1.551401019096374512e+00,3.817648589611053467e-01
2.697206735610961914e+00,-1.552945137023925781e+00,4.929429888725280762e-01
2.700353622436523438e+00,-1.554756999015808105e+00,6.056795120239257812e-01
2.703181505203247070e+00,-1.556385159492492676e+00,7.201272845268249512e-01
2.747818946838378906e+00,-1.530144691467285156e+00,-8.427340984344482422e-01
2.750731468200683594e+00,-1.531766533851623535e+00,-7.268793582916259766e-01
2.754109144210815430e+00,-1.533647537231445312e+00,-6.127501726150512695e-01
2.757216691970825195e+00,-1.535377860069274902e+00,-4.998427927494049072e-01
2.760191917419433594e+00,-1.537034749984741211e+00,-3.879118859767913818e-01
2.763144493103027344e+00,-1.538678884506225586e+00,-2.766976356506347656e-01
2.766151189804077148e+00,-1.540353059768676758e+00,-1.659287661314010620e-01
2.769194841384887695e+00,-1.542047977447509766e+00,-5.532545968890190125e-02
2.772256135940551758e+00,-1.543752789497375488e+00,5.538662150502204895e-02
2.775390386581420898e+00,-1.545498013496398926e+00,1.664829850196838379e-01
2.778544664382934570e+00,-1.547254443168640137e+00,2.782397568225860596e-01
2.781627178192138672e+00,-1.548971056938171387e+00,3.909243345260620117e-01
2.784513473510742188e+00,-1.550578355789184570e+00,5.047913193702697754e-01
2.787937641143798828e+00,-1.552485108375549316e+00,6.202765703201293945e-01
2.791081905364990234e+00,-1.554236054420471191e+00,7.375419139862060547e-01
2.839619636535644531e+00,-1.528437376022338867e+00,-8.640905618667602539e-01
2.842432260513305664e+00,-1.529951333999633789e+00,-7.452481389045715332e-01
2.845784187316894531e+00,-1.531755447387695312e+00,-6.282042860984802246e-01
2.848909854888916016e+00,-1.533437848091125488e+00,-5.124339461326599121e-01
2.851953983306884766e+00,-1.535076379776000977e+00,-3.976792693138122559e-01
2.855268478393554688e+00,-1.536860346794128418e+00,-2.836908996105194092e-01
2.858306884765625000e+00,-1.538495779037475586e+00,-1.701183915138244629e-01
2.861441612243652344e+00,-1.540183186531066895e+00,-5.672219768166542053e-02
2.864649057388305664e+00,-1.541909575462341309e+00,5.678577721118927002e-02
2.867629528045654297e+00,-1.543513774871826172e+00,1.706732660531997681e-01
2.870895624160766602e+00,-1.545271873474121094e+00,2.852435708045959473e-01
2.874142169952392578e+00,-1.547019243240356445e+00,4.007731974124908447e-01
2.877241134643554688e+00,-1.548687219619750977e+00,5.175299048423767090e-01
2.880953550338745117e+00,-1.550685524940490723e+00,6.359679102897644043e-01
2.884429693222045898e+00,-1.552556633949279785e+00,7.562593221664428711e-01
2.936398267745971680e+00,-1.526736378669738770e+00,-8.867995142936706543e-01
2.940091848373413086e+00,-1.528656840324401855e+00,-7.650380730628967285e-01
2.943420648574829102e+00,-1.530387520790100098e+00,-6.448558568954467773e-01
2.946570634841918945e+00,-1.532025337219238281e+00,-5.260019898414611816e-01
2.950091123580932617e+00,-1.533855795860290527e+00,-4.082603752613067627e-01
2.953149557113647461e+00,-1.535446047782897949e+00,-2.912026345729827881e-01
2.956471204757690430e+00,-1.537173032760620117e+00,-1.746334731578826904e-01
2.959700584411621094e+00,-1.538852095603942871e+00,-5.822738632559776306e-02
2.962845087051391602e+00,-1.540487051010131836e+00,5.828925222158432007e-02
2.966241836547851562e+00,-1.542253136634826660e+00,1.752105951309204102e-01
2.969252586364746094e+00,-1.543818473815917969e+00,2.927905023097991943e-01
2.972668647766113281e+00,-1.545594692230224609e+00,4.113848805427551270e-01
2.975986480712890625e+00,-1.547319769859313965e+00,5.312531590461730957e-01
2.979038000106811523e+00,-1.548906326293945312e+00,6.526590585708618164e-01
2.982721090316772461e+00,-1.550821304321289062e+00,7.761305570602416992e-01
3.040755033493041992e+00,-1.526114106178283691e+00,-9.116252064704895020e-01
3.044387817382812500e+00,-1.527937293052673340e+00,-7.864054441452026367e-01
3.047696352005004883e+00,-1.529597759246826172e+00,-6.628364920616149902e-01
3.051450252532958984e+00,-1.531481862068176270e+00,-5.407558679580688477e-01
3.054499149322509766e+00,-1.533012032508850098e+00,-4.196297228336334229e-01
3.057956218719482422e+00,-1.534747004508972168e+00,-2.993405163288116455e-01
3.061326265335083008e+00,-1.536438345909118652e+00,-1.795096546411514282e-01
3.064655780792236328e+00,-1.538109421730041504e+00,-5.985295772552490234e-02
3.067954063415527344e+00,-1.539764761924743652e+00,5.991737544536590576e-02
