8.325753211975097656e-01,1.322781085968017578e+00,-2.475526034832000732e-01
8.336295485496520996e-01,1.324455976486206055e+00,-1.921534985303878784e-01
8.346586227416992188e-01,1.326090931892395020e+00,-1.370856910943984985e-01
8.356849551200866699e-01,1.327721595764160156e+00,-8.221855014562606812e-02
8.367208242416381836e-01,1.329367280006408691e+00,-2.741785533726215363e-02
8.377695679664611816e-01,1.331033587455749512e+00,2.745222114026546478e-02
8.388234972953796387e-01,1.332708001136779785e+00,8.252733200788497925e-02
8.398646712303161621e-01,1.334362149238586426e+00,1.379407346248626709e-01
8.408662080764770508e-01,1.335953474044799805e+00,1.938215792179107666e-01
8.419331312179565430e-01,1.337648510932922363e+00,2.503349781036376953e-01
8.430928587913513184e-01,1.339491009712219238e+00,3.076515495777130127e-01
8.441686630249023438e-01,1.341200351715087891e+00,3.658682703971862793e-01
8.016958832740783691e-01,1.315102100372314453e+00,-4.126941561698913574e-01
8.026603460311889648e-01,1.316684126853942871e+00,-3.560099303722381592e-01
8.036842346191406250e-01,1.318363785743713379e+00,-3.001262247562408447e-01
8.047503232955932617e-01,1.320112586021423340e+00,-2.448724359273910522e-01
8.057656884193420410e-01,1.321778178215026855e+00,-1.900722682476043701e-01
8.067624568939208984e-01,1.323413252830505371e+00,-1.356012523174285889e-01
8.077618479728698730e-01,1.325052738189697266e+00,-8.132898062467575073e-02
8.087626695632934570e-01,1.326694369316101074e+00,-2.712119370698928833e-02
8.097689151763916016e-01,1.328345060348510742e+00,2.715493924915790558e-02
8.107852935791015625e-01,1.330012321472167969e+00,8.163339644670486450e-02
8.117948770523071289e-01,1.331668376922607422e+00,1.364471018314361572e-01
8.127707839012145996e-01,1.333269357681274414e+00,1.917247176170349121e-01
8.138122558593750000e-01,1.334977746009826660e+00,2.476298213005065918e-01
8.149432539939880371e-01,1.336833000183105469e+00,3.043307662010192871e-01
8.159955739974975586e-01,1.338559269905090332e+00,3.619246184825897217e-01
7.743750214576721191e-01,1.312178611755371094e+00,-4.082566499710083008e-01
7.754399776458740234e-01,1.313983201980590820e+00,-3.522424995899200439e-01
7.764136195182800293e-01,1.315633058547973633e+00,-2.969442307949066162e-01
7.773450613021850586e-01,1.317211270332336426e+00,-2.422455698251724243e-01
7.783324122428894043e-01,1.318884372711181641e+00,-1.880348622798919678e-01
7.793032526969909668e-01,1.320529460906982422e+00,-1.341490894556045532e-01
7.802895307540893555e-01,1.322200775146484375e+00,-8.046019077301025391e-02
7.812562584877014160e-01,1.323838829994201660e+00,-2.683147042989730835e-02
7.822064757347106934e-01,1.325448989868164062e+00,2.686410583555698395e-02
7.831798195838928223e-01,1.327098369598388672e+00,8.075822144746780396e-02
7.841482162475585938e-01,1.328739285469055176e+00,1.349831074476242065e-01
7.851907014846801758e-01,1.330505728721618652e+00,1.896917372941970825e-01
7.862124443054199219e-01,1.332237124443054199e+00,2.450089305639266968e-01
7.871685624122619629e-01,1.333857178688049316e+00,3.010575175285339355e-01
7.881750464439392090e-01,1.335562705993652344e+00,3.580273687839508057e-01
7.475197911262512207e-01,1.309123754501342773e+00,-4.039358496665954590e-01
7.485924363136291504e-01,1.311002135276794434e+00,-3.485352993011474609e-01
7.494637966156005859e-01,1.312528252601623535e+00,-2.937921583652496338e-01
7.504770159721374512e-01,1.314302563667297363e+00,-2.397105544805526733e-01
7.513750195503234863e-01,1.315875291824340820e+00,-1.860534697771072388e-01
7.523190975189208984e-01,1.317528605461120605e+00,-1.327367275953292847e-01
7.532524466514587402e-01,1.319163203239440918e+00,-7.961109280586242676e-02
7.541860938072204590e-01,1.320798277854919434e+00,-2.654833346605300903e-02
7.551223635673522949e-01,1.322438001632690430e+00,2.658129110932350159e-02
7.560543417930603027e-01,1.324070096015930176e+00,7.990722358226776123e-02
7.570452690124511719e-01,1.325805544853210449e+00,1.335706114768981934e-01
7.579348087310791016e-01,1.327363491058349609e+00,1.876778006553649902e-01
7.589900493621826172e-01,1.329211473464965820e+00,2.424297183752059937e-01
7.598671317100524902e-01,1.330747485160827637e+00,2.978702783584594727e-01
7.609404921531677246e-01,1.332627177238464355e+00,3.542844057083129883e-01
7.215396165847778320e-01,1.306707859039306641e+00,-3.999628126621246338e-01
7.224514484405517578e-01,1.308359146118164062e+00,-3.450481593608856201e-01
7.234022021293640137e-01,1.310081005096435547e+00,-2.908968627452850342e-01
7.242991328239440918e-01,1.311705350875854492e+00,-2.373217195272445679e-01
7.252342700958251953e-01,1.313398957252502441e+00,-1.842167377471923828e-01
7.261379361152648926e-01,1.315035462379455566e+00,-1.314249783754348755e-01
7.270182371139526367e-01,1.316629648208618164e+00,-7.882210612297058105e-02
7.279190421104431152e-01,1.318260908126831055e+00,-2.628521434962749481e-02
7.288433313369750977e-01,1.319934964179992676e+00,2.631859108805656433e-02
7.297503352165222168e-01,1.321577548980712891e+00,7.911831885576248169e-02
7.306365966796875000e-01,1.323182582855224609e+00,1.322391927242279053e-01
7.315773367881774902e-01,1.324886083602905273e+00,1.858279258012771606e-01
7.324841618537902832e-01,1.326528429985046387e+00,2.400035709142684937e-01
7.334563136100769043e-01,1.328289031982421875e+00,2.949398756027221680e-01
7.343436479568481445e-01,1.329895973205566406e+00,3.507279753684997559e-01
6.959229111671447754e-01,1.304080963134765625e+00,-3.960692584514617920e-01
6.968033909797668457e-01,1.305730938911437988e+00,-3.416897356510162354e-01
6.977226734161376953e-01,1.307453632354736328e+00,-2.880664467811584473e-01
6.985876560211181641e-01,1.309074401855468750e+00,-2.350125163793563843e-01
6.994344592094421387e-01,1.310661315917968750e+00,-1.824098974466323853e-01
7.003229260444641113e-01,1.312326192855834961e+00,-1.301390677690505981e-01
7.011962532997131348e-01,1.313962697982788086e+00,-7.805360108613967896e-02
7.020651698112487793e-01,1.315590977668762207e+00,-2.602894045412540436e-02
7.029312849044799805e-01,1.317213892936706543e+00,2.606105059385299683e-02
7.037887573242187500e-01,1.318820834159851074e+00,7.834218442440032959e-02
7.046993374824523926e-01,1.320527076721191406e+00,1.309523284435272217e-01
7.056066989898681641e-01,1.322227478027343750e+00,1.840195953845977783e-01
7.064788341522216797e-01,1.323861598968505859e+00,2.376671880483627319e-01
7.074148654937744141e-01,1.325615644454956055e+00,2.920680344104766846e-01
7.082677483558654785e-01,1.327213883399963379e+00,3.473114967346191406e-01
6.706768274307250977e-01,1.301275014877319336e+00,-3.922612667083740234e-01
6.715365648269653320e-01,1.302942991256713867e+00,-3.384101986885070801e-01
6.724324822425842285e-01,1.304681301116943359e+00,-2.853058278560638428e-01
6.732724905014038086e-01,1.306311130523681641e+00,-2.327625304460525513e-01
6.740907430648803711e-01,1.307898879051208496e+00,-1.806640923023223877e-01
6.749460697174072266e-01,1.309558391571044922e+00,-1.288933604955673218e-01
6.757820248603820801e-01,1.311180233955383301e+00,-7.730580121278762817e-02
6.766194105148315430e-01,1.312805056571960449e+00,-2.577956765890121460e-02
6.774599552154541016e-01,1.314435839653015137e+00,2.581159211695194244e-02
6.782868504524230957e-01,1.316040277481079102e+00,7.759234309196472168e-02
6.791617870330810547e-01,1.317737936973571777e+00,1.296984404325485229e-01
6.800294518470764160e-01,1.319421291351318359e+00,1.822557300329208374e-01
6.808593869209289551e-01,1.321031689643859863e+00,2.353854626417160034e-01
6.817502379417419434e-01,1.322759985923767090e+00,2.892592549324035645e-01
6.827147603034973145e-01,1.324631571769714355e+00,3.440432846546173096e-01
6.461261510848999023e-01,1.298963308334350586e+00,-3.887367844581604004e-01
6.469620466232299805e-01,1.300643801689147949e+00,-3.353735208511352539e-01
6.477360129356384277e-01,1.302199840545654297e+00,-2.827067375183105469e-01
6.485626697540283203e-01,1.303861618041992188e+00,-2.306483387947082520e-01
6.493619084358215332e-01,1.305468440055847168e+00,-1.790261268615722656e-01
6.501907110214233398e-01,1.307134628295898438e+00,-1.277257353067398071e-01
6.509822010993957520e-01,1.308725953102111816e+00,-7.660388201475143433e-02
6.517885923385620117e-01,1.310346961021423340e+00,-2.554548159241676331e-02
6.526119709014892578e-01,1.312002420425415039e+00,2.557775378227233887e-02
6.534035801887512207e-01,1.313593745231628418e+00,7.688880711793899536e-02
6.542351245880126953e-01,1.315265536308288574e+00,1.285202354192733765e-01
6.550528407096862793e-01,1.316909432411193848e+00,1.805950999259948730e-01
6.559429168701171875e-01,1.318698763847351074e+00,2.332729697227478027e-01
6.567928791046142578e-01,1.320407509803771973e+00,2.866596579551696777e-01
6.575570106506347656e-01,1.321943759918212891e+00,3.408657610416412354e-01
6.218116283416748047e-01,1.296283364295959473e+00,-3.852317333221435547e-01
6.226519942283630371e-01,1.298035264015197754e+00,-3.323687911033630371e-01
6.234260201454162598e-01,1.299648761749267578e+00,-2.801869809627532959e-01
6.242451071739196777e-01,1.301356315612792969e+00,-2.286011576652526855e-01
6.250298023223876953e-01,1.302992105484008789e+00,-1.774415075778961182e-01
6.258043646812438965e-01,1.304606914520263672e+00,-1.265905052423477173e-01
6.265953779220581055e-01,1.306255936622619629e+00,-7.592655718326568604e-02
6.273716092109680176e-01,1.307874202728271484e+00,-2.531961537897586823e-02
6.281341314315795898e-01,1.309463739395141602e+00,2.535039000213146210e-02
6.289195418357849121e-01,1.311101078987121582e+00,7.620818167924880981e-02
6.297039985656738281e-01,1.312736392021179199e+00,1.273793429136276245e-01
6.304669380187988281e-01,1.314326882362365723e+00,1.789850741624832153e-01
6.312937140464782715e-01,1.316050410270690918e+00,2.311823815107345581e-01
6.320749521255493164e-01,1.317679166793823242e+00,2.840740680694580078e-01
6.329188942909240723e-01,1.319438457489013672e+00,3.378491997718811035e-01
5.979962348937988281e-01,1.293800830841064453e+00,-3.819111585617065430e-01
5.988300442695617676e-01,1.295604944229125977e+00,-3.295180201530456543e-01
5.995917320251464844e-01,1.297252774238586426e+00,-2.777917683124542236e-01
6.003895401954650879e-01,1.298978924751281738e+00,-2.266507148742675781e-01
6.010935902595520020e-01,1.300502181053161621e+00,-1.759127527475357056e-01
6.018484234809875488e-01,1.302135348320007324e+00,-1.255019307136535645e-01
6.025996208190917969e-01,1.303760528564453125e+00,-7.527245581150054932e-02
6.033456325531005859e-01,1.305374622344970703e+00,-2.510146796703338623e-02
6.040889024734497070e-01,1.306982755661010742e+00,2.513239160180091858e-02
6.048337221145629883e-01,1.308594226837158203e+00,7.555153220891952515e-02
6.056396365165710449e-01,1.310337781906127930e+00,1.262924969196319580e-01
6.063629388809204102e-01,1.311902880668640137e+00,1.774548590183258057e-01
6.071401238441467285e-01,1.313584327697753906e+00,2.291991114616394043e-01
6.078650355339050293e-01,1.315152645111083984e+00,2.816247940063476562e-01
6.087933778762817383e-01,1.317161083221435547e+00,3.350005149841308594e-01
5.746710896492004395e-01,1.291558146476745605e+00,-3.787822723388671875e-01
5.753814578056335449e-01,1.293154716491699219e+00,-3.267667293548583984e-01
5.761376023292541504e-01,1.294854044914245605e+00,-2.754839658737182617e-01
5.768506526947021484e-01,1.296456575393676758e+00,-2.247469127178192139e-01
5.775995850563049316e-01,1.298139810562133789e+00,-1.744570434093475342e-01
5.782881379127502441e-01,1.299687266349792480e+00,-1.244554519653320312e-01
5.790114402770996094e-01,1.301312923431396484e+00,-7.464500516653060913e-02
5.797283053398132324e-01,1.302924036979675293e+00,-2.489223144948482513e-02
5.804407000541687012e-01,1.304525136947631836e+00,2.492282167077064514e-02
5.811934471130371094e-01,1.306216955184936523e+00,7.492630928754806519e-02
5.818937420845031738e-01,1.307790875434875488e+00,1.252314299345016479e-01
5.826433300971984863e-01,1.309475421905517578e+00,1.759804338216781616e-01
5.833653211593627930e-01,1.311098098754882812e+00,2.272851020097732544e-01
5.841542482376098633e-01,1.312871217727661133e+00,2.793172001838684082e-01
5.848796367645263672e-01,1.314501523971557617e+00,3.321608603000640869e-01
5.515804290771484375e-01,1.289024233818054199e+00,-3.756852447986602783e-01
5.523021221160888672e-01,1.290710806846618652e+00,-3.241183757781982422e-01
5.530589818954467773e-01,1.292479515075683594e+00,-2.732666134834289551e-01
5.537630915641784668e-01,1.294125080108642578e+00,-2.229458540678024292e-01
5.544419884681701660e-01,1.295711636543273926e+00,-1.730464845895767212e-01
5.551177859306335449e-01,1.297290921211242676e+00,-1.234524771571159363e-01
5.558151006698608398e-01,1.298920512199401855e+00,-7.404384016990661621e-02
5.565033555030822754e-01,1.300528883934020996e+00,-2.469176426529884338e-02
5.571838617324829102e-01,1.302119255065917969e+00,2.472195774316787720e-02
5.578912496566772461e-01,1.303772449493408203e+00,7.432042807340621948e-02
5.586038827896118164e-01,1.305437803268432617e+00,1.242277473211288452e-01
5.593032836914062500e-01,1.307072281837463379e+00,1.745637357234954834e-01
5.599645376205444336e-01,1.308617591857910156e+00,2.254425585269927979e-01
5.606812834739685059e-01,1.310292601585388184e+00,2.770327925682067871e-01
5.614692568778991699e-01,1.312134146690368652e+00,3.294981122016906738e-01
5.289658904075622559e-01,1.286789417266845703e+00,-3.727890551090240479e-01
5.296880602836608887e-01,1.288546085357666016e+00,-3.216379582881927490e-01
5.303490757942199707e-01,1.290154218673706055e+00,-2.711422145366668701e-01
5.309829115867614746e-01,1.291696071624755859e+00,-2.211953997611999512e-01
5.316643118858337402e-01,1.293353676795959473e+00,-1.716976463794708252e-01
5.323299169540405273e-01,1.294972777366638184e+00,-1.224942505359649658e-01
5.329933166503906250e-01,1.296586751937866211e+00,-7.346840202808380127e-02
5.336529016494750977e-01,1.298191189765930176e+00,-2.449984848499298096e-02
5.343106985092163086e-01,1.299791455268859863e+00,2.453004755079746246e-02
5.349714756011962891e-01,1.301398754119873047e+00,7.374107092618942261e-02
5.356236696243286133e-01,1.302985429763793945e+00,1.232521831989288330e-01
5.363361835479736328e-01,1.304718732833862305e+00,1.732063889503479004e-01
5.370361804962158203e-01,1.306421518325805664e+00,2.237170636653900146e-01
5.376928448677062988e-01,1.308019042015075684e+00,2.748967409133911133e-01
5.384086966514587402e-01,1.309760451316833496e+00,3.269333243370056152e-01
5.065442919731140137e-01,1.284211635589599609e+00,-3.699038922786712646e-01
5.071672797203063965e-01,1.285791039466857910e+00,-3.191055357456207275e-01
5.078368186950683594e-01,1.287488460540771484e+00,-2.690267860889434814e-01
5.084682703018188477e-01,1.289089322090148926e+00,-2.194802314043045044e-01
5.091337561607360840e-01,1.290776491165161133e+00,-1.703706234693527222e-01
5.097423791885375977e-01,1.292319536209106445e+00,-1.215406581759452820e-01
5.103820562362670898e-01,1.293941259384155273e+00,-7.289709150791168213e-02
5.110136270523071289e-01,1.295542478561401367e+00,-2.430933155119419098e-02
5.116389989852905273e-01,1.297127962112426758e+00,2.433908171951770782e-02
5.123004913330078125e-01,1.298804998397827148e+00,7.317110151052474976e-02
5.129119157791137695e-01,1.300355076789855957e+00,1.222963854670524597e-01
5.135690569877624512e-01,1.302021145820617676e+00,1.718548089265823364e-01
5.142018795013427734e-01,1.303625464439392090e+00,2.219551652669906616e-01
5.149003267288208008e-01,1.305396199226379395e+00,2.727686762809753418e-01
5.155443549156188965e-01,1.307029008865356445e+00,3.243763446807861328e-01
4.846150875091552734e-01,1.282076478004455566e+00,-3.672532737255096436e-01
4.852532446384429932e-01,1.283764719963073730e+00,-3.168464303016662598e-01
4.858439862728118896e-01,1.285327553749084473e+00,-2.670947909355163574e-01
4.864812493324279785e-01,1.287013411521911621e+00,-2.179189175367355347e-01
4.870921671390533447e-01,1.288629651069641113e+00,-1.691496968269348145e-01
4.876959323883056641e-01,1.290227055549621582e+00,-1.206749826669692993e-01
4.883142709732055664e-01,1.291862845420837402e+00,-7.237882167100906372e-02
4.889187216758728027e-01,1.293461918830871582e+00,-2.413650974631309509e-02
4.895100295543670654e-01,1.295026302337646484e+00,2.416570112109184265e-02
4.901212751865386963e-01,1.296643376350402832e+00,7.264665514230728149e-02
4.907322525978088379e-01,1.298259735107421875e+00,1.214262843132019043e-01
4.913272559642791748e-01,1.299833774566650391e+00,1.706203818321228027e-01
4.919834136962890625e-01,1.301569700241088867e+00,2.203835994005203247e-01
4.926082789897918701e-01,1.303222894668579102e+00,2.708134949207305908e-01
4.933006465435028076e-01,1.305054545402526855e+00,3.221009969711303711e-01
4.628723561763763428e-01,1.279636263847351074e+00,-3.646190762519836426e-01
4.635250568389892578e-01,1.281440615653991699e+00,-3.146030902862548828e-01
4.641189873218536377e-01,1.283082604408264160e+00,-2.652206420898437500e-01
4.646834731101989746e-01,1.284643173217773438e+00,-2.163692116737365723e-01
4.652860760688781738e-01,1.286309003829956055e+00,-1.679536849260330200e-01
4.658668637275695801e-01,1.287914633750915527e+00,-1.198227629065513611e-01
4.664378166198730469e-01,1.289493083953857422e+00,-7.186463475227355957e-02
4.670152366161346436e-01,1.291089415550231934e+00,-2.396504394710063934e-02
4.675999879837036133e-01,1.292706012725830078e+00,2.399505116045475006e-02
4.681793749332427979e-01,1.294307708740234375e+00,7.213295996189117432e-02
4.687435626983642578e-01,1.295867443084716797e+00,1.205626577138900757e-01
4.693567454814910889e-01,1.297562599182128906e+00,1.694230586290359497e-01
4.699532091617584229e-01,1.299211621284484863e+00,2.188229262828826904e-01
4.705061614513397217e-01,1.300740242004394531e+00,2.688705623149871826e-01
4.712409377098083496e-01,1.302771568298339844e+00,3.198400139808654785e-01
4.415626227855682373e-01,1.277599573135375977e+00,-3.622007668018341064e-01
4.421272575855255127e-01,1.279233336448669434e+00,-3.124755322933197021e-01
4.426531493663787842e-01,1.280754923820495605e+00,-2.634028494358062744e-01
4.432279169559478760e-01,1.282417893409729004e+00,-2.149038761854171753e-01
4.437825679779052734e-01,1.284022688865661621e+00,-1.668086796998977661e-01
4.443595409393310547e-01,1.285692095756530762e+00,-1.190120503306388855e-01
4.449031352996826172e-01,1.287264943122863770e+00,-7.137824594974517822e-02
4.454534351825714111e-01,1.288857102394104004e+00,-2.380282059311866760e-02
4.460125863552093506e-01,1.290474891662597656e+00,2.383269742131233215e-02
4.465415477752685547e-01,1.292005419731140137e+00,7.164110243320465088e-02
4.471002221107482910e-01,1.293621897697448730e+00,1.197460815310478210e-01
4.476479589939117432e-01,1.295206665992736816e+00,1.682616025209426880e-01
4.482580721378326416e-01,1.296971917152404785e+00,2.173428088426589966e-01
4.488445222377777100e-01,1.298668742179870605e+00,2.670870423316955566e-01
4.493759274482727051e-01,1.300206303596496582e+00,3.175985515117645264e-01
4.205588698387145996e-01,1.275678753852844238e+00,-3.599127829074859619e-01
4.210458993911743164e-01,1.277156114578247070e+00,-3.104642331600189209e-01
4.215850532054901123e-01,1.278791546821594238e+00,-2.617312073707580566e-01
4.221567511558532715e-01,1.280525565147399902e+00,-2.135523110628128052e-01
4.226520061492919922e-01,1.282027840614318848e+00,-1.657466441392898560e-01
4.231854081153869629e-01,1.283645868301391602e+00,-1.182498261332511902e-01
4.237111210823059082e-01,1.285240530967712402e+00,-7.092244178056716919e-02
4.242353737354278564e-01,1.286830663681030273e+00,-2.365083061158657074e-02
4.247593581676483154e-01,1.288420081138610840e+00,2.368004247546195984e-02
4.252794682979583740e-01,1.289997816085815430e+00,7.118495553731918335e-02
4.258449375629425049e-01,1.291712999343872070e+00,1.189929693937301636e-01
4.263418018817901611e-01,1.293220162391662598e+00,1.671936213970184326e-01
4.268836677074432373e-01,1.294863700866699219e+00,2.159434705972671509e-01
4.274938404560089111e-01,1.296714544296264648e+00,2.653995454311370850e-01
4.280673861503601074e-01,1.298454284667968750e+00,3.156416118144989014e-01
3.996298611164093018e-01,1.273193240165710449e+00,-3.575610518455505371e-01
4.001441895961761475e-01,1.274831771850585938e+00,-3.084753155708312988e-01
4.006952643394470215e-01,1.276587486267089844e+00,-2.600796222686767578e-01
4.012078940868377686e-01,1.278220653533935547e+00,-2.121884822845458984e-01
4.017021059989929199e-01,1.279795289039611816e+00,-1.646977663040161133e-01
4.021938145160675049e-01,1.281361818313598633e+00,-1.174970641732215881e-01
4.027015864849090576e-01,1.282979488372802734e+00,-7.047237455844879150e-02
4.031999409198760986e-01,1.284567236900329590e+00,-2.350075170397758484e-02
4.036894738674163818e-01,1.286126732826232910e+00,2.352928370237350464e-02
4.041992127895355225e-01,1.287750840187072754e+00,7.073446363210678101e-02
4.047125577926635742e-01,1.289386272430419922e+00,1.182328909635543823e-01
4.052160382270812988e-01,1.290990352630615234e+00,1.661384701728820801e-01
4.056916236877441406e-01,1.292505502700805664e+00,2.145598083734512329e-01
4.062188267707824707e-01,1.294185161590576172e+00,2.636647820472717285e-01
4.068141877651214600e-01,1.296081900596618652e+00,3.136172890663146973e-01
3.790946006774902344e-01,1.271162509918212891e+00,-3.554304838180541992e-01
3.796246051788330078e-01,1.272939801216125488e+00,-3.066712617874145508e-01
3.801076114177703857e-01,1.274559378623962402e+00,-2.585315108299255371e-01
3.805675506591796875e-01,1.276101708412170410e+00,-2.109108567237854004e-01
3.810625076293945312e-01,1.277761220932006836e+00,-1.637173146009445190e-01
3.815387487411499023e-01,1.279358267784118652e+00,-1.168006062507629395e-01
3.820064067840576172e-01,1.280926346778869629e+00,-7.005208730697631836e-02
3.824792504310607910e-01,1.282511830329895020e+00,-2.336060069501399994e-02
3.829577267169952393e-01,1.284116268157958984e+00,2.338982559740543365e-02
3.834312260150909424e-01,1.285703897476196289e+00,7.031336426734924316e-02
3.838915526866912842e-01,1.287247419357299805e+00,1.175208687782287598e-01
3.843957483768463135e-01,1.288938164710998535e+00,1.651493906974792480e-01
3.848873078823089600e-01,1.290586471557617188e+00,2.133048623800277710e-01
3.853444457054138184e-01,1.292119264602661133e+00,2.620933651924133301e-01
3.858531713485717773e-01,1.293825030326843262e+00,3.117028772830963135e-01
3.587306737899780273e-01,1.268915772438049316e+00,-3.533303737640380859e-01
3.591952621936798096e-01,1.270559191703796387e+00,-3.048278987407684326e-01
3.596935272216796875e-01,1.272321581840515137e+00,-2.570069730281829834e-01
3.601552248001098633e-01,1.273954749107360840e+00,-2.096825242042541504e-01
3.605982661247253418e-01,1.275521874427795410e+00,-1.627524048089981079e-01
3.610368371009826660e-01,1.277073264122009277e+00,-1.161083206534385681e-01
3.614807724952697754e-01,1.278643488883972168e+00,-6.963714957237243652e-02
3.619277477264404297e-01,1.280224561691284180e+00,-2.322220057249069214e-02
3.623793721199035645e-01,1.281822085380554199e+00,2.325117774307727814e-02
3.628396391868591309e-01,1.283450126647949219e+00,6.989892572164535522e-02
3.633008301258087158e-01,1.285081505775451660e+00,1.168364137411117554e-01
3.637511134147644043e-01,1.286674261093139648e+00,1.641754209995269775e-01
3.641740977764129639e-01,1.288170456886291504e+00,2.120223194360733032e-01
3.646443486213684082e-01,1.289833784103393555e+00,2.605444192886352539e-01
3.651778101921081543e-01,1.291720867156982422e+00,3.099049329757690430e-01
3.387262821197509766e-01,1.267160296440124512e+00,-3.514555394649505615e-01
3.391210436820983887e-01,1.268637180328369141e+00,-3.031711578369140625e-01
3.395600020885467529e-01,1.270279288291931152e+00,-2.555864751338958740e-01
3.399758636951446533e-01,1.271834969520568848e+00,-2.085113227367401123e-01
3.404213488101959229e-01,1.273501396179199219e+00,-1.618562936782836914e-01
3.408254384994506836e-01,1.275013208389282227e+00,-1.154656633734703064e-01
3.412535488605499268e-01,1.276614665985107422e+00,-6.925354152917861938e-02
3.416755795478820801e-01,1.278193473815917969e+00,-2.309428155422210693e-02
3.420925140380859375e-01,1.279753327369689941e+00,2.312246337532997131e-02
3.425371646881103516e-01,1.281416654586791992e+00,6.951403617858886719e-02
3.429449200630187988e-01,1.282942056655883789e+00,1.161837056279182434e-01
3.433901667594909668e-01,1.284607768058776855e+00,1.632678508758544922e-01
3.438214957714080811e-01,1.286221385002136230e+00,2.108699083328247070e-01
3.443100750446319580e-01,1.288048982620239258e+00,2.591618299484252930e-01
3.447676002979278564e-01,1.289760589599609375e+00,3.082191348075866699e-01
3.187941908836364746e-01,1.264888048171997070e+00,-3.495239019393920898e-01
3.192090988159179688e-01,1.266534328460693359e+00,-3.015458881855010986e-01
3.195925951004028320e-01,1.268055796623229980e+00,-2.541926503181457520e-01
3.200121819972991943e-01,1.269720673561096191e+00,-2.073924988508224487e-01
3.204113841056823730e-01,1.271304607391357422e+00,-1.609777212142944336e-01
3.208024501800537109e-01,1.272856235504150391e+00,-1.148427352309226990e-01
3.211943209171295166e-01,1.274411082267761230e+00,-6.887754797935485840e-02
3.215915858745574951e-01,1.275987267494201660e+00,-2.296889945864677429e-02
3.219953477382659912e-01,1.277589321136474609e+00,2.299773693084716797e-02
3.224026262760162354e-01,1.279205322265625000e+00,6.913665682077407837e-02
3.228068351745605469e-01,1.280809044837951660e+00,1.155602708458900452e-01
3.231971859931945801e-01,1.282357931137084961e+00,1.623773276805877686e-01
3.236333429813385010e-01,1.284088373184204102e+00,2.097392976284027100e-01
3.240489065647125244e-01,1.285737276077270508e+00,2.577370405197143555e-01
3.244216144084930420e-01,1.287216067314147949e+00,3.064699470996856689e-01
2.991107106208801270e-01,1.262786746025085449e+00,-3.477245867252349854e-01
2.995463013648986816e-01,1.264625668525695801e+00,-3.000399172306060791e-01
2.998813390731811523e-01,1.266040205955505371e+00,-2.529022693634033203e-01
3.002608120441436768e-01,1.267642140388488770e+00,-2.063298970460891724e-01
3.006628453731536865e-01,1.269339561462402344e+00,-1.601675450801849365e-01
3.010227084159851074e-01,1.270858764648437500e+00,-1.142620593309402466e-01
3.013995587825775146e-01,1.272449731826782227e+00,-6.853136420249938965e-02
3.017724156379699707e-01,1.274023890495300293e+00,-2.285346388816833496e-02
3.021417558193206787e-01,1.275583148002624512e+00,2.288143336772918701e-02
3.025312721729278564e-01,1.277227640151977539e+00,6.878869235515594482e-02
3.028824925422668457e-01,1.278710365295410156e+00,1.149679869413375854e-01
3.032632768154144287e-01,1.280318021774291992e+00,1.615528315305709839e-01
3.036977648735046387e-01,1.282152295112609863e+00,2.086916565895080566e-01
3.040404617786407471e-01,1.283599138259887695e+00,2.564098238945007324e-01
3.044227957725524902e-01,1.285213351249694824e+00,3.049244582653045654e-01
2.796595394611358643e-01,1.260862708091735840e+00,-3.460571169853210449e-01
2.799704074859619141e-01,1.262264251708984375e+00,-2.984983325004577637e-01
2.803797125816345215e-01,1.264109730720520020e+00,-2.516891956329345703e-01
2.807094454765319824e-01,1.265596389770507812e+00,-2.053218930959701538e-01
2.810699641704559326e-01,1.267221808433532715e+00,-1.593763530254364014e-01
2.814180552959442139e-01,1.268791198730468750e+00,-1.137023493647575378e-01
2.817611396312713623e-01,1.270337939262390137e+00,-6.819342821836471558e-02
2.821097075939178467e-01,1.271909475326538086e+00,-2.274077199399471283e-02
2.824643254280090332e-01,1.273508310317993164e+00,2.276935800909996033e-02
2.828165590763092041e-01,1.275096297264099121e+00,6.844887137413024902e-02
2.831604480743408203e-01,1.276646852493286133e+00,1.144063398241996765e-01
2.835417389869689941e-01,1.278365969657897949e+00,1.607779413461685181e-01
2.838499844074249268e-01,1.279755711555480957e+00,2.076189965009689331e-01
2.842685580253601074e-01,1.281642794609069824e+00,2.551800906658172607e-01
2.846674621105194092e-01,1.283441305160522461e+00,3.035062253475189209e-01
2.603521645069122314e-01,1.258773446083068848e+00,-3.444255888462066650e-01
2.606870234012603760e-01,1.260392427444458008e+00,-2.971428632736206055e-01
2.610507607460021973e-01,1.262151122093200684e+00,-2.505295872688293457e-01
2.613876163959503174e-01,1.263779759407043457e+00,-2.043992578983306885e-01
2.617106139659881592e-01,1.265341401100158691e+00,-1.586524844169616699e-01
2.620299458503723145e-01,1.266885280609130859e+00,-1.131838634610176086e-01
2.623527944087982178e-01,1.268446207046508789e+00,-6.788334250450134277e-02
2.626770734786987305e-01,1.270014166831970215e+00,-2.263734303414821625e-02
2.630039453506469727e-01,1.271594524383544922e+00,2.266551181674003601e-02
2.633366882801055908e-01,1.273203253746032715e+00,6.813792884349822998e-02
2.636697888374328613e-01,1.274813771247863770e+00,1.138921901583671570e-01
2.639945447444915771e-01,1.276383876800537109e+00,1.600370258092880249e-01
2.642991840839385986e-01,1.277856707572937012e+00,2.066760212182998657e-01
2.646425366401672363e-01,1.279516816139221191e+00,2.539765834808349609e-01
2.650384008884429932e-01,1.281430840492248535e+00,3.021027445793151855e-01
2.412573397159576416e-01,1.256886839866638184e+00,-3.429293930530548096e-01
2.416016906499862671e-01,1.258680820465087891e+00,-2.958937585353851318e-01
2.418651580810546875e-01,1.260053396224975586e+00,-2.494004815816879272e-01
2.422059774398803711e-01,1.261829018592834473e+00,-2.035021930932998657e-01
2.424934804439544678e-01,1.263326764106750488e+00,-1.579485237598419189e-01
2.427851855754852295e-01,1.264846563339233398e+00,-1.126797050237655640e-01
2.430928945541381836e-01,1.266449570655822754e+00,-6.758335977792739868e-02
2.433934062719345093e-01,1.268015146255493164e+00,-2.253730595111846924e-02
2.436874657869338989e-01,1.269547104835510254e+00,2.256453596055507660e-02
2.440000623464584351e-01,1.271175742149353027e+00,6.783556938171386719e-02
2.443206161260604858e-01,1.272845745086669922e+00,1.133923232555389404e-01
2.445922046899795532e-01,1.274260640144348145e+00,1.593155264854431152e-01
2.449494749307632446e-01,1.276121854782104492e+00,2.058072984218597412e-01
2.452328652143478394e-01,1.277598261833190918e+00,2.528731226921081543e-01
2.455532401800155640e-01,1.279267311096191406e+00,3.007332682609558105e-01
2.222990542650222778e-01,1.254876375198364258e+00,-3.414777219295501709e-01
2.225952297449111938e-01,1.256548285484313965e+00,-2.946132421493530273e-01
2.228672951459884644e-01,1.258084058761596680e+00,-2.483538687229156494e-01
2.231295853853225708e-01,1.259564757347106934e+00,-2.026011943817138672e-01
2.234186530113220215e-01,1.261196494102478027e+00,-1.572662442922592163e-01
2.236985862255096436e-01,1.262776732444763184e+00,-1.121985763311386108e-01
2.239753603935241699e-01,1.264339089393615723e+00,-6.729275733232498169e-02
2.242522686719894409e-01,1.265902280807495117e+00,-2.244040369987487793e-02
2.245300412178039551e-01,1.267470240592956543e+00,2.246819995343685150e-02
2.248065769672393799e-01,1.269031286239624023e+00,6.754250079393386841e-02
2.250773012638092041e-01,1.270559549331665039e+00,1.128900870680809021e-01
2.253801524639129639e-01,1.272269129753112793e+00,1.586469709873199463e-01
2.256793975830078125e-01,1.273958325386047363e+00,2.049164175987243652e-01
2.259619981050491333e-01,1.275553703308105469e+00,2.518024742603302002e-01
2.262859344482421875e-01,1.277382254600524902e+00,2.994980514049530029e-01
2.035239785909652710e-01,1.253049969673156738e+00,-3.401531875133514404e-01
2.037783861160278320e-01,1.254616260528564453e+00,-2.934463322162628174e-01
2.040164470672607422e-01,1.256082057952880859e+00,-2.473568618297576904e-01
2.042835503816604614e-01,1.257726430892944336e+00,-2.018145173788070679e-01
2.045401334762573242e-01,1.259306192398071289e+00,-1.566494256258010864e-01
2.048080563545227051e-01,1.260955691337585449e+00,-1.117648705840110779e-01
2.050555944442749023e-01,1.262479782104492188e+00,-6.703072041273117065e-02
2.053091675043106079e-01,1.264040946960449219e+00,-2.235302515327930450e-02
2.055693268775939941e-01,1.265642762184143066e+00,2.238135039806365967e-02
2.058106958866119385e-01,1.267128825187683105e+00,6.727755814790725708e-02
2.060666829347610474e-01,1.268704891204833984e+00,1.124517172574996948e-01
2.063165009021759033e-01,1.270242929458618164e+00,1.580098718404769897e-01
2.066016644239425659e-01,1.271998524665832520e+00,2.041046172380447388e-01
2.068774253129959106e-01,1.273696422576904297e+00,2.508256137371063232e-01
2.071292996406555176e-01,1.275247097015380859e+00,2.982717454433441162e-01
1.848714649677276611e-01,1.251110672950744629e+00,-3.388736844062805176e-01
1.850875765085220337e-01,1.252573132514953613e+00,-2.923188805580139160e-01
1.853317767381668091e-01,1.254225730895996094e+00,-2.464436739683151245e-01
1.855620294809341431e-01,1.255784034729003906e+00,-2.010560482740402222e-01
1.858091801404953003e-01,1.257456541061401367e+00,-1.560725122690200806e-01
1.860293447971343994e-01,1.258946537971496582e+00,-1.113393679261207581e-01
1.862617135047912598e-01,1.260519027709960938e+00,-6.677822768688201904e-02
1.864920556545257568e-01,1.262077927589416504e+00,-2.226882614195346832e-02
1.867206990718841553e-01,1.263625264167785645e+00,2.229612879455089569e-02
1.869634836912155151e-01,1.265268206596374512e+00,6.702981889247894287e-02
1.871817111968994141e-01,1.266745209693908691e+00,1.120290681719779968e-01
1.874211579561233521e-01,1.268365621566772461e+00,1.574265211820602417e-01
1.876516938209533691e-01,1.269925713539123535e+00,2.033201903104782104e-01
1.879174411296844482e-01,1.271724104881286621e+00,2.498819380998611450e-01
1.881665587425231934e-01,1.273410081863403320e+00,2.971816658973693848e-01
1.663756966590881348e-01,1.249341130256652832e+00,-3.377147614955902100e-01
1.666005551815032959e-01,1.251029610633850098e+00,-2.913722991943359375e-01
1.668064147233963013e-01,1.252575397491455078e+00,-2.456250786781311035e-01
1.670038849115371704e-01,1.254058241844177246e+00,-2.003764957189559937e-01
1.672210544347763062e-01,1.255689024925231934e+00,-1.555401235818862915e-01
1.674298644065856934e-01,1.257256984710693359e+00,-1.109666377305984497e-01
1.676346361637115479e-01,1.258794546127319336e+00,-6.655293703079223633e-02
1.678419709205627441e-01,1.260351538658142090e+00,-2.219370193779468536e-02
1.680521219968795776e-01,1.261929631233215332e+00,2.222149074077606201e-02
1.682597845792770386e-01,1.263488888740539551e+00,6.680113077163696289e-02
1.684615015983581543e-01,1.265003681182861328e+00,1.116503775119781494e-01
1.686869114637374878e-01,1.266696333885192871e+00,1.569035947322845459e-01
1.689085662364959717e-01,1.268360853195190430e+00,2.026618123054504395e-01
1.691167503595352173e-01,1.269924044609069824e+00,2.490270882844924927e-01
1.693568229675292969e-01,1.271726846694946289e+00,2.961927950382232666e-01
1.479579955339431763e-01,1.247210144996643066e+00,-3.365317881107330322e-01
1.481467336416244507e-01,1.248801112174987793e+00,-2.903296649456024170e-01
1.483226418495178223e-01,1.250283956527709961e+00,-2.447343617677688599e-01
1.485195010900497437e-01,1.251943230628967285e+00,-1.996784508228302002e-01
1.487072408199310303e-01,1.253525853157043457e+00,-1.549926400184631348e-01
1.488915830850601196e-01,1.255079865455627441e+00,-1.105750575661659241e-01
1.490765661001205444e-01,1.256639003753662109e+00,-6.631936132907867432e-02
1.492607742547988892e-01,1.258191823959350586e+00,-2.211578562855720520e-02
1.494448333978652954e-01,1.259743452072143555e+00,2.214305847883224487e-02
1.496308594942092896e-01,1.261311411857604980e+00,6.656595319509506226e-02
1.498157232999801636e-01,1.262869834899902344e+00,1.112613677978515625e-01
1.499945670366287231e-01,1.264377355575561523e+00,1.563343852758407593e-01
1.501989215612411499e-01,1.266099929809570312e+00,2.019363641738891602e-01
1.503954976797103882e-01,1.267757058143615723e+00,2.481545954942703247e-01
1.505737751722335815e-01,1.269259810447692871e+00,2.950860261917114258e-01
1.296817660331726074e-01,1.245253205299377441e+00,-3.354685604572296143e-01
1.298723518848419189e-01,1.247083306312561035e+00,-2.894684374332427979e-01
1.300158649682998657e-01,1.248461365699768066e+00,-2.439883351325988770e-01
1.301812827587127686e-01,1.250049710273742676e+00,-1.990588605403900146e-01
1.303420066833496094e-01,1.251593112945556641e+00,-1.545071601867675781e-01
1.305123269557952881e-01,1.253228664398193359e+00,-1.102360859513282776e-01
1.306711286306381226e-01,1.254753470420837402e+00,-6.611437350511550903e-02
1.308326125144958496e-01,1.256304144859313965e+00,-2.204742841422557831e-02
1.309973299503326416e-01,1.257885813713073730e+00,2.207518741488456726e-02
1.311514824628829956e-01,1.259365916252136230e+00,6.635741144418716431e-02
1.313174068927764893e-01,1.260959267616271973e+00,1.109160855412483215e-01
1.314813792705535889e-01,1.262533783912658691e+00,1.558577865362167358e-01
1.316713988780975342e-01,1.264358401298522949e+00,2.013373821973800659e-01
1.318180710077285767e-01,1.265766859054565430e+00,2.473703771829605103e-01
1.319858431816101074e-01,1.267377972602844238e+00,2.941791713237762451e-01
1.115088760852813721e-01,1.243218421936035156e+00,-3.344561159610748291e-01
1.116662099957466125e-01,1.244972467422485352e+00,-2.885779440402984619e-01
1.118094623088836670e-01,1.246569633483886719e+00,-2.432809472084045410e-01
1.119456887245178223e-01,1.248088359832763672e+00,-1.984710395336151123e-01
1.120940819382667542e-01,1.249742865562438965e+00,-1.540649086236953735e-01
1.122269183397293091e-01,1.251223921775817871e+00,-1.099071875214576721e-01
1.123686432838439941e-01,1.252803921699523926e+00,-6.592014431953430176e-02
1.125075221061706543e-01,1.254352331161499023e+00,-2.198266424238681793e-02
1.126438677310943604e-01,1.255872488021850586e+00,2.200930379331111908e-02
1.127903014421463013e-01,1.257504940032958984e+00,6.616751104593276978e-02
1.129226386547088623e-01,1.258980512619018555e+00,1.105885282158851624e-01
1.130697727203369141e-01,1.260620832443237305e+00,1.554059237241744995e-01
1.132129430770874023e-01,1.262217044830322266e+00,2.007177919149398804e-01
1.133456975221633911e-01,1.263697147369384766e+00,2.466235607862472534e-01
1.134997084736824036e-01,1.265414237976074219e+00,2.933162152767181396e-01
9.348028153181076050e-02,1.241708397865295410e+00,-3.336557447910308838e-01
9.360377490520477295e-02,1.243348717689514160e+00,-2.878615260124206543e-01
9.371748566627502441e-02,1.244859099388122559e+00,-2.426604777574539185e-01
9.382742643356323242e-02,1.246319532394409180e+00,-1.979559212923049927e-01
9.394982457160949707e-02,1.247945308685302734e+00,-1.536617875099182129e-01
9.406810253858566284e-02,1.249516367912292480e+00,-1.096277087926864624e-01
9.418475627899169922e-02,1.251065969467163086e+00,-6.575103104114532471e-02
9.430117160081863403e-02,1.252612233161926270e+00,-2.192626707255840302e-02
9.441761672496795654e-02,1.254158973693847656e+00,2.195334248244762421e-02
9.453327953815460205e-02,1.255695462226867676e+00,6.599433720111846924e-02
9.464620053768157959e-02,1.257195353507995605e+00,1.103014275431632996e-01
9.477382153272628784e-02,1.258890628814697266e+00,1.550095081329345703e-01
9.490031749010086060e-02,1.260570764541625977e+00,2.002194821834564209e-01
9.502013027667999268e-02,1.262162327766418457e+00,2.460334002971649170e-01
9.512681514024734497e-02,1.263579368591308594e+00,2.925453484058380127e-01
7.550583779811859131e-02,1.239741086959838867e+00,-3.328026533126831055e-01
7.560227066278457642e-02,1.241324543952941895e+00,-2.871129512786865234e-01
7.570899277925491333e-02,1.243076801300048828e+00,-2.420770227909088135e-01
7.580734044313430786e-02,1.244691610336303711e+00,-1.975047737360000610e-01
7.590108364820480347e-02,1.246230840682983398e+00,-1.533012092113494873e-01
7.599317282438278198e-02,1.247742772102355957e+00,-1.093654558062553406e-01
7.608565688133239746e-02,1.249261379241943359e+00,-6.559222936630249023e-02
7.617970556020736694e-02,1.250805497169494629e+00,-2.187331579625606537e-02
7.627554982900619507e-02,1.252379179000854492e+00,2.190083451569080353e-02
7.637249678373336792e-02,1.253970980644226074e+00,6.583950668573379517e-02
7.646890729665756226e-02,1.255553960800170898e+00,1.100501120090484619e-01
7.656233012676239014e-02,1.257087826728820801e+00,1.546367555856704712e-01
7.664936035871505737e-02,1.258516907691955566e+00,1.996985375881195068e-01
7.674952596426010132e-02,1.260161399841308594e+00,2.454040795564651489e-01
7.686792314052581787e-02,1.262105464935302734e+00,2.919194698333740234e-01
5.763373896479606628e-02,1.238091230392456055e+00,-3.321042656898498535e-01
5.770231410861015320e-02,1.239564418792724609e+00,-2.864854335784912109e-01
5.778011307120323181e-02,1.241235733032226562e+00,-2.415326833724975586e-01
5.785275623202323914e-02,1.242796182632446289e+00,-1.970524340867996216e-01
5.792318284511566162e-02,1.244309067726135254e+00,-1.529471725225448608e-01
5.799368396401405334e-02,1.245823621749877930e+00,-1.091133058071136475e-01
5.806721746921539307e-02,1.247403264045715332e+00,-6.544432789087295532e-02
5.813900753855705261e-02,1.248945474624633789e+00,-2.182400040328502655e-02
5.820912495255470276e-02,1.250451683998107910e+00,2.185031957924365997e-02
5.828288942575454712e-02,1.252036452293395996e+00,6.568740308284759521e-02
5.835760757327079773e-02,1.253641486167907715e+00,1.097980290651321411e-01
5.843134596943855286e-02,1.255225539207458496e+00,1.542889773845672607e-01
5.850148200988769531e-02,1.256732225418090820e+00,1.992620676755905151e-01
5.858305841684341431e-02,1.258484601974487305e+00,2.448891550302505493e-01
5.865905061364173889e-02,1.260117053985595703e+00,2.912355363368988037e-01
3.981853649020195007e-02,1.236003637313842773e+00,-3.313574790954589844e-01
3.987502306699752808e-02,1.237756967544555664e+00,-2.859065234661102295e-01
3.992630541324615479e-02,1.239348888397216797e+00,-2.410296201705932617e-01
3.997488692402839661e-02,1.240856885910034180e+00,-1.966340839862823486e-01
4.002283513545989990e-02,1.242345213890075684e+00,-1.526197195053100586e-01
4.007471352815628052e-02,1.243955612182617188e+00,-1.088883057236671448e-01
4.012465849518775940e-02,1.245505928993225098e+00,-6.530796736478805542e-02
4.017426073551177979e-02,1.247045636177062988e+00,-2.177852205932140350e-02
4.022360593080520630e-02,1.248577237129211426e+00,2.180527150630950928e-02
4.027135297656059265e-02,1.250059485435485840e+00,6.554672867059707642e-02
4.032371193170547485e-02,1.251684665679931641e+00,1.095648705959320068e-01
4.037630185484886169e-02,1.253317117691040039e+00,1.539675891399383545e-01
4.042728245258331299e-02,1.254899501800537109e+00,1.988593786954879761e-01
4.047436639666557312e-02,1.256361126899719238e+00,2.443381845951080322e-01
4.052938893437385559e-02,1.258069157600402832e+00,2.905983924865722656e-01
2.208574116230010986e-02,1.234265089035034180e+00,-3.307727575302124023e-01
2.211527712643146515e-02,1.235915660858154297e+00,-2.853788435459136963e-01
2.214237116277217865e-02,1.237429857254028320e+00,-2.405701279640197754e-01
2.216845005750656128e-02,1.238887310028076172e+00,-1.962515860795974731e-01
2.219744399189949036e-02,1.240507602691650391e+00,-1.523393243551254272e-01
2.222525700926780701e-02,1.242061853408813477e+00,-1.086835712194442749e-01
2.225246466696262360e-02,1.243582487106323242e+00,-6.518372893333435059e-02
2.227997779846191406e-02,1.245120048522949219e+00,-2.173709683120250702e-02
2.230783551931381226e-02,1.246676921844482422e+00,2.176427654922008514e-02
2.233529090881347656e-02,1.248211145401000977e+00,6.542634963989257812e-02
2.236188203096389771e-02,1.249697208404541016e+00,1.093516796827316284e-01
2.239192463457584381e-02,1.251376152038574219e+00,1.536740362644195557e-01
2.242156490683555603e-02,1.253032565116882324e+00,1.984923332929611206e-01
2.244950830936431885e-02,1.254594206809997559e+00,2.439070791006088257e-01
2.247422188520431519e-02,1.255975365638732910e+00,2.900107204914093018e-01
4.412133246660232544e-03,1.232624411582946777e+00,-3.302823007106781006e-01
4.417726304382085800e-03,1.234186887741088867e+00,-2.849358916282653809e-01
4.422916565090417862e-03,1.235636949539184570e+00,-2.401846796274185181e-01
4.428772721439599991e-03,1.237273097038269043e+00,-1.959657520055770874e-01
4.433743655681610107e-03,1.238661766052246094e+00,-1.520892977714538574e-01
4.439346957951784134e-03,1.240227103233337402e+00,-1.085063517093658447e-01
4.444919060915708542e-03,1.241783857345581055e+00,-6.507945060729980469e-02
4.450409673154354095e-03,1.243317723274230957e+00,-2.170229889452457428e-02
4.455837886780500412e-03,1.244834184646606445e+00,2.172876894474029541e-02
4.461274482309818268e-03,1.246353030204772949e+00,6.531891226768493652e-02
4.467419348657131195e-03,1.248069763183593750e+00,1.091924905776977539e-01
4.472763743251562119e-03,1.249562859535217285e+00,1.534277796745300293e-01
4.478910006582736969e-03,1.251279950141906738e+00,1.981842517852783203e-01
4.484803881496191025e-03,1.252926588058471680e+00,2.435454428195953369e-01
4.490133374929428101e-03,1.254415512084960938e+00,2.896060347557067871e-01
-1.320681069046258926e-02,1.230435132980346680e+00,-3.297125697135925293e-01
-1.322314515709877014e-02,1.231956958770751953e+00,-2.844356000423431396e-01
-1.324157044291496277e-02,1.233673572540283203e+00,-2.398152947425842285e-01
-1.325864065438508987e-02,1.235263943672180176e+00,-1.956575512886047363e-01
-1.327502354979515076e-02,1.236790299415588379e+00,-1.518672704696655273e-01
-1.329123601317405701e-02,1.238300681114196777e+00,-1.083433553576469421e-01
-1.330763660371303558e-02,1.239828705787658691e+00,-6.498031318187713623e-02
-1.332407724112272263e-02,1.241360425949096680e+00,-2.166924253106117249e-02
-1.334061101078987122e-02,1.242900848388671875e+00,2.169613353908061981e-02
-1.335745956748723984e-02,1.244470477104187012e+00,6.522359699010848999e-02
-1.337433420121669769e-02,1.246042728424072266e+00,1.090207248926162720e-01
-1.339079812169075012e-02,1.247576594352722168e+00,1.531917452812194824e-01
-1.340626180171966553e-02,1.249017357826232910e+00,1.978360116481781006e-01
-1.342432107776403427e-02,1.250699758529663086e+00,2.431250512599945068e-01
-1.344097871333360672e-02,1.252251744270324707e+00,2.891213297843933105e-01
-3.078043274581432343e-02,1.228722691535949707e+00,-3.293380439281463623e-01
-3.081648983061313629e-02,1.230162024497985840e+00,-2.840939462184906006e-01
-3.085805103182792664e-02,1.231821179389953613e+00,-2.395165264606475830e-01
-3.089702874422073364e-02,1.233377099037170410e+00,-1.954087316989898682e-01
-3.093500062823295593e-02,1.234892845153808594e+00,-1.516731232404708862e-01
-3.097556158900260925e-02,1.236512064933776855e+00,-1.082145646214485168e-01
-3.101319074630737305e-02,1.238014101982116699e+00,-6.490182876586914062e-02
-3.105150535702705383e-02,1.239543676376342773e+00,-2.164307050406932831e-02
-3.109064325690269470e-02,1.241105914115905762e+00,2.167034894227981567e-02
-3.112707473337650299e-02,1.242560267448425293e+00,6.514015793800354004e-02
-3.116661496460437775e-02,1.244138598442077637e+00,1.088820099830627441e-01
-3.120580129325389862e-02,1.245702981948852539e+00,1.530008465051651001e-01
-3.124323487281799316e-02,1.247197270393371582e+00,1.975983083248138428e-01
-3.128737583756446838e-02,1.248959302902221680e+00,2.428488880395889282e-01
-3.132881224155426025e-02,1.250613451004028320e+00,2.888170182704925537e-01
-4.831654950976371765e-02,1.226982951164245605e+00,-3.290233910083770752e-01
-4.837007820606231689e-02,1.228342294692993164e+00,-2.838045060634613037e-01
-4.843323305249214172e-02,1.229946136474609375e+00,-2.392622530460357666e-01
-4.850199446082115173e-02,1.231692314147949219e+00,-1.952317953109741211e-01
-4.855884611606597900e-02,1.233136057853698730e+00,-1.515271961688995361e-01
-4.862072691321372986e-02,1.234707474708557129e+00,-1.081064715981483459e-01
-4.867885634303092957e-02,1.236183643341064453e+00,-6.483575701713562012e-02
