-1.399349093437194824e+00,-4.572538852691650391e+00,9.295001029968261719e-01
-1.400872826576232910e+00,-4.577517986297607422e+00,1.105182290077209473e+00
-1.114576697349548340e+00,-3.837445735931396484e+00,-1.070731878280639648e+00
-1.318544626235961914e+00,-4.539699554443359375e+00,-1.091383099555969238e+00
-1.320160269737243652e+00,-4.545262336730957031e+00,-9.200199246406555176e-01
-1.321706175804138184e+00,-4.550584316253662109e+00,-7.505260109901428223e-01
-1.323440194129943848e+00,-4.556554794311523438e+00,-5.825945138931274414e-01
-1.324962019920349121e+00,-4.561794281005859375e+00,-4.155980944633483887e-01
-1.326610088348388672e+00,-4.567468166351318359e+00,-2.492627352476119995e-01
-1.328214764595031738e+00,-4.572993278503417969e+00,-8.312048763036727905e-02
-1.329779744148254395e+00,-4.578381538391113281e+00,8.321842551231384277e-02
-1.331482052803039551e+00,-4.584242343902587891e+00,2.501781582832336426e-01
-1.332992196083068848e+00,-4.589441776275634766e+00,4.181168973445892334e-01
-1.334718942642211914e+00,-4.595386981964111328e+00,5.875595808029174805e-01
-1.336412549018859863e+00,-4.601218223571777344e+00,7.588769793510437012e-01
-1.337996244430541992e+00,-4.606670379638671875e+00,9.324498176574707031e-01
-1.339928746223449707e+00,-4.613324165344238281e+00,1.109083175659179688e+00
-1.055973887443542480e+00,-3.840032339096069336e+00,-1.067126989364624023e+00
-1.257711768150329590e+00,-4.573648929595947266e+00,-1.095104932785034180e+00
-1.259307503700256348e+00,-4.579452037811279297e+00,-9.231973290443420410e-01
-1.261076807975769043e+00,-4.585886001586914062e+00,-7.532940506935119629e-01
-1.262513160705566406e+00,-4.591109275817871094e+00,-5.846422314643859863e-01
-1.264096379280090332e+00,-4.596866607666015625e+00,-4.171021878719329834e-01
-1.265570640563964844e+00,-4.602227687835693359e+00,-2.501454651355743408e-01
-1.267101526260375977e+00,-4.607794761657714844e+00,-8.341485261917114258e-02
-1.268691420555114746e+00,-4.613576412200927734e+00,8.351951837539672852e-02
-1.270184755325317383e+00,-4.619007110595703125e+00,2.510574758052825928e-01
-1.271843671798706055e+00,-4.625039577484130859e+00,4.196584820747375488e-01
-1.273195028305053711e+00,-4.629953861236572266e+00,5.895887613296508789e-01
-1.274755358695983887e+00,-4.635628223419189453e+00,7.614648938179016113e-01
-1.276658058166503906e+00,-4.642547130584716797e+00,9.359170794486999512e-01
-1.277966976165771484e+00,-4.647306919097900391e+00,1.112741351127624512e+00
-1.004435896873474121e+00,-3.868341922760009766e+00,-1.070889115333557129e+00
-1.190353751182556152e+00,-4.584360122680664062e+00,-1.093477845191955566e+00
-1.198283553123474121e+00,-4.614899635314941406e+00,-9.267908334732055664e-01
-1.199707150459289551e+00,-4.620382308959960938e+00,-7.560623288154602051e-01
-1.201107501983642578e+00,-4.625775337219238281e+00,-5.868073105812072754e-01
-1.202635645866394043e+00,-4.631660461425781250e+00,-4.186544716358184814e-01
-1.204050064086914062e+00,-4.637107849121093750e+00,-2.510788738727569580e-01
-1.205506324768066406e+00,-4.642716407775878906e+00,-8.372609317302703857e-02
-1.207007408142089844e+00,-4.648497581481933594e+00,8.383034914731979370e-02
-1.208406090736389160e+00,-4.653883934020996094e+00,2.519872188568115234e-01
-1.209950327873229980e+00,-4.659831047058105469e+00,4.212007820606231689e-01
-1.211496949195861816e+00,-4.665787696838378906e+00,5.918831229209899902e-01
-1.212991237640380859e+00,-4.671542644500732422e+00,7.644340991973876953e-01
-1.214364647865295410e+00,-4.676832199096679688e+00,9.392284750938415527e-01
-1.216030120849609375e+00,-4.683246135711669922e+00,1.117064595222473145e+00
-9.461565613746643066e-01,-3.870814085006713867e+00,-1.067715048789978027e+00
-1.128826022148132324e+00,-4.618131637573242188e+00,-1.097566962242126465e+00
-1.136436223983764648e+00,-4.649265766143798828e+00,-9.303303956985473633e-01
-1.137830376625061035e+00,-4.654969692230224609e+00,-7.589793205261230469e-01
-1.139192104339599609e+00,-4.660540580749511719e+00,-5.890886187553405762e-01
-1.140663027763366699e+00,-4.666558265686035156e+00,-4.202900230884552002e-01
-1.142015695571899414e+00,-4.672091960906982422e+00,-2.520622313022613525e-01
-1.143396973609924316e+00,-4.677742958068847656e+00,-8.405400812625885010e-02
-1.144809365272521973e+00,-4.683521270751953125e+00,8.415783196687698364e-02
-1.146114230155944824e+00,-4.688859462738037109e+00,2.529668509960174561e-01
-1.147545218467712402e+00,-4.694713592529296875e+00,4.228258132934570312e-01
-1.148967623710632324e+00,-4.700532913208007812e+00,5.941436886787414551e-01
-1.150330066680908203e+00,-4.706106662750244141e+00,7.673171162605285645e-01
-1.151977300643920898e+00,-4.712845802307128906e+00,9.430530071258544922e-01
-1.153539061546325684e+00,-4.719234943389892578e+00,1.121595501899719238e+00
-8.941110372543334961e-01,-3.899005651473999023e+00,-1.071851372718811035e+00
-1.058276772499084473e+00,-4.614893436431884766e+00,-1.093085289001464844e+00
-1.074323654174804688e+00,-4.684870243072509766e+00,-9.342822432518005371e-01
-1.075415611267089844e+00,-4.689631462097167969e+00,-7.620430588722229004e-01
-1.076886773109436035e+00,-4.696047306060791016e+00,-5.915677547454833984e-01
-1.078146934509277344e+00,-4.701542377471923828e+00,-4.220077395439147949e-01
-1.079436659812927246e+00,-4.707166671752929688e+00,-2.530950307846069336e-01
-1.080742239952087402e+00,-4.712860107421875000e+00,-8.439841121435165405e-02
-1.082065939903259277e+00,-4.718632698059082031e+00,8.450178802013397217e-02
-1.083429455757141113e+00,-4.724578380584716797e+00,2.540312111377716064e-01
-1.084597349166870117e+00,-4.729671478271484375e+00,4.245325624942779541e-01
-1.086169242858886719e+00,-4.736525535583496094e+00,5.966668725013732910e-01
-1.087460637092590332e+00,-4.742156982421875000e+00,7.705782055854797363e-01
-1.088623046875000000e+00,-4.747226715087890625e+00,9.467176795005798340e-01
-1.090023875236511230e+00,-4.753334999084472656e+00,1.125876545906066895e+00
-8.364380002021789551e-01,-3.903101682662963867e+00,-1.069576621055603027e+00
-9.966337680816650391e-01,-4.650629520416259766e+00,-1.098058342933654785e+00
-1.011838316917419434e+00,-4.721579074859619141e+00,-9.386184811592102051e-01
-1.013112902641296387e+00,-4.727526187896728516e+00,-7.657659649848937988e-01
-1.014335870742797852e+00,-4.733232975006103516e+00,-5.943622589111328125e-01
-1.015546917915344238e+00,-4.738884449005126953e+00,-4.240113794803619385e-01
-1.016774058341979980e+00,-4.744610786437988281e+00,-2.542997598648071289e-01
-1.018003940582275391e+00,-4.750349521636962891e+00,-8.480015397071838379e-02
-1.019238591194152832e+00,-4.756110668182373047e+00,8.490300178527832031e-02
-1.020498514175415039e+00,-4.761990070343017578e+00,2.552312314510345459e-01
-1.021761775016784668e+00,-4.767885208129882812e+00,4.266062080860137939e-01
-1.022994995117187500e+00,-4.773639202117919922e+00,5.994362235069274902e-01
-1.024152636528015137e+00,-4.779041767120361328e+00,7.741104364395141602e-01
-1.025538921356201172e+00,-4.785510540008544922e+00,9.513276815414428711e-01
-1.026828050613403320e+00,-4.791525840759277344e+00,1.131325364112854004e+00
-7.786549329757690430e-01,-3.905463457107543945e+00,-1.067060351371765137e+00
-9.265636205673217773e-01,-4.647321701049804688e+00,-1.094033956527709961e+00
-9.482696652412414551e-01,-4.756191730499267578e+00,-9.427044987678527832e-01
-9.495052099227905273e-01,-4.762388706207275391e+00,-7.691327929496765137e-01
-9.506827592849731445e-01,-4.768295288085937500e+00,-5.969952344894409180e-01
-9.518389701843261719e-01,-4.774094104766845703e+00,-4.258991181850433350e-01
-9.529995918273925781e-01,-4.779915332794189453e+00,-2.554347217082977295e-01
-9.541522860527038574e-01,-4.785696983337402344e+00,-8.517862856388092041e-02
-9.552989602088928223e-01,-4.791448593139648438e+00,8.528099954128265381e-02
-9.564585685729980469e-01,-4.797264575958251953e+00,2.563618719577789307e-01
-9.576110839843750000e-01,-4.803045272827148438e+00,4.284818470478057861e-01
-9.587252140045166016e-01,-4.808633327484130859e+00,6.020455956459045410e-01
-9.600459933280944824e-01,-4.815258026123046875e+00,7.776712179183959961e-01
-9.613324403762817383e-01,-4.821710586547851562e+00,9.556906819343566895e-01
-9.625167846679687500e-01,-4.827650547027587891e+00,1.136485457420349121e+00
-7.258456349372863770e-01,-3.933360815048217773e+00,-1.071734070777893066e+00
-8.569987416267395020e-01,-4.644080162048339844e+00,-1.090271353721618652e+00
-8.842936754226684570e-01,-4.791991710662841797e+00,-9.471944570541381836e-01
-8.854386806488037109e-01,-4.798196315765380859e+00,-7.727897763252258301e-01
-8.863955140113830566e-01,-4.803381443023681641e+00,-5.997381210327148438e-01
-8.874938488006591797e-01,-4.809333324432373047e+00,-4.278657138347625732e-01
-8.885860443115234375e-01,-4.815251827239990234e+00,-2.566170990467071533e-01
-8.896608948707580566e-01,-4.821076393127441406e+00,-8.557291328907012939e-02
-8.907199501991271973e-01,-4.826815605163574219e+00,8.567478507757186890e-02
-8.917808532714843750e-01,-4.832564353942871094e+00,2.575397491455078125e-01
-8.929967284202575684e-01,-4.839153289794921875e+00,4.305186867713928223e-01
-8.940430879592895508e-01,-4.844823837280273438e+00,6.049125194549560547e-01
-8.952711820602416992e-01,-4.851478576660156250e+00,7.813712954521179199e-01
-8.961431980133056641e-01,-4.856204032897949219e+00,9.598867893218994141e-01
-8.975356221199035645e-01,-4.863749504089355469e+00,1.141842365264892578e+00
-6.684813499450683594e-01,-3.937481164932250977e+00,-1.070140123367309570e+00
-7.944785356521606445e-01,-4.679628372192382812e+00,-1.095834970474243164e+00
-8.198625445365905762e-01,-4.829144954681396484e+00,-9.521211385726928711e-01
-8.209661245346069336e-01,-4.835645675659179688e+00,-7.768491506576538086e-01
-8.219999670982360840e-01,-4.841734886169433594e+00,-6.029960513114929199e-01
-8.229950666427612305e-01,-4.847596168518066406e+00,-4.301777482032775879e-01
-8.239731192588806152e-01,-4.853357315063476562e+00,-2.579928934574127197e-01
-8.249689936637878418e-01,-4.859222888946533203e+00,-8.603160083293914795e-02
-8.259858489036560059e-01,-4.865212440490722656e+00,8.613765239715576172e-02
-8.269932270050048828e-01,-4.871146202087402344e+00,2.589385211467742920e-01
-8.279739022254943848e-01,-4.876922607421875000e+00,4.327801764011383057e-01
-8.289014697074890137e-01,-4.882386207580566406e+00,6.080588102340698242e-01
-8.299855589866638184e-01,-4.888771533966064453e+00,7.853838205337524414e-01
-8.310199379920959473e-01,-4.894864082336425781e+00,9.650784730911254883e-01
-8.322769999504089355e-01,-4.902268886566162109e+00,1.147971034049987793e+00
-6.112880110740661621e-01,-3.941669464111328125e+00,-1.068790912628173828e+00
-7.255887985229492188e-01,-4.678696632385253906e+00,-1.093072891235351562e+00
-7.548931241035461426e-01,-4.867655277252197266e+00,-9.574854373931884766e-01
-7.557651996612548828e-01,-4.873278617858886719e+00,-7.810770273208618164e-01
-7.567474246025085449e-01,-4.879611968994140625e+00,-6.063022017478942871e-01
-7.576839923858642578e-01,-4.885651111602783203e+00,-4.325480461120605469e-01
-7.585949301719665527e-01,-4.891524791717529297e+00,-2.594180405139923096e-01
-7.595118284225463867e-01,-4.897437095642089844e+00,-8.650684356689453125e-02
-7.604374885559082031e-01,-4.903406143188476562e+00,8.661227673292160034e-02
-7.613442540168762207e-01,-4.909252643585205078e+00,2.603582143783569336e-01
-7.622165083885192871e-01,-4.914877414703369141e+00,4.351355731487274170e-01
-7.632150053977966309e-01,-4.921315670013427734e+00,6.114840507507324219e-01
-7.642015814781188965e-01,-4.927677154541015625e+00,7.897959351539611816e-01
-7.651316523551940918e-01,-4.933674335479736328e+00,9.704716801643371582e-01
-7.659532427787780762e-01,-4.938972473144531250e+00,1.153880476951599121e+00
-5.539317131042480469e-01,-3.943745851516723633e+00,-1.067094683647155762e+00
-6.566888689994812012e-01,-4.675330638885498047e+00,-1.089978814125061035e+00
-6.887444853782653809e-01,-4.903552532196044922e+00,-9.625087976455688477e-01
-6.895384788513183594e-01,-4.909204959869384766e+00,-7.851728796958923340e-01
-6.903290748596191406e-01,-4.914834022521972656e+00,-6.093884706497192383e-01
-6.912007927894592285e-01,-4.921040058135986328e+00,-4.347607493400573730e-01
-6.920406222343444824e-01,-4.927019119262695312e+00,-2.607483863830566406e-01
-6.928770542144775391e-01,-4.932973861694335938e+00,-8.695047348737716675e-02
-6.937126517295837402e-01,-4.938923358917236328e+00,8.705533295869827271e-02
-6.945225596427917480e-01,-4.944689273834228516e+00,2.616835236549377441e-01
-6.954236626625061035e-01,-4.951104640960693359e+00,4.374168813228607178e-01
-6.963365674018859863e-01,-4.957604408264160156e+00,6.146915555000305176e-01
-6.972289681434631348e-01,-4.963957786560058594e+00,7.939300537109375000e-01
-6.980610489845275879e-01,-4.969882011413574219e+00,9.755285382270812988e-01
-6.987855434417724609e-01,-4.975039958953857422e+00,1.159851193428039551e+00
-4.970117211341857910e-01,-3.947930097579956055e+00,-1.066192865371704102e+00
-5.930235981941223145e-01,-4.710584640502929688e+00,-1.096106529235839844e+00
-6.220341920852661133e-01,-4.941025733947753906e+00,-9.680175781250000000e-01
-6.227874159812927246e-01,-4.947008132934570312e+00,-7.897125482559204102e-01
-6.236133575439453125e-01,-4.953569412231445312e+00,-6.130217313766479492e-01
-6.243337988853454590e-01,-4.959291934967041016e+00,-4.373058974742889404e-01
-6.251013278961181641e-01,-4.965388774871826172e+00,-2.622786164283752441e-01
-6.258568167686462402e-01,-4.971390247344970703e+00,-8.746074885129928589e-02
-6.266026496887207031e-01,-4.977314472198486328e+00,8.756497502326965332e-02
-6.274008750915527344e-01,-4.983654975891113281e+00,2.632434666156768799e-01
-6.281028389930725098e-01,-4.989230632781982422e+00,4.399458467960357666e-01
-6.288909316062927246e-01,-4.995490550994873047e+00,6.182096600532531738e-01
-6.296521425247192383e-01,-5.001537322998046875e+00,7.984172105789184570e-01
-6.305660009384155273e-01,-5.008796691894531250e+00,9.812948703765869141e-01
-6.311901807785034180e-01,-5.013754367828369141e+00,1.166651129722595215e+00
-4.401762187480926514e-01,-3.952108383178710938e+00,-1.065510630607604980e+00
-5.245472192764282227e-01,-4.709630966186523438e+00,-1.094025492668151855e+00
-5.546353459358215332e-01,-4.979776382446289062e+00,-9.739543199539184570e-01
-5.553107261657714844e-01,-4.985840320587158203e+00,-7.945612072944641113e-01
-5.559669733047485352e-01,-4.991732120513916016e+00,-6.166965365409851074e-01
-5.566261410713195801e-01,-4.997650623321533203e+00,-4.399407207965850830e-01
-5.573186278343200684e-01,-5.003867626190185547e+00,-2.638627290725708008e-01
-5.579921603202819824e-01,-5.009915351867675781e+00,-8.798898756504058838e-02
-5.586489439010620117e-01,-5.015811920166015625e+00,8.809255808591842651e-02
-5.593436360359191895e-01,-5.022049427032470703e+00,2.648214995861053467e-01
-5.600497722625732422e-01,-5.028389453887939453e+00,4.426466524600982666e-01
-5.607486367225646973e-01,-5.034664154052734375e+00,6.220005154609680176e-01
-5.614149570465087891e-01,-5.040646553039550781e+00,8.032953739166259766e-01
-5.622082948684692383e-01,-5.047769546508789062e+00,9.872525334358215332e-01
-5.629541873931884766e-01,-5.054466724395751953e+00,1.174129247665405273e+00
-3.833992183208465576e-01,-3.956255912780761719e+00,-1.065040111541748047e+00
-4.563218951225280762e-01,-4.708737373352050781e+00,-1.092188715934753418e+00
-4.862325787544250488e-01,-5.017382621765136719e+00,-9.798478484153747559e-01
-4.868540167808532715e-01,-5.023795127868652344e+00,-7.994173765182495117e-01
-4.874517321586608887e-01,-5.029962539672851562e+00,-6.204941272735595703e-01
-4.880841374397277832e-01,-5.036488533020019531e+00,-4.426992833614349365e-01
-4.886590242385864258e-01,-5.042420864105224609e+00,-2.654996812343597412e-01
-4.892496466636657715e-01,-5.048515319824218750e+00,-8.853486180305480957e-02
-4.898574054241180420e-01,-5.054786682128906250e+00,8.864483982324600220e-02
-4.904122352600097656e-01,-5.060512065887451172e+00,2.664522528648376465e-01
-4.910088479518890381e-01,-5.066668510437011719e+00,4.453520178794860840e-01
-4.915918409824371338e-01,-5.072684288024902344e+00,6.257642507553100586e-01
-4.922811090946197510e-01,-5.079796791076660156e+00,8.083286881446838379e-01
-4.929565787315368652e-01,-5.086766719818115234e+00,9.933978915214538574e-01
-4.935831129550933838e-01,-5.093232154846191406e+00,1.181372165679931641e+00
-3.268551528453826904e-01,-3.962757587432861328e+00,-1.065421819686889648e+00
-3.885524868965148926e-01,-4.710769653320312500e+00,-1.091258406639099121e+00
-4.173054397106170654e-01,-5.059367656707763672e+00,-9.867795705795288086e-01
-4.178457558155059814e-01,-5.065918445587158203e+00,-8.050861358642578125e-01
-4.183583557605743408e-01,-5.072133064270019531e+00,-6.248935461044311523e-01
-4.188593924045562744e-01,-5.078207969665527344e+00,-4.457936584949493408e-01
-4.193601608276367188e-01,-5.084278583526611328e+00,-2.673602104187011719e-01
-4.198669493198394775e-01,-5.090423107147216797e+00,-8.915527164936065674e-02
-4.203811585903167725e-01,-5.096657276153564453e+00,8.926445245742797852e-02
-4.208988547325134277e-01,-5.102933883666992188e+00,2.683411836624145508e-01
-4.214112162590026855e-01,-5.109146118164062500e+00,4.485096037387847900e-01
-4.219045937061309814e-01,-5.115127086639404297e+00,6.301904916763305664e-01
-4.224812686443328857e-01,-5.122118949890136719e+00,8.140176534652709961e-01
-4.230386912822723389e-01,-5.128877162933349609e+00,1.000336647033691406e+00
-4.235472083091735840e-01,-5.135042190551757812e+00,1.189541935920715332e+00
-2.700924277305603027e-01,-3.966820240020751953e+00,-1.065365552902221680e+00
-3.206912279129028320e-01,-4.709959506988525391e+00,-1.089895725250244141e+00
-3.471299111843109131e-01,-5.098261833190917969e+00,-9.932946562767028809e-01
-3.475194573402404785e-01,-5.103982925415039062e+00,-8.102619647979736328e-01
-3.479623794555664062e-01,-5.110487937927246094e+00,-6.289409399032592773e-01
-3.483902812004089355e-01,-5.116772651672363281e+00,-4.486954212188720703e-01
-3.488124310970306396e-01,-5.122972965240478516e+00,-2.691048681735992432e-01
-3.492340147495269775e-01,-5.129164695739746094e+00,-8.973705768585205078e-02
-3.496560454368591309e-01,-5.135363101959228516e+00,8.984550088644027710e-02
-3.500753939151763916e-01,-5.141521930694580078e+00,2.700791954994201660e-01
-3.504848480224609375e-01,-5.147535800933837891e+00,4.513930380344390869e-01
-3.509552478790283203e-01,-5.154444217681884766e+00,6.343505382537841797e-01
-3.514245748519897461e-01,-5.161337375640869141e+00,8.193669915199279785e-01
-3.518721759319305420e-01,-5.167911052703857422e+00,1.006864428520202637e+00
-3.522737622261047363e-01,-5.173809051513671875e+00,1.197231650352478027e+00
-2.134539633989334106e-01,-3.973300695419311523e+00,-1.066176295280456543e+00
-2.550337910652160645e-01,-4.747280597686767578e+00,-1.097574830055236816e+00
-2.761564552783966064e-01,-5.140464782714843750e+00,-1.000644445419311523e+00
-2.764722406864166260e-01,-5.146343231201171875e+00,-8.162748217582702637e-01
-2.768252193927764893e-01,-5.152913570404052734e+00,-6.336096525192260742e-01
-2.771391272544860840e-01,-5.158756732940673828e+00,-4.519828855991363525e-01
-2.774799466133117676e-01,-5.165101051330566406e+00,-2.710813879966735840e-01
-2.778153121471405029e-01,-5.171343326568603516e+00,-9.039616584777832031e-02
-2.781460285186767578e-01,-5.177499294281005859e+00,9.050377458333969116e-02
-2.785059809684753418e-01,-5.184199810028076172e+00,2.720837593078613281e-01
-2.788311243057250977e-01,-5.190251827239990234e+00,4.547423422336578369e-01
-2.791994214057922363e-01,-5.197107791900634766e+00,6.390438079833984375e-01
-2.794827818870544434e-01,-5.202382087707519531e+00,8.251633048057556152e-01
-2.799016833305358887e-01,-5.210179805755615234e+00,1.014215230941772461e+00
-2.802004218101501465e-01,-5.215741157531738281e+00,1.205883145332336426e+00
-1.566140353679656982e-01,-3.977162361145019531e+00,-1.066501736640930176e+00
-1.868944019079208374e-01,-4.746122360229492188e+00,-1.096576213836669922e+00
-2.039045691490173340e-01,-5.178090095520019531e+00,-1.007297277450561523e+00
-2.041885554790496826e-01,-5.185301780700683594e+00,-8.219063878059387207e-01
-2.044221311807632446e-01,-5.191233158111572266e+00,-6.378963589668273926e-01
-2.046771198511123657e-01,-5.197708606719970703e+00,-4.550923407077789307e-01
-2.049160301685333252e-01,-5.203775882720947266e+00,-2.729292809963226318e-01
-2.051636874675750732e-01,-5.210064888000488281e+00,-9.101237356662750244e-02
-2.054205238819122314e-01,-5.216587066650390625e+00,9.112630784511566162e-02
-2.056632936000823975e-01,-5.222752094268798828e+00,2.739245891571044922e-01
-2.059304863214492798e-01,-5.229537487030029297e+00,4.578791558742523193e-01
-2.061514109373092651e-01,-5.235147953033447266e+00,6.432925462722778320e-01
-2.064018398523330688e-01,-5.241507053375244141e+00,8.308153152465820312e-01
-2.067005187273025513e-01,-5.249092102050781250e+00,1.021109342575073242e+00
-2.069851309061050415e-01,-5.256319999694824219e+00,1.214455723762512207e+00
-9.978953003883361816e-02,-3.983493566513061523e+00,-1.067707061767578125e+00
-1.189418882131576538e-01,-4.748035907745361328e+00,-1.096512675285339355e+00
-1.307733058929443359e-01,-5.220334053039550781e+00,-1.015046954154968262e+00
-1.309348344802856445e-01,-5.226781368255615234e+00,-8.280993103981018066e-01
-1.310920864343643188e-01,-5.233058929443359375e+00,-6.427394151687622070e-01
-1.312604248523712158e-01,-5.239778995513916016e+00,-4.585644006729125977e-01
-1.314161866903305054e-01,-5.245996952056884766e+00,-2.750168740749359131e-01
-1.315750181674957275e-01,-5.252336978912353516e+00,-9.170851111412048340e-02
-1.317371726036071777e-01,-5.258810520172119141e+00,9.182153642177581787e-02
-1.318880170583724976e-01,-5.264831542968750000e+00,2.760042846202850342e-01
-1.320518404245376587e-01,-5.271371364593505859e+00,4.613292217254638672e-01
-1.322141736745834351e-01,-5.277851581573486328e+00,6.482409834861755371e-01
-1.323691010475158691e-01,-5.284035682678222656e+00,8.371703624725341797e-01
-1.325522214174270630e-01,-5.291346549987792969e+00,1.028854608535766602e+00
-1.327239274978637695e-01,-5.298200607299804688e+00,1.223567843437194824e+00
-4.282354563474655151e-02,-3.989728689193725586e+00,-1.069104552268981934e+00
-5.098298564553260803e-02,-4.749917030334472656e+00,-1.096666216850280762e+00
-5.648560822010040283e-02,-5.262578487396240234e+00,-1.022998929023742676e+00
-5.655685439705848694e-02,-5.269216060638427734e+00,-8.346086740493774414e-01
-5.662515386939048767e-02,-5.275579452514648438e+00,-6.477960348129272461e-01
-5.669271945953369141e-02,-5.281874179840087891e+00,-4.621300399303436279e-01
-5.676110088825225830e-02,-5.288245201110839844e+00,-2.771607339382171631e-01
-5.682969838380813599e-02,-5.294636249542236328e+00,-9.242340177297592163e-02
-5.689863488078117371e-02,-5.301058769226074219e+00,9.253551810979843140e-02
-5.696890130639076233e-02,-5.307605266571044922e+00,2.781754136085510254e-01
-5.703928694128990173e-02,-5.314162731170654297e+00,4.649550914764404297e-01
-5.710791051387786865e-02,-5.320556163787841797e+00,6.533188223838806152e-01
-5.717227235436439514e-02,-5.326552391052246094e+00,8.436903357505798340e-01
-5.724762007594108582e-02,-5.333572387695312500e+00,1.036799669265747070e+00
-5.731699988245964050e-02,-5.340036392211914062e+00,1.232913613319396973e+00
1.422745268791913986e-02,-3.974745273590087891e+00,-1.065034985542297363e+00
1.689829304814338684e-02,-4.720901966094970703e+00,-1.089911460876464844e+00
1.918888650834560394e-02,-5.360828399658203125e+00,-1.042044639587402344e+00
1.921484246850013733e-02,-5.368080139160156250e+00,-8.502245545387268066e-01
1.923699304461479187e-02,-5.374268054962158203e+00,-6.598803997039794922e-01
1.926185563206672668e-02,-5.381214141845703125e+00,-4.707975387573242188e-01
1.928658969700336456e-02,-5.388123989105224609e+00,-2.823810279369354248e-01
1.931094564497470856e-02,-5.394928455352783203e+00,-9.416928887367248535e-02
1.933505386114120483e-02,-5.401663780212402344e+00,9.428685158491134644e-02
1.935920491814613342e-02,-5.408410549163818359e+00,2.834441661834716797e-01
1.938645727932453156e-02,-5.416024208068847656e+00,4.738430380821228027e-01
1.941020600497722626e-02,-5.422658920288085938e+00,6.658220887184143066e-01
1.943746581673622131e-02,-5.430274486541748047e+00,8.600752353668212891e-01
1.946363225579261780e-02,-5.437584400177001953e+00,1.056964516639709473e+00
1.948734559118747711e-02,-5.444209575653076172e+00,1.256900906562805176e+00
7.123260200023651123e-02,-3.980845212936401367e+00,-1.066833376884460449e+00
8.451057970523834229e-02,-4.722887039184570312e+00,-1.090537190437316895e+00
9.840479493141174316e-02,-5.499367237091064453e+00,-1.069138169288635254e+00
9.852372109889984131e-02,-5.506013393402099609e+00,-8.722051382064819336e-01
9.865551441907882690e-02,-5.513378620147705078e+00,-6.770651340484619141e-01
9.878204762935638428e-02,-5.520450115203857422e+00,-4.830533862113952637e-01
9.890593588352203369e-02,-5.527373313903808594e+00,-2.897233068943023682e-01
9.903129190206527710e-02,-5.534379005432128906e+00,-9.661826491355895996e-02
9.915805608034133911e-02,-5.541463375091552734e+00,9.674194455146789551e-02
9.928304702043533325e-02,-5.548448085784912109e+00,2.908279597759246826e-01
9.940421581268310547e-02,-5.555219650268554688e+00,4.860958456993103027e-01
9.954085201025009155e-02,-5.562855720520019531e+00,6.831411123275756836e-01
9.967569261789321899e-02,-5.570391654968261719e+00,8.824032545089721680e-01
9.980302304029464722e-02,-5.577507019042968750e+00,1.084329485893249512e+00
9.991600364446640015e-02,-5.583821296691894531e+00,1.289331078529357910e+00
1.285262703895568848e-01,-3.989572286605834961e+00,-1.069555640220642090e+00
1.523183286190032959e-01,-4.728099346160888672e+00,-1.092132329940795898e+00
1.822156459093093872e-01,-5.656138896942138672e+00,-1.100010752677917480e+00
1.824431121349334717e-01,-5.663199901580810547e+00,-8.974267244338989258e-01
1.826677918434143066e-01,-5.670174121856689453e+00,-6.965699791908264160e-01
1.829101741313934326e-01,-5.677698135375976562e+00,-4.969911575317382812e-01
1.831437349319458008e-01,-5.684947967529296875e+00,-2.980896234512329102e-01
1.833760589361190796e-01,-5.692159652709960938e+00,-9.940841048955917358e-02
1.836068928241729736e-01,-5.699325084686279297e+00,9.953355044126510620e-02
1.838305443525314331e-01,-5.706267356872558594e+00,2.992074787616729736e-01
1.840754449367523193e-01,-5.713869094848632812e+00,5.001573562622070312e-01
1.843214333057403564e-01,-5.721504688262939453e+00,7.028758525848388672e-01
1.845600754022598267e-01,-5.728912830352783203e+00,9.078400135040283203e-01
1.847809404134750366e-01,-5.735768795013427734e+00,1.115497231483459473e+00
1.850383430719375610e-01,-5.743758201599121094e+00,1.326737046241760254e+00
1.850338280200958252e-01,-3.974907398223876953e+00,-1.066224932670593262e+00
2.203328907489776611e-01,-4.733203887939453125e+00,-1.093927860260009766e+00
2.697450518608093262e-01,-5.794678211212158203e+00,-1.127589464187622070e+00
2.712342143058776855e-01,-5.826668739318847656e+00,-9.238516092300415039e-01
2.715732455253601074e-01,-5.833952426910400391e+00,-7.170938849449157715e-01
2.719127833843231201e-01,-5.841246128082275391e+00,-5.115954875946044922e-01
2.722662687301635742e-01,-5.848839282989501953e+00,-3.068561553955078125e-01
2.726118862628936768e-01,-5.856264114379882812e+00,-1.023320108652114868e-01
2.729493379592895508e-01,-5.863512992858886719e+00,1.024586781859397888e-01
2.733042836189270020e-01,-5.871138095855712891e+00,3.080260455608367920e-01
2.736637890338897705e-01,-5.878860950469970703e+00,5.148898959159851074e-01
2.740186452865600586e-01,-5.886484146118164062e+00,7.235509753227233887e-01
2.743566334247589111e-01,-5.893744945526123047e+00,9.344869256019592285e-01
2.747486829757690430e-01,-5.902167320251464844e+00,1.148505687713623047e+00
2.751145958900451660e-01,-5.910027027130126953e+00,1.365912675857543945e+00
2.426063865423202515e-01,-3.983389139175415039e+00,-1.069321990013122559e+00
2.885746955871582031e-01,-4.738149166107177734e+00,-1.095913171768188477e+00
3.527344763278961182e-01,-5.791597843170166016e+00,-1.127856850624084473e+00
3.652282059192657471e-01,-5.996734142303466797e+00,-9.515478610992431641e-01
3.656921684741973877e-01,-6.004352092742919922e+00,-7.386067509651184082e-01
3.661483228206634521e-01,-6.011841773986816406e+00,-5.269417762756347656e-01
3.666064739227294922e-01,-6.019364356994628906e+00,-3.160455822944641113e-01
3.670722246170043945e-01,-6.027011394500732422e+00,-1.053966581821441650e-01
3.675466477870941162e-01,-6.034801006317138672e+00,1.055328696966171265e-01
3.680264353752136230e-01,-6.042678356170654297e+00,3.172696828842163086e-01
3.685037195682525635e-01,-6.050515174865722656e+00,5.303315520286560059e-01
3.689665198326110840e-01,-6.058114051818847656e+00,7.452200651168823242e-01
3.693985342979431152e-01,-6.065207481384277344e+00,9.624130725860595703e-01
3.698945045471191406e-01,-6.073350906372070312e+00,1.182725548744201660e+00
3.704789280891418457e-01,-6.082946300506591797e+00,1.406958937644958496e+00
2.987899184226989746e-01,-3.968857526779174805e+00,-1.066459894180297852e+00
3.546098470687866211e-01,-4.710319519042968750e+00,-1.090538620948791504e+00
4.357728958129882812e-01,-5.788416862487792969e+00,-1.128336429595947266e+00
4.647036194801330566e-01,-6.172706604003906250e+00,-9.804258346557617188e-01
4.653260409832000732e-01,-6.180974483489990234e+00,-7.610747218132019043e-01
4.659281671047210693e-01,-6.188972473144531250e+00,-5.429963469505310059e-01
4.665224850177764893e-01,-6.196866512298583984e+00,-3.256825506687164307e-01
4.671156108379364014e-01,-6.204745292663574219e+00,-1.086105480790138245e-01
4.677090346813201904e-01,-6.212627887725830078e+00,1.087485253810882568e-01
4.682985842227935791e-01,-6.220458984375000000e+00,3.269224762916564941e-01
4.688746035099029541e-01,-6.228110313415527344e+00,5.464301705360412598e-01
4.695241451263427734e-01,-6.236738204956054688e+00,7.679409980773925781e-01
4.701681137084960938e-01,-6.245292186737060547e+00,9.919547438621520996e-01
4.707792103290557861e-01,-6.253409385681152344e+00,1.218977570533752441e+00
3.567054867744445801e-01,-3.976928472518920898e+00,-1.069890975952148438e+00
4.229056835174560547e-01,-4.714997768402099609e+00,-1.092911243438720703e+00
5.188844203948974609e-01,-5.785069942474365234e+00,-1.129016280174255371e+00
5.701828002929687500e-01,-6.356998443603515625e+00,-1.010890007019042969e+00
5.709591507911682129e-01,-6.365653991699218750e+00,-7.847405672073364258e-01
5.716572403907775879e-01,-6.373436927795410156e+00,-5.598410964012145996e-01
5.724000334739685059e-01,-6.381718158721923828e+00,-3.357937932014465332e-01
5.731285214424133301e-01,-6.389839649200439453e+00,-1.119826510548591614e-01
5.738440155982971191e-01,-6.397817611694335938e+00,1.121224611997604370e-01
5.746119022369384766e-01,-6.406378269195556641e+00,3.370913863182067871e-01
5.753072500228881836e-01,-6.414130687713623047e+00,5.634156465530395508e-01
5.760787725448608398e-01,-6.422732353210449219e+00,7.917770147323608398e-01
5.768301486968994141e-01,-6.431109905242919922e+00,1.022675275802612305e+00
5.775286555290222168e-01,-6.438897609710693359e+00,1.256617426872253418e+00
4.129537045955657959e-01,-3.965337276458740234e+00,-1.068253397941589355e+00
4.885491728782653809e-01,-4.691233634948730469e+00,-1.088912129402160645e+00
6.025540232658386230e-01,-5.785951137542724609e+00,-1.130755543708801270e+00
6.837987303733825684e-01,-6.566093444824218750e+00,-1.045589685440063477e+00
6.846696138381958008e-01,-6.574456214904785156e+00,-8.116060495376586914e-01
6.855900883674621582e-01,-6.583294391632080078e+00,-5.790776014328002930e-01
6.864510178565979004e-01,-6.591561794281005859e+00,-3.473168015480041504e-01
6.873254179954528809e-01,-6.599957942962646484e+00,-1.158255413174629211e-01
6.882179379463195801e-01,-6.608528614044189453e+00,1.159759536385536194e-01
6.890539526939392090e-01,-6.616556167602539062e+00,3.486337959766387939e-01
6.899530887603759766e-01,-6.625190258026123047e+00,5.827628374099731445e-01
6.908419728279113770e-01,-6.633725166320800781e+00,8.189227581024169922e-01
6.918687224388122559e-01,-6.643584728240966797e+00,1.057929396629333496e+00
6.926667690277099609e-01,-6.651247978210449219e+00,1.299861550331115723e+00
4.690519571304321289e-01,-3.953867673873901367e+00,-1.066862821578979492e+00
5.574590563774108887e-01,-4.699094295501708984e+00,-1.092476963996887207e+00
6.864744424819946289e-01,-5.786627769470214844e+00,-1.132691979408264160e+00
8.049235343933105469e-01,-6.785092830657958984e+00,-1.082187056541442871e+00
8.059735298156738281e-01,-6.793943881988525391e+00,-8.400395512580871582e-01
8.070054054260253906e-01,-6.802642345428466797e+00,-5.993264913558959961e-01
8.080407977104187012e-01,-6.811369895935058594e+00,-3.594713509082794189e-01
8.090708255767822266e-01,-6.820052623748779297e+00,-1.198790371417999268e-01
8.101017475128173828e-01,-6.828742980957031250e+00,1.200317889451980591e-01
8.111433982849121094e-01,-6.837523460388183594e+00,3.608515858650207520e-01
8.121789097785949707e-01,-6.846252441406250000e+00,6.031686067581176758e-01
8.131818175315856934e-01,-6.854706287384033203e+00,8.475525379180908203e-01
8.143244981765747070e-01,-6.864338397979736328e+00,1.094826340675354004e+00
8.154249191284179688e-01,-6.873614311218261719e+00,1.345462083816528320e+00
5.254235267639160156e-01,-3.945487260818481445e+00,-1.066521644592285156e+00
6.231436133384704590e-01,-4.679282665252685547e+00,-1.089833021163940430e+00
7.649666666984558105e-01,-5.744254112243652344e+00,-1.126425504684448242e+00
9.366834759712219238e-01,-7.033702373504638672e+00,-1.123862266540527344e+00
9.379411339759826660e-01,-7.043146610260009766e+00,-8.724229335784912109e-01
9.391517639160156250e-01,-7.052237033843994141e+00,-6.224368214607238770e-01
9.403401017189025879e-01,-7.061160564422607422e+00,-3.733261823654174805e-01
9.415442943572998047e-01,-7.070202827453613281e+00,-1.245001703500747681e-01
9.427633285522460938e-01,-7.079357147216796875e+00,1.246613636612892151e-01
9.439685344696044922e-01,-7.088407039642333984e+00,3.747667074203491211e-01
9.451407194137573242e-01,-7.097208976745605469e+00,6.264060735702514648e-01
9.464471340179443359e-01,-7.107018947601318359e+00,8.803347349166870117e-01
9.477328658103942871e-01,-7.116673946380615234e+00,1.137119650840759277e+00
9.489430189132690430e-01,-7.125761032104492188e+00,1.397333621978759766e+00
5.813269615173339844e-01,-3.934108018875122070e+00,-1.065585732460021973e+00
6.925219297409057617e-01,-4.686615943908691406e+00,-1.093737602233886719e+00
8.488766551017761230e-01,-5.744740486145019531e+00,-1.128787994384765625e+00
1.075078606605529785e+00,-7.275553703308105469e+00,-1.164845228195190430e+00
1.076557397842407227e+00,-7.285561561584472656e+00,-9.042665958404541016e-01
1.077882170677185059e+00,-7.294527053833007812e+00,-6.451171636581420898e-01
1.079275727272033691e+00,-7.303957939147949219e+00,-3.869400620460510254e-01
1.080659747123718262e+00,-7.313323497772216797e+00,-1.290404796600341797e-01
1.082031846046447754e+00,-7.322609901428222656e+00,1.292043179273605347e-01
1.083488583564758301e+00,-7.332468509674072266e+00,3.884504735469818115e-01
1.084801435470581055e+00,-7.341352939605712891e+00,6.492583751678466797e-01
1.086239099502563477e+00,-7.351082324981689453e+00,9.123988747596740723e-01
1.087625265121459961e+00,-7.360463142395019531e+00,1.178439617156982422e+00
6.376296281814575195e-01,-3.925738096237182617e+00,-1.065681457519531250e+00
7.580146193504333496e-01,-4.666920185089111328e+00,-1.091561436653137207e+00
9.338301420211791992e-01,-5.749375820159912109e+00,-1.132209181785583496e+00
1.202295184135437012e+00,-7.402252674102783203e+00,-1.187763929367065430e+00
1.228028416633605957e+00,-7.560686588287353516e+00,-9.404997825622558594e-01
1.229693055152893066e+00,-7.570935249328613281e+00,-6.710501909255981445e-01
1.231237649917602539e+00,-7.580444812774658203e+00,-4.024798572063446045e-01
1.232818365097045898e+00,-7.590177536010742188e+00,-1.342230439186096191e-01
1.234439373016357422e+00,-7.600157260894775391e+00,1.343995332717895508e-01
1.235945224761962891e+00,-7.609428405761718750e+00,4.040187299251556396e-01
1.237542033195495605e+00,-7.619259834289550781e+00,6.753334403038024902e-01
1.239101529121398926e+00,-7.628861427307128906e+00,9.489802718162536621e-01
1.240875959396362305e+00,-7.639785766601562500e+00,1.225878357887268066e+00
6.939419507980346680e-01,-3.917296886444091797e+00,-1.065977215766906738e+00
8.232881426811218262e-01,-4.647454738616943359e+00,-1.089653134346008301e+00
1.011185169219970703e+00,-5.708132266998291016e+00,-1.126821994781494141e+00
1.309218883514404297e+00,-7.390530109405517578e+00,-1.188768029212951660e+00
1.391001939773559570e+00,-7.852194786071777344e+00,-9.791378378868103027e-01
1.392813563346862793e+00,-7.862421035766601562e+00,-6.985815167427062988e-01
1.394605636596679688e+00,-7.872537612915039062e+00,-4.190053045749664307e-01
1.396398901939392090e+00,-7.882660388946533203e+00,-1.397343873977661133e-01
1.398197293281555176e+00,-7.892812728881835938e+00,1.399143636226654053e-01
1.399988532066345215e+00,-7.902924060821533203e+00,4.206225872039794922e-01
1.401744484901428223e+00,-7.912836074829101562e+00,7.030609250068664551e-01
1.403703331947326660e+00,-7.923893928527832031e+00,9.880784153938293457e-01
1.405639886856079102e+00,-7.934825420379638672e+00,1.276318073272705078e+00
7.508637309074401855e-01,-3.911801099777221680e+00,-1.067296981811523438e+00
8.890711665153503418e-01,-4.631825447082519531e+00,-1.088860750198364258e+00
1.097324609756469727e+00,-5.716771125793457031e+00,-1.131511926651000977e+00
1.403119206428527832e+00,-7.309879302978515625e+00,-1.178905010223388672e+00
1.571056842803955078e+00,-8.184789657592773438e+00,-1.023310422897338867e+00
1.573030710220336914e+00,-8.195073127746582031e+00,-7.300636768341064453e-01
1.575105428695678711e+00,-8.205882072448730469e+00,-4.379022121429443359e-01
1.577134370803833008e+00,-8.216451644897460938e+00,-1.460366547107696533e-01
1.579121232032775879e+00,-8.226803779602050781e+00,1.462206393480300903e-01
1.581231474876403809e+00,-8.237797737121582031e+00,4.396053254604339600e-01
1.583393573760986328e+00,-8.249061584472656250e+00,7.348732352256774902e-01
1.585236668586730957e+00,-8.258663177490234375e+00,1.032546520233154297e+00
1.587641119956970215e+00,-8.271189689636230469e+00,1.333940863609313965e+00
8.079078197479248047e-01,-3.906143426895141602e+00,-1.068798899650573730e+00
9.607357978820800781e-01,-4.645049571990966797e+00,-1.095090031623840332e+00
1.174949407577514648e+00,-5.680747985839843750e+00,-1.127595186233520508e+00
1.510749697685241699e+00,-7.304305076599121094e+00,-1.181372404098510742e+00
1.766098856925964355e+00,-8.538888931274414062e+00,-1.070632815361022949e+00
1.768352746963500977e+00,-8.549786567687988281e+00,-7.638400793075561523e-01
1.770630478858947754e+00,-8.560798645019531250e+00,-4.581476747989654541e-01
1.772915124893188477e+00,-8.571845054626464844e+00,-1.527886837720870972e-01
1.775220513343811035e+00,-8.582991600036621094e+00,1.529873609542846680e-01
1.777566194534301758e+00,-8.594332695007324219e+00,4.599422812461853027e-01
1.779914379119873047e+00,-8.605685234069824219e+00,7.688341736793518066e-01
1.782206773757934570e+00,-8.616768836975097656e+00,1.080397605895996094e+00
8.606775999069213867e-01,-3.880419492721557617e+00,-1.065022110939025879e+00
1.026721358299255371e+00,-4.629038333892822266e+00,-1.094667911529541016e+00
1.252147912979125977e+00,-5.645388126373291016e+00,-1.124018788337707520e+00
1.618753194808959961e+00,-7.298251628875732422e+00,-1.184019565582275391e+00
1.977693438529968262e+00,-8.916556358337402344e+00,-1.121420383453369141e+00
1.980258464813232422e+00,-8.928120613098144531e+00,-8.000909686088562012e-01
1.982788801193237305e+00,-8.939529418945312500e+00,-4.798858165740966797e-01
1.985362529754638672e+00,-8.951132774353027344e+00,-1.600394248962402344e-01
1.987974882125854492e+00,-8.962910652160644531e+00,1.602500081062316895e-01
1.990570425987243652e+00,-8.974613189697265625e+00,4.817691743373870850e-01
1.993107557296752930e+00,-8.986051559448242188e+00,8.052824735641479492e-01
1.995912790298461914e+00,-8.998699188232421875e+00,1.131751298904418945e+00
9.184660911560058594e-01,-3.877583503723144531e+00,-1.067742586135864258e+00
1.086930513381958008e+00,-4.588807106018066406e+00,-1.088721632957458496e+00
1.340037345886230469e+00,-5.657374382019042969e+00,-1.130108475685119629e+00
1.728542804718017578e+00,-7.297568321228027344e+00,-1.187800884246826172e+00
2.398482799530029297e+00,-1.012592315673828125e+01,-1.277707219123840332e+00
3.426913499832153320e+00,-1.446775627136230469e+01,-1.300786256790161133e+00
3.431004047393798828e+00,-1.448502635955810547e+01,-7.801318168640136719e-01
3.435041427612304688e+00,-1.450207042694091797e+01,-2.601383924484252930e-01
3.439045667648315430e+00,-1.451897525787353516e+01,2.604416310787200928e-01
3.443276643753051758e+00,-1.453683853149414062e+01,7.829223275184631348e-01
9.716464877128601074e-01,-3.855226993560791016e+00,-1.065306901931762695e+00
1.153489947319030762e+00,-4.576732158660888672e+00,-1.089662313461303711e+00
1.418097615242004395e+00,-5.626622676849365234e+00,-1.127904772758483887e+00
1.821238756179809570e+00,-7.226176261901855469e+00,-1.180302858352661133e+00
2.541835308074951172e+00,-1.008530616760253906e+01,-1.277042150497436523e+00
3.640566349029541016e+00,-1.444476985931396484e+01,-1.303271174430847168e+00
3.644795179367065430e+00,-1.446154880523681641e+01,-7.815970778465270996e-01
3.649085760116577148e+00,-1.447857284545898438e+01,-2.606271207332611084e-01
3.653449535369873047e+00,-1.449588680267333984e+01,2.609387934207916260e-01
3.657855033874511719e+00,-1.451336669921875000e+01,7.843976616859436035e-01
1.025449395179748535e+00,-3.836161851882934570e+00,-1.063985586166381836e+00
1.221108198165893555e+00,-4.568112850189208984e+00,-1.091659784317016602e+00
1.497137784957885742e+00,-5.600727081298828125e+00,-1.126893997192382812e+00
1.932839155197143555e+00,-7.230667591094970703e+00,-1.185433745384216309e+00
2.687261819839477539e+00,-1.005292987823486328e+01,-1.277682065963745117e+00
3.855080366134643555e+00,-1.442168903350830078e+01,-1.306033372879028320e+00
3.859695672988891602e+00,-1.443895339965820312e+01,-7.832815051078796387e-01
3.864241123199462891e+00,-1.445595836639404297e+01,-2.611889243125915527e-01
3.868728876113891602e+00,-1.447274589538574219e+01,2.614922523498535156e-01
3.873520612716674805e+00,-1.449067211151123047e+01,7.860870957374572754e-01
1.084362745285034180e+00,-3.835649251937866211e+00,-1.068038821220397949e+00
1.288911819458007812e+00,-4.559188365936279297e+00,-1.093823671340942383e+00
1.576083660125732422e+00,-5.574983119964599609e+00,-1.126137852668762207e+00
2.026112794876098633e+00,-7.166842937469482422e+00,-1.179603695869445801e+00
2.832817554473876953e+00,-1.002034950256347656e+01,-1.278563737869262695e+00
4.070558071136474609e+00,-1.439853286743164062e+01,-1.309078693389892578e+00
4.075317382812500000e+00,-1.441536712646484375e+01,-7.850859761238098145e-01
4.080118656158447266e+00,-1.443235111236572266e+01,-2.617907524108886719e-01
4.084963321685791016e+00,-1.444948768615722656e+01,2.621015906333923340e-01
4.089905261993408203e+00,-1.446696853637695312e+01,7.878962755203247070e-01
1.139059066772460938e+00,-3.819440364837646484e+00,-1.067955970764160156e+00
1.350232124328613281e+00,-4.527536392211914062e+00,-1.090754985809326172e+00
1.656287550926208496e+00,-5.553787231445312500e+00,-1.126529693603515625e+00
2.140059232711791992e+00,-7.175948619842529297e+00,-1.186022639274597168e+00
2.980938434600830078e+00,-9.995545387268066406e+00,-1.280711889266967773e+00
4.287370681762695312e+00,-1.437621498107910156e+01,-1.312494516372680664e+00
4.292370796203613281e+00,-1.439297962188720703e+01,-7.871320843696594238e-01
4.297418117523193359e+00,-1.440990543365478516e+01,-2.624724805355072021e-01
4.302538394927978516e+00,-1.442707347869873047e+01,2.627851963043212891e-01
4.307600021362304688e+00,-1.444404697418212891e+01,7.899249196052551270e-01
1.193746566772460938e+00,-3.803194284439086914e+00,-1.068081498146057129e+00
1.419290900230407715e+00,-4.521762847900390625e+00,-1.094146132469177246e+00
1.736534595489501953e+00,-5.532479286193847656e+00,-1.127133965492248535e+00
2.234469175338745117e+00,-7.118864536285400391e+00,-1.181753039360046387e+00
3.129421710968017578e+00,-9.970121383666992188e+00,-1.283062100410461426e+00
4.504723548889160156e+00,-1.435173892974853516e+01,-1.316011786460876465e+00
4.510145664215087891e+00,-1.436901283264160156e+01,-7.892709970474243164e-01
4.515451431274414062e+00,-1.438591670989990234e+01,-2.631857991218566895e-01
4.520667552947998047e+00,-1.440253543853759766e+01,2.634898424148559570e-01
4.526100635528564453e+00,-1.441984462738037109e+01,7.920631766319274902e-01
1.243675708770751953e+00,-3.772434234619140625e+00,-1.064333200454711914e+00
1.481556415557861328e+00,-4.493996620178222656e+00,-1.092446804046630859e+00
1.818290591239929199e+00,-5.515410423278808594e+00,-1.128843069076538086e+00
2.330327033996582031e+00,-7.068567752838134766e+00,-1.178819775581359863e+00
3.280918836593627930e+00,-9.951992034912109375e+00,-1.286640644073486328e+00
5.417416572570800781e+00,-1.643261909484863281e+01,-1.513777494430541992e+00
8.698431015014648438e+00,-2.638490104675292969e+01,-1.455977797508239746e+00
8.707700729370117188e+00,-2.641301918029785156e+01,-4.854483306407928467e-01
8.716962814331054688e+00,-2.644111061096191406e+01,4.859646558761596680e-01
1.299238920211791992e+00,-3.759165763854980469e+00,-1.065727353096008301e+00
1.543698310852050781e+00,-4.466474533081054688e+00,-1.091016054153442383e+00
1.900202512741088867e+00,-5.497969627380371094e+00,-1.130724430084228516e+00
2.447271585464477539e+00,-7.080837726593017578e+00,-1.186586260795593262e+00
3.432972908020019531e+00,-9.932826042175292969e+00,-1.290383458137512207e+00
5.621524333953857422e+00,-1.626509475708007812e+01,-1.505603194236755371e+00
8.586733818054199219e+00,-2.484451293945312500e+01,-1.377616763114929199e+00
8.595871925354003906e+00,-2.487095260620117188e+01,-4.593207538127899170e-01
8.605233192443847656e+00,-2.489803695678710938e+01,4.598209559917449951e-01
1.355929970741271973e+00,-3.748543262481689453e+00,-1.068108558654785156e+00
1.606992840766906738e+00,-4.442620754241943359e+00,-1.090696096420288086e+00
1.970668196678161621e+00,-5.448020935058593750e+00,-1.126137614250183105e+00
2.545060873031616211e+00,-7.035961627960205078e+00,-1.185049295425415039e+00
3.544926166534423828e+00,-9.800144195556640625e+00,-1.279607176780700684e+00
5.829008579254150391e+00,-1.611461639404296875e+01,-1.499243497848510742e+00
8.478482246398925781e+00,-2.343923187255859375e+01,-1.306289911270141602e+00
8.487458229064941406e+00,-2.346404647827148438e+01,-4.355367720127105713e-01
8.496689796447753906e+00,-2.348956871032714844e+01,4.360105097293853760e-01
1.407667398452758789e+00,-3.724063158035278320e+00,-1.066765069961547852e+00
1.671569347381591797e+00,-4.422230720520019531e+00,-1.091452360153198242e+00
2.055828571319580078e+00,-5.438810348510742188e+00,-1.130200505256652832e+00
2.644815444946289062e+00,-6.997007846832275391e+00,-1.184743165969848633e+00
3.702750205993652344e+00,-9.795833587646484375e+00,-1.285832762718200684e+00
6.161148548126220703e+00,-1.629966545104980469e+01,-1.524508237838745117e+00
8.374629020690917969e+00,-2.215555191040039062e+01,-1.241302609443664551e+00
8.383584022521972656e+00,-2.217924118041992188e+01,-4.138733744621276855e-01
8.392355918884277344e+00,-2.220244789123535156e+01,4.143064320087432861e-01
1.459325671195983887e+00,-3.699741601943969727e+00,-1.065672397613525391e+00
1.736185908317565918e+00,-4.401648998260498047e+00,-1.092394232749938965e+00
2.127585649490356445e+00,-5.393941402435302734e+00,-1.127089500427246094e+00
