-2.725850582122802734e+00,-3.446943998336791992e+00,5.395767092704772949e-01
-2.729694843292236328e+00,-3.451805114746093750e+00,6.970019340515136719e-01
-2.733436584472656250e+00,-3.456536769866943359e+00,8.565814495086669922e-01
-2.736882686614990234e+00,-3.460894584655761719e+00,1.018656253814697266e+00
-2.435656547546386719e+00,-3.172262668609619141e+00,-1.071650147438049316e+00
-2.671752691268920898e+00,-3.479760408401489258e+00,-1.012849450111389160e+00
-2.675554037094116211e+00,-3.484711647033691406e+00,-8.539856076240539551e-01
-2.679052591323852539e+00,-3.489268302917480469e+00,-6.967521905899047852e-01
-2.682381153106689453e+00,-3.493603229522705078e+00,-5.408151149749755859e-01
-2.685642004013061523e+00,-3.497850418090820312e+00,-3.858197927474975586e-01
-2.688909292221069336e+00,-3.502105712890625000e+00,-2.313963323831558228e-01
-2.692223310470581055e+00,-3.506421804428100586e+00,-7.716442644596099854e-02
-2.695591926574707031e+00,-3.510809183120727539e+00,7.726097106933593750e-02
-2.698990583419799805e+00,-3.515235900878906250e+00,2.322638928890228271e-01
-2.702363491058349609e+00,-3.519628763198852539e+00,3.882219791412353516e-01
-2.705620765686035156e+00,-3.523871421813964844e+00,5.455006361007690430e-01
-2.708645820617675781e+00,-3.527811288833618164e+00,7.044486403465270996e-01
-2.712285041809082031e+00,-3.532551050186157227e+00,8.657094836235046387e-01
-2.715647697448730469e+00,-3.536930561065673828e+00,1.029489874839782715e+00
-2.385567903518676758e+00,-3.200842618942260742e+00,-1.069660425186157227e+00
-2.655193328857421875e+00,-3.562613248825073242e+00,-1.025798201560974121e+00
-2.658913135528564453e+00,-3.567604541778564453e+00,-8.648844957351684570e-01
-2.662343025207519531e+00,-3.572206258773803711e+00,-7.056319117546081543e-01
-2.665614128112792969e+00,-3.576595544815063477e+00,-5.476999878883361816e-01
-2.668830871582031250e+00,-3.580911397933959961e+00,-3.907279968261718750e-01
-2.672065734863281250e+00,-3.585251808166503906e+00,-2.343390136957168579e-01
-2.675359487533569336e+00,-3.589671134948730469e+00,-7.814573496580123901e-02
-2.678719758987426758e+00,-3.594180107116699219e+00,7.824389636516571045e-02
-2.682122945785522461e+00,-3.598746061325073242e+00,2.352210134267807007e-01
-2.685511589050292969e+00,-3.603292942047119141e+00,3.931701183319091797e-01
-2.688797235488891602e+00,-3.607701301574707031e+00,5.524633526802062988e-01
-2.691862821578979492e+00,-3.611814498901367188e+00,7.134558558464050293e-01
-2.695552349090576172e+00,-3.616765260696411133e+00,8.768023848533630371e-01
-2.698977470397949219e+00,-3.621360778808593750e+00,1.042713642120361328e+00
-2.335663080215454102e+00,-3.229333639144897461e+00,-1.067900061607360840e+00
-2.638352394104003906e+00,-3.647837877273559570e+00,-1.039357304573059082e+00
-2.641998291015625000e+00,-3.652878761291503906e+00,-8.762999176979064941e-01
-2.645364522933959961e+00,-3.657533168792724609e+00,-7.149341106414794922e-01
-2.648583412170410156e+00,-3.661983728408813477e+00,-5.549136400222778320e-01
-2.651758432388305664e+00,-3.666373491287231445e+00,-3.958710432052612305e-01
-2.654961824417114258e+00,-3.670802593231201172e+00,-2.374225854873657227e-01
-2.658235073089599609e+00,-3.675328254699707031e+00,-7.917404919862747192e-02
-2.661585092544555664e+00,-3.679960012435913086e+00,7.927382737398147583e-02
-2.664988994598388672e+00,-3.684666156768798828e+00,2.383192628622055054e-01
-2.668388366699218750e+00,-3.689366340637207031e+00,3.983536660671234131e-01
-2.671696662902832031e+00,-3.693940401077270508e+00,5.597561597824096680e-01
-2.674794673919677734e+00,-3.698223829269409180e+00,7.228878736495971680e-01
-2.678524971008300781e+00,-3.703381538391113281e+00,8.884151577949523926e-01
-2.682001113891601562e+00,-3.708187818527221680e+00,1.056552410125732422e+00
-2.286265850067138672e+00,-3.258241415023803711e+00,-1.066528677940368652e+00
-2.617192745208740234e+00,-3.729857683181762695e+00,-1.051945328712463379e+00
-2.620770692825317383e+00,-3.734956502914428711e+00,-8.868999481201171875e-01
-2.623543977737426758e+00,-3.738909006118774414e+00,-7.234262228012084961e-01
-2.626863718032836914e+00,-3.743640184402465820e+00,-5.615322589874267578e-01
-2.630379915237426758e+00,-3.748650789260864258e+00,-4.006485939025878906e-01
-2.633549690246582031e+00,-3.753168344497680664e+00,-2.402871996164321899e-01
-2.636796951293945312e+00,-3.757796049118041992e+00,-8.012933284044265747e-02
-2.640129089355468750e+00,-3.762544870376586914e+00,8.023059368133544922e-02
-2.643133163452148438e+00,-3.766826391220092773e+00,2.411616295576095581e-01
-2.646377563476562500e+00,-3.771450042724609375e+00,4.030853211879730225e-01
-2.650233983993530273e+00,-3.776945829391479492e+00,5.665279626846313477e-01
-2.653347730636596680e+00,-3.781383514404296875e+00,7.316443920135498047e-01
-2.657098054885864258e+00,-3.786728143692016602e+00,8.991936445236206055e-01
-2.660602807998657227e+00,-3.791722774505615234e+00,1.069393396377563477e+00
-2.252114772796630859e+00,-3.309312582015991211e+00,-1.072584271430969238e+00
-2.599590063095092773e+00,-3.819901227951049805e+00,-1.066737174987792969e+00
-2.602428913116455078e+00,-3.824072599411010742e+00,-8.991240262985229492e-01
-2.605829477310180664e+00,-3.829069614410400391e+00,-7.335791587829589844e-01
-2.609103918075561523e+00,-3.833881139755249023e+00,-5.694080591201782227e-01
-2.612582206726074219e+00,-3.838992118835449219e+00,-4.062657654285430908e-01
-2.615722894668579102e+00,-3.843607425689697266e+00,-2.436553686857223511e-01
-2.618948221206665039e+00,-3.848346710205078125e+00,-8.125253021717071533e-02
-2.622266530990600586e+00,-3.853222846984863281e+00,8.135547488927841187e-02
-2.625266075134277344e+00,-3.857630252838134766e+00,2.445443123579025269e-01
-2.628512620925903320e+00,-3.862400770187377930e+00,4.087429940700531006e-01
-2.631687402725219727e+00,-3.867065906524658203e+00,5.743367075920104980e-01
-2.635507106781005859e+00,-3.872678756713867188e+00,7.419338822364807129e-01
-2.638301372528076172e+00,-3.876784563064575195e+00,9.115177989006042480e-01
-2.641697645187377930e+00,-3.881775140762329102e+00,1.084015965461730957e+00
-2.202485561370849609e+00,-3.338120460510253906e+00,-1.071593761444091797e+00
-2.577412843704223633e+00,-3.906366109848022461e+00,-1.080470204353332520e+00
-2.580199241638183594e+00,-3.910589218139648438e+00,-9.106892943382263184e-01
-2.583549022674560547e+00,-3.915666103363037109e+00,-7.430087327957153320e-01
-2.586779117584228516e+00,-3.920561790466308594e+00,-5.767237544059753418e-01
-2.590216875076293945e+00,-3.925772190093994141e+00,-4.114837050437927246e-01
-2.593325614929199219e+00,-3.930483579635620117e+00,-2.467842847108840942e-01
-2.596524000167846680e+00,-3.935330867767333984e+00,-8.229595422744750977e-02
-2.599820137023925781e+00,-3.940326929092407227e+00,8.240043371915817261e-02
-2.602804899215698242e+00,-3.944850683212280273e+00,2.476863563060760498e-01
-2.606041431427001953e+00,-3.949756145477294922e+00,4.139975905418395996e-01
-2.609211921691894531e+00,-3.954561233520507812e+00,5.817251205444335938e-01
-2.613028526306152344e+00,-3.960345745086669922e+00,7.514868378639221191e-01
-2.615831613540649414e+00,-3.964594125747680664e+00,9.232658147811889648e-01
-2.619238376617431641e+00,-3.969757318496704102e+00,1.098003745079040527e+00
-2.152689218521118164e+00,-3.366492748260498047e+00,-1.070700764656066895e+00
-2.546208858489990234e+00,-3.981899976730346680e+00,-1.091170072555541992e+00
-2.561640262603759766e+00,-4.006032466888427734e+00,-9.242824912071228027e-01
-2.564946889877319336e+00,-4.011203289031982422e+00,-7.540935277938842773e-01
-2.568139314651489258e+00,-4.016195774078369141e+00,-5.853244662284851074e-01
-2.571543216705322266e+00,-4.021519184112548828e+00,-4.176187217235565186e-01
-2.574624538421630859e+00,-4.026338100433349609e+00,-2.504632472991943359e-01
-2.577800750732421875e+00,-4.031304836273193359e+00,-8.352281898260116577e-02
-2.581078529357910156e+00,-4.036430835723876953e+00,8.362902700901031494e-02
-2.584052324295043945e+00,-4.041081905364990234e+00,2.513804137706756592e-01
-2.587280988693237305e+00,-4.046130657196044922e+00,4.201745092868804932e-01
-2.590448617935180664e+00,-4.051084518432617188e+00,5.904091596603393555e-01
-2.594264030456542969e+00,-4.057051181793212891e+00,7.627127766609191895e-01
-2.597075939178466797e+00,-4.061448574066162109e+00,9.370682835578918457e-01
-2.600492715835571289e+00,-4.066792011260986328e+00,1.114433288574218750e+00
-2.103114604949951172e+00,-3.395063638687133789e+00,-1.070103883743286133e+00
-2.487522602081298828e+00,-4.015614509582519531e+00,-1.090540289878845215e+00
-2.538243532180786133e+00,-4.097493171691894531e+00,-9.369062781333923340e-01
-2.541507959365844727e+00,-4.102763175964355469e+00,-7.643892168998718262e-01
-2.544662237167358398e+00,-4.107855319976806641e+00,-5.933138728141784668e-01
-2.548029422760009766e+00,-4.113290786743164062e+00,-4.233180880546569824e-01
-2.551079988479614258e+00,-4.118215560913085938e+00,-2.538811266422271729e-01
-2.554227113723754883e+00,-4.123295783996582031e+00,-8.466259390115737915e-02
-2.557478904724121094e+00,-4.128545284271240234e+00,8.477038145065307617e-02
-2.560432195663452148e+00,-4.133312702178955078e+00,2.548118531703948975e-01
-2.563641071319580078e+00,-4.138493061065673828e+00,4.259117543697357178e-01
-2.566793441772460938e+00,-4.143581390380859375e+00,5.984739661216735840e-01
-2.570590496063232422e+00,-4.149711132049560547e+00,7.731361389160156250e-01
-2.573395729064941406e+00,-4.154239654541015625e+00,9.498814940452575684e-01
-2.576803445816040039e+00,-4.159740924835205078e+00,1.129681348800659180e+00
-2.053446769714355469e+00,-3.423377752304077148e+00,-1.069654703140258789e+00
-2.449071645736694336e+00,-4.082939147949218750e+00,-1.099191427230834961e+00
-2.518609285354614258e+00,-4.198868274688720703e+00,-9.517455101013183594e-01
-2.521840333938598633e+00,-4.204254627227783203e+00,-7.764935493469238281e-01
-2.524964094161987305e+00,-4.209462165832519531e+00,-6.027076840400695801e-01
-2.528301477432250977e+00,-4.215025901794433594e+00,-4.300197362899780273e-01
-2.531326532363891602e+00,-4.220069408416748047e+00,-2.579002082347869873e-01
-2.534449815750122070e+00,-4.225276470184326172e+00,-8.600287139415740967e-02
-2.537679433822631836e+00,-4.230660438537597656e+00,8.611246198415756226e-02
-2.540614843368530273e+00,-4.235554218292236328e+00,2.588465213775634766e-01
-2.543805837631225586e+00,-4.240874290466308594e+00,4.326567649841308594e-01
-2.546942949295043945e+00,-4.246104240417480469e+00,6.079540252685546875e-01
-2.549912691116333008e+00,-4.251055240631103516e+00,7.851372361183166504e-01
-2.553519487380981445e+00,-4.257068157196044922e+00,9.649375677108764648e-01
-2.556916713714599609e+00,-4.262731552124023438e+00,1.147594451904296875e+00
-2.003862380981445312e+00,-3.451764106750488281e+00,-1.069452643394470215e+00
-2.389898777008056641e+00,-4.116733074188232422e+00,-1.098967432975769043e+00
-2.927762031555175781e+00,-5.043232440948486328e+00,-1.133520245552062988e+00
-3.774688720703125000e+00,-6.502110481262207031e+00,-1.190789222717285156e+00
-4.363077163696289062e+00,-7.515642166137695312e+00,-1.067033171653747559e+00
-4.368524551391601562e+00,-7.525025844573974609e+00,-7.612509131431579590e-01
-4.373416900634765625e+00,-7.533452510833740234e+00,-4.565179646015167236e-01
-4.378479003906250000e+00,-7.542172908782958984e+00,-1.522250026464462280e-01
-4.383725166320800781e+00,-7.551209449768066406e+00,1.524073928594589233e-01
-4.388479232788085938e+00,-7.559399127960205078e+00,4.580902755260467529e-01
-4.393661022186279297e+00,-7.568324565887451172e+00,7.656311392784118652e-01
-4.398748874664306641e+00,-7.577088832855224609e+00,1.075756907463073730e+00
-1.954246520996093750e+00,-3.480073690414428711e+00,-1.069447755813598633e+00
-2.330692291259765625e+00,-4.150439262390136719e+00,-1.098947167396545410e+00
-2.855178594589233398e+00,-5.084431171417236328e+00,-1.133478522300720215e+00
-3.680987358093261719e+00,-6.555010795593261719e+00,-1.190706253051757812e+00
-4.207770824432373047e+00,-7.493093490600585938e+00,-1.055172801017761230e+00
-4.213028430938720703e+00,-7.502456665039062500e+00,-7.527902126312255859e-01
-4.217750072479248047e+00,-7.510864734649658203e+00,-4.514445066452026367e-01
-4.222635269165039062e+00,-7.519564151763916016e+00,-1.505333930253982544e-01
-4.227697372436523438e+00,-7.528578281402587891e+00,1.507138460874557495e-01
-4.232283592224121094e+00,-7.536745548248291016e+00,4.530000984668731689e-01
-4.237280368804931641e+00,-7.545643806457519531e+00,7.571235895156860352e-01
-4.242187023162841797e+00,-7.554381370544433594e+00,1.063803434371948242e+00
-1.904583454132080078e+00,-3.508320093154907227e+00,-1.069640874862670898e+00
-2.252579450607299805e+00,-4.149342536926269531e+00,-1.090008139610290527e+00
-2.782554864883422852e+00,-5.125578880310058594e+00,-1.133656620979309082e+00
-3.587259769439697266e+00,-6.607877731323242188e+00,-1.190860509872436523e+00
-4.060774326324462891e+00,-7.480111122131347656e+00,-1.045052647590637207e+00
-4.065855979919433594e+00,-7.489471912384033203e+00,-7.455716133117675781e-01
-4.070418357849121094e+00,-7.497875690460205078e+00,-4.471161663532257080e-01
-4.075134754180908203e+00,-7.506563186645507812e+00,-1.490901708602905273e-01
-4.080019950866699219e+00,-7.515561580657958984e+00,1.492688804864883423e-01
-4.084443092346191406e+00,-7.523709774017333984e+00,4.486567080020904541e-01
-4.089260578155517578e+00,-7.532583236694335938e+00,7.498633265495300293e-01
-4.093987941741943359e+00,-7.541291236877441406e+00,1.053600192070007324e+00
-1.854833960533142090e+00,-3.536470890045166016e+00,-1.070019602775573730e+00
-2.193726062774658203e+00,-4.182610511779785156e+00,-1.090387225151062012e+00
-2.709820985794067383e+00,-5.166609287261962891e+00,-1.134036779403686523e+00
-3.493402004241943359e+00,-6.660604000091552734e+00,-1.191229343414306641e+00
-3.916477441787719727e+00,-7.467249870300292969e+00,-1.035317778587341309e+00
-3.921389102935791016e+00,-7.476614475250244141e+00,-7.386283874511718750e-01
-3.925795555114746094e+00,-7.485015869140625000e+00,-4.429531097412109375e-01
-3.930347442626953125e+00,-7.493694782257080078e+00,-1.477021127939224243e-01
-3.935056447982788086e+00,-7.502672672271728516e+00,1.478790789842605591e-01
-3.939316272735595703e+00,-7.510794639587402344e+00,4.444786310195922852e-01
-3.943951845169067383e+00,-7.519633293151855469e+00,7.428783178329467773e-01
-3.948497056961059570e+00,-7.528298854827880859e+00,1.043782114982604980e+00
-3.954013586044311523e+00,-7.538816928863525391e+00,1.348295092582702637e+00
-1.805121779441833496e+00,-3.564810991287231445e+00,-1.070667147636413574e+00
-2.134922027587890625e+00,-4.216111183166503906e+00,-1.091042518615722656e+00
-2.637153625488281250e+00,-5.207933902740478516e+00,-1.134705781936645508e+00
-3.399630546569824219e+00,-6.713696956634521484e+00,-1.191900014877319336e+00
-3.770552873611450195e+00,-7.446206092834472656e+00,-1.024812340736389160e+00
-3.775295972824096680e+00,-7.455572605133056641e+00,-7.311363220214843750e-01
-3.779547929763793945e+00,-7.463969707489013672e+00,-4.384612143039703369e-01
-3.783932209014892578e+00,-7.472628116607666016e+00,-1.462043821811676025e-01
-3.788461685180664062e+00,-7.481573104858398438e+00,1.463793963193893433e-01
-3.792552232742309570e+00,-7.489651203155517578e+00,4.399698376655578613e-01
-3.796997785568237305e+00,-7.498430252075195312e+00,7.353391647338867188e-01
-3.801349878311157227e+00,-7.507024765014648438e+00,1.033182740211486816e+00
-3.806630134582519531e+00,-7.517452239990234375e+00,1.334592700004577637e+00
-1.755182504653930664e+00,-3.592870712280273438e+00,-1.071439504623413086e+00
-2.075858592987060547e+00,-4.249296665191650391e+00,-1.091829419136047363e+00
-2.564173698425292969e+00,-5.248881340026855469e+00,-1.135514497756958008e+00
-3.305476903915405273e+00,-6.766333580017089844e+00,-1.192722916603088379e+00
-3.631587505340576172e+00,-7.433884620666503906e+00,-1.015858530998229980e+00
-3.636171817779541016e+00,-7.443268775939941406e+00,-7.247515320777893066e-01
-3.640276670455932617e+00,-7.451671600341796875e+00,-4.346334040164947510e-01
-3.644501686096191406e+00,-7.460319995880126953e+00,-1.449280977249145508e-01
-3.648858785629272461e+00,-7.469238758087158203e+00,1.451013535261154175e-01
-3.652786731719970703e+00,-7.477279663085937500e+00,4.361270666122436523e-01
-3.657048225402832031e+00,-7.486002922058105469e+00,7.289125919342041016e-01
-3.661212444305419922e+00,-7.494527339935302734e+00,1.024145483970642090e+00
-3.666262626647949219e+00,-7.504864692687988281e+00,1.322906136512756348e+00
-1.693588495254516602e+00,-3.596402168273925781e+00,-1.065154552459716797e+00
-2.016884088516235352e+00,-4.282933235168457031e+00,-1.092942476272583008e+00
-2.465744495391845703e+00,-5.236105918884277344e+00,-1.125000238418579102e+00
-3.211474180221557617e+00,-6.819692134857177734e+00,-1.193903565406799316e+00
-3.491322755813598633e+00,-7.413961887359619141e+00,-1.006204009056091309e+00
-3.495751142501831055e+00,-7.423365592956542969e+00,-7.178680300712585449e-01
-3.499710083007812500e+00,-7.431772232055664062e+00,-4.305068850517272949e-01
-3.503773927688598633e+00,-7.440402030944824219e+00,-1.435521990060806274e-01
-3.507954835891723633e+00,-7.449280738830566406e+00,1.437234878540039062e-01
-3.511713981628417969e+00,-7.457262992858886719e+00,4.319835305213928223e-01
-3.515784025192260742e+00,-7.465906620025634766e+00,7.219818234443664551e-01
-3.520660877227783203e+00,-7.476262569427490234e+00,1.014659285545349121e+00
-3.524557828903198242e+00,-7.484537601470947266e+00,1.310296058654785156e+00
-1.643966436386108398e+00,-3.624732971191406250e+00,-1.066466927528381348e+00
-1.957801938056945801e+00,-4.316699504852294922e+00,-1.094296097755432129e+00
-2.393503189086914062e+00,-5.277364253997802734e+00,-1.126388669013977051e+00
-3.117320299148559570e+00,-6.873287200927734375e+00,-1.195352315902709961e+00
-3.354322433471679688e+00,-7.395846366882324219e+00,-9.971272349357604980e-01
-3.358100414276123047e+00,-7.404176235198974609e+00,-7.112913131713867188e-01
-3.361916065216064453e+00,-7.412589550018310547e+00,-4.265644550323486328e-01
-3.365822553634643555e+00,-7.421202659606933594e+00,-1.422376930713653564e-01
-3.369829177856445312e+00,-7.430036544799804688e+00,1.424070149660110474e-01
-3.373904943466186523e+00,-7.439023017883300781e+00,4.280855953693389893e-01
-3.377298831939697266e+00,-7.446506500244140625e+00,7.153577804565429688e-01
-3.381938457489013672e+00,-7.456736087799072266e+00,1.005336523056030273e+00
-3.385629415512084961e+00,-7.464874267578125000e+00,1.298236966133117676e+00
-1.593950390815734863e+00,-3.652540922164916992e+00,-1.067826628684997559e+00
-1.898253679275512695e+00,-4.349852561950683594e+00,-1.095700383186340332e+00
-2.320697784423828125e+00,-5.317883968353271484e+00,-1.127831816673278809e+00
-2.982261419296264648e+00,-6.833858489990234375e+00,-1.180950522422790527e+00
-3.222547292709350586e+00,-7.384474277496337891e+00,-9.892739057540893555e-01
-3.226200819015502930e+00,-7.392846107482910156e+00,-7.056943774223327637e-01
-3.229880332946777344e+00,-7.401277542114257812e+00,-4.232097566127777100e-01
-3.233634471893310547e+00,-7.409880161285400391e+00,-1.411191225051879883e-01
-3.237474203109741211e+00,-7.418679237365722656e+00,1.412867009639739990e-01
-3.241368770599365234e+00,-7.427603244781494141e+00,4.247150719165802002e-01
-3.245249986648559570e+00,-7.436497211456298828e+00,7.098611593246459961e-01
-3.249012708663940430e+00,-7.445119857788085938e+00,9.973983764648437500e-01
-3.252506256103515625e+00,-7.453125476837158203e+00,1.287965297698974609e+00
-1.544032335281372070e+00,-3.680987834930419922e+00,-1.069572448730468750e+00
-1.838828325271606445e+00,-4.383784294128417969e+00,-1.097505331039428711e+00
-2.248047590255737305e+00,-5.359366893768310547e+00,-1.129689574241638184e+00
-2.888858556747436523e+00,-6.887065887451171875e+00,-1.182878494262695312e+00
-3.089892864227294922e+00,-7.366333961486816406e+00,-9.808182716369628906e-01
-3.093425512313842773e+00,-7.374755859375000000e+00,-6.996693015098571777e-01
-3.096969366073608398e+00,-7.383204460144042969e+00,-4.195986092090606689e-01
-3.100571155548095703e+00,-7.391791343688964844e+00,-1.399150937795639038e-01
-3.104239940643310547e+00,-7.400537490844726562e+00,1.400806456804275513e-01
-3.107949018478393555e+00,-7.409380435943603516e+00,4.210862219333648682e-01
-3.111631155014038086e+00,-7.418158531188964844e+00,7.037870287895202637e-01
-3.115186691284179688e+00,-7.426634788513183594e+00,9.888472557067871094e-01
-3.118472576141357422e+00,-7.434468746185302734e+00,1.276896834373474121e+00
-1.493622064590454102e+00,-3.708743333816528320e+00,-1.071315526962280273e+00
-1.764180541038513184e+00,-4.380554199218750000e+00,-1.090263128280639648e+00
-2.174688339233398438e+00,-5.399867057800292969e+00,-1.131549358367919922e+00
-2.794553995132446289e+00,-6.939026832580566406e+00,-1.184811472892761230e+00
-2.962276220321655273e+00,-7.355489730834960938e+00,-9.736291170120239258e-01
-2.965690374374389648e+00,-7.363966941833496094e+00,-6.945472955703735352e-01
-2.969102382659912109e+00,-7.372439861297607422e+00,-4.165289402008056641e-01
-2.972557306289672852e+00,-7.381018161773681641e+00,-1.388915777206420898e-01
-2.976063489913940430e+00,-7.389724254608154297e+00,1.390554010868072510e-01
-2.979594469070434570e+00,-7.398491859436035156e+00,4.180008172988891602e-01
-2.983087539672851562e+00,-7.407165050506591797e+00,6.986215710639953613e-01
-2.986446619033813477e+00,-7.415505886077880859e+00,9.815732836723327637e-01
-2.990464925765991211e+00,-7.425483703613281250e+00,1.267872095108032227e+00
-1.433463811874389648e+00,-3.711806535720825195e+00,-1.066164255142211914e+00
-1.704788923263549805e+00,-4.414374828338623047e+00,-1.092495560646057129e+00
-2.101492643356323242e+00,-5.441597938537597656e+00,-1.133874773979187012e+00
-2.700459718704223633e+00,-6.992561817169189453e+00,-1.187230944633483887e+00
-2.834014892578125000e+00,-7.338388919830322266e+00,-9.658971428871154785e-01
-2.837313413619995117e+00,-7.346930503845214844e+00,-6.890394687652587891e-01
-2.840595006942749023e+00,-7.355427265167236328e+00,-4.132283031940460205e-01
-2.843901872634887695e+00,-7.363989830017089844e+00,-1.377910673618316650e-01
-2.847242355346679688e+00,-7.372640132904052734e+00,1.379529237747192383e-01
-2.850591182708740234e+00,-7.381311416625976562e+00,4.146824777126312256e-01
-2.853888750076293945e+00,-7.389850139617919922e+00,6.930647492408752441e-01
-2.857043504714965820e+00,-7.398018836975097656e+00,9.737457633018493652e-01
-2.860812425613403320e+00,-7.407778263092041016e+00,1.257728457450866699e+00
-1.383277773857116699e+00,-3.740281343460083008e+00,-1.068546652793884277e+00
-1.645138978958129883e+00,-4.448334693908691406e+00,-1.094960331916809082e+00
-2.007398128509521484e+00,-5.427856922149658203e+00,-1.124909162521362305e+00
-2.605968236923217773e+00,-7.046346664428710938e+00,-1.189907908439636230e+00
-2.707884073257446289e+00,-7.321918964385986328e+00,-9.585295319557189941e-01
-2.711069583892822266e+00,-7.330533027648925781e+00,-6.837922334671020508e-01
-2.714222669601440430e+00,-7.339057922363281250e+00,-4.100840687751770020e-01
-2.717383861541748047e+00,-7.347606182098388672e+00,-1.367427110671997070e-01
-2.720561265945434570e+00,-7.356197357177734375e+00,1.369025856256484985e-01
-2.723730087280273438e+00,-7.364766120910644531e+00,4.115205407142639160e-01
-2.726834774017333984e+00,-7.373160839080810547e+00,6.877685189247131348e-01
-2.730483531951904297e+00,-7.383026599884033203e+00,9.665292501449584961e-01
-2.733309268951416016e+00,-7.390666961669921875e+00,1.248052835464477539e+00
-1.332471609115600586e+00,-3.767801046371459961e+00,-1.070850372314453125e+00
-1.584749460220336914e+00,-4.481161594390869141e+00,-1.097344636917114258e+00
-1.933728575706481934e+00,-5.467961788177490234e+00,-1.127369165420532227e+00
-2.510315179824829102e+00,-7.098363399505615234e+00,-1.192502021789550781e+00
-2.585836172103881836e+00,-7.311913013458251953e+00,-9.522767066955566406e-01
-2.588908910751342773e+00,-7.320600986480712891e+00,-6.793395876884460449e-01
-2.591935873031616211e+00,-7.329160690307617188e+00,-4.074162840843200684e-01
-2.594955682754516602e+00,-7.337699890136718750e+00,-1.358531862497329712e-01
-2.597976446151733398e+00,-7.346241474151611328e+00,1.360113173723220825e-01
-2.600974559783935547e+00,-7.354719161987304688e+00,4.088370501995086670e-01
-2.603896856307983398e+00,-7.362982273101806641e+00,6.832724809646606445e-01
-2.607321262359619141e+00,-7.372665405273437500e+00,9.601889252662658691e-01
-2.609950304031372070e+00,-7.380099296569824219e+00,1.239832758903503418e+00
-1.273069858551025391e+00,-3.770667314529418945e+00,-1.066376805305480957e+00
-1.512034296989440918e+00,-4.478448867797851562e+00,-1.091268897056579590e+00
-1.860195398330688477e+00,-5.509656906127929688e+00,-1.130360245704650879e+00
-2.383189916610717773e+00,-7.058698654174804688e+00,-1.179986953735351562e+00
-2.463435888290405273e+00,-7.296376705169677734e+00,-9.455642700195312500e-01
-2.466398000717163086e+00,-7.305150032043457031e+00,-6.745606064796447754e-01
-2.469299793243408203e+00,-7.313745021820068359e+00,-4.045532047748565674e-01
-2.472178459167480469e+00,-7.322270870208740234e+00,-1.348985582590103149e-01
-2.475040435791015625e+00,-7.330747604370117188e+00,1.350547373294830322e-01
-2.477864027023315430e+00,-7.339111328125000000e+00,4.059562981128692627e-01
-2.481090545654296875e+00,-7.348667621612548828e+00,6.785790324211120605e-01
-2.483793735504150391e+00,-7.356674194335937500e+00,9.533784985542297363e-01
-2.486982583999633789e+00,-7.366118907928466797e+00,1.231377720832824707e+00
-1.222398400306701660e+00,-3.799144983291625977e+00,-1.069372892379760742e+00
-1.451894998550415039e+00,-4.512407779693603516e+00,-1.094367623329162598e+00
-1.786235451698303223e+00,-5.551518440246582031e+00,-1.133587121963500977e+00
-2.288430690765380859e+00,-7.112313270568847656e+00,-1.183352708816528320e+00
-2.342836141586303711e+00,-7.281402587890625000e+00,-9.391817450523376465e-01
-2.345688581466674805e+00,-7.290266990661621094e+00,-6.700173616409301758e-01
-2.348467111587524414e+00,-7.298902511596679688e+00,-4.018316864967346191e-01
-2.351205587387084961e+00,-7.307414531707763672e+00,-1.339911371469497681e-01
-2.353911876678466797e+00,-7.315824508666992188e+00,1.341453492641448975e-01
-2.356564283370971680e+00,-7.324069023132324219e+00,4.032171666622161865e-01
-2.359580278396606445e+00,-7.333442211151123047e+00,6.739854216575622559e-01
-2.362084627151489258e+00,-7.341225624084472656e+00,9.468979239463806152e-01
-2.365031719207763672e+00,-7.350385189056396484e+00,1.222963333129882812e+00
-1.163529396057128906e+00,-3.801970005035400391e+00,-1.065371155738830566e+00
-1.391375303268432617e+00,-4.546483516693115234e+00,-1.097689390182495117e+00
-1.694624066352844238e+00,-5.537384510040283203e+00,-1.125632762908935547e+00
-2.193077802658081055e+00,-7.166141033172607422e+00,-1.186964273452758789e+00
-2.224255561828613281e+00,-7.268018245697021484e+00,-9.332533478736877441e-01
-2.226675033569335938e+00,-7.275924682617187500e+00,-6.657018661499023438e-01
-2.229331016540527344e+00,-7.284603118896484375e+00,-3.992467820644378662e-01
-2.231932163238525391e+00,-7.293102264404296875e+00,-1.331292837858200073e-01
-2.234484672546386719e+00,-7.301442623138427734e+00,1.332815289497375488e-01
-2.237283229827880859e+00,-7.310587882995605469e+00,4.006709456443786621e-01
-2.239779472351074219e+00,-7.318744659423828125e+00,6.696196198463439941e-01
-2.242654323577880859e+00,-7.328138828277587891e+00,9.409731626510620117e-01
-2.244801282882690430e+00,-7.335153579711914062e+00,1.214958667755126953e+00
-1.112534403800964355e+00,-3.830413818359375000e+00,-1.068769812583923340e+00
-1.319684624671936035e+00,-4.543624401092529297e+00,-1.092326760292053223e+00
-1.620442509651184082e+00,-5.579122543334960938e+00,-1.129286766052246094e+00
-2.097080230712890625e+00,-7.220168590545654297e+00,-1.190819382667541504e+00
-2.106927156448364258e+00,-7.254070758819580078e+00,-9.274950623512268066e-01
-2.109256505966186523e+00,-7.262090682983398438e+00,-6.616061329841613770e-01
-2.111790657043457031e+00,-7.270815849304199219e+00,-3.967938721179962158e-01
-2.114255666732788086e+00,-7.279302120208740234e+00,-1.323114037513732910e-01
-2.116657257080078125e+00,-7.287571430206298828e+00,1.324617117643356323e-01
-2.119273185729980469e+00,-7.296577930450439453e+00,3.981997966766357422e-01
-2.121586799621582031e+00,-7.304543495178222656e+00,6.654737591743469238e-01
-2.124239444732666016e+00,-7.313676357269287109e+00,9.351161122322082520e-01
-2.126837491989135742e+00,-7.322621822357177734e+00,1.207716941833496094e+00
-1.054085254669189453e+00,-3.833164691925048828e+00,-1.065218448638916016e+00
-1.258803963661193848e+00,-4.577620983123779297e+00,-1.096055865287780762e+00
-1.545721411705017090e+00,-5.620991706848144531e+00,-1.133167147636413574e+00
-1.974524140357971191e+00,-7.180325984954833984e+00,-1.179466128349304199e+00
-1.991097450256347656e+00,-7.240594863891601562e+00,-9.220336675643920898e-01
-1.993511199951171875e+00,-7.249372005462646484e+00,-6.577804684638977051e-01
-1.995748877525329590e+00,-7.257509231567382812e+00,-3.944683372974395752e-01
-1.998079299926757812e+00,-7.265984058380126953e+00,-1.315360218286514282e-01
-2.000499010086059570e+00,-7.274783134460449219e+00,1.316953003406524658e-01
-2.002769708633422852e+00,-7.283040523529052734e+00,3.958560526371002197e-01
-2.005297660827636719e+00,-7.292233943939208984e+00,6.616695523262023926e-01
-2.007342576980590820e+00,-7.299669742584228516e+00,9.295564293861389160e-01
-2.009711503982543945e+00,-7.308284759521484375e+00,1.200484991073608398e+00
-1.002669215202331543e+00,-3.861538171768188477e+00,-1.069005608558654785e+00
-1.187852621078491211e+00,-4.574727535247802734e+00,-1.091180324554443359e+00
-1.455815672874450684e+00,-5.606721878051757812e+00,-1.125974297523498535e+00
-1.874566674232482910e+00,-7.219440460205078125e+00,-1.181362748146057129e+00
-1.876673936843872070e+00,-7.227556228637695312e+00,-9.168587923049926758e-01
-1.878983974456787109e+00,-7.236452579498291016e+00,-6.541008353233337402e-01
-1.881112217903137207e+00,-7.244648933410644531e+00,-3.922656774520874023e-01
-1.883309721946716309e+00,-7.253112316131591797e+00,-1.308016031980514526e-01
-1.885573148727416992e+00,-7.261828899383544922e+00,1.309588104486465454e-01
-1.887680053710937500e+00,-7.269943714141845703e+00,3.936352729797363281e-01
-1.890010356903076172e+00,-7.278918266296386719e+00,6.579393148422241211e-01
-1.892342805862426758e+00,-7.287900924682617188e+00,9.245138764381408691e-01
-1.894592046737670898e+00,-7.296563625335693359e+00,1.193982839584350586e+00
-9.445331692695617676e-01,-3.864172697067260742e+00,-1.065883040428161621e+00
-1.126495480537414551e+00,-4.608597278594970703e+00,-1.095300793647766113e+00
-1.380653738975524902e+00,-5.648382186889648438e+00,-1.130256295204162598e+00
-1.761535525321960449e+00,-7.206604957580566406e+00,-1.175016164779663086e+00
-1.763568282127380371e+00,-7.214921474456787109e+00,-9.119603633880615234e-01
-1.765773415565490723e+00,-7.223942279815673828e+00,-6.506188511848449707e-01
-1.767791986465454102e+00,-7.232200622558593750e+00,-3.901816308498382568e-01
-1.769857883453369141e+00,-7.240652561187744141e+00,-1.301067322492599487e-01
-1.771968126296997070e+00,-7.249285697937011719e+00,1.302618682384490967e-01
-1.773915410041809082e+00,-7.257252216339111328e+00,3.915331959724426270e-01
-1.776054620742797852e+00,-7.266004085540771484e+00,6.544070839881896973e-01
-1.778177499771118164e+00,-7.274689197540283203e+00,9.195149540901184082e-01
-1.780207514762878418e+00,-7.282993793487548828e+00,1.187471151351928711e+00
-8.926034569740295410e-01,-3.892431497573852539e+00,-1.070044040679931641e+00
-1.056148648262023926e+00,-4.605613231658935547e+00,-1.090887069702148438e+00
-1.292018175125122070e+00,-5.634183883666992188e+00,-1.123599529266357422e+00
-1.649741291999816895e+00,-7.194129467010498047e+00,-1.169012188911437988e+00
-1.651931762695312500e+00,-7.203681468963623047e+00,-9.074580073356628418e-01
-1.653794765472412109e+00,-7.211805820465087891e+00,-6.473275423049926758e-01
-1.655703306198120117e+00,-7.220128059387207031e+00,-3.882119953632354736e-01
-1.657638907432556152e+00,-7.228569507598876953e+00,-1.294500082731246948e-01
-1.659599184989929199e+00,-7.237117767333984375e+00,1.296030879020690918e-01
-1.661619901657104492e+00,-7.245929241180419922e+00,3.895992636680603027e-01
-1.663344383239746094e+00,-7.253449440002441406e+00,6.510654091835021973e-01
-1.665678739547729492e+00,-7.263628959655761719e+00,9.150096774101257324e-01
-1.667586207389831543e+00,-7.271946907043457031e+00,1.181657075881958008e+00
-8.350656628608703613e-01,-3.896697998046875000e+00,-1.067821741104125977e+00
-9.946694970130920410e-01,-4.641463279724121094e+00,-1.095894098281860352e+00
-1.216850757598876953e+00,-5.678236007690429688e+00,-1.128795623779296875e+00
-1.538598656654357910e+00,-7.179620265960693359e+00,-1.162956833839416504e+00
-1.540391802787780762e+00,-7.187987804412841797e+00,-9.026110768318176270e-01
-1.542166829109191895e+00,-7.196270465850830078e+00,-6.438857913017272949e-01
-1.543965578079223633e+00,-7.204664230346679688e+00,-3.861527144908905029e-01
-1.545771598815917969e+00,-7.213091373443603516e+00,-1.287634223699569702e-01
-1.547581791877746582e+00,-7.221538543701171875e+00,1.289142072200775146e-01
-1.549429893493652344e+00,-7.230162620544433594e+00,3.875193595886230469e-01
-1.551283240318298340e+00,-7.238811016082763672e+00,6.476921439170837402e-01
-1.553088307380676270e+00,-7.247233867645263672e+00,9.100508093833923340e-01
-1.554778933525085449e+00,-7.255123138427734375e+00,1.175186753273010254e+00
-7.774097919464111328e-01,-3.899218082427978516e+00,-1.065353989601135254e+00
-9.247860312461853027e-01,-4.638406276702880859e+00,-1.091935038566589355e+00
-1.140384674072265625e+00,-5.719773769378662109e+00,-1.133692026138305664e+00
-1.429115414619445801e+00,-7.167947769165039062e+00,-1.157634139060974121e+00
-1.430829048156738281e+00,-7.176542758941650391e+00,-8.985101580619812012e-01
-1.432510256767272949e+00,-7.184974670410156250e+00,-6.409748792648315430e-01
-1.434197664260864258e+00,-7.193438529968261719e+00,-3.844114243984222412e-01
-1.435875773429870605e+00,-7.201855182647705078e+00,-1.281828284263610840e-01
-1.437542080879211426e+00,-7.210212707519531250e+00,1.283315718173980713e-01
-1.439227581024169922e+00,-7.218666553497314453e+00,3.857595622539520264e-01
-1.440902233123779297e+00,-7.227066040039062500e+00,6.447298526763916016e-01
-1.442517042160034180e+00,-7.235165119171142578e+00,9.058498144149780273e-01
-1.444439649581909180e+00,-7.244808673858642578e+00,1.170047163963317871e+00
-7.247061133384704590e-01,-3.927185773849487305e+00,-1.070051670074462891e+00
-8.553987741470336914e-01,-4.635409832000732422e+00,-1.088235974311828613e+00
-1.052824497222900391e+00,-5.705260753631591797e+00,-1.127713084220886230e+00
-1.320891618728637695e+00,-7.157917976379394531e+00,-1.152842760086059570e+00
-1.322262763977050781e+00,-7.165348052978515625e+00,-8.946473598480224609e-01
-1.323847174644470215e+00,-7.173933506011962891e+00,-6.382340788841247559e-01
-1.325422286987304688e+00,-7.182469367980957031e+00,-3.827722072601318359e-01
-1.326973795890808105e+00,-7.190876483917236328e+00,-1.276362836360931396e-01
-1.328499197959899902e+00,-7.199142932891845703e+00,1.277830153703689575e-01
-1.330027222633361816e+00,-7.207423210144042969e+00,3.841020464897155762e-01
-1.331783413887023926e+00,-7.216940402984619141e+00,6.420602202415466309e-01
-1.333287596702575684e+00,-7.225091457366943359e+00,9.021068215370178223e-01
-1.335060000419616699e+00,-7.234696388244628906e+00,1.165208578109741211e+00
-6.674612164497375488e-01,-3.931472778320312500e+00,-1.068507075309753418e+00
-7.930266857147216797e-01,-4.671076774597167969e+00,-1.093832492828369141e+00
-9.760984182357788086e-01,-5.749403953552246094e+00,-1.133560776710510254e+00
-1.212783813476562500e+00,-7.143526077270507812e+00,-1.147611379623413086e+00
-1.214262247085571289e+00,-7.152233600616455078e+00,-8.907486200332641602e-01
-1.215683221817016602e+00,-7.160603523254394531e+00,-6.354349851608276367e-01
-1.217078804969787598e+00,-7.168824195861816406e+00,-3.810775876045227051e-01
-1.218498468399047852e+00,-7.177186012268066406e+00,-1.270706951618194580e-01
-1.219951272010803223e+00,-7.185743331909179688e+00,1.272221952676773071e-01
-1.221389770507812500e+00,-7.194216728210449219e+00,3.824273943901062012e-01
-1.222788453102111816e+00,-7.202454566955566406e+00,6.391488909721374512e-01
-1.224107146263122559e+00,-7.210222244262695312e+00,8.979706764221191406e-01
-1.225654482841491699e+00,-7.219336509704589844e+00,1.159790396690368652e+00
-6.103819012641906738e-01,-3.935826778411865234e+00,-1.067206621170043945e+00
-7.243022918701171875e-01,-4.670401096343994141e+00,-1.091134786605834961e+00
-8.898605108261108398e-01,-5.737943172454833984e+00,-1.128674268722534180e+00
-1.105698108673095703e+00,-7.129694461822509766e+00,-1.142729759216308594e+00
-1.107091069221496582e+00,-7.138676166534423828e+00,-8.869957923889160156e-01
-1.108417272567749023e+00,-7.147227287292480469e+00,-6.327753067016601562e-01
-1.109705686569213867e+00,-7.155535697937011719e+00,-3.794879913330078125e-01
-1.111000657081604004e+00,-7.163886070251464844e+00,-1.265407055616378784e-01
-1.112310409545898438e+00,-7.172331333160400391e+00,1.266898810863494873e-01
-1.113592267036437988e+00,-7.180596828460693359e+00,3.808170855045318604e-01
-1.114823222160339355e+00,-7.188533782958984375e+00,6.364323496818542480e-01
-1.116235613822937012e+00,-7.197641372680664062e+00,8.943223357200622559e-01
-1.117630124092102051e+00,-7.206633090972900391e+00,1.155061364173889160e+00
-5.531325936317443848e-01,-3.938056230545043945e+00,-1.065555214881896973e+00
-6.555570960044860840e-01,-4.667273044586181641e+00,-1.088100314140319824e+00
-8.039376735687255859e-01,-5.723675727844238281e+00,-1.123489260673522949e+00
-1.000130295753479004e+00,-7.120479583740234375e+00,-1.138841748237609863e+00
-1.001235842704772949e+00,-7.128350734710693359e+00,-8.838416337966918945e-01
-1.002460718154907227e+00,-7.137071132659912109e+00,-6.305411458015441895e-01
-1.003639340400695801e+00,-7.145462036132812500e+00,-3.781531453132629395e-01
-1.004810929298400879e+00,-7.153803348541259766e+00,-1.260956525802612305e-01
-1.005983114242553711e+00,-7.162148952484130859e+00,1.262427568435668945e-01
-1.007117748260498047e+00,-7.170226573944091797e+00,3.794637322425842285e-01
-1.008382439613342285e+00,-7.179230690002441406e+00,6.342658400535583496e-01
-1.009663105010986328e+00,-7.188348770141601562e+00,8.912807703018188477e-01
-1.010913968086242676e+00,-7.197254657745361328e+00,1.151121139526367188e+00
-4.963157176971435547e-01,-3.942401409149169922e+00,-1.064699769020080566e+00
-5.920244455337524414e-01,-4.702647686004638672e+00,-1.094259738922119141e+00
-7.260602116584777832e-01,-5.767338752746582031e+00,-1.129904150962829590e+00
-8.947609663009643555e-01,-7.107385635375976562e+00,-1.134582996368408203e+00
-8.959128856658935547e-01,-7.116535663604736328e+00,-8.806964755058288574e-01
-8.969115018844604492e-01,-7.124467849731445312e+00,-6.282291412353515625e-01
-8.979793190956115723e-01,-7.132949829101562500e+00,-3.767721354961395264e-01
-8.990280032157897949e-01,-7.141279697418212891e+00,-1.256352216005325317e-01
-9.000642895698547363e-01,-7.149511337280273438e+00,1.257800310850143433e-01
-9.011741876602172852e-01,-7.158327579498291016e+00,3.781126439571380615e-01
-9.021466970443725586e-01,-7.166052818298339844e+00,6.318960785865783691e-01
-9.032406210899353027e-01,-7.174741744995117188e+00,8.878996968269348145e-01
-9.042957425117492676e-01,-7.183123111724853516e+00,1.146673321723937988e+00
-4.395782053470611572e-01,-3.946739435195922852e+00,-1.064063072204589844e+00
-5.236909389495849609e-01,-4.701942920684814453e+00,-1.092239618301391602e+00
-6.411151885986328125e-01,-5.756233215332031250e+00,-1.125815153121948242e+00
-7.903382778167724609e-01,-7.096027851104736328e+00,-1.130848169326782227e+00
-7.912404537200927734e-01,-7.104127883911132812e+00,-8.776695132255554199e-01
-7.921468019485473633e-01,-7.112265586853027344e+00,-6.260892152786254883e-01
-7.931018471717834473e-01,-7.120840072631835938e+00,-3.754944205284118652e-01
-7.940284609794616699e-01,-7.129159927368164062e+00,-1.252092272043228149e-01
-7.949324846267700195e-01,-7.137277126312255859e+00,1.253517866134643555e-01
-7.958889603614807129e-01,-7.145864486694335938e+00,3.768140077590942383e-01
-7.968609929084777832e-01,-7.154591560363769531e+00,6.298151612281799316e-01
-7.978221774101257324e-01,-7.163221836090087891e+00,8.849701881408691406e-01
-7.987369894981384277e-01,-7.171435356140136719e+00,1.142865419387817383e+00
-3.828941285610198975e-01,-3.951043844223022461e+00,-1.063637018203735352e+00
-4.556005001068115234e-01,-4.701292991638183594e+00,-1.090462088584899902e+00
-5.620400309562683105e-01,-5.799631595611572266e+00,-1.132613778114318848e+00
-6.864733099937438965e-01,-7.083645343780517578e+00,-1.127193570137023926e+00
-6.872888207435607910e-01,-7.092060565948486328e+00,-8.748736977577209473e-01
-6.881543993949890137e-01,-7.100992202758789062e+00,-6.241658329963684082e-01
-6.889376640319824219e-01,-7.109074592590332031e+00,-3.743156492710113525e-01
-6.897428631782531738e-01,-7.117383956909179688e+00,-1.248162239789962769e-01
-6.905722618103027344e-01,-7.125942230224609375e+00,1.249663084745407104e-01
-6.913282275199890137e-01,-7.133742809295654297e+00,3.756145238876342773e-01
-6.921409964561462402e-01,-7.142129898071289062e+00,6.277817487716674805e-01
-6.929343938827514648e-01,-7.150316238403320312e+00,8.820601105690002441e-01
-6.938761472702026367e-01,-7.160034179687500000e+00,1.139348983764648438e+00
-3.264387845993041992e-01,-3.957709789276123047e+00,-1.064064621925354004e+00
-3.879594206809997559e-01,-4.703579902648925781e+00,-1.089592814445495605e+00
-4.777371287345886230e-01,-5.792035102844238281e+00,-1.129679203033447266e+00
-5.832147598266601562e-01,-7.070835113525390625e+00,-1.123711585998535156e+00
-5.839073657989501953e-01,-7.079232215881347656e+00,-8.721708059310913086e-01
-5.845838189125061035e-01,-7.087433338165283203e+00,-6.221748590469360352e-01
-5.852597951889038086e-01,-7.095628738403320312e+00,-3.731283843517303467e-01
-5.859441757202148438e-01,-7.103925704956054688e+00,-1.244203895330429077e-01
-5.866386890411376953e-01,-7.112346649169921875e+00,1.245678663253784180e-01
-5.873380899429321289e-01,-7.120826244354248047e+00,3.744534254074096680e-01
-5.880293846130371094e-01,-7.129206657409667969e+00,6.258419156074523926e-01
-5.886939167976379395e-01,-7.137263774871826172e+00,8.793204426765441895e-01
-5.894736051559448242e-01,-7.146716594696044922e+00,1.135770797729492188e+00
-5.902263522148132324e-01,-7.155842304229736328e+00,1.395676255226135254e+00
-2.697592675685882568e-01,-3.961927175521850586e+00,-1.064051508903503418e+00
-3.202176988124847412e-01,-4.703004837036132812e+00,-1.088286519050598145e+00
-3.936226665973663330e-01,-5.781096458435058594e+00,-1.126331329345703125e+00
-4.806391596794128418e-01,-7.059098720550537109e+00,-1.120638370513916016e+00
-4.812331199645996094e-01,-7.067822456359863281e+00,-8.698273897171020508e-01
-4.818063080310821533e-01,-7.076240539550781250e+00,-6.205232739448547363e-01
-4.823714494705200195e-01,-7.084540843963623047e+00,-3.721441328525543213e-01
-4.829357862472534180e-01,-7.092828750610351562e+00,-1.240922510623931885e-01
-4.835005700588226318e-01,-7.101123809814453125e+00,1.242373809218406677e-01
-4.840617775917053223e-01,-7.109366416931152344e+00,3.734481930732727051e-01
-4.846085011959075928e-01,-7.117395877838134766e+00,6.241322755813598633e-01
-4.852386415004730225e-01,-7.126650810241699219e+00,8.770673871040344238e-01
-4.858671426773071289e-01,-7.135881423950195312e+00,1.132827639579772949e+00
-4.864656031131744385e-01,-7.144670963287353516e+00,1.391996741294860840e+00
-2.131997644901275635e-01,-3.968569040298461914e+00,-1.064906597137451172e+00
-2.546677589416503906e-01,-4.740467071533203125e+00,-1.095999598503112793e+00
-3.101958930492401123e-01,-5.774085998535156250e+00,-1.123985290527343750e+00
-3.785863518714904785e-01,-7.047128200531005859e+00,-1.117763280868530273e+00
-3.790552914142608643e-01,-7.055856704711914062e+00,-8.675982356071472168e-01
-3.794700205326080322e-01,-7.063576698303222656e+00,-6.188731193542480469e-01
-3.799221515655517578e-01,-7.071992874145507812e+00,-3.711613416671752930e-01
-3.803667724132537842e-01,-7.080269336700439453e+00,-1.237645819783210754e-01
-3.808049857616424561e-01,-7.088426113128662109e+00,1.239071711897850037e-01
-3.812825679779052734e-01,-7.097316265106201172e+00,3.724903762340545654e-01
-3.817125558853149414e-01,-7.105320453643798828e+00,6.225304603576660156e-01
-3.822009563446044922e-01,-7.114411830902099609e+00,8.747982382774353027e-01
-3.825737535953521729e-01,-7.121350765228271484e+00,1.129535913467407227e+00
-3.831305801868438721e-01,-7.131715774536132812e+00,1.388262033462524414e+00
-1.564336270093917847e-01,-3.972580671310424805e+00,-1.065273165702819824e+00
-1.866351813077926636e-01,-4.739539623260498047e+00,-1.095055341720581055e+00
-2.290360778570175171e-01,-5.816296100616455078e+00,-1.131448030471801758e+00
-2.771083116531372070e-01,-7.037075042724609375e+00,-1.115425348281860352e+00
-2.774144113063812256e-01,-7.044848442077636719e+00,-8.656677007675170898e-01
-2.777499556541442871e-01,-7.053369045257568359e+00,-6.175671815872192383e-01
-2.780632376670837402e-01,-7.061325073242187500e+00,-3.703546226024627686e-01
-2.783887684345245361e-01,-7.069591522216796875e+00,-1.234956383705139160e-01
-2.787262499332427979e-01,-7.078162670135498047e+00,1.236453577876091003e-01
-2.790450751781463623e-01,-7.086258411407470703e+00,3.716623485088348389e-01
-2.793962061405181885e-01,-7.095175266265869141e+00,6.212275624275207520e-01
-2.796849608421325684e-01,-7.102508068084716797e+00,8.727529644966125488e-01
-2.800132632255554199e-01,-7.110845088958740234e+00,1.127118468284606934e+00
-2.804065346717834473e-01,-7.120832443237304688e+00,1.385220289230346680e+00
-9.967871755361557007e-02,-3.979070186614990234e+00,-1.066521525382995605e+00
-1.187830418348312378e-01,-4.741694927215576172e+00,-1.095048189163208008e+00
-1.455220133066177368e-01,-5.809086322784423828e+00,-1.129524588584899902e+00
-1.759659647941589355e-01,-7.024377346038818359e+00,-1.112899422645568848e+00
-1.761704683303833008e-01,-7.032540798187255859e+00,-8.637570142745971680e-01
-1.763901114463806152e-01,-7.041308403015136719e+00,-6.162270307540893555e-01
-1.765925586223602295e-01,-7.049390316009521484e+00,-3.695582449436187744e-01
-1.767993867397308350e-01,-7.057646751403808594e+00,-1.232301518321037292e-01
-1.770104020833969116e-01,-7.066070079803466797e+00,1.233772262930870056e-01
-1.772064119577407837e-01,-7.073894500732421875e+00,3.708428442478179932e-01
-1.774193793535232544e-01,-7.082396030426025391e+00,6.198228597640991211e-01
-1.776302903890609741e-01,-7.090815544128417969e+00,8.709145188331604004e-01
-1.778312474489212036e-01,-7.098837375640869141e+00,1.124696493148803711e+00
-1.780697852373123169e-01,-7.108359813690185547e+00,1.382156610488891602e+00
-4.277775064110755920e-02,-3.985462188720703125e+00,-1.067961215972900391e+00
-5.091748386621475220e-02,-4.743814468383789062e+00,-1.095257282257080078e+00
-6.227570027112960815e-02,-5.802021980285644531e+00,-1.127862095832824707e+00
-7.527602463960647583e-02,-7.013219356536865234e+00,-1.110847115516662598e+00
-7.536404579877853394e-02,-7.021420478820800781e+00,-8.621703982353210449e-01
-7.545108348131179810e-02,-7.029529094696044922e+00,-6.150386333465576172e-01
-7.553918659687042236e-02,-7.037737369537353516e+00,-3.688528835773468018e-01
-7.562769204378128052e-02,-7.045983314514160156e+00,-1.229949966073036194e-01
-7.571651786565780640e-02,-7.054258823394775391e+00,1.231394559144973755e-01
