6.936212539672851562e+00,-4.963805899024009705e-02,-1.098614573478698730e+00
6.944489955902099609e+00,-4.969729483127593994e-02,-8.526967167854309082e-01
6.953369617462158203e+00,-4.976084455847740173e-02,-6.083557009696960449e-01
6.961377143859863281e+00,-4.981814697384834290e-02,-3.648391067981719971e-01
6.969656467437744141e+00,-4.987739771604537964e-02,-1.216587424278259277e-01
6.978228092193603516e+00,-4.993873834609985352e-02,1.218083649873733521e-01
6.986006259918212891e+00,-4.999439790844917297e-02,3.661299049854278564e-01
6.994474411010742188e+00,-5.005500093102455139e-02,6.119519472122192383e-01
7.002795219421386719e+00,-5.011454969644546509e-02,8.598558306694030762e-01
7.010655403137207031e+00,-5.017079785466194153e-02,1.110405445098876953e+00
7.020253658294677734e+00,-5.023948475718498230e-02,1.364631891250610352e+00
3.987687587738037109e+00,2.853734232485294342e-02,-1.068523406982421875e+00
4.755412578582763672e+00,3.403146192431449890e-02,-1.097900032997131348e+00
5.824648380279541016e+00,4.168330132961273193e-02,-1.132224202156066895e+00
6.948834419250488281e+00,4.972838610410690308e-02,-1.100613832473754883e+00
6.957126140594482422e+00,4.978772625327110291e-02,-8.542482852935791016e-01
6.966021537780761719e+00,4.985138401389122009e-02,-6.094626188278198242e-01
6.974043846130371094e+00,4.990879073739051819e-02,-3.655029535293579102e-01
6.982337474822998047e+00,4.996814578771591187e-02,-1.218800991773605347e-01
6.990923881530761719e+00,5.002959445118904114e-02,1.220299750566482544e-01
6.998715877532958984e+00,5.008535832166671753e-02,3.667960166931152344e-01
7.007199764251708984e+00,5.014606937766075134e-02,6.130653619766235352e-01
7.015534400939941406e+00,5.020571500062942505e-02,8.614200949668884277e-01
7.023409366607666016e+00,5.026207119226455688e-02,1.112425565719604492e+00
7.033024787902832031e+00,5.033088102936744690e-02,1.367114424705505371e+00
3.987351894378662109e+00,8.561651408672332764e-02,-1.068652391433715820e+00
4.715522289276123047e+00,1.012518033385276794e-01,-1.088913321495056152e+00
5.824016094207763672e+00,1.250534057617187500e-01,-1.132333278656005859e+00
6.960000514984130859e+00,1.494452953338623047e-01,-1.102608203887939453e+00
6.968314170837402344e+00,1.496238112449645996e-01,-8.557973504066467285e-01
6.977230548858642578e+00,1.498152464628219604e-01,-6.105683445930480957e-01
6.985268115997314453e+00,1.499878466129302979e-01,-3.661662340164184570e-01
6.993575096130371094e+00,1.501661986112594604e-01,-1.221012622117996216e-01
7.002172470092773438e+00,1.503508090972900391e-01,1.222513616085052490e-01
7.009970188140869141e+00,1.505182385444641113e-01,3.674611151218414307e-01
7.018456459045410156e+00,1.507004648447036743e-01,6.141760349273681641e-01
7.026791572570800781e+00,1.508794426918029785e-01,8.629791140556335449e-01
7.036881446838378906e+00,1.510960757732391357e-01,1.114787697792053223e+00
7.044273853302001953e+00,1.512548178434371948e-01,1.369581699371337891e+00
3.987087249755859375e+00,1.427237093448638916e-01,-1.069019317626953125e+00
4.715174674987792969e+00,1.687866896390914917e-01,-1.089279413223266602e+00
5.823501586914062500e+00,2.084608972072601318e-01,-1.132697343826293945e+00
6.972855567932128906e+00,2.496037185192108154e-01,-1.105097532272338867e+00
6.981206893920898438e+00,2.499026656150817871e-01,-8.577321767807006836e-01
6.990153312683105469e+00,2.502229213714599609e-01,-6.119499206542968750e-01
6.998212814331054688e+00,2.505114376544952393e-01,-3.669951558113098145e-01
7.006535053253173828e+00,2.508093416690826416e-01,-1.223776787519454956e-01
7.015140056610107422e+00,2.511173486709594727e-01,1.225279718637466431e-01
7.022938251495361328e+00,2.513965070247650146e-01,3.682917952537536621e-01
7.031417369842529297e+00,2.517000436782836914e-01,6.155624389648437500e-01
7.039738178253173828e+00,2.519978880882263184e-01,8.649234771728515625e-01
7.049808502197265625e+00,2.523583769798278809e-01,1.117293477058410645e+00
7.057170391082763672e+00,2.526218891143798828e-01,1.372651457786560059e+00
3.986585617065429688e+00,1.998699903488159180e-01,-1.069542407989501953e+00
4.714563369750976562e+00,2.363676279783248901e-01,-1.089808106422424316e+00
5.822686672210693359e+00,2.919240891933441162e-01,-1.133235454559326172e+00
6.983904361724853516e+00,3.501424789428710938e-01,-1.107529401779174805e+00
6.992299079895019531e+00,3.505633473396301270e-01,-8.596234321594238281e-01
7.001277446746826172e+00,3.510134816169738770e-01,-6.133008599281311035e-01
7.009360313415527344e+00,3.514187037944793701e-01,-3.678058385848999023e-01
7.017695426940917969e+00,3.518365919589996338e-01,-1.226480007171630859e-01
7.026303291320800781e+00,3.522681593894958496e-01,1.227984428405761719e-01
7.034093856811523438e+00,3.526587486267089844e-01,3.691036999225616455e-01
7.042557239532470703e+00,3.530830740928649902e-01,6.169168949127197266e-01
7.050851345062255859e+00,3.534989058971405029e-01,8.668217658996582031e-01
7.060886383056640625e+00,3.540019989013671875e-01,1.119737505912780762e+00
7.068202972412109375e+00,3.543688356876373291e-01,1.375643014907836914e+00
3.986331462860107422e+00,2.570999562740325928e-01,-1.070351839065551758e+00
4.714257717132568359e+00,3.040478229522705078e-01,-1.090631723403930664e+00
5.822255134582519531e+00,3.755085468292236328e-01,-1.134081482887268066e+00
6.996975898742675781e+00,4.512725770473480225e-01,-1.110512852668762207e+00
7.005430221557617188e+00,4.518178701400756836e-01,-8.619444966316223145e-01
7.014454364776611328e+00,4.523998796939849854e-01,-6.149593591690063477e-01
7.022566795349121094e+00,4.529230892658233643e-01,-3.688012659549713135e-01
7.030917167663574219e+00,4.534616470336914062e-01,-1.229799166321754456e-01
7.039525508880615234e+00,4.540168642997741699e-01,1.231304854154586792e-01
7.047301769256591797e+00,4.545183777809143066e-01,3.701002597808837891e-01
7.055735588073730469e+00,4.550622999668121338e-01,6.185784935951232910e-01
7.063986301422119141e+00,4.555944502353668213e-01,8.691492080688476562e-01
7.073963165283203125e+00,4.562379419803619385e-01,1.122731924057006836e+00
7.081207752227783203e+00,4.567051827907562256e-01,1.379305124282836914e+00
3.985650539398193359e+00,3.143947124481201172e-01,-1.071267604827880859e+00
4.713459491729736328e+00,3.718054890632629395e-01,-1.091566443443298340e+00
5.821234703063964844e+00,4.591886401176452637e-01,-1.135046601295471191e+00
7.007881641387939453e+00,5.527933239936828613e-01,-1.113385558128356934e+00
7.016397476196289062e+00,5.534650683403015137e-01,-8.641801476478576660e-01
7.025467872619628906e+00,5.541805624961853027e-01,-6.165571808815002441e-01
7.033608913421630859e+00,5.548227429389953613e-01,-3.697603344917297363e-01
7.041972637176513672e+00,5.554824471473693848e-01,-1.232997328042984009e-01
7.050577640533447266e+00,5.561612248420715332e-01,1.234503984451293945e-01
7.058333396911621094e+00,5.567730069160461426e-01,3.710601031780242920e-01
7.066730499267578125e+00,5.574354529380798340e-01,6.201784014701843262e-01
7.074928283691406250e+00,5.580820441246032715e-01,8.713890910148620605e-01
7.084836483001708984e+00,5.588636398315429688e-01,1.125611901283264160e+00
7.091996669769287109e+00,5.594284534454345703e-01,1.382824659347534180e+00
3.958004474639892578e+00,3.692836463451385498e-01,-1.065148472785949707e+00
4.713168621063232422e+00,4.397408068180084229e-01,-1.092844843864440918e+00
5.761175632476806641e+00,5.375203490257263184e-01,-1.124721050262451172e+00
7.021131992340087891e+00,6.550748348236083984e-01,-1.116865992546081543e+00
7.029729843139648438e+00,6.558770537376403809e-01,-8.668897151947021484e-01
7.038859844207763672e+00,6.567288637161254883e-01,-6.184940934181213379e-01
7.047039508819580078e+00,6.574920415878295898e-01,-3.709231019020080566e-01
7.055418491363525391e+00,6.582738161087036133e-01,-1.236874684691429138e-01
7.064016819000244141e+00,6.590760350227355957e-01,1.238382011651992798e-01
7.071743488311767578e+00,6.597969532012939453e-01,3.722234368324279785e-01
7.080089569091796875e+00,6.605756282806396484e-01,6.221168637275695801e-01
7.090047836303710938e+00,6.615047454833984375e-01,8.743279576301574707e-01
7.098027229309082031e+00,6.622492074966430664e-01,1.129097938537597656e+00
7.107685089111328125e+00,6.631503105163574219e-01,1.387592196464538574e+00
3.957123756408691406e+00,4.264110624790191650e-01,-1.066444754600524902e+00
4.712153911590576172e+00,5.077714920043945312e-01,-1.094182729721069336e+00
5.759928703308105469e+00,6.206774115562438965e-01,-1.126096606254577637e+00
7.033289909362792969e+00,7.578920125961303711e-01,-1.120410919189453125e+00
7.041566371917724609e+00,7.587838768959045410e-01,-8.695995807647705078e-01
7.049715518951416016e+00,7.596620321273803711e-01,-6.203398108482360840e-01
7.057931900024414062e+00,7.605473995208740234e-01,-3.720313310623168945e-01
7.066323757171630859e+00,7.614516615867614746e-01,-1.240570023655891418e-01
7.074910163879394531e+00,7.623769044876098633e-01,1.242077425122261047e-01
7.083628177642822266e+00,7.633163928985595703e-01,3.733858168125152588e-01
7.092326641082763672e+00,7.642536759376525879e-01,6.240893602371215820e-01
7.100771427154541016e+00,7.651637196540832520e-01,8.769111037254333496e-01
7.108650207519531250e+00,7.660126686096191406e-01,1.132415890693664551e+00
7.118183612823486328e+00,7.670399546623229980e-01,1.391642570495605469e+00
3.956819295883178711e+00,4.837601482868194580e-01,-1.068119287490844727e+00
4.711843490600585938e+00,5.760693550109863281e-01,-1.095913052558898926e+00
5.759557723999023438e+00,7.041627168655395508e-01,-1.127879023551940918e+00
7.046661853790283203e+00,8.615238666534423828e-01,-1.124390244483947754e+00
7.055042266845703125e+00,8.625484704971313477e-01,-8.726990818977355957e-01
7.063266754150390625e+00,8.635539412498474121e-01,-6.225561499595642090e-01
7.071528434753417969e+00,8.645640611648559570e-01,-3.733620643615722656e-01
7.079936027526855469e+00,8.655920028686523438e-01,-1.245007440447807312e-01
7.088508605957031250e+00,8.666400313377380371e-01,1.246514916419982910e-01
7.097182273864746094e+00,8.677004575729370117e-01,3.747165203094482422e-01
7.105806827545166016e+00,8.687549233436584473e-01,6.263056397438049316e-01
7.114150047302246094e+00,8.697749972343444824e-01,8.800106048583984375e-01
7.121899604797363281e+00,8.707224726676940918e-01,1.136395454406738281e+00
7.131272792816162109e+00,8.718683719635009766e-01,1.396498322486877441e+00
3.955702066421508789e+00,5.411904454231262207e-01,-1.069799184799194336e+00
4.671834945678710938e+00,6.391665339469909668e-01,-1.088623881340026855e+00
5.758023262023925781e+00,7.877709269523620605e-01,-1.129670977592468262e+00
7.057124614715576172e+00,9.655045270919799805e-01,-1.128149271011352539e+00
7.065604686737060547e+00,9.666647315025329590e-01,-8.756275177001953125e-01
7.073901653289794922e+00,9.677998423576354980e-01,-6.246504783630371094e-01
7.082205772399902344e+00,9.689359068870544434e-01,-3.746196627616882324e-01
7.090625762939453125e+00,9.700878858566284180e-01,-1.249200925230979919e-01
7.099181175231933594e+00,9.712584018707275391e-01,1.250708252191543579e-01
7.107806682586669922e+00,9.724385142326354980e-01,3.759738802909851074e-01
7.116355419158935547e+00,9.736080169677734375e-01,6.283993124961853027e-01
7.124592781066894531e+00,9.747350215911865234e-01,8.829377889633178711e-01
7.134439468383789062e+00,9.760821461677551270e-01,1.140508770942687988e+00
7.141420841217041016e+00,9.770373106002807617e-01,1.401080727577209473e+00
3.928344011306762695e+00,5.948405265808105469e-01,-1.064594030380249023e+00
4.671454429626464844e+00,7.073643207550048828e-01,-1.090782761573791504e+00
5.757592678070068359e+00,8.718303442001342773e-01,-1.131918787956237793e+00
7.070541381835937500e+00,1.070640563964843750e+00,-1.132627844810485840e+00
7.079147338867187500e+00,1.071943759918212891e+00,-8.791172504425048828e-01
7.087533950805664062e+00,1.073213696479797363e+00,-6.271464824676513672e-01
7.095890045166015625e+00,1.074478983879089355e+00,-3.761185109615325928e-01
7.104326725006103516e+00,1.075756430625915527e+00,-1.254198998212814331e-01
7.112860679626464844e+00,1.077048778533935547e+00,1.255705654621124268e-01
7.121428966522216797e+00,1.078346133232116699e+00,3.774721920490264893e-01
7.129882335662841797e+00,1.079626202583312988e+00,6.308937072753906250e-01
7.137989997863769531e+00,1.080853939056396484e+00,8.864245414733886719e-01
7.147666454315185547e+00,1.082319140434265137e+00,1.144982457160949707e+00
3.927941799163818359e+00,6.524161100387573242e-01,-1.066906452178955078e+00
4.671071052551269531e+00,7.758470773696899414e-01,-1.093174338340759277e+00
5.757173538208007812e+00,9.562444686889648438e-01,-1.134410977363586426e+00
7.084034442901611328e+00,1.176630973815917969e+00,-1.137370705604553223e+00
7.092778205871582031e+00,1.178083300590515137e+00,-8.828135132789611816e-01
7.101261615753173828e+00,1.179492354393005371e+00,-6.297905445098876953e-01
7.109675407409667969e+00,1.180889964103698730e+00,-3.777064383029937744e-01
7.118126869201660156e+00,1.182293653488159180e+00,-1.259493827819824219e-01
7.126636028289794922e+00,1.183706998825073242e+00,1.260999441146850586e-01
7.135138034820556641e+00,1.185119152069091797e+00,3.790591657161712646e-01
7.143485546112060547e+00,1.186505675315856934e+00,6.335352659225463867e-01
7.151448726654052734e+00,1.187828302383422852e+00,8.901160955429077148e-01
7.160937786102294922e+00,1.189404368400573730e+00,1.149717807769775391e+00
3.926436424255371094e+00,7.100550532341003418e-01,-1.069148540496826172e+00
4.669374942779541016e+00,8.444077372550964355e-01,-1.095493674278259277e+00
5.696784019470214844e+00,1.030203938484191895e+00,-1.125301957130432129e+00
7.094038486480712891e+00,1.282882809638977051e+00,-1.141808032989501953e+00
7.102910995483398438e+00,1.284487366676330566e+00,-8.862723708152770996e-01
7.111485481262207031e+00,1.286037921905517578e+00,-6.322650313377380371e-01
7.119950771331787109e+00,1.287568807601928711e+00,-3.791925609111785889e-01
7.128413677215576172e+00,1.289099216461181641e+00,-1.264449357986450195e-01
7.136894702911376953e+00,1.290632963180541992e+00,1.265953630208969116e-01
7.145329952239990234e+00,1.292158365249633789e+00,3.805442154407501221e-01
7.153572082519531250e+00,1.293648838996887207e+00,6.360068321228027344e-01
7.163220882415771484e+00,1.295393824577331543e+00,8.937975764274597168e-01
7.170696258544921875e+00,1.296745657920837402e+00,1.154146432876586914e+00
3.899298429489135742e+00,7.629346847534179688e-01,-1.064623475074768066e+00
4.630767822265625000e+00,9.060536026954650879e-01,-1.089367032051086426e+00
5.696189880371093750e+00,1.114513516426086426e+00,-1.128220200538635254e+00
7.108867168426513672e+00,1.390917301177978516e+00,-1.147281646728515625e+00
7.116455554962158203e+00,1.392401933670043945e+00,-8.903579711914062500e-01
7.125141143798828125e+00,1.394101381301879883e+00,-6.351881623268127441e-01
7.133669376373291016e+00,1.395770072937011719e+00,-3.809481561183929443e-01
7.142149448394775391e+00,1.397429227828979492e+00,-1.270303726196289062e-01
7.150598526000976562e+00,1.399082422256469727e+00,1.271806508302688599e-01
7.158954143524169922e+00,1.400717258453369141e+00,3.822984099388122559e-01
7.168499469757080078e+00,1.402584910392761230e+00,6.390534639358520508e-01
7.176541805267333984e+00,1.404158473014831543e+00,8.978755474090576172e-01
7.186022281646728516e+00,1.406013369560241699e+00,1.159733533859252930e+00
3.898672819137573242e+00,8.209148049354553223e-01,-1.067551493644714355e+00
4.630156993865966797e+00,9.749380946159362793e-01,-1.092394232749938965e+00
5.695535182952880859e+00,1.199266910552978516e+00,-1.131374597549438477e+00
7.122237682342529297e+00,1.499677181243896484e+00,-1.152785778045654297e+00
7.130000114440917969e+00,1.501311540603637695e+00,-8.946494460105895996e-01
7.138803005218505859e+00,1.503165125846862793e+00,-6.382587552070617676e-01
7.147398471832275391e+00,1.504975080490112305e+00,-3.827924728393554688e-01
7.155894279479980469e+00,1.506763935089111328e+00,-1.276453435420989990e-01
7.164307117462158203e+00,1.508535385131835938e+00,1.277954131364822388e-01
7.172576904296875000e+00,1.510276675224304199e+00,3.841409087181091309e-01
7.181980133056640625e+00,1.512256622314453125e+00,6.421191096305847168e-01
7.189835548400878906e+00,1.513910770416259766e+00,9.021574258804321289e-01
7.199074268341064453e+00,1.515856027603149414e+00,1.165222287178039551e+00
3.897968769073486328e+00,8.792098164558410645e-01,-1.070694923400878906e+00
4.629466533660888672e+00,1.044203519821166992e+00,-1.095645427703857422e+00
5.637659549713134766e+00,1.271607398986816406e+00,-1.123378515243530273e+00
7.135560512542724609e+00,1.609467744827270508e+00,-1.158552169799804688e+00
7.144539356231689453e+00,1.611492991447448730e+00,-8.992759585380554199e-01
7.152432918548583984e+00,1.613273382186889648e+00,-6.414762139320373535e-01
7.161098957061767578e+00,1.615228056907653809e+00,-3.847250044345855713e-01
7.169610977172851562e+00,1.617148041725158691e+00,-1.282897740602493286e-01
7.177985668182373047e+00,1.619037032127380371e+00,1.284396350383758545e-01
7.187180042266845703e+00,1.621110796928405762e+00,3.861261904239654541e-01
7.195412158966064453e+00,1.622967600822448730e+00,6.453308463096618652e-01
7.204894542694091797e+00,1.625106453895568848e+00,9.068728089332580566e-01
7.212049007415771484e+00,1.626720190048217773e+00,1.170971035957336426e+00
3.870972633361816406e+00,9.315351843833923340e-01,-1.066832900047302246e+00
4.591262340545654297e+00,1.104870200157165527e+00,-1.090234875679016113e+00
5.636804103851318359e+00,1.356475949287414551e+00,-1.126961469650268555e+00
7.148799896240234375e+00,1.720332026481628418e+00,-1.164580345153808594e+00
7.157967090606689453e+00,1.722538113594055176e+00,-9.039768576622009277e-01
7.165996074676513672e+00,1.724470257759094238e+00,-6.448403596878051758e-01
7.174736499786376953e+00,1.726573705673217773e+00,-3.867457807064056396e-01
7.183263301849365234e+00,1.728625535964965820e+00,-1.289635896682739258e-01
7.191595077514648438e+00,1.730630636215209961e+00,1.291131675243377686e-01
7.200685024261474609e+00,1.732818007469177246e+00,3.881444931030273438e-01
7.208758831024169922e+00,1.734760880470275879e+00,6.486883759498596191e-01
7.218019008636474609e+00,1.736989378929138184e+00,9.115607738494873047e-01
7.227119445800781250e+00,1.739179372787475586e+00,1.177339076995849609e+00
3.870050907135009766e+00,9.901176095008850098e-01,-1.070374965667724609e+00
4.590340137481689453e+00,1.174397110939025879e+00,-1.093895316123962402e+00
5.635806083679199219e+00,1.441870212554931641e+00,-1.130772233009338379e+00
7.161912918090820312e+00,1.832310795783996582e+00,-1.170869112014770508e+00
7.171278476715087891e+00,1.834706902503967285e+00,-9.088813066482543945e-01
7.179450035095214844e+00,1.836797475814819336e+00,-6.483504176139831543e-01
7.188266277313232422e+00,1.839053034782409668e+00,-3.888541460037231445e-01
7.196809291839599609e+00,1.841238617897033691e+00,-1.296666562557220459e-01
7.205096244812011719e+00,1.843358874320983887e+00,1.298159658908843994e-01
7.214074134826660156e+00,1.845655679702758789e+00,3.902502357959747314e-01
7.221980094909667969e+00,1.847678422927856445e+00,6.521911621093750000e-01
7.231006145477294922e+00,1.849987745285034180e+00,9.164511561393737793e-01
7.239812850952148438e+00,1.852240800857543945e+00,1.183604717254638672e+00
3.843169927597045898e+00,1.042065382003784180e+00,-1.066956281661987305e+00
4.552488327026367188e+00,1.234395265579223633e+00,-1.088973999023437500e+00
5.578688144683837891e+00,1.512646555900573730e+00,-1.123540997505187988e+00
7.176285743713378906e+00,1.945830941200256348e+00,-1.177651643753051758e+00
7.184432983398437500e+00,1.948040008544921875e+00,-9.139887690544128418e-01
7.193374156951904297e+00,1.950464487075805664e+00,-6.520622372627258301e-01
7.201648235321044922e+00,1.952707886695861816e+00,-3.910499811172485352e-01
7.210206985473632812e+00,1.955028653144836426e+00,-1.303988695144653320e-01
7.219048023223876953e+00,1.957425832748413086e+00,1.305587589740753174e-01
7.227303981781005859e+00,1.959664463996887207e+00,3.924430906772613525e-01
7.236447811126708984e+00,1.962143778800964355e+00,6.559667587280273438e-01
7.245629310607910156e+00,1.964633345603942871e+00,9.217740297317504883e-01
7.254516124725341797e+00,1.967042922973632812e+00,1.190489411354064941e+00
3.816491603851318359e+00,1.093703508377075195e+00,-1.063786864280700684e+00
4.551233291625976562e+00,1.304260730743408203e+00,-1.093027472496032715e+00
5.577305793762207031e+00,1.598305344581604004e+00,-1.127754569053649902e+00
7.189016342163085938e+00,2.060178279876708984e+00,-1.184458613395690918e+00
7.197385311126708984e+00,2.062576532363891602e+00,-9.192981719970703125e-01
7.206478118896484375e+00,2.065182209014892578e+00,-6.558623909950256348e-01
7.214837074279785156e+00,2.067577838897705078e+00,-3.933328092098236084e-01
7.223411560058593750e+00,2.070034980773925781e+00,-1.311600953340530396e-01
7.232196807861328125e+00,2.072552442550659180e+00,1.313196122646331787e-01
7.240332126617431641e+00,2.074883937835693359e+00,3.947227299213409424e-01
7.249280929565429688e+00,2.077448368072509766e+00,6.597579121589660645e-01
7.258200645446777344e+00,2.080004692077636719e+00,9.270659089088439941e-01
7.266761779785156250e+00,2.082458019256591797e+00,1.197267889976501465e+00
3.815086603164672852e+00,1.152635931968688965e+00,-1.067884445190429688e+00
4.513623714447021484e+00,1.363682031631469727e+00,-1.088571310043334961e+00
5.575685024261474609e+00,1.684558153152465820e+00,-1.132186412811279297e+00
7.192799568176269531e+00,2.173130035400390625e+00,-1.190084815025329590e+00
7.211112976074218750e+00,2.178663015365600586e+00,-9.249399304389953613e-01
7.219337463378906250e+00,2.181147813796997070e+00,-6.598064303398132324e-01
7.227785110473632812e+00,2.183700323104858398e+00,-3.957021832466125488e-01
7.236374855041503906e+00,2.186295270919799805e+00,-1.319501698017120361e-01
7.245101451873779297e+00,2.188931941986083984e+00,1.321092993021011353e-01
7.254118919372558594e+00,2.191656351089477539e+00,3.971438705921173096e-01
7.261856079101562500e+00,2.193993806838989258e+00,6.636924147605895996e-01
7.270501136779785156e+00,2.196605682373046875e+00,9.325573444366455078e-01
7.280918121337890625e+00,2.199753046035766602e+00,1.204664468765258789e+00
3.788385152816772461e+00,1.204000353813171387e+00,-1.065125107765197754e+00
4.511930465698242188e+00,1.433952808380126953e+00,-1.093001008033752441e+00
5.519016742706298828e+00,1.754018664360046387e+00,-1.125662207603454590e+00
7.098785877227783203e+00,2.256090641021728516e+00,-1.179751873016357422e+00
7.223515033721923828e+00,2.295731306076049805e+00,-9.306501150131225586e-01
7.231905460357666016e+00,2.298398017883300781e+00,-6.638938188552856445e-01
7.240444660186767578e+00,2.301111936569213867e+00,-3.981576859951019287e-01
7.249048233032226562e+00,2.303846120834350586e+00,-1.327689588069915771e-01
7.257713317871093750e+00,2.306599855422973633e+00,1.329276561737060547e-01
7.266591548919677734e+00,2.309421539306640625e+00,3.995954990386962891e-01
7.275528907775878906e+00,2.312262058258056641e+00,6.678984761238098145e-01
7.284283638000488281e+00,2.315044403076171875e+00,9.384793043136596680e-01
7.292531967163085938e+00,2.317665815353393555e+00,1.211950659751892090e+00
3.788344144821166992e+00,1.263961434364318848e+00,-1.070090651512145996e+00
4.476586818695068359e+00,1.493589997291564941e+00,-1.089506387710571289e+00
5.519482135772705078e+00,1.841546654701232910e+00,-1.131017446517944336e+00
7.099502086639404297e+00,2.368712186813354492e+00,-1.185384154319763184e+00
7.240735054016113281e+00,2.415833711624145508e+00,-9.372276663780212402e-01
7.249323844909667969e+00,2.418699264526367188e+00,-6.686024665832519531e-01
7.257970333099365234e+00,2.421584129333496094e+00,-4.009864032268524170e-01
7.266593933105468750e+00,2.424461603164672852e+00,-1.337122172117233276e-01
7.275190830230712891e+00,2.427329778671264648e+00,1.338703930377960205e-01
7.283911705017089844e+00,2.430239439010620117e+00,4.024196267127990723e-01
7.292605400085449219e+00,2.433140039443969727e+00,6.725943088531494141e-01
7.301032066345214844e+00,2.435951471328735352e+00,9.450324177742004395e-01
7.311056137084960938e+00,2.439296007156372070e+00,1.220706701278686523e+00
3.761576890945434570e+00,1.315152525901794434e+00,-1.067737579345703125e+00
4.474428176879882812e+00,1.564385175704956055e+00,-1.094318628311157227e+00
5.463373661041259766e+00,1.910148262977600098e+00,-1.125007271766662598e+00
7.096458435058593750e+00,2.481120347976684570e+00,-1.190683484077453613e+00
7.252532482147216797e+00,2.535688161849975586e+00,-9.433559775352478027e-01
7.261298179626464844e+00,2.538752794265747070e+00,-6.729893684387207031e-01
7.270040988922119141e+00,2.541809558868408203e+00,-4.036219418048858643e-01
7.278678417205810547e+00,2.544829607009887695e+00,-1.345910578966140747e-01
7.287207603454589844e+00,2.547811508178710938e+00,1.347487568855285645e-01
7.295777320861816406e+00,2.550807952880859375e+00,4.050508141517639160e-01
7.304238796234130859e+00,2.553766250610351562e+00,6.769692301750183105e-01
7.314146518707275391e+00,2.557230234146118164e+00,9.513702988624572754e-01
7.321979045867919922e+00,2.559968709945678711e+00,1.228522658348083496e+00
3.736791610717773438e+00,1.366813302040100098e+00,-1.066146254539489746e+00
4.439288616180419922e+00,1.623767018318176270e+00,-1.091297030448913574e+00
5.463393211364746094e+00,1.998355627059936523e+00,-1.130785465240478516e+00
7.007365703582763672e+00,2.563097238540649414e+00,-1.181769490242004395e+00
7.270353317260742188e+00,2.659290790557861328e+00,-9.505276679992675781e-01
7.278927803039550781e+00,2.662427186965942383e+00,-6.780858635902404785e-01
7.287169456481933594e+00,2.665441751480102539e+00,-4.066493809223175049e-01
7.295826435089111328e+00,2.668608188629150391e+00,-1.356005519628524780e-01
7.304876327514648438e+00,2.671918392181396484e+00,1.357687562704086304e-01
7.313678264617919922e+00,2.675137996673583984e+00,4.081286787986755371e-01
7.322272777557373047e+00,2.678281545639038086e+00,6.821237206459045410e-01
7.330424308776855469e+00,2.681263208389282227e+00,9.583813548088073730e-01
7.339982986450195312e+00,2.684759378433227539e+00,1.237864375114440918e+00
3.710195302963256836e+00,1.417612791061401367e+00,-1.064238309860229492e+00
4.402152538299560547e+00,1.681999683380126953e+00,-1.087974786758422852e+00
5.407662868499755859e+00,2.066190958023071289e+00,-1.125256538391113281e+00
7.003447055816650391e+00,2.675917148590087891e+00,-1.187446475028991699e+00
7.281307697296142578e+00,2.782083749771118164e+00,-9.570680260658264160e-01
7.290071964263916016e+00,2.785432577133178711e+00,-6.827682256698608398e-01
7.298629760742187500e+00,2.788702487945556641e+00,-4.094744026660919189e-01
7.307277679443359375e+00,2.792006731033325195e+00,-1.365421563386917114e-01
7.316058635711669922e+00,2.795361757278442383e+00,1.367062330245971680e-01
7.324696063995361328e+00,2.798661947250366211e+00,4.109368026256561279e-01
7.333039760589599609e+00,2.801850080490112305e+00,6.867924332618713379e-01
7.342635631561279297e+00,2.805516481399536133e+00,9.651291370391845703e-01
7.352152824401855469e+00,2.809152841567993164e+00,1.246570110321044922e+00
3.685620307922363281e+00,1.469010949134826660e+00,-1.063111543655395508e+00
4.401449203491210938e+00,1.754325389862060547e+00,-1.093894958496093750e+00
5.407066822052001953e+00,2.155143260955810547e+00,-1.131435513496398926e+00
6.915894508361816406e+00,2.756530523300170898e+00,-1.179170727729797363e+00
7.297438621520996094e+00,2.908605813980102539e+00,-9.645617008209228516e-01
7.306423187255859375e+00,2.912186861038208008e+00,-6.881330609321594238e-01
7.315101623535156250e+00,2.915646076202392578e+00,-4.126975834369659424e-01
7.323767662048339844e+00,2.919100284576416016e+00,-1.376169323921203613e-01
7.332466125488281250e+00,2.922567129135131836e+00,1.377803683280944824e-01
7.340920925140380859e+00,2.925937175750732422e+00,4.141542613506317139e-01
7.350366592407226562e+00,2.929702043533325195e+00,6.922717690467834473e-01
7.358188152313232422e+00,2.932819366455078125e+00,9.725914597511291504e-01
7.367216587066650391e+00,2.936417818069458008e+00,1.256121754646301270e+00
3.684536933898925781e+00,1.530046582221984863e+00,-1.069006681442260742e+00
4.366642475128173828e+00,1.813298821449279785e+00,-1.091583013534545898e+00
5.354607582092285156e+00,2.223562717437744141e+00,-1.127002716064453125e+00
6.914877891540527344e+00,2.871483087539672852e+00,-1.185883641242980957e+00
7.314208507537841797e+00,3.037309646606445312e+00,-9.724251031875610352e-01
7.322415351867675781e+00,3.040717840194702148e+00,-6.936672925949096680e-01
7.331217765808105469e+00,3.044373035430908203e+00,-4.160226285457611084e-01
7.339902400970458984e+00,3.047979354858398438e+00,-1.387256681919097900e-01
7.348513603210449219e+00,3.051555156707763672e+00,1.388884186744689941e-01
7.357765197753906250e+00,3.055397272109985352e+00,4.175291061401367188e-01
7.365923881530761719e+00,3.058784961700439453e+00,6.977888941764831543e-01
7.375119209289550781e+00,3.062603712081909180e+00,9.805232286453247070e-01
7.384028911590576172e+00,3.066303491592407227e+00,1.266341924667358398e+00
3.659766197204589844e+00,1.581544637680053711e+00,-1.068278312683105469e+00
4.332060337066650391e+00,1.872072100639343262e+00,-1.089524984359741211e+00
5.302780151367187500e+00,2.291562557220458984e+00,-1.122882962226867676e+00
6.828641891479492188e+00,2.950954198837280273e+00,-1.178217530250549316e+00
7.329530239105224609e+00,3.167409658432006836e+00,-9.803891777992248535e-01
7.337975025177001953e+00,3.171059131622314453e+00,-6.993694305419921875e-01
7.346901893615722656e+00,3.174916744232177734e+00,-4.194484651088714600e-01
7.355605602264404297e+00,3.178678035736083984e+00,-1.398680508136749268e-01
7.364128112792968750e+00,3.182361125946044922e+00,1.400301158428192139e-01
7.373176097869873047e+00,3.186270952224731445e+00,4.209485054016113281e-01
7.382409095764160156e+00,3.190260887145996094e+00,7.036043405532836914e-01
7.391576766967773438e+00,3.194222688674926758e+00,9.886884689331054688e-01
7.400345802307128906e+00,3.198012113571166992e+00,1.276859641075134277e+00
3.635007381439208984e+00,1.632975459098815918e+00,-1.067764520645141602e+00
4.297655582427978516e+00,1.930660724639892578e+00,-1.087710738182067871e+00
5.301054954528808594e+00,2.381423711776733398e+00,-1.129619956016540527e+00
6.826622009277343750e+00,3.066762924194335938e+00,-1.185321450233459473e+00
7.344340801239013672e+00,3.299340963363647461e+00,-9.885857701301574707e-01
7.353028297424316406e+00,3.303243637084960938e+00,-7.052381038665771484e-01
7.362080574035644531e+00,3.307310342788696289e+00,-4.229744076728820801e-01
7.370801925659179688e+00,3.311228275299072266e+00,-1.410437971353530884e-01
7.379230976104736328e+00,3.315014839172363281e+00,1.412050873041152954e-01
7.388072490692138672e+00,3.318986654281616211e+00,4.244677126407623291e-01
7.396983623504638672e+00,3.322989940643310547e+00,7.094539403915405273e-01
7.405724525451660156e+00,3.326916694641113281e+00,9.968482851982116699e-01
7.416094779968261719e+00,3.331575393676757812e+00,1.287672877311706543e+00
3.610224008560180664e+00,1.684347271919250488e+00,-1.067457079887390137e+00
4.295619487762451172e+00,2.004117965698242188e+00,-1.094343662261962891e+00
5.249323844909667969e+00,2.449068069458007812e+00,-1.125950932502746582e+00
6.741397380828857422e+00,3.145193815231323242e+00,-1.178219676017761230e+00
7.359552383422851562e+00,3.433593511581420898e+00,-9.971465468406677246e-01
7.368093013763427734e+00,3.437578201293945312e+00,-7.113293409347534180e-01
7.376672744750976562e+00,3.441581249237060547e+00,-4.265992939472198486e-01
7.385411262512207031e+00,3.445657968521118164e+00,-1.422525197267532349e-01
7.394326210021972656e+00,3.449817180633544922e+00,1.424242407083511353e-01
7.403348445892333984e+00,3.454026460647583008e+00,4.281419515609741211e-01
7.412322044372558594e+00,3.458213329315185547e+00,7.155992984771728516e-01
7.421005725860595703e+00,3.462264776229858398e+00,1.005472898483276367e+00
7.429072856903076172e+00,3.466028213500976562e+00,1.298407316207885742e+00
3.587614297866821289e+00,1.736747860908508301e+00,-1.068012714385986328e+00
4.263608932495117188e+00,2.063993692398071289e+00,-1.093602895736694336e+00
5.201364040374755859e+00,2.517956733703613281e+00,-1.123279333114624023e+00
6.742439270019531250e+00,3.263984203338623047e+00,-1.186445474624633789e+00
7.379528999328613281e+00,3.572396516799926758e+00,-1.006678104400634766e+00
7.388353824615478516e+00,3.576668500900268555e+00,-7.181541919708251953e-01
7.397090435028076172e+00,3.580897808074951172e+00,-4.307000637054443359e-01
7.405850887298583984e+00,3.585138797760009766e+00,-1.436199247837066650e-01
7.414657592773437500e+00,3.589401960372924805e+00,1.437907069921493530e-01
7.423443794250488281e+00,3.593655347824096680e+00,4.322344660758972168e-01
7.432052612304687500e+00,3.597822904586791992e+00,7.224017381668090820e-01
7.441987991333007812e+00,3.602632522583007812e+00,1.015198469161987305e+00
7.449814796447753906e+00,3.606421470642089844e+00,1.310920119285583496e+00
3.562711238861083984e+00,1.788076758384704590e+00,-1.068108797073364258e+00
4.228999137878417969e+00,2.122477769851684570e+00,-1.092406153678894043e+00
5.198155879974365234e+00,2.608884572982788086e+00,-1.130535006523132324e+00
6.657973289489746094e+00,3.341547250747680664e+00,-1.179877758026123047e+00
7.392445564270019531e+00,3.710168838500976562e+00,-1.015580534934997559e+00
7.401523113250732422e+00,3.714724779129028320e+00,-7.245282530784606934e-01
7.410395145416259766e+00,3.719177484512329102e+00,-4.345298111438751221e-01
7.419167518615722656e+00,3.723580360412597656e+00,-1.448969095945358276e-01
7.427871227264404297e+00,3.727948665618896484e+00,1.450668871402740479e-01
7.436431884765625000e+00,3.732244968414306641e+00,4.360565543174743652e-01
7.446047306060791016e+00,3.737070798873901367e+00,7.288867235183715820e-01
7.454159259796142578e+00,3.741142272949218750e+00,1.024058818817138672e+00
7.463513851165771484e+00,3.745837211608886719e+00,1.322629809379577637e+00
3.539979219436645508e+00,1.840559363365173340e+00,-1.069082498550415039e+00
4.197151660919189453e+00,2.182246446609497070e+00,-1.092136263847351074e+00
5.150156497955322266e+00,2.677747011184692383e+00,-1.128316044807434082e+00
6.657749652862548828e+00,3.461597442626953125e+00,-1.188496828079223633e+00
7.412182331085205078e+00,3.853853464126586914e+00,-1.025765061378479004e+00
7.420576095581054688e+00,3.858217716217041016e+00,-7.317242622375488281e-01
7.429605007171630859e+00,3.862912178039550781e+00,-4.388534724712371826e-01
7.438401222229003906e+00,3.867485761642456055e+00,-1.463386863470077515e-01
7.446991920471191406e+00,3.871952056884765625e+00,1.465076804161071777e-01
7.456259727478027344e+00,3.876770973205566406e+00,4.404279291629791260e-01
7.464527606964111328e+00,3.881069660186767578e+00,7.360582351684570312e-01
7.473846912384033203e+00,3.885915040969848633e+00,1.034298777580261230e+00
7.482920646667480469e+00,3.890632867813110352e+00,1.335800766944885254e+00
3.495801448822021484e+00,1.881629943847656250e+00,-1.063765406608581543e+00
4.165346622467041016e+00,2.242015361785888672e+00,-1.092098712921142578e+00
5.102530956268310547e+00,2.746459007263183594e+00,-1.126379132270812988e+00
6.578227043151855469e+00,3.540758848190307617e+00,-1.183226943016052246e+00
7.430251121520996094e+00,3.999364376068115234e+00,-1.036081552505493164e+00
7.439534664154052734e+00,4.004361152648925781e+00,-7.391698360443115234e-01
7.448131084442138672e+00,4.008988380432128906e+00,-4.432918429374694824e-01
7.456948757171630859e+00,4.013734340667724609e+00,-1.478186696767807007e-01
7.465991497039794922e+00,4.018601417541503906e+00,1.479979306459426880e-01
7.474432945251464844e+00,4.023145198822021484e+00,4.448572695255279541e-01
7.483644008636474609e+00,4.028103351593017578e+00,7.435523867607116699e-01
7.492806911468505859e+00,4.033035278320312500e+00,1.044804334640502930e+00
7.501582622528076172e+00,4.037758827209472656e+00,1.349311113357543945e+00
3.473093271255493164e+00,1.934019446372985840e+00,-1.065169930458068848e+00
4.133513450622558594e+00,2.301779747009277344e+00,-1.092278718948364258e+00
5.055138587951660156e+00,2.814993858337402344e+00,-1.124696493148803711e+00
6.499827861785888672e+00,3.619480609893798828e+00,-1.178323149681091309e+00
7.448498725891113281e+00,4.147755622863769531e+00,-1.046797156333923340e+00
7.457116127014160156e+00,4.152554035186767578e+00,-7.467457056045532227e-01
7.465878486633300781e+00,4.157433509826660156e+00,-4.478439688682556152e-01
7.474715709686279297e+00,4.162354469299316406e+00,-1.493365764617919922e-01
7.483633995056152344e+00,4.167320728302001953e+00,1.495147496461868286e-01
7.492763042449951172e+00,4.172404289245605469e+00,4.494566619396209717e-01
7.501947879791259766e+00,4.177518844604492188e+00,7.512350678443908691e-01
7.510938167572021484e+00,4.182525157928466797e+00,1.055572271347045898e+00
3.450198173522949219e+00,1.986487865447998047e+00,-1.066759347915649414e+00
4.101603507995605469e+00,2.361541271209716797e+00,-1.092666745185852051e+00
5.007931709289550781e+00,2.883369207382202148e+00,-1.123260855674743652e+00
6.497315406799316406e+00,3.740897655487060547e+00,-1.187453031539916992e+00
7.464888095855712891e+00,4.297987937927246094e+00,-1.057637929916381836e+00
7.473813533782958984e+00,4.303126811981201172e+00,-7.545082569122314453e-01
7.482738494873046875e+00,4.308265209197998047e+00,-4.525080323219299316e-01
7.491597652435302734e+00,4.313365936279296875e+00,-1.508918851613998413e-01
7.500387668609619141e+00,4.318426609039306641e+00,1.510689258575439453e-01
7.509245872497558594e+00,4.323527336120605469e+00,4.541110396385192871e-01
7.518012523651123047e+00,4.328574657440185547e+00,7.589703202247619629e-01
7.528141021728515625e+00,4.334406375885009766e+00,1.066599726676940918e+00
3.427076816558837891e+00,2.039032697677612305e+00,-1.068524837493896484e+00
4.069563865661621094e+00,2.421298027038574219e+00,-1.093252062797546387e+00
4.960850715637207031e+00,2.951593160629272461e+00,-1.122061729431152344e+00
6.419026851654052734e+00,3.819174766540527344e+00,-1.183014392852783203e+00
7.481242656707763672e+00,4.451169013977050781e+00,-1.068872332572937012e+00
7.490105628967285156e+00,4.456442356109619141e+00,-7.625144720077514648e-01
7.498816013336181641e+00,4.461625099182128906e+00,-4.572953879833221436e-01
7.507667541503906250e+00,4.466891288757324219e+00,-1.524877101182937622e-01
7.516711711883544922e+00,4.472272396087646484e+00,1.526714116334915161e-01
7.525669574737548828e+00,4.477602005004882812e+00,4.589329659938812256e-01
7.534389972686767578e+00,4.482790470123291016e+00,7.670226693153381348e-01
7.544312477111816406e+00,4.488694190979003906e+00,1.077883362770080566e+00
3.386085033416748047e+00,2.080830812454223633e+00,-1.064921259880065918e+00
4.040249347686767578e+00,2.482830524444580078e+00,-1.094811677932739258e+00
4.960813522338867188e+00,3.048539638519287109e+00,-1.131806969642639160e+00
6.346196651458740234e+00,3.899890661239624023e+00,-1.179758787155151367e+00
7.502791404724121094e+00,4.610646247863769531e+00,-1.081269264221191406e+00
7.512003898620605469e+00,4.616307258605957031e+00,-7.713913917541503906e-01
7.520906448364257812e+00,4.621778011322021484e+00,-4.626293182373046875e-01
7.529783248901367188e+00,4.627233505249023438e+00,-1.542663276195526123e-01
7.538685321807861328e+00,4.632703781127929688e+00,1.544487178325653076e-01
7.547341823577880859e+00,4.638023376464843750e+00,4.642554223537445068e-01
7.556903362274169922e+00,4.643899440765380859e+00,7.760020494461059570e-01
7.564888954162597656e+00,4.648806571960449219e+00,1.090218424797058105e+00
3.365097999572753906e+00,2.134878396987915039e+00,-1.067821741104125977e+00
3.982647180557250977e+00,2.526662588119506836e+00,-1.088891386985778809e+00
4.916633605957031250e+00,3.119200468063354492e+00,-1.131797552108764648e+00
6.274105072021484375e+00,3.980404376983642578e+00,-1.176827788352966309e+00
7.524286270141601562e+00,4.773541450500488281e+00,-1.094101667404174805e+00
7.532909870147705078e+00,4.779012680053710938e+00,-7.804825305938720703e-01
7.542002201080322266e+00,4.784780979156494141e+00,-4.680918157100677490e-01
7.550902843475341797e+00,4.790427684783935547e+00,-1.560878008604049683e-01
7.559662818908691406e+00,4.795985221862792969e+00,1.562688946723937988e-01
7.568937778472900391e+00,4.801869392395019531e+00,4.697635471820831299e-01
7.578392505645751953e+00,4.807867527008056641e+00,7.851949930191040039e-01
7.586107730865478516e+00,4.812762260437011719e+00,1.103091120719909668e+00
3.324507236480712891e+00,2.176476001739501953e+00,-1.064717888832092285e+00
3.953320741653442383e+00,2.588145256042480469e+00,-1.090890049934387207e+00
4.872434139251708984e+00,3.189867019653320312e+00,-1.132017254829406738e+00
6.272434234619140625e+00,4.106413841247558594e+00,-1.187417507171630859e+00
7.543711662292480469e+00,4.938688755035400391e+00,-1.107091903686523438e+00
7.553267478942871094e+00,4.944944858551025391e+00,-7.898442745208740234e-01
7.561977863311767578e+00,4.950647354125976562e+00,-4.736810326576232910e-01
7.570903301239013672e+00,4.956490516662597656e+00,-1.579515933990478516e-01
7.580068588256835938e+00,4.962491035461425781e+00,1.581428050994873047e-01
7.588474750518798828e+00,4.967994213104248047e+00,4.753407835960388184e-01
7.597439289093017578e+00,4.973863124847412109e+00,7.944632768630981445e-01
7.606165885925292969e+00,4.979576110839843750e+00,1.116257429122924805e+00
3.303097963333129883e+00,2.230641126632690430e+00,-1.067977309226989746e+00
3.923700332641601562e+00,2.649744987487792969e+00,-1.093070149421691895e+00
4.787020206451416016e+00,3.232760667800903320e+00,-1.122808456420898438e+00
6.199871063232421875e+00,4.186884403228759766e+00,-1.184904456138610840e+00
7.562826156616210938e+00,5.107311725616455078e+00,-1.120510697364807129e+00
7.571809291839599609e+00,5.113378524780273438e+00,-7.993547916412353516e-01
7.580716133117675781e+00,5.119393348693847656e+00,-4.793956875801086426e-01
7.589660644531250000e+00,5.125433921813964844e+00,-1.598571091890335083e-01
7.598672389984130859e+00,5.131519317626953125e+00,1.600469201803207397e-01
7.607673645019531250e+00,5.137598514556884766e+00,4.811004698276519775e-01
7.616510391235351562e+00,5.143566131591796875e+00,8.040739297866821289e-01
7.626575946807861328e+00,5.150363445281982422e+00,1.129955887794494629e+00
3.262703180313110352e+00,2.272024154663085938e+00,-1.065322279930114746e+00
3.867232561111450195e+00,2.692995786666870117e+00,-1.087966084480285645e+00
4.743305206298828125e+00,3.303059816360473633e+00,-1.123529076576232910e+00
6.127747535705566406e+00,4.267133712768554688e+00,-1.182672142982482910e+00
7.580564498901367188e+00,5.278820991516113281e+00,-1.134217381477355957e+00
7.588985919952392578e+00,5.284685611724853516e+00,-8.090708255767822266e-01
7.598085880279541016e+00,5.291021823883056641e+00,-4.852336645126342773e-01
7.607051372528076172e+00,5.297265052795410156e+00,-1.618038266897201538e-01
7.615907669067382812e+00,5.303432464599609375e+00,1.619922071695327759e-01
7.625488281250000000e+00,5.310103893280029297e+00,4.869836568832397461e-01
7.634184837341308594e+00,5.316160202026367188e+00,8.138895034790039062e-01
7.643927574157714844e+00,5.322944641113281250e+00,1.143697857856750488e+00
3.224990367889404297e+00,2.314997673034667969e+00,-1.063718676567077637e+00
3.840197563171386719e+00,2.756612300872802734e+00,-1.091348886489868164e+00
4.702980995178222656e+00,3.375944852828979492e+00,-1.125308036804199219e+00
6.060673236846923828e+00,4.350538253784179688e+00,-1.181624054908752441e+00
7.603599071502685547e+00,5.458097934722900391e+00,-1.149235248565673828e+00
7.612990856170654297e+00,5.464839935302734375e+00,-8.198851943016052246e-01
7.621751308441162109e+00,5.471128463745117188e+00,-4.916957914829254150e-01
7.630744457244873047e+00,5.477583408355712891e+00,-1.639586538076400757e-01
7.639973640441894531e+00,5.484209060668945312e+00,1.641569584608078003e-01
7.648654460906982422e+00,5.490439891815185547e+00,4.934313595294952393e-01
7.658070087432861328e+00,5.497199058532714844e+00,8.247400522232055664e-01
7.667427062988281250e+00,5.503915786743164062e+00,1.158882498741149902e+00
3.205190896987915039e+00,2.371023893356323242e+00,-1.068272590637207031e+00
3.787324190139770508e+00,2.801653861999511719e+00,-1.087607860565185547e+00
4.662362575531005859e+00,3.448959112167358398e+00,-1.127285838127136230e+00
5.993813514709472656e+00,4.433893203735351562e+00,-1.180841207504272461e+00
7.626091957092285156e+00,5.641362667083740234e+00,-1.164720058441162109e+00
7.634981632232666016e+00,5.647938728332519531e+00,-8.308746814727783203e-01
7.643961429595947266e+00,5.654581546783447266e+00,-4.982989728450775146e-01
7.652978420257568359e+00,5.661252021789550781e+00,-1.661604642868041992e-01
7.662034988403320312e+00,5.667951583862304688e+00,1.663571000099182129e-01
7.671251296997070312e+00,5.674769401550292969e+00,5.000779628753662109e-01
7.680466175079345703e+00,5.681585788726806641e+00,8.358244895935058594e-01
7.689429283142089844e+00,5.688216209411621094e+00,1.174393415451049805e+00
3.167370557785034180e+00,2.413941860198974609e+00,-1.067073822021484375e+00
3.759729385375976562e+00,2.865395307540893555e+00,-1.091349482536315918e+00
4.621379375457763672e+00,3.522082805633544922e+00,-1.129450082778930664e+00
5.927057266235351562e+00,4.517176628112792969e+00,-1.180306553840637207e+00
7.646970748901367188e+00,5.827970981597900391e+00,-1.180528283119201660e+00
7.655369758605957031e+00,5.834372043609619141e+00,-8.420950770378112793e-01
7.664570331573486328e+00,5.841383934020996094e+00,-5.050411820411682129e-01
7.673611164093017578e+00,5.848274230957031250e+00,-1.684086769819259644e-01
7.682494163513183594e+00,5.855044364929199219e+00,1.686036288738250732e-01
7.692225933074951172e+00,5.862461090087890625e+00,5.068634748458862305e-01
7.701230049133300781e+00,5.869323253631591797e+00,8.471397757530212402e-01
7.709786891937255859e+00,5.875844955444335938e+00,1.190225720405578613e+00
3.132051467895507812e+00,2.458675622940063477e+00,-1.066921830177307129e+00
3.710147857666015625e+00,2.912483930587768555e+00,-1.088946580886840820e+00
4.546516895294189453e+00,3.569037914276123047e+00,-1.123524069786071777e+00
5.864990711212158203e+00,4.604046344757080078e+00,-1.180948972702026367e+00
7.673156261444091797e+00,6.023465156555175781e+00,-1.197758078575134277e+00
7.682562828063964844e+00,6.030848979949951172e+00,-8.544943332672119141e-01
7.691649913787841797e+00,6.037982463836669922e+00,-5.124678015708923340e-01
7.700695514678955078e+00,6.045083522796630859e+00,-1.708845198154449463e-01
7.709753990173339844e+00,6.052194118499755859e+00,1.710855215787887573e-01
7.718561172485351562e+00,6.059108257293701172e+00,5.142607688903808594e-01
7.728189468383789062e+00,6.066666603088378906e+00,8.595691919326782227e-01
7.737859249114990234e+00,6.074257373809814453e+00,1.207857966423034668e+00
3.094322681427001953e+00,2.501455545425415039e+00,-1.066157102584838867e+00
3.681772232055664062e+00,2.976350545883178711e+00,-1.093010067939758301e+00
4.505238056182861328e+00,3.642041683197021484e+00,-1.126090168952941895e+00
5.798134326934814453e+00,4.687221050262451172e+00,-1.180875062942504883e+00
7.690449237823486328e+00,6.216971874237060547e+00,-1.214223504066467285e+00
7.699379444122314453e+00,6.224190711975097656e+00,-8.661850690841674805e-01
7.708683967590332031e+00,6.231712818145751953e+00,-5.194923877716064453e-01
7.717751026153564453e+00,6.239042282104492188e+00,-1.732269376516342163e-01
7.726629257202148438e+00,6.246219635009765625e+00,1.734262108802795410e-01
7.735926628112792969e+00,6.253736019134521484e+00,5.213282704353332520e-01
7.745319366455078125e+00,6.261328697204589844e+00,8.713533282279968262e-01
7.754548549652099609e+00,6.268789768218994141e+00,1.224344015121459961e+00
3.061361074447631836e+00,2.548112154006958008e+00,-1.067257404327392578e+00
3.635162353515625000e+00,3.025713443756103516e+00,-1.091918110847473145e+00
