2.362399101257324219e+00,2.207012176513671875e+00,7.463793754577636719e-01
2.255213737487792969e+00,2.168149232864379883e+00,-8.382498025894165039e-01
2.258248329162597656e+00,2.171066761016845703e+00,-7.232178449630737305e-01
2.261086463928222656e+00,2.173795223236083984e+00,-6.096811294555664062e-01
2.264199972152709961e+00,2.176788568496704102e+00,-4.974628090858459473e-01
2.267193794250488281e+00,2.179666757583618164e+00,-3.861586153507232666e-01
2.270293235778808594e+00,2.182646751403808594e+00,-2.755288481712341309e-01
2.273188114166259766e+00,2.185429573059082031e+00,-1.652587503194808960e-01
2.276144981384277344e+00,2.188272476196289062e+00,-5.511308833956718445e-02
2.279172420501708984e+00,2.191183090209960938e+00,5.518639087677001953e-02
2.282000303268432617e+00,2.193901777267456055e+00,1.658993959426879883e-01
2.284981727600097656e+00,2.196768045425415039e+00,2.773115038871765137e-01
2.287889719009399414e+00,2.199563741683959961e+00,3.896836638450622559e-01
2.291154861450195312e+00,2.202702999114990234e+00,5.033850073814392090e-01
2.294291257858276367e+00,2.205718040466308594e+00,6.186345219612121582e-01
2.297154188156127930e+00,2.208470582962036133e+00,7.356776595115661621e-01
2.194002866744995117e+00,2.170574426651000977e+00,-8.269613385200500488e-01
2.196628093719482422e+00,2.173171520233154297e+00,-7.133722901344299316e-01
2.199566364288330078e+00,2.176078557968139648e+00,-6.014298200607299805e-01
2.202695846557617188e+00,2.179174423217773438e+00,-4.907526373863220215e-01
2.205413341522216797e+00,2.181862831115722656e+00,-3.809160888195037842e-01
2.208341121673583984e+00,2.184759378433227539e+00,-2.717775106430053711e-01
2.211224317550659180e+00,2.187611818313598633e+00,-1.630137264728546143e-01
2.214095830917358398e+00,2.190452575683593750e+00,-5.436425656080245972e-02
2.216962337493896484e+00,2.193288564682006836e+00,5.443464592099189758e-02
2.219803810119628906e+00,2.196099758148193359e+00,1.636462062597274780e-01
2.222903490066528320e+00,2.199166297912597656e+00,2.735696732997894287e-01
2.225621700286865234e+00,2.201855421066284180e+00,3.844064772129058838e-01
2.228606939315795898e+00,2.204808712005615234e+00,4.965255260467529297e-01
2.231994390487670898e+00,2.208159923553466797e+00,6.102965474128723145e-01
2.234534025192260742e+00,2.210672616958618164e+00,7.256825566291809082e-01
2.132790327072143555e+00,2.171289920806884766e+00,-8.155198097229003906e-01
2.136084079742431641e+00,2.174643039703369141e+00,-7.037466764450073242e-01
2.138664007186889648e+00,2.177269697189331055e+00,-5.932376980781555176e-01
2.141521215438842773e+00,2.180178165435791016e+00,-4.840261042118072510e-01
2.144297122955322266e+00,2.183004140853881836e+00,-3.757185339927673340e-01
2.147198915481567383e+00,2.185958385467529297e+00,-2.680760025978088379e-01
2.149945259094238281e+00,2.188754320144653320e+00,-1.607892662286758423e-01
2.152732610702514648e+00,2.191592216491699219e+00,-5.362230539321899414e-02
2.155580282211303711e+00,2.194491147994995117e+00,5.369323864579200745e-02
2.158277511596679688e+00,2.197237014770507812e+00,1.614124178886413574e-01
2.161146402359008789e+00,2.200157880783081055e+00,2.698173522949218750e-01
2.163978338241577148e+00,2.203040838241577148e+00,3.791670501232147217e-01
2.167163848876953125e+00,2.206283807754516602e+00,4.898218810558319092e-01
2.169687032699584961e+00,2.208852529525756836e+00,6.018431186676025391e-01
2.173104047775268555e+00,2.212331295013427734e+00,7.159430980682373047e-01
2.072894573211669922e+00,2.171627759933471680e+00,-8.044204115867614746e-01
2.075849056243896484e+00,2.174722909927368164e+00,-6.940859556198120117e-01
2.078572034835815430e+00,2.177575826644897461e+00,-5.851548314094543457e-01
2.081483840942382812e+00,2.180626153945922852e+00,-4.774621725082397461e-01
2.084033966064453125e+00,2.183297872543334961e+00,-3.705970942974090576e-01
2.086795091629028320e+00,2.186190366744995117e+00,-2.644143402576446533e-01
2.089536905288696289e+00,2.189062595367431641e+00,-1.585985422134399414e-01
2.092242240905761719e+00,2.191896915435791016e+00,-5.289161950349807739e-02
2.094924688339233398e+00,2.194707155227661133e+00,5.295943096280097961e-02
2.097608327865600586e+00,2.197518587112426758e+00,1.592111885547637939e-01
2.100547075271606445e+00,2.200597286224365234e+00,2.661568522453308105e-01
2.103154659271240234e+00,2.203329086303710938e+00,3.739972412586212158e-01
2.106021881103515625e+00,2.206332921981811523e+00,4.830908477306365967e-01
2.108725547790527344e+00,2.209165334701538086e+00,5.936434864997863770e-01
2.111740350723266602e+00,2.212323665618896484e+00,7.060866951942443848e-01
2.015390157699584961e+00,2.172813415527343750e+00,-7.940925955772399902e-01
2.018467426300048828e+00,2.176131010055541992e+00,-6.852442026138305664e-01
2.020892381668090820e+00,2.178745508193969727e+00,-5.776370167732238770e-01
2.023576736450195312e+00,2.181639432907104492e+00,-4.712938368320465088e-01
2.026394128799438477e+00,2.184676885604858398e+00,-3.658703863620758057e-01
2.028944730758666992e+00,2.187426567077636719e+00,-2.610246837139129639e-01
2.031599521636962891e+00,2.190288782119750977e+00,-1.565645486116409302e-01
2.034234523773193359e+00,2.193129777908325195e+00,-5.221341177821159363e-02
2.036847591400146484e+00,2.195946693420410156e+00,5.228047817945480347e-02
2.039592027664184570e+00,2.198905706405639648e+00,1.571804881095886230e-01
2.042089462280273438e+00,2.201598167419433594e+00,2.627157568931579590e-01
2.044774770736694336e+00,2.204493284225463867e+00,3.691890239715576172e-01
2.047787666320800781e+00,2.207741498947143555e+00,4.769325852394104004e-01
2.050200462341308594e+00,2.210342645645141602e+00,5.860142111778259277e-01
2.053431749343872070e+00,2.213826417922973633e+00,6.971141695976257324e-01
1.960037112236022949e+00,2.174751281738281250e+00,-7.844672799110412598e-01
1.962815642356872559e+00,2.177834272384643555e+00,-6.768644452095031738e-01
1.965380430221557617e+00,2.180680036544799805e+00,-5.706331729888916016e-01
1.968123197555541992e+00,2.183723211288452148e+00,-4.656106531620025635e-01
1.970730304718017578e+00,2.186615705490112305e+00,-3.614340424537658691e-01
1.973274827003479004e+00,2.189439058303833008e+00,-2.578680217266082764e-01
1.975812315940856934e+00,2.192254543304443359e+00,-1.546676754951477051e-01
1.978372216224670410e+00,2.195094823837280273e+00,-5.158074200153350830e-02
1.980958819389343262e+00,2.197964906692504883e+00,5.164818465709686279e-02
1.983554840087890625e+00,2.200845241546630859e+00,1.552737653255462646e-01
1.986119031906127930e+00,2.203690290451049805e+00,2.595464885234832764e-01
1.988588929176330566e+00,2.206430912017822266e+00,3.647093474864959717e-01
1.991302728652954102e+00,2.209441900253295898e+00,4.710943698883056641e-01
1.993867516517639160e+00,2.212287664413452148e+00,5.789041519165039062e-01
1.996716380119323730e+00,2.215448617935180664e+00,6.885548830032348633e-01
1.904567360877990723e+00,2.175008296966552734e+00,-7.746471762657165527e-01
1.907046198844909668e+00,2.177839040756225586e+00,-6.683138608932495117e-01
1.909706115722656250e+00,2.180876731872558594e+00,-5.634741187095642090e-01
1.912203788757324219e+00,2.183728933334350586e+00,-4.597289562225341797e-01
1.914636373519897461e+00,2.186506986618041992e+00,-3.568496108055114746e-01
1.917186260223388672e+00,2.189419031143188477e+00,-2.546075582504272461e-01
1.919618368148803711e+00,2.192196369171142578e+00,-1.527094244956970215e-01
1.922100186347961426e+00,2.195030689239501953e+00,-5.092753469944000244e-02
1.924647688865661621e+00,2.197939872741699219e+00,5.099503695964813232e-02
1.927083849906921387e+00,2.200721979141235352e+00,1.533033102750778198e-01
1.929677009582519531e+00,2.203683376312255859e+00,2.562663555145263672e-01
1.932246088981628418e+00,2.206617116928100586e+00,3.601317107677459717e-01
1.934704065322875977e+00,2.209424257278442383e+00,4.651384353637695312e-01
1.937419891357421875e+00,2.212525606155395508e+00,5.716512799263000488e-01
1.939918160438537598e+00,2.215378761291503906e+00,6.798336505889892578e-01
1.851920247077941895e+00,2.176977634429931641e+00,-7.658292651176452637e-01
1.854550600051879883e+00,2.180069446563720703e+00,-6.607847809791564941e-01
1.856970191001892090e+00,2.182913780212402344e+00,-5.570759773254394531e-01
1.859541773796081543e+00,2.185936689376831055e+00,-4.545437395572662354e-01
1.861805319786071777e+00,2.188597679138183594e+00,-3.528054356575012207e-01
1.864249944686889648e+00,2.191471338272094727e+00,-2.517173588275909424e-01
1.866683125495910645e+00,2.194331645965576172e+00,-1.509814560413360596e-01
1.869094371795654297e+00,2.197166204452514648e+00,-5.035121738910675049e-02
1.871493458747863770e+00,2.199986219406127930e+00,5.041584372520446777e-02
1.873899221420288086e+00,2.202814340591430664e+00,1.515651047229766846e-01
1.876525282859802246e+00,2.205901384353637695e+00,2.533748149871826172e-01
1.878870725631713867e+00,2.208658456802368164e+00,3.560392856597900391e-01
1.881430983543395996e+00,2.211668014526367188e+00,4.598943293094635010e-01
1.883842110633850098e+00,2.214502573013305664e+00,5.651373863220214844e-01
1.886494994163513184e+00,2.217620849609375000e+00,6.721667051315307617e-01
1.799324393272399902e+00,2.177543401718139648e+00,-7.568907141685485840e-01
1.801709890365600586e+00,2.180430173873901367e+00,-6.530106067657470703e-01
1.804240107536315918e+00,2.183492422103881836e+00,-5.505767464637756348e-01
1.806606292724609375e+00,2.186355829238891602e+00,-4.492078125476837158e-01
1.808898568153381348e+00,2.189130067825317383e+00,-3.486817777156829834e-01
1.811189889907836914e+00,2.191902875900268555e+00,-2.487637251615524292e-01
1.813557863235473633e+00,2.194768667221069336e+00,-1.492101848125457764e-01
1.815904498100280762e+00,2.197608470916748047e+00,-4.976061731576919556e-02
1.818223595619201660e+00,2.200415134429931641e+00,4.982416704297065735e-02
1.820646286010742188e+00,2.203347206115722656e+00,1.497933864593505859e-01
1.823094487190246582e+00,2.206309795379638672e+00,2.503987848758697510e-01
1.825508832931518555e+00,2.209231853485107422e+00,3.518835604190826416e-01
1.827806353569030762e+00,2.212012290954589844e+00,4.544791579246520996e-01
1.830320954322814941e+00,2.215055465698242188e+00,5.585355162620544434e-01
1.832615375518798828e+00,2.217832088470458984e+00,6.642119288444519043e-01
1.748606204986572266e+00,2.178936719894409180e+00,-7.485986948013305664e-01
1.750770568847656250e+00,2.181633710861206055e+00,-6.457998156547546387e-01
1.753119349479675293e+00,2.184560537338256836e+00,-5.444629788398742676e-01
1.755580425262451172e+00,2.187627315521240234e+00,-4.442606568336486816e-01
1.757740855216979980e+00,2.190319299697875977e+00,-3.448285460472106934e-01
1.760047078132629395e+00,2.193193197250366211e+00,-2.460258156061172485e-01
1.762326121330261230e+00,2.196033000946044922e+00,-1.475661098957061768e-01
1.764601588249206543e+00,2.198868513107299805e+00,-4.921219497919082642e-02
1.766880631446838379e+00,2.201708316802978516e+00,4.927575588226318359e-02
1.769146084785461426e+00,2.204531431198120117e+00,1.481371670961380005e-01
1.771593809127807617e+00,2.207581520080566406e+00,2.476398646831512451e-01
1.773766517639160156e+00,2.210288763046264648e+00,3.479723930358886719e-01
1.776111245155334473e+00,2.213210582733154297e+00,4.494560956954956055e-01
1.778712272644042969e+00,2.216451644897460938e+00,5.524113178253173828e-01
1.781145691871643066e+00,2.219484090805053711e+00,6.570041775703430176e-01
1.698683142662048340e+00,2.179922580718994141e+00,-7.405081987380981445e-01
1.700993180274963379e+00,2.182887077331542969e+00,-6.388983130455017090e-01
1.703133106231689453e+00,2.185633182525634766e+00,-5.385994315147399902e-01
1.705424070358276367e+00,2.188573360443115234e+00,-4.394505023956298828e-01
1.707622289657592773e+00,2.191394329071044922e+00,-3.411148786544799805e-01
1.709796190261840820e+00,2.194184064865112305e+00,-2.433667182922363281e-01
1.711991548538208008e+00,2.197001457214355469e+00,-1.459696143865585327e-01
1.714199066162109375e+00,2.199834108352661133e+00,-4.867968708276748657e-02
1.716430664062500000e+00,2.202698230743408203e+00,4.874306172132492065e-02
1.718700647354125977e+00,2.205610990524291992e+00,1.465416401624679565e-01
1.720969676971435547e+00,2.208523035049438477e+00,2.449571192264556885e-01
1.723182559013366699e+00,2.211362838745117188e+00,3.442231714725494385e-01
1.725603342056274414e+00,2.214469432830810547e+00,4.446502625942230225e-01
1.727912425994873047e+00,2.217432737350463867e+00,5.464357137680053711e-01
1.729984760284423828e+00,2.220092058181762695e+00,6.497876048088073730e-01
1.649603605270385742e+00,2.180604696273803711e+00,-7.326441407203674316e-01
1.651752114295959473e+00,2.183444976806640625e+00,-6.320770382881164551e-01
1.654031276702880859e+00,2.186457633972167969e+00,-5.329138636589050293e-01
1.656176924705505371e+00,2.189294099807739258e+00,-4.347907602787017822e-01
1.658275127410888672e+00,2.192067623138427734e+00,-3.374903798103332520e-01
1.660474538803100586e+00,2.194975137710571289e+00,-2.407936751842498779e-01
1.662620306015014648e+00,2.197811365127563477e+00,-1.444274932146072388e-01
1.664766550064086914e+00,2.200648546218872070e+00,-4.816547781229019165e-02
1.666914224624633789e+00,2.203487634658813477e+00,4.822761565446853638e-02
1.669021248817443848e+00,2.206272840499877930e+00,1.449835300445556641e-01
1.671263456344604492e+00,2.209236860275268555e+00,2.423582226037979126e-01
1.673492312431335449e+00,2.212182998657226562e+00,3.405873775482177734e-01
1.675633430480957031e+00,2.215013504028320312e+00,4.398985803127288818e-01
1.677970290184020996e+00,2.218102693557739258e+00,5.406268239021301270e-01
1.680116772651672363e+00,2.220939874649047852e+00,6.429313421249389648e-01
1.601401805877685547e+00,2.181076526641845703e+00,-7.250271439552307129e-01
1.603720068931579590e+00,2.184234142303466797e+00,-6.255963444709777832e-01
1.605841040611267090e+00,2.187122583389282227e+00,-5.274196863174438477e-01
1.607866287231445312e+00,2.189881086349487305e+00,-4.302926957607269287e-01
1.610015273094177246e+00,2.192807912826538086e+00,-3.340221643447875977e-01
1.612106204032897949e+00,2.195655822753906250e+00,-2.383125722408294678e-01
1.614178776741027832e+00,2.198478460311889648e+00,-1.429384052753448486e-01
1.616260170936584473e+00,2.201313257217407227e+00,-4.766880348324775696e-02
1.618354082107543945e+00,2.204165220260620117e+00,4.773056134581565857e-02
1.620445966720581055e+00,2.207014322280883789e+00,1.434933692216873169e-01
1.622501730918884277e+00,2.209814071655273438e+00,2.398493140935897827e-01
1.624723911285400391e+00,2.212840795516967773e+00,3.370736837387084961e-01
1.626895546913146973e+00,2.215798377990722656e+00,4.353852272033691406e-01
1.628921270370483398e+00,2.218557357788085938e+00,5.350000858306884766e-01
1.631103396415710449e+00,2.221529483795166016e+00,6.362782716751098633e-01
1.555092930793762207e+00,2.182816743850708008e+00,-7.181328535079956055e-01
1.557232856750488281e+00,2.185820341110229492e+00,-6.196032166481018066e-01
1.559210538864135742e+00,2.188596487045288086e+00,-5.223397016525268555e-01
1.561308383941650391e+00,2.191541194915771484e+00,-4.261841177940368652e-01
1.563320994377136230e+00,2.194366216659545898e+00,-3.308171033859252930e-01
1.565308332443237305e+00,2.197155714035034180e+00,-2.360194176435470581e-01
1.567314624786376953e+00,2.199971914291381836e+00,-1.415624171495437622e-01
1.569332599639892578e+00,2.202804327011108398e+00,-4.720983654260635376e-02
1.571373105049133301e+00,2.205668449401855469e+00,4.727121815085411072e-02
1.573445200920104980e+00,2.208576917648315430e+00,1.421161442995071411e-01
1.575517058372497559e+00,2.211485385894775391e+00,2.375586926937103271e-01
1.577535748481750488e+00,2.214318752288818359e+00,3.338251113891601562e-01
1.579726338386535645e+00,2.217393636703491211e+00,4.312115609645843506e-01
1.581805706024169922e+00,2.220312356948852539e+00,5.299091339111328125e-01
1.584058284759521484e+00,2.223474025726318359e+00,6.302767395973205566e-01
1.508924722671508789e+00,2.183479070663452148e+00,-7.111723423004150391e-01
1.510934829711914062e+00,2.186387777328491211e+00,-6.135708093643188477e-01
1.512809276580810547e+00,2.189100265502929688e+00,-5.172390341758728027e-01
1.514819145202636719e+00,2.192008495330810547e+00,-4.220152497291564941e-01
1.516894698143005371e+00,2.195012092590332031e+00,-3.276076614856719971e-01
1.518797516822814941e+00,2.197765588760375977e+00,-2.337257266044616699e-01
1.520765662193298340e+00,2.200613498687744141e+00,-1.401886790990829468e-01
1.522726655006408691e+00,2.203450918197631836e+00,-4.675179347395896912e-02
1.524677515029907227e+00,2.206274032592773438e+00,4.681168869137763977e-02
1.526713848114013672e+00,2.209220647811889648e+00,1.407369822263717651e-01
1.528593897819519043e+00,2.211941242218017578e+00,2.352332770824432373e-01
1.530577898025512695e+00,2.214812040328979492e+00,3.305628597736358643e-01
1.532746791839599609e+00,2.217950582504272461e+00,4.270097315311431885e-01
1.534831881523132324e+00,2.220967769622802734e+00,5.247687101364135742e-01
1.536723613739013672e+00,2.223705291748046875e+00,6.240432858467102051e-01
1.463625550270080566e+00,2.184116601943969727e+00,-7.044844031333923340e-01
1.465534687042236328e+00,2.186965465545654297e+00,-6.077838540077209473e-01
1.467539310455322266e+00,2.189956903457641602e+00,-5.124257802963256836e-01
1.469432592391967773e+00,2.192782163619995117e+00,-4.180720746517181396e-01
1.471287846565246582e+00,2.195550918579101562e+00,-3.245117366313934326e-01
1.473234653472900391e+00,2.198455810546875000e+00,-2.315328866243362427e-01
1.475146293640136719e+00,2.201308488845825195e+00,-1.388736516237258911e-01
1.477044820785522461e+00,2.204141616821289062e+00,-4.631312936544418335e-02
1.478934526443481445e+00,2.206961631774902344e+00,4.637238383293151855e-02
1.480801820755004883e+00,2.209748268127441406e+00,1.394060701131820679e-01
1.482789039611816406e+00,2.212713718414306641e+00,2.330344617366790771e-01
1.484769940376281738e+00,2.215669631958007812e+00,3.274853825569152832e-01
1.486678600311279297e+00,2.218517780303955078e+00,4.229787886142730713e-01
1.488741397857666016e+00,2.221596002578735352e+00,5.198289752006530762e-01
1.490633964538574219e+00,2.224420309066772461e+00,6.181930303573608398e-01
1.419182777404785156e+00,2.184775352478027344e+00,-6.980733275413513184e-01
1.421258687973022461e+00,2.187970876693725586e+00,-6.023479700088500977e-01
1.422949671745300293e+00,2.190574407577514648e+00,-5.077524781227111816e-01
1.424946069717407227e+00,2.193647623062133789e+00,-4.143059849739074707e-01
1.426832556724548340e+00,2.196551799774169922e+00,-3.216081559658050537e-01
1.428596377372741699e+00,2.199267148971557617e+00,-2.294413000345230103e-01
1.430455923080444336e+00,2.202129840850830078e+00,-1.376196742057800293e-01
1.432294130325317383e+00,2.204959630966186523e+00,-4.589485004544258118e-02
1.434119701385498047e+00,2.207770109176635742e+00,4.595334827899932861e-02
1.436059594154357910e+00,2.210756301879882812e+00,1.381587833166122437e-01
1.437893033027648926e+00,2.213578939437866211e+00,2.309343963861465454e-01
1.439646005630493164e+00,2.216277599334716797e+00,3.244962990283966064e-01
1.441756725311279297e+00,2.219527006149291992e+00,4.191937148571014404e-01
1.443522810935974121e+00,2.222245931625366211e+00,5.150936245918273926e-01
1.445388555526733398e+00,2.225118160247802734e+00,6.125745773315429688e-01
1.375846385955810547e+00,2.185920715332031250e+00,-6.920760869979858398e-01
1.377585768699645996e+00,2.188684225082397461e+00,-5.970547795295715332e-01
1.379425525665283203e+00,2.191606998443603516e+00,-5.033637881278991699e-01
1.381333470344543457e+00,2.194638252258300781e+00,-4.107168018817901611e-01
1.383145689964294434e+00,2.197517395019531250e+00,-3.188182115554809570e-01
1.384916663169860840e+00,2.200331211090087891e+00,-2.274609506130218506e-01
1.386683344841003418e+00,2.203138113021850586e+00,-1.364283114671707153e-01
1.388467431068420410e+00,2.205972671508789062e+00,-4.549761489033699036e-02
1.390272617340087891e+00,2.208840608596801758e+00,4.555676504969596863e-02
1.392085194587707520e+00,2.211720466613769531e+00,1.369597613811492920e-01
1.393877983093261719e+00,2.214568853378295898e+00,2.289327830076217651e-01
1.395603895187377930e+00,2.217310905456542969e+00,3.216898739337921143e-01
1.397441625595092773e+00,2.220230579376220703e+00,4.155063331127166748e-01
1.399434447288513184e+00,2.223396778106689453e+00,5.106651782989501953e-01
1.401288270950317383e+00,2.226342201232910156e+00,6.073275804519653320e-01
1.333293676376342773e+00,2.187135219573974609e+00,-6.863481402397155762e-01
1.334961056709289551e+00,2.189870357513427734e+00,-5.921052694320678711e-01
1.336726665496826172e+00,2.192766666412353516e+00,-4.991845190525054932e-01
1.338560700416564941e+00,2.195775032043457031e+00,-4.073022603988647461e-01
1.340311527252197266e+00,2.198647260665893555e+00,-3.161664307117462158e-01
1.342030882835388184e+00,2.201467752456665039e+00,-2.255695760250091553e-01
1.343754529953002930e+00,2.204295158386230469e+00,-1.352950632572174072e-01
1.345480799674987793e+00,2.207126855850219727e+00,-4.511959850788116455e-02
1.347217082977294922e+00,2.209975004196166992e+00,4.517782106995582581e-02
1.348969936370849609e+00,2.212850332260131836e+00,1.358201652765274048e-01
1.350711703300476074e+00,2.215707778930664062e+00,2.270286530256271362e-01
1.352397441864013672e+00,2.218472957611083984e+00,3.190173804759979248e-01
1.354193925857543945e+00,2.221420049667358398e+00,4.120591878890991211e-01
1.356141805648803711e+00,2.224615335464477539e+00,5.064348578453063965e-01
1.357959270477294922e+00,2.227596759796142578e+00,6.023058295249938965e-01
1.291126608848571777e+00,2.187814235687255859e+00,-6.806921362876892090e-01
1.292961835861206055e+00,2.190924167633056641e+00,-5.873261094093322754e-01
1.294646143913269043e+00,2.193778038024902344e+00,-4.951454997062683105e-01
1.296259522438049316e+00,2.196511983871459961e+00,-4.039559066295623779e-01
1.297965168952941895e+00,2.199402332305908203e+00,-3.135713040828704834e-01
1.299643516540527344e+00,2.202246189117431641e+00,-2.237203717231750488e-01
1.301345586776733398e+00,2.205130338668823242e+00,-1.341892927885055542e-01
1.303019285202026367e+00,2.207966327667236328e+00,-4.475090280175209045e-02
1.304661273956298828e+00,2.210748672485351562e+00,4.480729624629020691e-02
1.306344509124755859e+00,2.213601112365722656e+00,1.347047686576843262e-01
1.308019518852233887e+00,2.216439247131347656e+00,2.251621931791305542e-01
1.309820294380187988e+00,2.219490766525268555e+00,3.164353370666503906e-01
1.311585903167724609e+00,2.222482442855834961e+00,4.087320864200592041e-01
1.313241720199584961e+00,2.225288391113281250e+00,5.022574663162231445e-01
1.314984679222106934e+00,2.228241682052612305e+00,5.973299145698547363e-01
1.249491095542907715e+00,2.188220739364624023e+00,-6.751850843429565430e-01
1.251341104507446289e+00,2.191460847854614258e+00,-5.826088190078735352e-01
1.252857327461242676e+00,2.194116115570068359e+00,-4.911239743232727051e-01
1.254607200622558594e+00,2.197180509567260742e+00,-4.007352590560913086e-01
1.256166577339172363e+00,2.199911594390869141e+00,-3.110485970973968506e-01
1.257801532745361328e+00,2.202775001525878906e+00,-2.219224274158477783e-01
1.259418487548828125e+00,2.205606460571289062e+00,-1.331076771020889282e-01
1.261036038398742676e+00,2.208439350128173828e+00,-4.439011216163635254e-02
1.262658953666687012e+00,2.211281538009643555e+00,4.444723948836326599e-02
1.264273762702941895e+00,2.214109420776367188e+00,1.336208283901214600e-01
1.265989065170288086e+00,2.217113494873046875e+00,2.233669906854629517e-01
1.267534255981445312e+00,2.219819545745849609e+00,3.138634264469146729e-01
1.269359230995178223e+00,2.223015785217285156e+00,4.054472148418426514e-01
1.270886063575744629e+00,2.225689649581909180e+00,4.981912970542907715e-01
1.272742509841918945e+00,2.228940725326538086e+00,5.925730466842651367e-01
1.208967566490173340e+00,2.189439773559570312e+00,-6.701532006263732910e-01
1.210552334785461426e+00,2.192309617996215820e+00,-5.781688094139099121e-01
1.212200760841369629e+00,2.195295095443725586e+00,-4.874541759490966797e-01
1.213759422302246094e+00,2.198117733001708984e+00,-3.976968228816986084e-01
1.215380430221557617e+00,2.201053380966186523e+00,-3.087187409400939941e-01
1.216949105262756348e+00,2.203894138336181641e+00,-2.202577292919158936e-01
1.218480706214904785e+00,2.206667900085449219e+00,-1.321056485176086426e-01
1.220043420791625977e+00,2.209497928619384766e+00,-4.405586421489715576e-02
1.221648573875427246e+00,2.212404966354370117e+00,4.411382973194122314e-02
1.223223447799682617e+00,2.215256929397583008e+00,1.326198428869247437e-01
1.224764108657836914e+00,2.218047142028808594e+00,2.216721922159194946e-01
1.226397156715393066e+00,2.221004724502563477e+00,3.115171194076538086e-01
1.227974057197570801e+00,2.223860502243041992e+00,4.023543298244476318e-01
1.229662775993347168e+00,2.226918697357177734e+00,4.944760799407958984e-01
1.231207609176635742e+00,2.229716300964355469e+00,5.880338549613952637e-01
1.168847203254699707e+00,2.190287828445434570e+00,-6.652237772941589355e-01
1.170380592346191406e+00,2.193161249160766602e+00,-5.739166140556335449e-01
1.171977162361145020e+00,2.196153163909912109e+00,-4.838703572750091553e-01
1.173483729362487793e+00,2.198976278305053711e+00,-3.947727382183074951e-01
1.174959421157836914e+00,2.201741456985473633e+00,-3.064250051975250244e-01
1.176504254341125488e+00,2.204636335372924805e+00,-2.186265438795089722e-01
1.178023695945739746e+00,2.207483530044555664e+00,-1.311316043138504028e-01
1.179535150527954102e+00,2.210315942764282227e+00,-4.373105615377426147e-02
1.181042790412902832e+00,2.213140964508056641e+00,4.378695040941238403e-02
1.182536244392395020e+00,2.215939760208129883e+00,1.316339224576950073e-01
1.184120178222656250e+00,2.218907594680786133e+00,2.200417667627334595e-01
1.185698866844177246e+00,2.221865892410278320e+00,3.092258274555206299e-01
1.187218308448791504e+00,2.224713087081909180e+00,3.993932008743286133e-01
1.188848137855529785e+00,2.227767467498779297e+00,4.908358156681060791e-01
1.190336704254150391e+00,2.230556726455688477e+00,5.837023854255676270e-01
1.129141449928283691e+00,2.190807104110717773e+00,-6.604051589965820312e-01
1.130640625953674316e+00,2.193715810775756836e+00,-5.697684288024902344e-01
1.132200360298156738e+00,2.196742057800292969e+00,-4.803803563117980957e-01
1.133665204048156738e+00,2.199584245681762695e+00,-3.919286727905273438e-01
1.135094523429870605e+00,2.202357530593872070e+00,-3.042184114456176758e-01
1.136584997177124023e+00,2.205249309539794922e+00,-2.170518040657043457e-01
1.138042092323303223e+00,2.208076477050781250e+00,-1.301858574151992798e-01
1.139503955841064453e+00,2.210912942886352539e+00,-4.341572150588035583e-02
1.140969634056091309e+00,2.213756799697875977e+00,4.347156360745429993e-02
1.142412424087524414e+00,2.216556072235107422e+00,1.306857913732528687e-01
1.143937468528747559e+00,2.219514846801757812e+00,2.184558957815170288e-01
1.145450949668884277e+00,2.222451448440551758e+00,3.069940507411956787e-01
1.146900296211242676e+00,2.225263357162475586e+00,3.965042531490325928e-01
1.148455381393432617e+00,2.228280782699584961e+00,4.872772097587585449e-01
1.150135278701782227e+00,2.231540203094482422e+00,5.795924663543701172e-01
1.090307354927062988e+00,2.191939115524291992e+00,-6.559749245643615723e-01
1.091767311096191406e+00,2.194874286651611328e+00,-5.659525990486145020e-01
1.093123316764831543e+00,2.197600364685058594e+00,-4.770976603031158447e-01
1.094567537307739258e+00,2.200504064559936523e+00,-3.892610669136047363e-01
1.095965147018432617e+00,2.203313589096069336e+00,-3.021526336669921875e-01
1.097411632537841797e+00,2.206221580505371094e+00,-2.155793756246566772e-01
1.098796725273132324e+00,2.209006309509277344e+00,-1.293001472949981689e-01
1.100205540657043457e+00,2.211838483810424805e+00,-4.312024265527725220e-02
1.101644754409790039e+00,2.214731931686401367e+00,4.317664727568626404e-02
1.103028655052185059e+00,2.217513799667358398e+00,1.297981142997741699e-01
1.104481816291809082e+00,2.220435380935668945e+00,2.169682681560516357e-01
1.105912089347839355e+00,2.223310708999633789e+00,3.048949539661407471e-01
1.107465267181396484e+00,2.226433277130126953e+00,3.938478529453277588e-01
1.108952403068542480e+00,2.229423046112060547e+00,4.840063154697418213e-01
1.110293626785278320e+00,2.232119321823120117e+00,5.755562782287597656e-01
1.051667332649230957e+00,2.192398309707641602e+00,-6.515407562255859375e-01
1.053136110305786133e+00,2.195460319519042969e+00,-5.621592402458190918e-01
1.054493069648742676e+00,2.198289155960083008e+00,-4.739218652248382568e-01
1.055925250053405762e+00,2.201274871826171875e+00,-3.866842389106750488e-01
1.057299375534057617e+00,2.204139471054077148e+00,-3.001597821712493896e-01
1.058656215667724609e+00,2.206968069076538086e+00,-2.141497135162353516e-01
1.060040116310119629e+00,2.209853172302246094e+00,-1.284484416246414185e-01
1.061399936676025391e+00,2.212687730789184570e+00,-4.283623397350311279e-02
1.062735199928283691e+00,2.215471506118774414e+00,4.289012402296066284e-02
1.064111113548278809e+00,2.218339681625366211e+00,1.289417296648025513e-01
1.065485954284667969e+00,2.221205949783325195e+00,2.155312597751617432e-01
1.066823840141296387e+00,2.223994970321655273e+00,3.028637170791625977e-01
1.068270921707153320e+00,2.227011919021606445e+00,3.912052810192108154e-01
1.069643020629882812e+00,2.229872226715087891e+00,4.807307422161102295e-01
1.071120619773864746e+00,2.232952356338500977e+00,5.717592835426330566e-01
1.013665556907653809e+00,2.193126440048217773e+00,-6.473789811134338379e-01
1.015124440193176270e+00,2.196282863616943359e+00,-5.585922002792358398e-01
1.016461133956909180e+00,2.199174880981445312e+00,-4.709280133247375488e-01
1.017857789993286133e+00,2.202196836471557617e+00,-3.842475414276123047e-01
1.019096970558166504e+00,2.204877614974975586e+00,-2.982433438301086426e-01
1.020421385765075684e+00,2.207743167877197266e+00,-2.127858698368072510e-01
1.021739363670349121e+00,2.210594654083251953e+00,-1.276284158229827881e-01
1.023048043251037598e+00,2.213426113128662109e+00,-4.256267845630645752e-02
1.024352431297302246e+00,2.216248035430908203e+00,4.261694848537445068e-02
1.025660276412963867e+00,2.219077825546264648e+00,1.281181722879409790e-01
1.027072787284851074e+00,2.222133874893188477e+00,2.141728848218917847e-01
1.028344631195068359e+00,2.224885702133178711e+00,3.009497225284576416e-01
1.029709458351135254e+00,2.227838516235351562e+00,3.887216150760650635e-01
1.030986070632934570e+00,2.230600357055664062e+00,4.776574075222015381e-01
1.032608985900878906e+00,2.234111785888671875e+00,5.682133436203002930e-01
9.762896299362182617e-01,2.194185256958007812e+00,-6.435006260871887207e-01
9.775411486625671387e-01,2.196997880935668945e+00,-5.551584959030151367e-01
9.788691401481628418e-01,2.199982643127441406e+00,-4.680527150630950928e-01
9.801235795021057129e-01,2.202801704406738281e+00,-3.818661868572235107e-01
9.814382791519165039e-01,2.205756664276123047e+00,-2.964316904544830322e-01
9.826517701148986816e-01,2.208483934402465820e+00,-2.114799916744232178e-01
9.839231967926025391e-01,2.211341381072998047e+00,-1.268454194068908691e-01
9.851838946342468262e-01,2.214174747467041016e+00,-4.230158403515815735e-02
9.864367842674255371e-01,2.216990470886230469e+00,4.235538095235824585e-02
9.877598881721496582e-01,2.219964265823364258e+00,1.273400485515594482e-01
9.889927506446838379e-01,2.222735166549682617e+00,2.128446549177169800e-01
9.903106689453125000e-01,2.225697040557861328e+00,2.991114556789398193e-01
9.915816187858581543e-01,2.228553533554077148e+00,3.863303661346435547e-01
9.929691553115844727e-01,2.231671810150146484e+00,4.747947156429290771e-01
9.942469596862792969e-01,2.234543800354003906e+00,5.646459460258483887e-01
9.391112327575683594e-01,2.194670200347900391e+00,-6.396351456642150879e-01
9.403821825981140137e-01,2.197640419006347656e+00,-5.518630743026733398e-01
9.417120814323425293e-01,2.200748205184936523e+00,-4.653002321720123291e-01
9.429519176483154297e-01,2.203645944595336914e+00,-3.796338438987731934e-01
9.441493749618530273e-01,2.206444263458251953e+00,-2.946777343750000000e-01
9.453414678573608398e-01,2.209229946136474609e+00,-2.102341949939727783e-01
9.465689063072204590e-01,2.212098598480224609e+00,-1.260987818241119385e-01
9.477822780609130859e-01,2.214934110641479492e+00,-4.205260798335075378e-02
9.489814639091491699e-01,2.217736482620239258e+00,4.210581257939338684e-02
9.502278566360473633e-01,2.220649480819702148e+00,1.265862137079238892e-01
9.514831900596618652e-01,2.223582983016967773e+00,2.116000503301620483e-01
9.527163505554199219e-01,2.226464986801147461e+00,2.973515987396240234e-01
9.538840651512145996e-01,2.229193687438964844e+00,3.840351402759552002e-01
9.551492333412170410e-01,2.232150316238403320e+00,4.719395339488983154e-01
9.565356373786926270e-01,2.235390424728393555e+00,5.613427162170410156e-01
9.025417566299438477e-01,2.195569038391113281e+00,-6.360668540000915527e-01
9.038137793540954590e-01,2.198663473129272461e+00,-5.488151311874389648e-01
9.049814939498901367e-01,2.201503992080688477e+00,-4.626739025115966797e-01
9.061030745506286621e-01,2.204232454299926758e+00,-3.774619400501251221e-01
9.073052406311035156e-01,2.207156896591186523e+00,-2.930085062980651855e-01
9.084798693656921387e-01,2.210014343261718750e+00,-2.090499848127365112e-01
9.096510410308837891e-01,2.212863445281982422e+00,-1.253873258829116821e-01
9.108151793479919434e-01,2.215695381164550781e+00,-4.181525856256484985e-02
9.119770526885986328e-01,2.218521833419799805e+00,4.186860099434852600e-02
9.131437540054321289e-01,2.221359968185424805e+00,1.258687674999237061e-01
9.142966270446777344e-01,2.224164485931396484e+00,2.103884816169738770e-01
9.155534505844116211e-01,2.227221965789794922e+00,2.956722080707550049e-01
9.167889952659606934e-01,2.230227470397949219e+00,3.819134533405303955e-01
9.179516434669494629e-01,2.233055830001831055e+00,4.693049192428588867e-01
9.192154407501220703e-01,2.236130237579345703e+00,5.581673979759216309e-01
8.661859035491943359e-01,2.195989608764648438e+00,-6.325321793556213379e-01
8.672900795936584473e-01,2.198789119720458984e+00,-5.456919074058532715e-01
8.684728145599365234e-01,2.201787471771240234e+00,-4.600738584995269775e-01
8.695905804634094238e-01,2.204621315002441406e+00,-3.753586411476135254e-01
8.707658648490905762e-01,2.207601070404052734e+00,-2.913830280303955078e-01
8.718446493148803711e-01,2.210335969924926758e+00,-2.078786939382553101e-01
8.729756474494934082e-01,2.213203191757202148e+00,-1.246857866644859314e-01
8.740928769111633301e-01,2.216035842895507812e+00,-4.158130660653114319e-02
8.751996159553527832e-01,2.218841552734375000e+00,4.163395613431930542e-02
8.763696551322937012e-01,2.221807956695556641e+00,1.251705437898635864e-01
8.774523735046386719e-01,2.224552869796752930e+00,2.092157751321792603e-01
8.786150813102722168e-01,2.227500677108764648e+00,2.940095663070678711e-01
8.797363042831420898e-01,2.230343103408813477e+00,3.797380328178405762e-01
8.809715509414672852e-01,2.233474969863891602e+00,4.666950702667236328e-01
8.821130990982055664e-01,2.236368894577026367e+00,5.550184249877929688e-01
8.303909301757812500e-01,2.196845769882202148e+00,-6.292907595634460449e-01
8.315214514732360840e-01,2.199836730957031250e+00,-5.429425239562988281e-01
8.325703740119934082e-01,2.202611684799194336e+00,-4.577090740203857422e-01
8.336978554725646973e-01,2.205594539642333984e+00,-3.734543323516845703e-01
8.347809314727783203e-01,2.208459854125976562e+00,-2.898895740509033203e-01
8.358513712882995605e-01,2.211291790008544922e+00,-2.068222016096115112e-01
8.369457721710205078e-01,2.214187145233154297e+00,-1.240536049008369446e-01
8.380180597305297852e-01,2.217023849487304688e+00,-4.137053713202476501e-02
8.390666246414184570e-01,2.219797849655151367e+00,4.142230376601219177e-02
8.401498198509216309e-01,2.222663402557373047e+00,1.245285123586654663e-01
8.412335515022277832e-01,2.225530624389648438e+00,2.081539481878280640e-01
8.422896862030029297e-01,2.228324651718139648e+00,2.924970984458923340e-01
8.434517383575439453e-01,2.231399059295654297e+00,3.778235912322998047e-01
8.445613980293273926e-01,2.234334468841552734e+00,4.643011689186096191e-01
8.457869291305541992e-01,2.237576961517333984e+00,5.522571802139282227e-01
7.948029637336730957e-01,2.197276592254638672e+00,-6.260912418365478516e-01
7.959582209587097168e-01,2.200470447540283203e+00,-5.402317047119140625e-01
7.970126271247863770e-01,2.203385353088378906e+00,-4.554525911808013916e-01
7.980165481567382812e-01,2.206160783767700195e+00,-3.715781271457672119e-01
7.990853190422058105e-01,2.209115505218505859e+00,-2.884447276592254639e-01
8.001162409782409668e-01,2.211965322494506836e+00,-2.057929933071136475e-01
8.011308908462524414e-01,2.214770555496215820e+00,-1.234311982989311218e-01
8.021571636199951172e-01,2.217607736587524414e+00,-4.116296768188476562e-02
8.031956553459167480e-01,2.220478773117065430e+00,4.121625795960426331e-02
8.042247891426086426e-01,2.223323822021484375e+00,1.239078789949417114e-01
8.052279353141784668e-01,2.226097106933593750e+00,2.071077525615692139e-01
8.063163161277770996e-01,2.229105949401855469e+00,2.910549044609069824e-01
8.073760867118835449e-01,2.232035875320434570e+00,3.759361803531646729e-01
8.083618879318237305e-01,2.234760999679565430e+00,4.619381129741668701e-01
8.096618056297302246e-01,2.238354921340942383e+00,5.495325922966003418e-01
7.597639560699462891e-01,2.198270559310913086e+00,-6.232119202613830566e-01
7.607687711715698242e-01,2.201177835464477539e+00,-5.376769304275512695e-01
7.617071866989135742e-01,2.203893184661865234e+00,-4.532574415206909180e-01
7.627288699150085449e-01,2.206849336624145508e+00,-3.698174059391021729e-01
7.637159228324890137e-01,2.209704875946044922e+00,-2.870649993419647217e-01
7.647403478622436523e-01,2.212669134140014648e+00,-2.048190981149673462e-01
7.657084465026855469e-01,2.215470075607299805e+00,-1.228467971086502075e-01
7.666873335838317871e-01,2.218302488327026367e+00,-4.096796736121177673e-02
7.676825523376464844e-01,2.221181869506835938e+00,4.102114588022232056e-02
7.686248421669006348e-01,2.223908424377441406e+00,1.233146935701370239e-01
7.696192860603332520e-01,2.226785659790039062e+00,2.061258107423782349e-01
7.705952525138854980e-01,2.229609251022338867e+00,2.896507978439331055e-01
7.716794610023498535e-01,2.232746362686157227e+00,3.741571903228759766e-01
7.727237939834594727e-01,2.235768079757690430e+00,4.598129391670227051e-01
7.736725807189941406e-01,2.238513231277465820e+00,5.467967391014099121e-01
7.250621914863586426e-01,2.199326992034912109e+00,-6.205056309700012207e-01
7.259341478347778320e-01,2.201972007751464844e+00,-5.352779626846313477e-01
7.268951535224914551e-01,2.204886674880981445e+00,-4.512757956981658936e-01
7.279112339019775391e-01,2.207968950271606445e+00,-3.682213723659515381e-01
7.287966012954711914e-01,2.210654497146606445e+00,-2.858038842678070068e-01
7.297470569610595703e-01,2.213537454605102539e+00,-2.039117068052291870e-01
7.306843400001525879e-01,2.216380596160888672e+00,-1.223048269748687744e-01
7.316187620162963867e-01,2.219214916229248047e+00,-4.078724235296249390e-02
7.325531840324401855e-01,2.222049236297607422e+00,4.083933308720588684e-02
7.334808707237243652e-01,2.224863290786743164e+00,1.227729171514511108e-01
7.344881892204284668e-01,2.227918624877929688e+00,2.052365094423294067e-01
7.353758811950683594e-01,2.230611324310302734e+00,2.883840203285217285e-01
7.363424301147460938e-01,2.233543395996093750e+00,3.724863827228546143e-01
7.374285459518432617e-01,2.236837863922119141e+00,4.578152298927307129e-01
7.384505867958068848e-01,2.239938020706176758e+00,5.445071458816528320e-01
6.903789639472961426e-01,2.199499607086181641e+00,-6.177031397819519043e-01
6.912978291511535645e-01,2.202427148818969727e+00,-5.329287052154541016e-01
6.922792196273803711e-01,2.205553770065307617e+00,-4.493382573127746582e-01
6.931941509246826172e-01,2.208468675613403320e+00,-3.666124641895294189e-01
6.940773725509643555e-01,2.211282730102539062e+00,-2.845715582370758057e-01
6.949562430381774902e-01,2.214082717895507812e+00,-2.030248045921325684e-01
6.958622336387634277e-01,2.216969013214111328e+00,-1.217752024531364441e-01
6.967530250549316406e-01,2.219807147979736328e+00,-4.061067104339599609e-02
6.976275444030761719e-01,2.222593307495117188e+00,4.066164419054985046e-02
6.985383629798889160e-01,2.225495100021362305e+00,1.222435235977172852e-01
6.994550824165344238e-01,2.228415727615356445e+00,2.043390870094299316e-01
7.003549337387084961e-01,2.231282711029052734e+00,2.871453464031219482e-01
7.012068033218383789e-01,2.233996629714965820e+00,3.708501458168029785e-01
7.021492123603820801e-01,2.236999034881591797e+00,4.557445645332336426e-01
7.032098770141601562e-01,2.240378141403198242e+00,5.421118140220642090e-01
6.561890840530395508e-01,2.200303077697753906e+00,-6.152279973030090332e-01
6.571347117424011230e-01,2.203473806381225586e+00,-5.308516025543212891e-01
6.579989790916442871e-01,2.206372022628784180e+00,-4.475402832031250000e-01
6.588234901428222656e-01,2.209136486053466797e+00,-3.651205003261566162e-01
6.597076058387756348e-01,2.212101221084594727e+00,-2.834326624870300293e-01
6.605595350265502930e-01,2.214957952499389648e+00,-2.022173553705215454e-01
6.613969206809997559e-01,2.217765808105468750e+00,-1.212865337729454041e-01
6.622437834739685059e-01,2.220605373382568359e+00,-4.044771566987037659e-02
6.631000041961669922e-01,2.223476409912109375e+00,4.050001129508018494e-02
6.639472246170043945e-01,2.226317167282104492e+00,1.217542067170143127e-01
6.647718548774719238e-01,2.229082345962524414e+00,2.035068720579147339e-01
6.656736135482788086e-01,2.232106208801269531e+00,2.859958708286285400e-01
6.665535569190979004e-01,2.235056638717651367e+00,3.694045245647430420e-01
6.673746109008789062e-01,2.237809658050537109e+00,4.539171457290649414e-01
6.682850122451782227e-01,2.240862607955932617e+00,5.398591160774230957e-01
6.221849918365478516e-01,2.200816392898559570e+00,-6.128186583518981934e-01
6.230176687240600586e-01,2.203761816024780273e+00,-5.287184715270996094e-01
6.239081621170043945e-01,2.206911802291870117e+00,-4.457927048206329346e-01
6.247349977493286133e-01,2.209836244583129883e+00,-3.637209832668304443e-01
6.255298852920532227e-01,2.212647914886474609e+00,-2.823266088962554932e-01
6.263169646263122559e-01,2.215432167053222656e+00,-2.014215737581253052e-01
6.271134614944458008e-01,2.218249559402465820e+00,-1.208097264170646667e-01
6.279144287109375000e-01,2.221082925796508789e+00,-4.028857871890068054e-02
6.287245750427246094e-01,2.223948478698730469e+00,4.034055769443511963e-02
6.295493841171264648e-01,2.226866006851196289e+00,1.212789937853813171e-01
6.303763985633850098e-01,2.229791402816772461e+00,2.027270793914794922e-01
6.311840415000915527e-01,2.232648134231567383e+00,2.848785817623138428e-01
6.319448947906494141e-01,2.235339403152465820e+00,3.679185807704925537e-01
6.327887773513793945e-01,2.238324403762817383e+00,4.521380364894866943e-01
6.337429285049438477e-01,2.241699695587158203e+00,5.378203392028808594e-01
5.886229276657104492e-01,2.202012777328491211e+00,-6.107432246208190918e-01
5.893349051475524902e-01,2.204676151275634766e+00,-5.268600583076477051e-01
5.901226997375488281e-01,2.207623481750488281e+00,-4.441847205162048340e-01
5.908705592155456543e-01,2.210421085357666016e+00,-3.623881042003631592e-01
5.916690230369567871e-01,2.213408231735229492e+00,-2.813141942024230957e-01
5.923964381217956543e-01,2.216129302978515625e+00,-2.006934881210327148e-01
5.931650400161743164e-01,2.219004631042480469e+00,-1.203761249780654907e-01
5.939230322837829590e-01,2.221840143203735352e+00,-4.014400392770767212e-02
5.946722030639648438e-01,2.224642992019653320e+00,4.019464179873466492e-02
5.954704880714416504e-01,2.227629184722900391e+00,1.208439916372299194e-01
5.962038636207580566e-01,2.230372667312622070e+00,2.019833773374557495e-01
5.970034003257751465e-01,2.233363866806030273e+00,2.838504910469055176e-01
5.977787971496582031e-01,2.236264467239379883e+00,3.666249811649322510e-01
5.986550450325012207e-01,2.239542484283447266e+00,4.506070315837860107e-01
5.994769334793090820e-01,2.242617130279541016e+00,5.359269380569458008e-01
5.550771355628967285e-01,2.202394008636474609e+00,-6.085829734802246094e-01
5.558233857154846191e-01,2.205354928970336914e+00,-5.250672698020935059e-01
5.565150976181030273e-01,2.208099365234375000e+00,-4.426324367523193359e-01
5.572688579559326172e-01,2.211090326309204102e+00,-3.611530959606170654e-01
5.579871535301208496e-01,2.213940143585205078e+00,-2.803380489349365234e-01
5.586915612220764160e-01,2.216735124588012695e+00,-2.000036686658859253e-01
5.593972206115722656e-01,2.219534873962402344e+00,-1.199582442641258240e-01
5.601123571395874023e-01,2.222372531890869141e+00,-4.000466689467430115e-02
5.608389973640441895e-01,2.225255489349365234e+00,4.005656763911247253e-02
5.615718364715576172e-01,2.228163242340087891e+00,1.204245761036872864e-01
5.622991323471069336e-01,2.231048822402954102e+00,2.012951076030731201e-01
5.630025267601013184e-01,2.233839750289916992e+00,2.828577756881713867e-01
5.637865662574768066e-01,2.236950635910034180e+00,3.653770685195922852e-01
5.645352602005004883e-01,2.239921331405639648e+00,4.490114152431488037e-01
5.652088522911071777e-01,2.242594003677368164e+00,5.339334011077880859e-01
5.217892527580261230e-01,2.202891588211059570e+00,-6.065946221351623535e-01
5.225709676742553711e-01,2.206192016601562500e+00,-5.234321355819702148e-01
5.231782197952270508e-01,2.208755731582641602e+00,-4.412176907062530518e-01
5.238621234893798828e-01,2.211643218994140625e+00,-3.599817752838134766e-01
5.245850086212158203e-01,2.214694738388061523e+00,-2.794541716575622559e-01
5.252349972724914551e-01,2.217439174652099609e+00,-1.993684619665145874e-01
5.259137749671936035e-01,2.220304727554321289e+00,-1.195807605981826782e-01
5.265865325927734375e-01,2.223145008087158203e+00,-3.987881168723106384e-02
5.272524952888488770e-01,2.225956439971923828e+00,3.992924839258193970e-02
5.279544591903686523e-01,2.228919982910156250e+00,1.200447604060173035e-01
5.285888910293579102e-01,2.231598377227783203e+00,2.006415128707885742e-01
5.292757153511047363e-01,2.234498023986816406e+00,2.819529771804809570e-01
5.300571322441101074e-01,2.237797021865844727e+00,3.642387688159942627e-01
5.306778550148010254e-01,2.240417718887329102e+00,4.475424289703369141e-01
5.313683152198791504e-01,2.243332862854003906e+00,5.322439670562744141e-01
4.887963235378265381e-01,2.203769207000732422e+00,-6.048477292060852051e-01
4.893611371517181396e-01,2.206315755844116211e+00,-5.217461585998535156e-01
4.900966286659240723e-01,2.209631681442260742e+00,-4.399462938308715820e-01
4.906939268112182617e-01,2.212324619293212891e+00,-3.589127361774444580e-01
4.913443028926849365e-01,2.215256929397583008e+00,-2.786091566085815430e-01
4.919730424880981445e-01,2.218091726303100586e+00,-1.987736523151397705e-01
4.925929605960845947e-01,2.220886707305908203e+00,-1.192201524972915649e-01
4.932234287261962891e-01,2.223729133605957031e+00,-3.975858166813850403e-02
4.938637614250183105e-01,2.226616144180297852e+00,3.981019556522369385e-02
4.944998025894165039e-01,2.229483842849731445e+00,1.196816563606262207e-01
4.951213598251342773e-01,2.232285976409912109e+00,2.000456601381301880e-01
4.958092570304870605e-01,2.235387325286865234e+00,2.811409235000610352e-01
4.963687658309936523e-01,2.237910032272338867e+00,3.630635440349578857e-01
4.971228837966918945e-01,2.241310119628906250e+00,4.462535977363586426e-01
4.978422522544860840e-01,2.244553327560424805e+00,5.307885408401489258e-01
4.558877348899841309e-01,2.204165935516357422e+00,-6.031038761138916016e-01
4.564935863018035889e-01,2.207094907760620117e+00,-5.203319787979125977e-01
4.571495354175567627e-01,2.210266351699829102e+00,-4.387249350547790527e-01
4.577583968639373779e-01,2.213210344314575195e+00,-3.579567968845367432e-01
