-2.379402399063110352e+00,1.895529150962829590e+00,3.735266625881195068e-01
-2.382429599761962891e+00,1.897940874099731445e+00,4.824391603469848633e-01
-2.385272502899169922e+00,1.900205731391906738e+00,5.927891731262207031e-01
-2.388706922531127930e+00,1.902941703796386719e+00,7.050776481628417969e-01
-2.368974685668945312e+00,1.832419395446777344e+00,-8.024966120719909668e-01
-2.372215747833251953e+00,1.834926366806030273e+00,-6.923865675926208496e-01
-2.375158309936523438e+00,1.837202548980712891e+00,-5.836805105209350586e-01
-2.377952337265014648e+00,1.839363694190979004e+00,-4.761524498462677002e-01
-2.380721807479858398e+00,1.841505885124206543e+00,-3.695581257343292236e-01
-2.383756160736083984e+00,1.843852996826171875e+00,-2.636598348617553711e-01
-2.386667490005493164e+00,1.846104860305786133e+00,-1.581313610076904297e-01
-2.389553308486938477e+00,1.848337054252624512e+00,-5.273130908608436584e-02
-2.392422676086425781e+00,1.850556612014770508e+00,5.279463157057762146e-02
-2.395190238952636719e+00,1.852697253227233887e+00,1.586960554122924805e-01
-2.398257255554199219e+00,1.855069756507873535e+00,2.652637660503387451e-01
-2.401351690292358398e+00,1.857463240623474121e+00,3.727605044841766357e-01
-2.404362678527832031e+00,1.859792232513427734e+00,4.814407229423522949e-01
-2.407153367996215820e+00,1.861950874328613281e+00,5.915430784225463867e-01
-2.410503149032592773e+00,1.864542007446289062e+00,7.035616040229797363e-01
-2.390465259552001953e+00,1.794953703880310059e+00,-8.009912967681884766e-01
-2.393820285797119141e+00,1.797473073005676270e+00,-6.911122202873229980e-01
-2.396262168884277344e+00,1.799306511878967285e+00,-5.824779868125915527e-01
-2.399221181869506836e+00,1.801528334617614746e+00,-4.751992225646972656e-01
-2.402446031570434570e+00,1.803949832916259766e+00,-3.688844442367553711e-01
-2.405251979827880859e+00,1.806056737899780273e+00,-2.631511688232421875e-01
-2.408224344253540039e+00,1.808288693428039551e+00,-1.578285843133926392e-01
-2.411136627197265625e+00,1.810475468635559082e+00,-5.263034626841545105e-02
-2.413997173309326172e+00,1.812623381614685059e+00,5.269278585910797119e-02
-2.417044639587402344e+00,1.814911723136901855e+00,1.584066450595855713e-01
-2.419709205627441406e+00,1.816912412643432617e+00,2.647328972816467285e-01
-2.422689914703369141e+00,1.819150686264038086e+00,3.719927966594696045e-01
-2.426259756088256836e+00,1.821831107139587402e+00,4.805546104907989502e-01
-2.428990364074707031e+00,1.823881506919860840e+00,5.904335379600524902e-01
-2.432246208190917969e+00,1.826326251029968262e+00,7.022060751914978027e-01
-2.411906003952026367e+00,1.757639884948730469e+00,-7.996639013290405273e-01
-2.414681434631347656e+00,1.759662389755249023e+00,-6.897926926612854004e-01
-2.417904853820800781e+00,1.762011528015136719e+00,-5.815487504005432129e-01
-2.420908927917480469e+00,1.764200687408447266e+00,-4.744447469711303711e-01
-2.423815965652465820e+00,1.766319036483764648e+00,-3.682460188865661621e-01
-2.426721096038818359e+00,1.768436193466186523e+00,-2.627037763595581055e-01
-2.429756164550781250e+00,1.770647883415222168e+00,-1.575625836849212646e-01
-2.432694435119628906e+00,1.772789001464843750e+00,-5.254164710640907288e-02
-2.435545206069946289e+00,1.774866580963134766e+00,5.260322242975234985e-02
-2.438545703887939453e+00,1.777053117752075195e+00,1.581325680017471313e-01
-2.441581487655639648e+00,1.779265403747558594e+00,2.643124759197235107e-01
-2.444571018218994141e+00,1.781444072723388672e+00,3.713993132114410400e-01
-2.447405576705932617e+00,1.783509731292724609e+00,4.796375036239624023e-01
-2.450777292251586914e+00,1.785966753959655762e+00,5.894551873207092285e-01
-2.453930139541625977e+00,1.788264393806457520e+00,7.010047435760498047e-01
-2.433290958404541016e+00,1.720449447631835938e+00,-7.985076308250427246e-01
-2.436192035675048828e+00,1.722500681877136230e+00,-6.888239383697509766e-01
-2.439505577087402344e+00,1.724843502044677734e+00,-5.807465910911560059e-01
-2.442104816436767578e+00,1.726681232452392578e+00,-4.737065732479095459e-01
-2.445150136947631836e+00,1.728834509849548340e+00,-3.676900565624237061e-01
-2.448353290557861328e+00,1.731099247932434082e+00,-2.623363733291625977e-01
-2.451255083084106445e+00,1.733150959014892578e+00,-1.573319286108016968e-01
-2.454219579696655273e+00,1.735247015953063965e+00,-5.246473476290702820e-02
-2.457254648208618164e+00,1.737392902374267578e+00,5.252961814403533936e-02
-2.460010528564453125e+00,1.739341378211975098e+00,1.578938812017440796e-01
-2.462959289550781250e+00,1.741426467895507812e+00,2.639013826847076416e-01
-2.466409444808959961e+00,1.743865847587585449e+00,3.708869516849517822e-01
-2.469207763671875000e+00,1.745844364166259766e+00,4.789638817310333252e-01
-2.472506999969482422e+00,1.748177051544189453e+00,5.886029005050659180e-01
-2.475548028945922852e+00,1.750327229499816895e+00,6.999516487121582031e-01
-2.454611301422119141e+00,1.683354020118713379e+00,-7.975155711174011230e-01
-2.457646131515502930e+00,1.685435175895690918e+00,-6.879984140396118164e-01
-2.460472822189331055e+00,1.687373757362365723e+00,-5.799289941787719727e-01
-2.463706731796264648e+00,1.689591526985168457e+00,-4.731572568416595459e-01
-2.466766595840454102e+00,1.691689968109130859e+00,-3.672618567943572998e-01
-2.469746589660644531e+00,1.693733692169189453e+00,-2.620041668415069580e-01
-2.472713232040405273e+00,1.695768117904663086e+00,-1.571352034807205200e-01
-2.475703954696655273e+00,1.697819113731384277e+00,-5.239914357662200928e-02
-2.478725671768188477e+00,1.699891448020935059e+00,5.246309936046600342e-02
-2.481756925582885742e+00,1.701970219612121582e+00,1.577099114656448364e-01
-2.484744787216186523e+00,1.704019308090209961e+00,2.635952532291412354e-01
-2.487609863281250000e+00,1.705984115600585938e+00,3.703650832176208496e-01
-2.490952491760253906e+00,1.708276510238647461e+00,4.783898591995239258e-01
-2.494171142578125000e+00,1.710483908653259277e+00,5.878716707229614258e-01
-2.497092008590698242e+00,1.712486982345581055e+00,6.990410089492797852e-01
-2.475543498992919922e+00,1.646117091178894043e+00,-7.965796589851379395e-01
-2.478742122650146484e+00,1.648244023323059082e+00,-6.872292757034301758e-01
-2.481688022613525391e+00,1.650202870368957520e+00,-5.793027877807617188e-01
-2.484997272491455078e+00,1.652403473854064941e+00,-4.726554155349731445e-01
-2.487757682800292969e+00,1.654238939285278320e+00,-3.668242692947387695e-01
-2.490851640701293945e+00,1.656296372413635254e+00,-2.617012858390808105e-01
-2.493888616561889648e+00,1.658315777778625488e+00,-1.569564044475555420e-01
-2.496905088424682617e+00,1.660321593284606934e+00,-5.233952030539512634e-02
-2.499908685684204102e+00,1.662318825721740723e+00,5.240248143672943115e-02
-2.502876758575439453e+00,1.664292454719543457e+00,1.575220823287963867e-01
-2.506216764450073242e+00,1.666513323783874512e+00,2.633156180381774902e-01
-2.509058713912963867e+00,1.668403029441833496e+00,3.699651062488555908e-01
-2.512334823608398438e+00,1.670581579208374023e+00,4.778551161289215088e-01
-2.515441656112670898e+00,1.672647356986999512e+00,5.871819257736206055e-01
-2.518206119537353516e+00,1.674485683441162109e+00,6.981706023216247559e-01
-2.496753215789794922e+00,1.609167695045471191e+00,-7.959114909172058105e-01
-2.500100135803222656e+00,1.611324787139892578e+00,-6.866860389709472656e-01
-2.503151655197143555e+00,1.613291621208190918e+00,-5.788635015487670898e-01
-2.506067514419555664e+00,1.615170836448669434e+00,-4.722174108028411865e-01
-2.509306430816650391e+00,1.617258310317993164e+00,-3.665508329868316650e-01
-2.512180328369140625e+00,1.619110584259033203e+00,-2.614805102348327637e-01
-2.515285015106201172e+00,1.621111512184143066e+00,-1.568265855312347412e-01
-2.518327236175537109e+00,1.623072266578674316e+00,-5.229622870683670044e-02
-2.521315336227416992e+00,1.624998211860656738e+00,5.235828086733818054e-02
-2.524555206298828125e+00,1.627086281776428223e+00,1.574045866727828979e-01
-2.527467966079711914e+00,1.628963470458984375e+00,2.630717158317565918e-01
-2.530758619308471680e+00,1.631084322929382324e+00,3.696844577789306641e-01
-2.533982038497924805e+00,1.633161902427673340e+00,4.774773418903350830e-01
-2.536993265151977539e+00,1.635102629661560059e+00,5.866894721984863281e-01
-2.540574789047241211e+00,1.637410879135131836e+00,6.978029608726501465e-01
-2.517646312713623047e+00,1.572094440460205078e+00,-7.953171133995056152e-01
-2.521172523498535156e+00,1.574296236038208008e+00,-6.862143874168395996e-01
-2.524356842041015625e+00,1.576284646987915039e+00,-5.784904360771179199e-01
-2.527356863021850586e+00,1.578157901763916016e+00,-4.719241857528686523e-01
-2.530303478240966797e+00,1.579997897148132324e+00,-3.662769198417663574e-01
-2.533495903015136719e+00,1.581991434097290039e+00,-2.613154947757720947e-01
-2.536474227905273438e+00,1.583851218223571777e+00,-1.567181944847106934e-01
-2.539542675018310547e+00,1.585767149925231934e+00,-5.226008966565132141e-02
-2.542706966400146484e+00,1.587743043899536133e+00,5.232520774006843567e-02
-2.545680999755859375e+00,1.589600086212158203e+00,1.572870314121246338e-01
-2.548938274383544922e+00,1.591634154319763184e+00,2.629083096981048584e-01
-2.552196979522705078e+00,1.593668937683105469e+00,3.694461286067962646e-01
-2.555340051651000977e+00,1.595631599426269531e+00,4.771493971347808838e-01
-2.558223724365234375e+00,1.597432255744934082e+00,5.862514972686767578e-01
-2.561630725860595703e+00,1.599559664726257324e+00,6.972263455390930176e-01
-2.538524627685546875e+00,1.535076260566711426e+00,-7.948901057243347168e-01
-2.542236804962158203e+00,1.537321209907531738e+00,-6.858882904052734375e-01
-2.544976234436035156e+00,1.538977622985839844e+00,-5.781083703041076660e-01
-2.548192501068115234e+00,1.540922641754150391e+00,-4.716480374336242676e-01
-2.551638126373291016e+00,1.543006181716918945e+00,-3.661306798458099365e-01
-2.554622650146484375e+00,1.544811010360717773e+00,-2.611871659755706787e-01
-2.557675600051879883e+00,1.546657085418701172e+00,-1.566442698240280151e-01
-2.560769557952880859e+00,1.548528075218200684e+00,-5.223544314503669739e-02
-2.563910961151123047e+00,1.550427794456481934e+00,5.229952186346054077e-02
-2.567144155502319336e+00,1.552382826805114746e+00,1.572241634130477905e-01
-2.569953680038452148e+00,1.554081797599792480e+00,2.627546191215515137e-01
-2.573045730590820312e+00,1.555951595306396484e+00,3.692024350166320801e-01
-2.576690435409545898e+00,1.558155655860900879e+00,4.769227504730224609e-01
-2.579438924789428711e+00,1.559817671775817871e+00,5.859368443489074707e-01
-2.582663059234619141e+00,1.561767339706420898e+00,6.967951655387878418e-01
-2.560199022293090820e+00,1.498566865921020508e+00,-7.948790788650512695e-01
-2.563279628753662109e+00,1.500370025634765625e+00,-6.857012510299682617e-01
-2.566163301467895508e+00,1.502057909965515137e+00,-5.779781937599182129e-01
-2.569474220275878906e+00,1.503996014595031738e+00,-4.715542793273925781e-01
-2.572634935379028320e+00,1.505846023559570312e+00,-3.660132586956024170e-01
-2.575744867324829102e+00,1.507666349411010742e+00,-2.611136138439178467e-01
-2.578873157501220703e+00,1.509497523307800293e+00,-1.566032022237777710e-01
-2.581993341445922852e+00,1.511323690414428711e+00,-5.222175642848014832e-02
-2.585110425949096680e+00,1.513148307800292969e+00,5.228480324149131775e-02
-2.588269472122192383e+00,1.514997482299804688e+00,1.571737974882125854e-01
-2.591416358947753906e+00,1.516839385032653809e+00,2.627023160457611084e-01
-2.594466209411621094e+00,1.518624544143676758e+00,3.691192567348480225e-01
-2.598018169403076172e+00,1.520703673362731934e+00,4.767926931381225586e-01
-2.601460933685302734e+00,1.522718787193298340e+00,5.859282612800598145e-01
-2.604611873626708984e+00,1.524563193321228027e+00,6.967580914497375488e-01
-2.581002235412597656e+00,1.461555480957031250e+00,-7.947613596916198730e-01
-2.584284305572509766e+00,1.463414072990417480e+00,-6.856465935707092285e-01
-2.587318897247314453e+00,1.465132474899291992e+00,-5.779604911804199219e-01
-2.590730190277099609e+00,1.467064142227172852e+00,-4.715531468391418457e-01
-2.593939781188964844e+00,1.468881726264953613e+00,-3.660156130790710449e-01
-2.596846818923950195e+00,1.470527887344360352e+00,-2.610923051834106445e-01
-2.600051641464233398e+00,1.472342610359191895e+00,-1.565934866666793823e-01
-2.603197574615478516e+00,1.474124073982238770e+00,-5.221851915121078491e-02
-2.606289863586425781e+00,1.475875258445739746e+00,5.228054895997047424e-02
-2.609702587127685547e+00,1.477807760238647461e+00,1.571747362613677979e-01
-2.612853050231933594e+00,1.479591727256774902e+00,2.627016007900238037e-01
-2.615854978561401367e+00,1.481291770935058594e+00,3.691079318523406982e-01
-2.619307756423950195e+00,1.483246922492980957e+00,4.767547249794006348e-01
-2.622600317001342773e+00,1.485111355781555176e+00,5.858417749404907227e-01
-2.625551223754882812e+00,1.486782431602478027e+00,6.965953111648559570e-01
-2.601701736450195312e+00,1.424491643905639648e+00,-7.947754263877868652e-01
-2.605219125747680664e+00,1.426417589187622070e+00,-6.857137680053710938e-01
-2.608433961868286133e+00,1.428177833557128906e+00,-5.780516266822814941e-01
-2.611969232559204102e+00,1.430113434791564941e+00,-4.716448485851287842e-01
-2.614914417266845703e+00,1.431725978851318359e+00,-3.660461008548736572e-01
-2.618159770965576172e+00,1.433502912521362305e+00,-2.611454427242279053e-01
-2.621315717697143555e+00,1.435230851173400879e+00,-1.566208750009536743e-01
-2.624485492706298828e+00,1.436966419219970703e+00,-5.222761631011962891e-02
-2.627678871154785156e+00,1.438714861869812012e+00,5.229116231203079224e-02
-2.630805969238281250e+00,1.440427064895629883e+00,1.571879088878631592e-01
-2.634273052215576172e+00,1.442325353622436523e+00,2.627526521682739258e-01
-2.637202739715576172e+00,1.443929433822631836e+00,3.691661059856414795e-01
-2.640527009963989258e+00,1.445749402046203613e+00,4.768015444278717041e-01
-2.643634080886840820e+00,1.447450757026672363e+00,5.858523249626159668e-01
-2.647299528121948242e+00,1.449457645416259766e+00,6.967896819114685059e-01
-2.623234510421752930e+00,1.387857317924499512e+00,-7.952035069465637207e-01
-2.626171112060546875e+00,1.389410972595214844e+00,-6.859237551689147949e-01
-2.629572391510009766e+00,1.391210436820983887e+00,-5.782639384269714355e-01
-2.632778167724609375e+00,1.392906546592712402e+00,-4.717539250850677490e-01
-2.636252403259277344e+00,1.394744515419006348e+00,-3.662009537220001221e-01
-2.639309883117675781e+00,1.396362304687500000e+00,-2.612347304821014404e-01
-2.642549991607666016e+00,1.398076415061950684e+00,-1.566778868436813354e-01
-2.645745277404785156e+00,1.399766921997070312e+00,-5.224662646651268005e-02
-2.648906707763671875e+00,1.401439428329467773e+00,5.230905488133430481e-02
-2.652272701263427734e+00,1.403220295906066895e+00,1.572543531656265259e-01
-2.655261516571044922e+00,1.404801607131958008e+00,2.628135979175567627e-01
-2.658574342727661133e+00,1.406554341316223145e+00,3.693017065525054932e-01
-2.661762952804565430e+00,1.408241271972656250e+00,4.769475460052490234e-01
-2.665512800216674805e+00,1.410225152969360352e+00,5.861675143241882324e-01
-2.669046640396118164e+00,1.412094831466674805e+00,6.971222758293151855e-01
-2.643929958343505859e+00,1.350733995437622070e+00,-7.955348491668701172e-01
-2.647823572158813477e+00,1.352723121643066406e+00,-6.864516139030456543e-01
-2.650712728500366211e+00,1.354199171066284180e+00,-5.785911083221435547e-01
-2.654052495956420898e+00,1.355905413627624512e+00,-4.720400273799896240e-01
-2.657271862030029297e+00,1.357550144195556641e+00,-3.663840591907501221e-01
-2.660474777221679688e+00,1.359186410903930664e+00,-2.613772153854370117e-01
-2.663799285888671875e+00,1.360884785652160645e+00,-1.567667871713638306e-01
-2.667021036148071289e+00,1.362530708312988281e+00,-5.227628722786903381e-02
-2.670149087905883789e+00,1.364128828048706055e+00,5.233759805560112000e-02
-2.673420906066894531e+00,1.365800380706787109e+00,1.573330312967300415e-01
-2.676716566085815430e+00,1.367484092712402344e+00,2.629728913307189941e-01
-2.679947376251220703e+00,1.369134664535522461e+00,3.695105612277984619e-01
-2.683706998825073242e+00,1.371055364608764648e+00,4.773142933845520020e-01
-2.686542749404907227e+00,1.372503995895385742e+00,5.864119529724121094e-01
-2.689816951751708984e+00,1.374176859855651855e+00,6.973384618759155273e-01
-2.665415287017822266e+00,1.313950896263122559e+00,-7.962591052055358887e-01
-2.668743848800659180e+00,1.315591812133789062e+00,-6.869230270385742188e-01
-2.671833276748657227e+00,1.317114710807800293e+00,-5.790268778800964355e-01
-2.675312280654907227e+00,1.318829655647277832e+00,-4.724154174327850342e-01
-2.678609609603881836e+00,1.320455193519592285e+00,-3.666825890541076660e-01
-2.681828975677490234e+00,1.322042226791381836e+00,-2.615892887115478516e-01
-2.685041904449462891e+00,1.323626041412353516e+00,-1.568859070539474487e-01
-2.688289403915405273e+00,1.325227022171020508e+00,-5.231600627303123474e-02
-2.691579341888427734e+00,1.326848864555358887e+00,5.238003283739089966e-02
-2.694887399673461914e+00,1.328479528427124023e+00,1.574611663818359375e-01
-2.698157310485839844e+00,1.330091476440429688e+00,2.631819546222686768e-01
-2.701300859451293945e+00,1.331641077995300293e+00,3.697888255119323730e-01
-2.704910993576049805e+00,1.333420872688293457e+00,4.776420891284942627e-01
-2.708372592926025391e+00,1.335127234458923340e+00,5.869454741477966309e-01
-2.711497545242309570e+00,1.336667776107788086e+00,6.979276537895202637e-01
-2.686023235321044922e+00,1.276655435562133789e+00,-7.968748807907104492e-01
-2.689616918563842773e+00,1.278363466262817383e+00,-6.875154376029968262e-01
-2.692912340164184570e+00,1.279929757118225098e+00,-5.795653462409973145e-01
-2.696535110473632812e+00,1.281651616096496582e+00,-4.728751778602600098e-01
-2.699586629867553711e+00,1.283102035522460938e+00,-3.670024573802947998e-01
-2.702954769134521484e+00,1.284703016281127930e+00,-2.618294656276702881e-01
-2.706255912780761719e+00,1.286271929740905762e+00,-1.570335924625396729e-01
-2.709528923034667969e+00,1.287827610969543457e+00,-5.236525461077690125e-02
-2.712782859802246094e+00,1.289374232292175293e+00,5.242814123630523682e-02
-2.715992927551269531e+00,1.290899991989135742e+00,1.575985997915267944e-01
-2.719560623168945312e+00,1.292595624923706055e+00,2.634380161762237549e-01
-2.722612142562866211e+00,1.294046044349670410e+00,3.701327443122863770e-01
-2.726067781448364258e+00,1.295688390731811523e+00,4.780541360378265381e-01
-2.729313611984252930e+00,1.297231197357177734e+00,5.873996019363403320e-01
-2.733113050460815430e+00,1.299037098884582520e+00,6.986338496208190918e-01
-2.707537174224853516e+00,1.239692926406860352e+00,-7.979115247726440430e-01
-2.711316347122192383e+00,1.241423368453979492e+00,-6.884496212005615234e-01
-2.714147567749023438e+00,1.242719650268554688e+00,-5.802479386329650879e-01
-2.717939138412475586e+00,1.244455695152282715e+00,-4.734565317630767822e-01
-2.721092462539672852e+00,1.245899438858032227e+00,-3.674640953540802002e-01
-2.724493741989135742e+00,1.247456789016723633e+00,-2.621594369411468506e-01
-2.727691411972045898e+00,1.248920917510986328e+00,-1.572240144014358521e-01
-2.730990886688232422e+00,1.250431537628173828e+00,-5.242875963449478149e-02
-2.734398603439331055e+00,1.251991987228393555e+00,5.249418318271636963e-02
-2.737628459930419922e+00,1.253470778465270996e+00,1.577967852354049683e-01
-2.741147041320800781e+00,1.255081772804260254e+00,2.637618482112884521e-01
-2.744081735610961914e+00,1.256425499916076660e+00,3.705686628818511963e-01
-2.748059511184692383e+00,1.258246779441833496e+00,4.787034094333648682e-01
-2.751173257827758789e+00,1.259672403335571289e+00,5.881634950637817383e-01
-2.754770517349243164e+00,1.261319518089294434e+00,6.994833350181579590e-01
-2.728826284408569336e+00,1.202500820159912109e+00,-7.990311980247497559e-01
-2.732065677642822266e+00,1.203928232192993164e+00,-6.892719864845275879e-01
-2.735692977905273438e+00,1.205526709556579590e+00,-5.811055898666381836e-01
-2.739059209823608398e+00,1.207010149955749512e+00,-4.740775227546691895e-01
-2.742302179336547852e+00,1.208439230918884277e+00,-3.679548203945159912e-01
-2.745529890060424805e+00,1.209861516952514648e+00,-2.624903917312622070e-01
-2.748817682266235352e+00,1.211310386657714844e+00,-1.574262380599975586e-01
-2.752143383026123047e+00,1.212775826454162598e+00,-5.249620974063873291e-02
-2.755511999130249023e+00,1.214260220527648926e+00,5.256046354770660400e-02
-2.758965969085693359e+00,1.215782284736633301e+00,1.580074429512023926e-01
-2.762447118759155273e+00,1.217316389083862305e+00,2.641077637672424316e-01
-2.765862703323364258e+00,1.218821525573730469e+00,3.711161017417907715e-01
-2.769089937210083008e+00,1.220243573188781738e+00,4.792752563953399658e-01
-2.772804021835327148e+00,1.221880197525024414e+00,5.889885425567626953e-01
-2.776226043701171875e+00,1.223388314247131348e+00,7.004132270812988281e-01
-2.750463485717773438e+00,1.165316700935363770e+00,-8.004007935523986816e-01
-2.753935575485229492e+00,1.166787743568420410e+00,-6.905053853988647461e-01
-2.757139921188354492e+00,1.168145418167114258e+00,-5.820499658584594727e-01
-2.760255813598632812e+00,1.169465541839599609e+00,-4.748003780841827393e-01
-2.763751506805419922e+00,1.170946598052978516e+00,-3.685462176799774170e-01
-2.767157793045043945e+00,1.172389745712280273e+00,-2.629268169403076172e-01
-2.770548582077026367e+00,1.173826336860656738e+00,-1.576924026012420654e-01
-2.773900508880615234e+00,1.175246596336364746e+00,-5.258496478199958801e-02
-2.777219295501708984e+00,1.176652669906616211e+00,5.264787748456001282e-02
-2.780546903610229492e+00,1.178062438964843750e+00,1.582614779472351074e-01
-2.783826351165771484e+00,1.179451942443847656e+00,2.645106315612792969e-01
-2.787546157836914062e+00,1.181027889251708984e+00,3.717192411422729492e-01
-2.791254758834838867e+00,1.182599186897277832e+00,4.801326096057891846e-01
-2.794788599014282227e+00,1.184096455574035645e+00,5.899978876113891602e-01
-2.797955751419067383e+00,1.185438275337219238e+00,7.015427350997924805e-01
-2.771009206771850586e+00,1.127521157264709473e+00,-8.016011714935302734e-01
-2.774805068969726562e+00,1.129065632820129395e+00,-6.916151642799377441e-01
-2.778265953063964844e+00,1.130473971366882324e+00,-5.830342173576354980e-01
-2.781566858291625977e+00,1.131816983222961426e+00,-4.756307899951934814e-01
-2.785175085067749023e+00,1.133285284042358398e+00,-3.692021369934082031e-01
-2.788622140884399414e+00,1.134687781333923340e+00,-2.633961439132690430e-01
-2.791981220245361328e+00,1.136054635047912598e+00,-1.579705774784088135e-01
-2.795356988906860352e+00,1.137428164482116699e+00,-5.267768725752830505e-02
-2.798760175704956055e+00,1.138813018798828125e+00,5.274181813001632690e-02
-2.802099704742431641e+00,1.140171885490417480e+00,1.585430800914764404e-01
-2.805319070816040039e+00,1.141481757164001465e+00,2.649732232093811035e-01
-2.808905363082885742e+00,1.142940998077392578e+00,3.723478019237518311e-01
-2.812407970428466797e+00,1.144366264343261719e+00,4.809044301509857178e-01
-2.815666913986206055e+00,1.145692348480224609e+00,5.908829569816589355e-01
-2.819430589675903320e+00,1.147223711013793945e+00,7.027379870414733887e-01
-2.792572975158691406e+00,1.089975833892822266e+00,-8.032436966896057129e-01
-2.796614646911621094e+00,1.091553449630737305e+00,-6.930859684944152832e-01
-2.800243854522705078e+00,1.092969894409179688e+00,-5.843034982681274414e-01
-2.803632736206054688e+00,1.094292640686035156e+00,-4.766768217086791992e-01
-2.806924819946289062e+00,1.095577597618103027e+00,-3.699686229228973389e-01
-2.810231447219848633e+00,1.096868157386779785e+00,-2.639272511005401611e-01
-2.813695192337036133e+00,1.098220109939575195e+00,-1.582935452461242676e-01
-2.817097425460815430e+00,1.099548101425170898e+00,-5.278538912534713745e-02
-2.820448637008666992e+00,1.100856065750122070e+00,5.284818261861801147e-02
-2.823981046676635742e+00,1.102234840393066406e+00,1.588722020387649536e-01
-2.827570915222167969e+00,1.103636026382446289e+00,2.655557394027709961e-01
-2.831123590469360352e+00,1.105022668838500977e+00,3.731581866741180420e-01
-2.834511518478393555e+00,1.106345057487487793e+00,4.819268584251403809e-01
-2.837577342987060547e+00,1.107541680335998535e+00,5.920935869216918945e-01
-2.842003822326660156e+00,1.109269261360168457e+00,7.043347358703613281e-01
-2.814070701599121094e+00,1.052209258079528809e+00,-8.050128221511840820e-01
-2.818365335464477539e+00,1.053815007209777832e+00,-6.946670413017272949e-01
-2.821596860885620117e+00,1.055023312568664551e+00,-5.855481028556823730e-01
-2.825202703475952148e+00,1.056371569633483887e+00,-4.777244329452514648e-01
-2.828633069992065430e+00,1.057654261589050293e+00,-3.707965910434722900e-01
-2.831997394561767578e+00,1.058912158012390137e+00,-2.645208835601806641e-01
-2.835372447967529297e+00,1.060174107551574707e+00,-1.586431115865707397e-01
-2.838801383972167969e+00,1.061456322669982910e+00,-5.290196835994720459e-02
-2.842292785644531250e+00,1.062761664390563965e+00,5.296702682971954346e-02
-2.845820426940917969e+00,1.064080715179443359e+00,1.592276841402053833e-01
-2.849324703216552734e+00,1.065391063690185547e+00,2.661393284797668457e-01
-2.852712392807006836e+00,1.066657781600952148e+00,3.739530742168426514e-01
-2.856555700302124023e+00,1.068094849586486816e+00,4.830260276794433594e-01
-2.859421014785766602e+00,1.069166183471679688e+00,5.933974981307983398e-01
-2.863561391830444336e+00,1.070714354515075684e+00,7.058069705963134766e-01
-2.836275100708007812e+00,1.014485239982604980e+00,-8.071281313896179199e-01
-2.839337110519409180e+00,1.015580534934997559e+00,-6.961818933486938477e-01
-2.842870235443115234e+00,1.016844272613525391e+00,-5.868822336196899414e-01
-2.846695899963378906e+00,1.018212676048278809e+00,-4.788453578948974609e-01
-2.849946975708007812e+00,1.019375443458557129e+00,-3.716398179531097412e-01
-2.853498220443725586e+00,1.020645737648010254e+00,-2.651374638080596924e-01
-2.856980800628662109e+00,1.021891355514526367e+00,-1.590174436569213867e-01
-2.860435962677001953e+00,1.023127198219299316e+00,-5.302679538726806641e-02
-2.863872528076171875e+00,1.024356365203857422e+00,5.309050530195236206e-02
-2.867264986038208008e+00,1.025569915771484375e+00,1.595898568630218506e-01
-2.871001243591308594e+00,1.026906132698059082e+00,2.667637765407562256e-01
-2.874220371246337891e+00,1.028057694435119629e+00,3.748051226139068604e-01
-2.877812385559082031e+00,1.029342412948608398e+00,4.840794801712036133e-01
-2.881980180740356445e+00,1.030833244323730469e+00,5.949561595916748047e-01
-2.885014295578002930e+00,1.031918406486511230e+00,7.073816061019897461e-01
-2.857949256896972656e+00,9.763321280479431152e-01,-8.092362880706787109e-01
-2.861315965652465820e+00,9.774821996688842773e-01,-6.980689167976379395e-01
-2.865064144134521484e+00,9.787626862525939941e-01,-5.885115861892700195e-01
-2.868571758270263672e+00,9.799609780311584473e-01,-4.801165163516998291e-01
-2.871985673904418945e+00,9.811272621154785156e-01,-3.726442754268646240e-01
-2.875612020492553711e+00,9.823660850524902344e-01,-2.658584713935852051e-01
-2.879015684127807617e+00,9.835288524627685547e-01,-1.594440042972564697e-01
-2.882497787475585938e+00,9.847183823585510254e-01,-5.316904559731483459e-02
-2.886065244674682617e+00,9.859370589256286621e-01,5.323484912514686584e-02
-2.889437198638916016e+00,9.870889782905578613e-01,1.600211560726165771e-01
-2.893063783645629883e+00,9.883279204368591309e-01,2.674719095230102539e-01
-2.896657228469848633e+00,9.895554780960083008e-01,3.758454024791717529e-01
-2.900087833404541016e+00,9.907274842262268066e-01,4.853914082050323486e-01
-2.904002666473388672e+00,9.920648932456970215e-01,5.965099334716796875e-01
-2.907628059387207031e+00,9.933034181594848633e-01,7.093675732612609863e-01
-2.879524469375610352e+00,9.379005432128906250e-01,-8.114610314369201660e-01
-2.883201360702514648e+00,9.390981197357177734e-01,-7.000571489334106445e-01
-2.886607408523559570e+00,9.402076005935668945e-01,-5.901120305061340332e-01
-2.890368223190307617e+00,9.414325356483459473e-01,-4.814599454402923584e-01
-2.893948316574096680e+00,9.425985813140869141e-01,-3.737050592899322510e-01
-2.897459268569946289e+00,9.437422156333923340e-01,-2.666021287441253662e-01
-2.900979280471801758e+00,9.448886513710021973e-01,-1.598949879407882690e-01
-2.904488086700439453e+00,9.460315704345703125e-01,-5.331943556666374207e-02
-2.907993078231811523e+00,9.471731781959533691e-01,5.338377878069877625e-02
-2.911532640457153320e+00,9.483260512351989746e-01,1.604766696691513062e-01
-2.915046215057373047e+00,9.494704604148864746e-01,2.682203352451324463e-01
-2.918438911437988281e+00,9.505755305290222168e-01,3.768676221370697021e-01
-2.922268867492675781e+00,9.518229365348815918e-01,4.867737293243408203e-01
-2.925925254821777344e+00,9.530139565467834473e-01,5.981497764587402344e-01
-2.930126428604125977e+00,9.543823003768920898e-01,7.114508748054504395e-01
-2.902219057083129883e+00,8.995578885078430176e-01,-8.141446113586425781e-01
-2.905455350875854492e+00,9.005609750747680664e-01,-7.022588253021240234e-01
-2.909118652343750000e+00,9.016964435577392578e-01,-5.920148491859436035e-01
-2.912601232528686523e+00,9.027759432792663574e-01,-4.829614758491516113e-01
-2.916368246078491211e+00,9.039435386657714844e-01,-3.748910427093505859e-01
-2.919971466064453125e+00,9.050603508949279785e-01,-2.674541473388671875e-01
-2.923487901687622070e+00,9.061502218246459961e-01,-1.604042947292327881e-01
-2.927022218704223633e+00,9.072457551956176758e-01,-5.348924174904823303e-02
-2.930585622787475586e+00,9.083502292633056641e-01,5.355435609817504883e-02
-2.934087753295898438e+00,9.094357490539550781e-01,1.609858870506286621e-01
-2.937468767166137695e+00,9.104837179183959961e-01,2.690567970275878906e-01
-2.941196441650390625e+00,9.116390943527221680e-01,3.780826330184936523e-01
-2.944823503494262695e+00,9.127632975578308105e-01,4.883044660091400146e-01
-2.948982954025268555e+00,9.140526056289672852e-01,6.001273989677429199e-01
-2.951987028121948242e+00,9.149836897850036621e-01,7.135057449340820312e-01
-2.923515319824218750e+00,8.604955673217773438e-01,-8.165799975395202637e-01
-2.927075862884521484e+00,8.615435361862182617e-01,-7.044318914413452148e-01
-2.930970907211303711e+00,8.626900315284729004e-01,-5.938882231712341309e-01
-2.934595346450805664e+00,8.637567758560180664e-01,-4.845087826251983643e-01
-2.938097476959228516e+00,8.647875785827636719e-01,-3.760545849800109863e-01
-2.941592693328857422e+00,8.658164143562316895e-01,-2.682719528675079346e-01
-2.945225715637207031e+00,8.668856620788574219e-01,-1.608997136354446411e-01
-2.948786973953247070e+00,8.679338693618774414e-01,-5.365445464849472046e-02
-2.952286481857299805e+00,8.689638972282409668e-01,5.371812731027603149e-02
-2.955948352813720703e+00,8.700417280197143555e-01,1.614854931831359863e-01
-2.959648370742797852e+00,8.711307644844055176e-01,2.699185907840728760e-01
-2.963288307189941406e+00,8.722021579742431641e-01,3.792788386344909668e-01
-2.966735839843750000e+00,8.732168674468994141e-01,4.898152649402618408e-01
-2.970621824264526367e+00,8.743606805801391602e-01,6.019224524497985840e-01
-2.974179506301879883e+00,8.754078149795532227e-01,7.157678008079528809e-01
-2.946417808532714844e+00,8.216017484664916992e-01,-8.196082711219787598e-01
-2.949596881866455078e+00,8.224882483482360840e-01,-7.069461345672607422e-01
-2.953787803649902344e+00,8.236568570137023926e-01,-5.960615873336791992e-01
-2.957173585891723633e+00,8.246009349822998047e-01,-4.862380027770996094e-01
-2.960888862609863281e+00,8.256369829177856445e-01,-3.774204850196838379e-01
-2.964494705200195312e+00,8.266424536705017090e-01,-2.692539393901824951e-01
-2.968069791793823242e+00,8.276393413543701172e-01,-1.614839732646942139e-01
-2.971658468246459961e+00,8.286400437355041504e-01,-5.384928733110427856e-02
-2.975270271301269531e+00,8.296471834182739258e-01,5.391473323106765747e-02
-2.978877782821655273e+00,8.306530714035034180e-01,1.620720028877258301e-01
-2.982419729232788086e+00,8.316407799720764160e-01,2.708819806575775146e-01
-2.986355543136596680e+00,8.327382802963256836e-01,3.806666433811187744e-01
-2.989561080932617188e+00,8.336321711540222168e-01,4.915633797645568848e-01
-2.993891000747680664e+00,8.348395228385925293e-01,6.041542291641235352e-01
-2.997114181518554688e+00,8.357383012771606445e-01,7.183349132537841797e-01
-2.968393802642822266e+00,7.821200489997863770e-01,-8.225229978561401367e-01
-2.972645521163940430e+00,7.832403182983398438e-01,-7.097107172012329102e-01
-2.976472854614257812e+00,7.842487692832946777e-01,-5.983128547668457031e-01
-2.980059623718261719e+00,7.851938009262084961e-01,-4.881031513214111328e-01
-2.983559846878051758e+00,7.861160039901733398e-01,-3.788371980190277100e-01
-2.987277984619140625e+00,7.870957255363464355e-01,-2.702723145484924316e-01
-2.990797519683837891e+00,7.880230545997619629e-01,-1.620902568101882935e-01
-2.994414091110229492e+00,7.889759540557861328e-01,-5.405146628618240356e-02
-2.998135328292846680e+00,7.899564504623413086e-01,5.411863327026367188e-02
-3.001685857772827148e+00,7.908919453620910645e-01,1.626803576946258545e-01
-3.005499124526977539e+00,7.918966412544250488e-01,2.719208598136901855e-01
-3.009289026260375977e+00,7.928951978683471680e-01,3.821041584014892578e-01
-3.012919425964355469e+00,7.938517928123474121e-01,4.934852123260498047e-01
-3.016221523284912109e+00,7.947217822074890137e-01,6.063028573989868164e-01
-3.020788669586181641e+00,7.959251999855041504e-01,7.212046980857849121e-01
-2.990959405899047852e+00,7.424546480178833008e-01,-8.257465362548828125e-01
-2.994848012924194336e+00,7.434199452400207520e-01,-7.123979926109313965e-01
-2.998982667922973633e+00,7.444463372230529785e-01,-6.006341576576232910e-01
-3.002346754074096680e+00,7.452813982963562012e-01,-4.899561107158660889e-01
-3.006066560745239258e+00,7.462047338485717773e-01,-3.802998661994934082e-01
-3.009712219238281250e+00,7.471097111701965332e-01,-2.713067233562469482e-01
-3.013365268707275391e+00,7.480165362358093262e-01,-1.627164185047149658e-01
-3.017009735107421875e+00,7.489212155342102051e-01,-5.426027625799179077e-02
-3.020652055740356445e+00,7.498253583908081055e-01,5.432578176259994507e-02
-3.024328947067260742e+00,7.507380843162536621e-01,1.633084267377853394e-01
-3.027976751327514648e+00,7.516435384750366211e-01,2.729531526565551758e-01
-3.032046079635620117e+00,7.526537179946899414e-01,3.835865259170532227e-01
-3.035421848297119141e+00,7.534917593002319336e-01,4.953536689281463623e-01
-3.039148330688476562e+00,7.544167041778564453e-01,6.086785197257995605e-01
-3.043358802795410156e+00,7.554618716239929199e-01,7.239374518394470215e-01
-3.013873815536499023e+00,7.025077939033508301e-01,-8.292117714881896973e-01
-3.018104076385498047e+00,7.034937739372253418e-01,-7.154614925384521484e-01
-3.021925449371337891e+00,7.043845057487487793e-01,-6.031481027603149414e-01
-3.025525331497192383e+00,7.052236199378967285e-01,-4.920409321784973145e-01
-3.029060840606689453e+00,7.060477137565612793e-01,-3.818912506103515625e-01
-3.032836198806762695e+00,7.069277167320251465e-01,-2.724511921405792236e-01
-3.036506891250610352e+00,7.077833414077758789e-01,-1.634022295475006104e-01
-3.040177583694458008e+00,7.086389064788818359e-01,-5.448894202709197998e-02
-3.043859004974365234e+00,7.094970345497131348e-01,5.455492436885833740e-02
-3.047462463378906250e+00,7.103369235992431641e-01,1.639917790889739990e-01
-3.051351070404052734e+00,7.112433910369873047e-01,2.741144299507141113e-01
-3.055239915847778320e+00,7.121497988700866699e-01,3.851917982101440430e-01
-3.058990240097045898e+00,7.130240201950073242e-01,4.974833726882934570e-01
-3.062430143356323242e+00,7.138258218765258789e-01,6.112324595451354980e-01
-3.066237688064575195e+00,7.147132754325866699e-01,7.268718481063842773e-01
-3.036555528640747070e+00,6.621220111846923828e-01,-8.327594399452209473e-01
-3.040481328964233398e+00,6.629779934883117676e-01,-7.184430360794067383e-01
-3.044650554656982422e+00,6.638870835304260254e-01,-6.057251095771789551e-01
-3.048068046569824219e+00,6.646323204040527344e-01,-4.941093623638153076e-01
-3.051847934722900391e+00,6.654565334320068359e-01,-3.835240006446838379e-01
-3.055754184722900391e+00,6.663082838058471680e-01,-2.736251950263977051e-01
-3.059381723403930664e+00,6.670992374420166016e-01,-1.641025543212890625e-01
-3.063080310821533203e+00,6.679056882858276367e-01,-5.472247675061225891e-02
-3.066859245300292969e+00,6.687297224998474121e-01,5.478998646140098572e-02
-3.070387840270996094e+00,6.694990992546081543e-01,1.646929085254669189e-01
-3.074086666107177734e+00,6.703056693077087402e-01,2.752667665481567383e-01
-3.078214645385742188e+00,6.712057590484619141e-01,3.868374824523925781e-01
-3.081670761108398438e+00,6.719593405723571777e-01,4.995565116405487061e-01
-3.085475683212280273e+00,6.727890372276306152e-01,6.138471961021423340e-01
-3.089754581451416016e+00,6.737220883369445801e-01,7.300859093666076660e-01
-3.060332775115966797e+00,6.215627193450927734e-01,-8.367546200752258301e-01
-3.063895702362060547e+00,6.222863793373107910e-01,-7.217970490455627441e-01
-3.067801237106323242e+00,6.230795979499816895e-01,-6.084942817687988281e-01
-3.071488618850708008e+00,6.238284707069396973e-01,-4.964076280593872070e-01
-3.075415372848510742e+00,6.246260404586791992e-01,-3.853226900100708008e-01
-3.078984737396240234e+00,6.253510117530822754e-01,-2.748757004737854004e-01
-3.082760334014892578e+00,6.261178255081176758e-01,-1.648589521646499634e-01
-3.086487531661987305e+00,6.268748641014099121e-01,-5.497471988201141357e-02
-3.090175151824951172e+00,6.276237964630126953e-01,5.504040420055389404e-02
-3.094096183776855469e+00,6.284201741218566895e-01,1.654651761054992676e-01
-3.097705125808715820e+00,6.291531324386596680e-01,2.765469551086425781e-01
-3.101619720458984375e+00,6.299482583999633789e-01,3.886058628559112549e-01
-3.105399608612060547e+00,6.307159662246704102e-01,5.018882751464843750e-01
-3.109632015228271484e+00,6.315755844116210938e-01,6.167913675308227539e-01
-3.113560914993286133e+00,6.323735713958740234e-01,7.334972620010375977e-01
-3.083700418472290039e+00,5.804828405380249023e-01,-8.407858610153198242e-01
-3.087699651718139648e+00,5.812356472015380859e-01,-7.253705263137817383e-01
-3.091385364532470703e+00,5.819294452667236328e-01,-6.114574074745178223e-01
-3.095368862152099609e+00,5.826793313026428223e-01,-4.988680779933929443e-01
-3.099166870117187500e+00,5.833942890167236328e-01,-3.872126638889312744e-01
-3.102899789810180664e+00,5.840969085693359375e-01,-2.762360274791717529e-01
-3.106650114059448242e+00,5.848029255867004395e-01,-1.656719297170639038e-01
-3.110406875610351562e+00,5.855100750923156738e-01,-5.524582415819168091e-02
-3.114175796508789062e+00,5.862195491790771484e-01,5.531276762485504150e-02
-3.117991685867309570e+00,5.869378447532653809e-01,1.662767380475997925e-01
-3.121787786483764648e+00,5.876525044441223145e-01,2.779175639152526855e-01
-3.125463008880615234e+00,5.883443355560302734e-01,3.904981315135955811e-01
-3.129523754119873047e+00,5.891087055206298828e-01,5.043727159500122070e-01
-3.133374691009521484e+00,5.898336172103881836e-01,6.197626590728759766e-01
-3.137663841247558594e+00,5.906410217285156250e-01,7.371082901954650879e-01
-3.153968334197998047e+00,5.470919609069824219e-01,-8.577218651771545410e-01
-3.157773733139038086e+00,5.477520227432250977e-01,-7.399148941040039062e-01
-3.161885738372802734e+00,5.484653115272521973e-01,-6.237852573394775391e-01
-3.165751934051513672e+00,5.491359233856201172e-01,-5.088925361633300781e-01
-3.169535398483276367e+00,5.497922301292419434e-01,-3.949808776378631592e-01
-3.173540115356445312e+00,5.504868626594543457e-01,-2.817944586277008057e-01
-3.177435159683227539e+00,5.511625409126281738e-01,-1.690087467432022095e-01
-3.181327104568481445e+00,5.518376231193542480e-01,-5.635941773653030396e-02
-3.185224771499633789e+00,5.525137186050415039e-01,5.642846971750259399e-02
-3.189040899276733398e+00,5.531756281852722168e-01,1.696260422468185425e-01
-3.193128585815429688e+00,5.538847446441650391e-01,2.835338413715362549e-01
-3.197201013565063477e+00,5.545911192893981934e-01,3.984284996986389160e-01
-3.201113462448120117e+00,5.552697777748107910e-01,5.145768523216247559e-01
-3.205448150634765625e+00,5.560216903686523438e-01,6.323794126510620117e-01
-3.209443330764770508e+00,5.567147135734558105e-01,7.520219087600708008e-01
-3.272063016891479492e+00,5.194525122642517090e-01,-8.877247571945190430e-01
-3.276485681533813477e+00,5.201546549797058105e-01,-7.659080028533935547e-01
-3.280543804168701172e+00,5.207989215850830078e-01,-6.456577181816101074e-01
-3.284868717193603516e+00,5.214855074882507324e-01,-5.267866849899291992e-01
-3.288970708847045898e+00,5.221366882324218750e-01,-4.088914096355438232e-01
-3.292975664138793945e+00,5.227724909782409668e-01,-2.917054593563079834e-01
-3.296972990036010742e+00,5.234071016311645508e-01,-1.749505847692489624e-01
-3.301011800765991211e+00,5.240482687950134277e-01,-5.834085494279861450e-02
-3.305102586746215820e+00,5.246977210044860840e-01,5.841315165162086487e-02
-3.309214591979980469e+00,5.253505110740661621e-01,1.756001710891723633e-01
-3.313279628753662109e+00,5.259958505630493164e-01,2.935040593147277832e-01
-3.317188978195190430e+00,5.266165137290954590e-01,4.123995900154113770e-01
-3.321460962295532227e+00,5.272946953773498535e-01,5.326548814773559570e-01
-3.325477361679077148e+00,5.279322862625122070e-01,6.545012593269348145e-01
-3.329897642135620117e+00,5.286340117454528809e-01,7.783935070037841797e-01
-3.400793313980102539e+00,4.900981783866882324e-01,-9.206522703170776367e-01
-3.405135154724121094e+00,4.907239079475402832e-01,-7.942576408386230469e-01
-3.409735679626464844e+00,4.913869202136993408e-01,-6.696316599845886230e-01
-3.414027214050292969e+00,4.920053482055664062e-01,-5.463141798973083496e-01
-3.418182134628295898e+00,4.926041662693023682e-01,-4.240352511405944824e-01
-3.422521352767944336e+00,4.932295083999633789e-01,-3.025247752666473389e-01
-3.426640272140502930e+00,4.938230812549591064e-01,-1.814375817775726318e-01
-3.430838346481323242e+00,4.944280683994293213e-01,-6.050408631563186646e-02
-3.435127019882202148e+00,4.950461387634277344e-01,6.057972088456153870e-02
-3.439224243164062500e+00,4.956366121768951416e-01,1.821039021015167236e-01
-3.443559408187866211e+00,4.962613582611083984e-01,3.043843805789947510e-01
-3.447830438613891602e+00,4.968768656253814697e-01,4.277131855487823486e-01
-3.451883554458618164e+00,4.974609315395355225e-01,5.523719787597656250e-01
-3.456317663192749023e+00,4.980999827384948730e-01,6.787797808647155762e-01
-3.461241722106933594e+00,4.988096058368682861e-01,8.073447346687316895e-01
-3.534574985504150391e+00,4.578414559364318848e-01,-9.549974203109741211e-01
-3.539521217346191406e+00,4.584821462631225586e-01,-8.239885568618774414e-01
-3.544014692306518555e+00,4.590642154216766357e-01,-6.946408748626708984e-01
-3.548277854919433594e+00,4.596164226531982422e-01,-5.666862726211547852e-01
-3.552809953689575195e+00,4.602034389972686768e-01,-4.398739933967590332e-01
-3.557183504104614258e+00,4.607699811458587646e-01,-3.138127624988555908e-01
-3.561494112014770508e+00,4.613283276557922363e-01,-1.882090568542480469e-01
-3.565859079360961914e+00,4.618937373161315918e-01,-6.276220828294754028e-02
-3.570287704467773438e+00,4.624674022197723389e-01,6.284015625715255737e-02
-3.574684619903564453e+00,4.630369246006011963e-01,1.889061331748962402e-01
-3.578976392745971680e+00,4.635928571224212646e-01,3.157353103160858154e-01
-3.583616971969604492e+00,4.641939699649810791e-01,4.436882138252258301e-01
-3.588123083114624023e+00,4.647776484489440918e-01,5.730498433113098145e-01
-3.592291831970214844e+00,4.653176367282867432e-01,7.041033506393432617e-01
-3.597729444503784180e+00,4.660219848155975342e-01,8.375391960144042969e-01
-3.686503410339355469e+00,4.239684045314788818e-01,-9.943050742149353027e-01
-3.691378593444824219e+00,4.245290756225585938e-01,-8.578379154205322266e-01
-3.695853948593139648e+00,4.250437617301940918e-01,-7.231354117393493652e-01
-3.700165987014770508e+00,4.255396723747253418e-01,-5.899107456207275391e-01
-3.704830646514892578e+00,4.260761439800262451e-01,-4.578937292098999023e-01
-3.709611177444458008e+00,4.266259372234344482e-01,-3.266876935958862305e-01
-3.714087486267089844e+00,4.271407127380371094e-01,-1.959297806024551392e-01
-3.718639373779296875e+00,4.276642203330993652e-01,-6.533683836460113525e-02
-3.723279237747192383e+00,4.281978309154510498e-01,6.541836261749267578e-02
-3.727645158767700195e+00,4.286999404430389404e-01,1.966449916362762451e-01
-3.732184171676635742e+00,4.292219579219818115e-01,3.286755681037902832e-01
-3.737159967422485352e+00,4.297941625118255615e-01,4.618894159793853760e-01
-3.742074728012084961e+00,4.303594231605529785e-01,5.965921282768249512e-01
-3.746712446212768555e+00,4.308927655220031738e-01,7.330864667892456055e-01
-3.751762390136718750e+00,4.314735531806945801e-01,8.718705177307128906e-01
-3.844304084777832031e+00,3.864549100399017334e-01,-1.035268306732177734e+00
-3.849235534667968750e+00,3.869506418704986572e-01,-8.931436538696289062e-01
-3.854413509368896484e+00,3.874711692333221436e-01,-7.529971003532409668e-01
-3.859243869781494141e+00,3.879567682743072510e-01,-6.143239736557006836e-01
-3.863923311233520508e+00,3.884271681308746338e-01,-4.768205881118774414e-01
-3.868802070617675781e+00,3.889176249504089355e-01,-3.401817679405212402e-01
-3.873453617095947266e+00,3.893852233886718750e-01,-2.040219455957412720e-01
-3.878201723098754883e+00,3.898625075817108154e-01,-6.803534924983978271e-02
-3.883059263229370117e+00,3.903508186340332031e-01,6.812056154012680054e-02
-3.887722253799438477e+00,3.908195793628692627e-01,2.047734856605529785e-01
-3.892645597457885742e+00,3.913145065307617188e-01,3.422783315181732178e-01
-3.897498846054077148e+00,3.918024003505706787e-01,4.809639155864715576e-01
-3.902107477188110352e+00,3.922656774520874023e-01,6.211470961570739746e-01
-3.907100915908813477e+00,3.927676677703857422e-01,7.632901072502136230e-01
-3.912579536437988281e+00,3.933184146881103516e-01,9.078414440155029297e-01
-3.985092878341674805e+00,3.430738151073455811e-01,-1.071750402450561523e+00
-4.021584033966064453e+00,3.462153077125549316e-01,-9.318886399269104004e-01
-4.026824474334716797e+00,3.466664552688598633e-01,-7.856293916702270508e-01
-4.031772613525390625e+00,3.470924496650695801e-01,-6.409310698509216309e-01
-4.036975383758544922e+00,3.475403487682342529e-01,-4.975109398365020752e-01
-4.041984081268310547e+00,3.479715287685394287e-01,-3.549352586269378662e-01
-4.046905517578125000e+00,3.483952283859252930e-01,-2.128735035657882690e-01
-4.051867485046386719e+00,3.488224148750305176e-01,-7.098711282014846802e-02
-4.056882858276367188e+00,3.492541611194610596e-01,7.107497006654739380e-02
-4.061845779418945312e+00,3.496814072132110596e-01,2.136593759059906006e-01
-4.066673755645751953e+00,3.500970602035522461e-01,3.571033179759979248e-01
-4.071845054626464844e+00,3.505422472953796387e-01,5.018082261085510254e-01
-4.076834201812744141e+00,3.509717881679534912e-01,6.480945348739624023e-01
-4.082277774810791016e+00,3.514403998851776123e-01,7.964482903480529785e-01
-4.087280273437500000e+00,3.518710434436798096e-01,9.471118450164794922e-01
-3.991708517074584961e+00,2.861555814743041992e-01,-1.072318196296691895e+00
-4.217054843902587891e+00,3.023100793361663818e-01,-9.760807752609252930e-01
-4.222336292266845703e+00,3.026887178421020508e-01,-8.228440284729003906e-01
-4.227363109588623047e+00,3.030490875244140625e-01,-6.712657809257507324e-01
-4.232704162597656250e+00,3.034319281578063965e-01,-5.210435986518859863e-01
-4.237901687622070312e+00,3.038045763969421387e-01,-3.717193007469177246e-01
-4.243071556091308594e+00,3.041751384735107422e-01,-2.229402810335159302e-01
-4.248275279998779297e+00,3.045482039451599121e-01,-7.434410601854324341e-02
