-1.468439221382141113e+00,-1.751438140869140625e+00,-3.619988262653350830e-01
-1.470277547836303711e+00,-1.753630757331848145e+00,-2.809841334819793701e-01
-1.472055912017822266e+00,-1.755751848220825195e+00,-2.004540264606475830e-01
-1.473814249038696289e+00,-1.757849097251892090e+00,-1.202201396226882935e-01
-1.475573658943176270e+00,-1.759947538375854492e+00,-4.008861631155014038e-02
-1.477339029312133789e+00,-1.762053251266479492e+00,4.013657942414283752e-02
-1.479096770286560059e+00,-1.764149665832519531e+00,1.206510365009307861e-01
-1.480816841125488281e+00,-1.766201257705688477e+00,2.016470432281494141e-01
-1.482831239700317383e+00,-1.768603920936584473e+00,2.833832502365112305e-01
-1.484396576881408691e+00,-1.770470857620239258e+00,3.659326434135437012e-01
-1.486269712448120117e+00,-1.772704958915710449e+00,4.496644735336303711e-01
-1.487967729568481445e+00,-1.774730205535888672e+00,5.346829295158386230e-01
-1.404417395591735840e+00,-1.724622726440429688e+00,-5.959503650665283203e-01
-1.406100630760192871e+00,-1.726689815521240234e+00,-5.140932798385620117e-01
-1.407674908638000488e+00,-1.728623032569885254e+00,-4.333273470401763916e-01
-1.409517884254455566e+00,-1.730886101722717285e+00,-3.535448908805847168e-01
-1.411257505416870117e+00,-1.733022332191467285e+00,-2.744172811508178711e-01
-1.412948012351989746e+00,-1.735098361968994141e+00,-1.957669705152511597e-01
-1.414627552032470703e+00,-1.737160801887512207e+00,-1.174084469676017761e-01
-1.416317343711853027e+00,-1.739235877990722656e+00,-3.915105760097503662e-02
-1.418021440505981445e+00,-1.741328477859497070e+00,3.919816389679908752e-02
-1.419726610183715820e+00,-1.743422389030456543e+00,1.178316399455070496e-01
-1.421404123306274414e+00,-1.745482444763183594e+00,1.969385892152786255e-01
-1.423007607460021973e+00,-1.747451543807983398e+00,2.767021059989929199e-01
-1.424918055534362793e+00,-1.749797582626342773e+00,3.574076592922210693e-01
-1.426768183708190918e+00,-1.752069592475891113e+00,4.392048716545104980e-01
-1.428457260131835938e+00,-1.754143714904785156e+00,5.222672820091247559e-01
-1.348357200622558594e+00,-1.705050110816955566e+00,-5.824581980705261230e-01
-1.349929690361022949e+00,-1.707038640975952148e+00,-5.024381875991821289e-01
-1.351404070854187012e+00,-1.708903074264526367e+00,-4.234916865825653076e-01
-1.353144526481628418e+00,-1.711103796958923340e+00,-3.455127477645874023e-01
-1.354792714118957520e+00,-1.713188052177429199e+00,-2.681785225868225098e-01
-1.356401681900024414e+00,-1.715222597122192383e+00,-1.913143247365951538e-01
-1.358006834983825684e+00,-1.717252373695373535e+00,-1.147374212741851807e-01
-1.359629631042480469e+00,-1.719304561614990234e+00,-3.826039656996726990e-02
-1.361273765563964844e+00,-1.721383571624755859e+00,3.830666467547416687e-02
-1.362926602363586426e+00,-1.723473668098449707e+00,1.151530966162681580e-01
-1.364560365676879883e+00,-1.725539565086364746e+00,1.924650669097900391e-01
-1.366129994392395020e+00,-1.727524518966674805e+00,2.704227268695831299e-01
-1.368003249168395996e+00,-1.729893326759338379e+00,3.493067920207977295e-01
-1.369825124740600586e+00,-1.732197046279907227e+00,4.292643070220947266e-01
-1.371498465538024902e+00,-1.734313130378723145e+00,5.104659795761108398e-01
-1.297346711158752441e+00,-1.689698338508605957e+00,-5.708119869232177734e-01
-1.298896074295043945e+00,-1.691716194152832031e+00,-4.924056828022003174e-01
-1.300695776939392090e+00,-1.694060325622558594e+00,-4.151571989059448242e-01
-1.302348375320434570e+00,-1.696212649345397949e+00,-3.387070894241333008e-01
-1.303918004035949707e+00,-1.698256850242614746e+00,-2.628927528858184814e-01
-1.305454850196838379e+00,-1.700258493423461914e+00,-1.875418573617935181e-01
-1.306994915008544922e+00,-1.702264308929443359e+00,-1.124745383858680725e-01
-1.308557033538818359e+00,-1.704298853874206543e+00,-3.750582039356231689e-02
-1.310145735740661621e+00,-1.706368088722229004e+00,3.755135834217071533e-02
-1.311749458312988281e+00,-1.708456873893737793e+00,1.128837019205093384e-01
-1.313339948654174805e+00,-1.710528254508972168e+00,1.886746287345886230e-01
-1.314874529838562012e+00,-1.712526917457580566e+00,2.651017606258392334e-01
-1.316295862197875977e+00,-1.714378237724304199e+00,3.423344492912292480e-01
-1.318013310432434082e+00,-1.716615080833435059e+00,4.206846058368682861e-01
-1.319596052169799805e+00,-1.718676447868347168e+00,5.002529621124267578e-01
-1.245669007301330566e+00,-1.671379923820495605e+00,-5.585432052612304688e-01
-1.247123599052429199e+00,-1.673331737518310547e+00,-4.818094372749328613e-01
-1.248825073242187500e+00,-1.675614714622497559e+00,-4.062146544456481934e-01
-1.250389814376831055e+00,-1.677714109420776367e+00,-3.314054310321807861e-01
-1.251880288124084473e+00,-1.679713964462280273e+00,-2.572220861911773682e-01
-1.253345251083374023e+00,-1.681679606437683105e+00,-1.834949851036071777e-01
-1.254818081855773926e+00,-1.683655738830566406e+00,-1.100470051169395447e-01
-1.256318688392639160e+00,-1.685669183731079102e+00,-3.669635951519012451e-02
-1.257850646972656250e+00,-1.687724709510803223e+00,3.674110770225524902e-02
-1.259402275085449219e+00,-1.689806699752807617e+00,1.104490384459495544e-01
-1.260946989059448242e+00,-1.691879272460937500e+00,1.846079081296920776e-01
-1.262443900108337402e+00,-1.693887829780578613e+00,2.593925893306732178e-01
-1.263836622238159180e+00,-1.695756435394287109e+00,3.349694013595581055e-01
-1.265520215034484863e+00,-1.698015451431274414e+00,4.116452038288116455e-01
-1.267079472541809082e+00,-1.700107574462890625e+00,4.895190894603729248e-01
-1.196083068847656250e+00,-1.653728008270263672e+00,-5.468670725822448730e-01
-1.197451949119567871e+00,-1.655620574951171875e+00,-4.717263579368591309e-01
-1.199062943458557129e+00,-1.657848000526428223e+00,-3.977060616016387939e-01
-1.200547099113464355e+00,-1.659900069236755371e+00,-3.244588971138000488e-01
-1.201963901519775391e+00,-1.661859035491943359e+00,-2.518275082111358643e-01
-1.203361034393310547e+00,-1.663790702819824219e+00,-1.796452403068542480e-01
-1.204771041870117188e+00,-1.665740132331848145e+00,-1.077378392219543457e-01
-1.206212401390075684e+00,-1.667733073234558105e+00,-3.592636436223983765e-02
-1.207688450813293457e+00,-1.669773936271667480e+00,3.597032651305198669e-02
-1.209188699722290039e+00,-1.671848177909851074e+00,1.081328988075256348e-01
-1.210687279701232910e+00,-1.673920154571533203e+00,1.807389557361602783e-01
-1.212143898010253906e+00,-1.675934076309204102e+00,2.539603710174560547e-01
-1.213505506515502930e+00,-1.677816629409790039e+00,3.279610276222229004e-01
-1.215151548385620117e+00,-1.680092573165893555e+00,4.030423760414123535e-01
-1.216681957244873047e+00,-1.682208538055419922e+00,4.793018996715545654e-01
-1.151052355766296387e+00,-1.640407085418701172e+00,-5.369586944580078125e-01
-1.152348995208740234e+00,-1.642254948616027832e+00,-4.631711244583129883e-01
-1.153882384300231934e+00,-1.644440174102783203e+00,-3.904875218868255615e-01
-1.155059456825256348e+00,-1.646117687225341797e+00,-3.185005784034729004e-01
-1.156479477882385254e+00,-1.648141503334045410e+00,-2.472151517868041992e-01
-1.157987356185913086e+00,-1.650290250778198242e+00,-1.763798445463180542e-01
-1.159340858459472656e+00,-1.652219295501708984e+00,-1.057792007923126221e-01
-1.160728454589843750e+00,-1.654196739196777344e+00,-3.527325019240379333e-02
-1.162153244018554688e+00,-1.656227231025695801e+00,3.531654924154281616e-02
-1.163435697555541992e+00,-1.658054947853088379e+00,1.061528176069259644e-01
-1.164821505546569824e+00,-1.660029888153076172e+00,1.774207949638366699e-01
-1.166474699974060059e+00,-1.662385940551757812e+00,2.493517696857452393e-01
-1.167802810668945312e+00,-1.664278626441955566e+00,3.220144808292388916e-01
-1.169409036636352539e+00,-1.666567802429199219e+00,3.957419395446777344e-01
-1.170907020568847656e+00,-1.668702602386474609e+00,4.706302881240844727e-01
-1.104694366455078125e+00,-1.623265027999877930e+00,-5.261178612709045410e-01
-1.106329917907714844e+00,-1.625668287277221680e+00,-4.539805352687835693e-01
-1.107496380805969238e+00,-1.627382278442382812e+00,-3.826335370540618896e-01
-1.108903527259826660e+00,-1.629449963569641113e+00,-3.121725916862487793e-01
-1.110257267951965332e+00,-1.631439208984375000e+00,-2.423013746738433838e-01
-1.111699223518371582e+00,-1.633557915687561035e+00,-1.728731542825698853e-01
-1.112995505332946777e+00,-1.635462880134582520e+00,-1.036758646368980408e-01
-1.114327907562255859e+00,-1.637420654296875000e+00,-3.457187861204147339e-02
-1.115699768066406250e+00,-1.639436483383178711e+00,3.461443632841110229e-02
-1.116937756538391113e+00,-1.641255736351013184e+00,1.040430888533592224e-01
-1.118278741836547852e+00,-1.643226146697998047e+00,1.738962978124618530e-01
-1.119589090347290039e+00,-1.645151495933532715e+00,2.443379312753677368e-01
-1.121172070503234863e+00,-1.647477626800537109e+00,3.156263530254364014e-01
-1.122320294380187988e+00,-1.649164915084838867e+00,3.877551257610321045e-01
-1.123722553253173828e+00,-1.651225328445434570e+00,4.611175656318664551e-01
-1.062775492668151855e+00,-1.610758543014526367e+00,-5.170810818672180176e-01
-1.064336299896240234e+00,-1.613124132156372070e+00,-4.461774826049804688e-01
-1.065446972846984863e+00,-1.614807605743408203e+00,-3.760527968406677246e-01
-1.066792130470275879e+00,-1.616846323013305664e+00,-3.068011701107025146e-01
-1.068087577819824219e+00,-1.618809819221496582e+00,-2.381306737661361694e-01
-1.069470763206481934e+00,-1.620906233787536621e+00,-1.698968857526779175e-01
-1.070715904235839844e+00,-1.622793197631835938e+00,-1.018907353281974792e-01
-1.071998000144958496e+00,-1.624736428260803223e+00,-3.397661820054054260e-02
-1.073320508003234863e+00,-1.626740932464599609e+00,3.401853516697883606e-02
-1.074516296386718750e+00,-1.628553271293640137e+00,1.022523939609527588e-01
-1.075813889503479004e+00,-1.630519866943359375e+00,1.709045618772506714e-01
-1.077084064483642578e+00,-1.632444977760314941e+00,2.401364445686340332e-01
-1.078619241714477539e+00,-1.634771704673767090e+00,3.102025687694549561e-01
-1.079737782478332520e+00,-1.636466979980468750e+00,3.810967803001403809e-01
-1.081103444099426270e+00,-1.638536691665649414e+00,4.532063901424407959e-01
-1.020081162452697754e+00,-1.595258355140686035e+00,-5.073661208152770996e-01
-1.021568298339843750e+00,-1.597584128379821777e+00,-4.377899765968322754e-01
-1.022624850273132324e+00,-1.599236488342285156e+00,-3.689801096916198730e-01
-1.023908495903015137e+00,-1.601243853569030762e+00,-3.010287880897521973e-01
-1.025146484375000000e+00,-1.603179931640625000e+00,-2.336490750312805176e-01
-1.026470541954040527e+00,-1.605250477790832520e+00,-1.666988581418991089e-01
-1.027663946151733398e+00,-1.607116818428039551e+00,-9.997265785932540894e-02
-1.028894901275634766e+00,-1.609041929244995117e+00,-3.333702683448791504e-02
-1.030166864395141602e+00,-1.611030936241149902e+00,3.337823599576950073e-02
-1.031318783760070801e+00,-1.612832427024841309e+00,1.003281995654106140e-01
-1.032570362091064453e+00,-1.614789724349975586e+00,1.676894575357437134e-01
-1.033797979354858398e+00,-1.616709589958190918e+00,2.356208860874176025e-01
-1.035282015800476074e+00,-1.619030356407165527e+00,3.043725788593292236e-01
-1.036367535591125488e+00,-1.620727896690368652e+00,3.739386796951293945e-01
-1.037692070007324219e+00,-1.622799396514892578e+00,4.446997940540313721e-01
-9.809235334396362305e-01,-1.583507537841796875e+00,-4.991121888160705566e-01
-9.823470711708068848e-01,-1.585805535316467285e+00,-4.306650459766387939e-01
-9.833572506904602051e-01,-1.587436199188232422e+00,-3.629728853702545166e-01
-9.845869541168212891e-01,-1.589421391487121582e+00,-2.961264550685882568e-01
-9.857740402221679688e-01,-1.591337680816650391e+00,-2.298432439565658569e-01
-9.870449900627136230e-01,-1.593389391899108887e+00,-1.639831960201263428e-01
-9.881919026374816895e-01,-1.595240831375122070e+00,-9.834394603967666626e-02
-9.893758893013000488e-01,-1.597152233123779297e+00,-3.279392421245574951e-02
-9.906004667282104492e-01,-1.599129080772399902e+00,3.283451497554779053e-02
-9.917109608650207520e-01,-1.600921630859375000e+00,9.869416803121566772e-02
-9.929185509681701660e-01,-1.602871179580688477e+00,1.649589985609054565e-01
-9.941042661666870117e-01,-1.604785203933715820e+00,2.317855060100555420e-01
-9.955379366874694824e-01,-1.607099533081054688e+00,2.994200587272644043e-01
-9.965891838073730469e-01,-1.608796596527099609e+00,3.678570091724395752e-01
-9.978717565536499023e-01,-1.610867023468017578e+00,4.374711513519287109e-01
-9.411168098449707031e-01,-1.568971157073974609e+00,-4.902343153953552246e-01
-9.421784877777099609e-01,-1.570741057395935059e+00,-4.228681921958923340e-01
-9.434434175491333008e-01,-1.572849869728088379e+00,-3.565134108066558838e-01
-9.446204900741577148e-01,-1.574812173843383789e+00,-2.908557355403900146e-01
-9.457572698593139648e-01,-1.576707363128662109e+00,-2.257517874240875244e-01
-9.469754695892333984e-01,-1.578738331794738770e+00,-1.610639244318008423e-01
-9.480750560760498047e-01,-1.580571532249450684e+00,-9.659313410520553589e-02
-9.492113590240478516e-01,-1.582465767860412598e+00,-3.221010416746139526e-02
-9.503875374794006348e-01,-1.584426641464233398e+00,3.225001692771911621e-02
-9.514548182487487793e-01,-1.586205959320068359e+00,9.693747013807296753e-02
-9.526163339614868164e-01,-1.588142395019531250e+00,1.620233356952667236e-01
-9.537575244903564453e-01,-1.590044975280761719e+00,2.276614457368850708e-01
-9.548358917236328125e-01,-1.591842651367187500e+00,2.940011322498321533e-01
-9.561511874198913574e-01,-1.594035506248474121e+00,3.613154888153076172e-01
-9.573878645896911621e-01,-1.596097230911254883e+00,4.296944737434387207e-01
-9.044259190559387207e-01,-1.557923793792724609e+00,-4.826881885528564453e-01
-9.054448008537292480e-01,-1.559678792953491211e+00,-4.163583517074584961e-01
-9.066593647003173828e-01,-1.561770915985107422e+00,-3.510246872901916504e-01
-9.077897071838378906e-01,-1.563718080520629883e+00,-2.863775789737701416e-01
-9.088814854621887207e-01,-1.565598726272583008e+00,-2.222758382558822632e-01
-9.100520610809326172e-01,-1.567615032196044922e+00,-1.585839539766311646e-01
-9.111088514328002930e-01,-1.569435477256774902e+00,-9.510585665702819824e-02
-9.122012257575988770e-01,-1.571317195892333984e+00,-3.171417117118835449e-02
-9.133319258689880371e-01,-1.573264837265014648e+00,3.175348415970802307e-02
-9.143584966659545898e-01,-1.575033187866210938e+00,9.544507414102554321e-02
-9.154757857322692871e-01,-1.576957821846008301e+00,1.595290899276733398e-01
-9.165738224983215332e-01,-1.578849196434020996e+00,2.241570800542831421e-01
-9.176120758056640625e-01,-1.580637574195861816e+00,2.894761860370635986e-01
-9.188779592514038086e-01,-1.582818150520324707e+00,3.557552695274353027e-01
-9.200686216354370117e-01,-1.584869265556335449e+00,4.230829775333404541e-01
-8.671983480453491211e-01,-1.544285297393798828e+00,-4.745682179927825928e-01
-8.681766986846923828e-01,-1.546027541160583496e+00,-4.093548953533172607e-01
-8.693423867225646973e-01,-1.548103332519531250e+00,-3.451206088066101074e-01
-8.704270720481872559e-01,-1.550034880638122559e+00,-2.815611064434051514e-01
-8.714748024940490723e-01,-1.551900625228881836e+00,-2.185377031564712524e-01
-8.725976943969726562e-01,-1.553900361061096191e+00,-1.559170633554458618e-01
-8.736115694046020508e-01,-1.555705785751342773e+00,-9.350652247667312622e-02
-8.746591806411743164e-01,-1.557571291923522949e+00,-3.118086233735084534e-02
-8.757436275482177734e-01,-1.559502482414245605e+00,3.121952153742313385e-02
-8.767277598381042480e-01,-1.561254978179931641e+00,9.384006261825561523e-02
-8.777989745140075684e-01,-1.563162565231323242e+00,1.568464338779449463e-01
-8.788515329360961914e-01,-1.565036892890930176e+00,2.203875482082366943e-01
-8.798463940620422363e-01,-1.566808581352233887e+00,2.846080362796783447e-01
-8.810595870018005371e-01,-1.568969011306762695e+00,3.497722148895263672e-01
-8.822004795074462891e-01,-1.571000695228576660e+00,4.159672856330871582e-01
-8.327137827873229980e-01,-1.533892512321472168e+00,-4.676637947559356689e-01
-8.339216709136962891e-01,-1.536117553710937500e+00,-4.035291373729705811e-01
-8.347787261009216309e-01,-1.537696242332458496e+00,-3.401020169258117676e-01
-8.358227610588073730e-01,-1.539619445800781250e+00,-2.774675786495208740e-01
-8.368305563926696777e-01,-1.541475772857666016e+00,-2.153608947992324829e-01
-8.379102349281311035e-01,-1.543464541435241699e+00,-1.536507904529571533e-01
-8.388845920562744141e-01,-1.545259356498718262e+00,-9.214749187231063843e-02
-8.398907780647277832e-01,-1.547112822532653809e+00,-3.072768449783325195e-02
-8.409317731857299805e-01,-1.549030423164367676e+00,3.076577000319957733e-02
-8.418760299682617188e-01,-1.550769805908203125e+00,9.247609227895736694e-02
-8.429033756256103516e-01,-1.552662253379821777e+00,1.545664221048355103e-01
-8.439121246337890625e-01,-1.554520249366760254e+00,2.171833515167236328e-01
-8.451319336891174316e-01,-1.556767225265502930e+00,2.805579602718353271e-01
-8.460270762443542480e-01,-1.558416128158569336e+00,3.446847498416900635e-01
-8.471192121505737305e-01,-1.560427904129028320e+00,4.099153280258178711e-01
-7.991945147514343262e-01,-1.523763418197631836e+00,-4.610406458377838135e-01
-8.003588318824768066e-01,-1.525983333587646484e+00,-3.978168070316314697e-01
-8.011862635612487793e-01,-1.527560949325561523e+00,-3.352895677089691162e-01
-8.021918535232543945e-01,-1.529478192329406738e+00,-2.735426425933837891e-01
-8.031619787216186523e-01,-1.531327962875366211e+00,-2.123152613639831543e-01
-8.042000532150268555e-01,-1.533307075500488281e+00,-1.514782160520553589e-01
-8.051362633705139160e-01,-1.535092115402221680e+00,-9.084466844797134399e-02
-8.061023354530334473e-01,-1.536934018135070801e+00,-3.029325604438781738e-02
-8.071007728576660156e-01,-1.538837790489196777e+00,3.033077716827392578e-02
-8.080055713653564453e-01,-1.540562748908996582e+00,9.116841107606887817e-02
-8.089889883995056152e-01,-1.542437791824340820e+00,1.523802578449249268e-01
-8.099541664123535156e-01,-1.544278025627136230e+00,2.141107618808746338e-01
-8.111206889152526855e-01,-1.546502113342285156e+00,2.765873372554779053e-01
-8.119748830795288086e-01,-1.548130750656127930e+00,3.398045003414154053e-01
-8.130174279212951660e-01,-1.550118446350097656e+00,4.041087031364440918e-01
-7.652835845947265625e-01,-1.511306047439575195e+00,-4.539106786251068115e-01
-7.664064764976501465e-01,-1.513523459434509277e+00,-3.916686475276947021e-01
-7.672057151794433594e-01,-1.515101909637451172e+00,-3.301107585430145264e-01
-7.681742906570434570e-01,-1.517014741897583008e+00,-2.693195343017578125e-01
-7.691075205802917480e-01,-1.518857717514038086e+00,-2.090385556221008301e-01
-7.701044678688049316e-01,-1.520826458930969238e+00,-1.491409838199615479e-01
-7.710025906562805176e-01,-1.522600054740905762e+00,-8.944316208362579346e-02
-7.719280123710632324e-01,-1.524427533149719238e+00,-2.982591837644577026e-02
-7.728828191757202148e-01,-1.526313185691833496e+00,2.986281178891658783e-02
-7.737469673156738281e-01,-1.528019785881042480e+00,8.976154029369354248e-02
-7.746850252151489258e-01,-1.529872298240661621e+00,1.500280648469924927e-01
-7.756039500236511230e-01,-1.531687021255493164e+00,2.108042389154434204e-01
-7.767144441604614258e-01,-1.533879995346069336e+00,2.723136842250823975e-01
-7.775250077247619629e-01,-1.535480737686157227e+00,3.345508873462677002e-01
-7.785143256187438965e-01,-1.537434577941894531e+00,3.978563249111175537e-01
-7.336398959159851074e-01,-1.501765966415405273e+00,-4.478456377983093262e-01
-7.347249388694763184e-01,-1.503987073898315430e+00,-3.864397704601287842e-01
-7.354989647865295410e-01,-1.505571484565734863e+00,-3.257071375846862793e-01
-7.364334464073181152e-01,-1.507484316825866699e+00,-2.657290101051330566e-01
-7.373328208923339844e-01,-1.509325265884399414e+00,-2.062529921531677246e-01
-7.382916212081909180e-01,-1.511288046836853027e+00,-1.471542119979858398e-01
-7.391544580459594727e-01,-1.513054251670837402e+00,-8.825186640024185181e-02
-7.400417923927307129e-01,-1.514870643615722656e+00,-2.942867204546928406e-02
-7.409558892250061035e-01,-1.516741752624511719e+00,2.946502342820167542e-02
-7.417815923690795898e-01,-1.518432021141052246e+00,8.856554329395294189e-02
-7.426765561103820801e-01,-1.520264029502868652e+00,1.480282098054885864e-01
-7.435519695281982422e-01,-1.522055983543395996e+00,2.079926729202270508e-01
-7.446090579032897949e-01,-1.524219870567321777e+00,2.686790525913238525e-01
-7.453777790069580078e-01,-1.525793433189392090e+00,3.300818502902984619e-01
-7.463162541389465332e-01,-1.527714490890502930e+00,3.925364017486572266e-01
-7.019478082656860352e-01,-1.490613937377929688e+00,-4.414784908294677734e-01
-7.027369737625122070e-01,-1.492289781570434570e+00,-3.808107376098632812e-01
-7.036714553833007812e-01,-1.494274139404296875e+00,-3.210513293743133545e-01
-7.043892741203308105e-01,-1.495798349380493164e+00,-2.618650496006011963e-01
-7.052556276321411133e-01,-1.497638225555419922e+00,-2.032556533813476562e-01
-7.061766386032104492e-01,-1.499593973159790039e+00,-1.450165063142776489e-01
-7.070041894912719727e-01,-1.501351237297058105e+00,-8.697011321783065796e-02
-7.078531384468078613e-01,-1.503154039382934570e+00,-2.900126390159130096e-02
-7.087256312370300293e-01,-1.505006909370422363e+00,2.903700992465019226e-02
-7.095118761062622070e-01,-1.506676435470581055e+00,8.727858960628509521e-02
-7.103622555732727051e-01,-1.508482336997985840e+00,1.458760350942611694e-01
-7.113764882087707520e-01,-1.510636091232299805e+00,2.050196975469589233e-01
-7.121930122375488281e-01,-1.512370109558105469e+00,2.647661864757537842e-01
-7.131801843643188477e-01,-1.514466285705566406e+00,3.253897130489349365e-01
-7.141019105911254883e-01,-1.516423583030700684e+00,3.869693577289581299e-01
-6.709268689155578613e-01,-1.479306817054748535e+00,-4.352408349514007568e-01
-6.716947555541992188e-01,-1.480999946594238281e+00,-3.754378557205200195e-01
-6.725990772247314453e-01,-1.482993721961975098e+00,-3.165268301963806152e-01
-6.732946038246154785e-01,-1.484527468681335449e+00,-2.581782639026641846e-01
-6.742289066314697266e-01,-1.486587405204772949e+00,-2.004255801439285278e-01
-6.750146150588989258e-01,-1.488319754600524902e+00,-1.429772675037384033e-01
-6.758081912994384766e-01,-1.490069508552551270e+00,-8.574745059013366699e-02
-6.766198277473449707e-01,-1.491859078407287598e+00,-2.859355881810188293e-02
-6.774516701698303223e-01,-1.493693232536315918e+00,2.862871252000331879e-02
-6.782976388931274414e-01,-1.495558381080627441e+00,8.606331795454025269e-02
-6.790053248405456543e-01,-1.497118830680847168e+00,1.438225507736206055e-01
-6.799656748771667480e-01,-1.499236226081848145e+00,2.021309286355972290e-01
-6.807352900505065918e-01,-1.500933170318603516e+00,2.610314488410949707e-01
-6.816654205322265625e-01,-1.502983927726745605e+00,3.207934796810150146e-01
-6.825311183929443359e-01,-1.504892706871032715e+00,3.814947605133056641e-01
-6.417638659477233887e-01,-1.470603346824645996e+00,-4.299333989620208740e-01
-6.425116062164306641e-01,-1.472316741943359375e+00,-3.708673119544982910e-01
-6.433874368667602539e-01,-1.474323749542236328e+00,-3.126787245273590088e-01
-6.441935896873474121e-01,-1.476171016693115234e+00,-2.550952434539794922e-01
-6.449621915817260742e-01,-1.477932333946228027e+00,-1.979937702417373657e-01
-6.457185745239257812e-01,-1.479665517807006836e+00,-1.412435173988342285e-01
-6.464800834655761719e-01,-1.481410503387451172e+00,-8.470799028873443604e-02
-6.472566723823547363e-01,-1.483190059661865234e+00,-2.824694663286209106e-02
-6.480503082275390625e-01,-1.485008716583251953e+00,2.828158065676689148e-02
-6.488551497459411621e-01,-1.486853003501892090e+00,8.501920104026794434e-02
-6.496573686599731445e-01,-1.488691329956054688e+00,1.421051025390625000e-01
-6.504355669021606445e-01,-1.490474581718444824e+00,1.996740102767944336e-01
-6.511611342430114746e-01,-1.492137074470520020e+00,2.578543424606323242e-01
-6.520377397537231445e-01,-1.494145989418029785e+00,3.168826699256896973e-01
-6.528509259223937988e-01,-1.496009349822998047e+00,3.768353164196014404e-01
-6.123991608619689941e-01,-1.459965348243713379e+00,-4.242173135280609131e-01
-6.131286621093750000e-01,-1.461704611778259277e+00,-3.659460842609405518e-01
-6.139776110649108887e-01,-1.463728547096252441e+00,-3.085362315177917480e-01
-6.147575378417968750e-01,-1.465587854385375977e+00,-2.517200112342834473e-01
-6.154994368553161621e-01,-1.467356562614440918e+00,-1.953767091035842896e-01
-6.162268519401550293e-01,-1.469090700149536133e+00,-1.393778622150421143e-01
-6.169564723968505859e-01,-1.470830082893371582e+00,-8.358948677778244019e-02
-6.176978349685668945e-01,-1.472597479820251465e+00,-2.787397615611553192e-02
-6.184526085853576660e-01,-1.474396944046020508e+00,2.790803648531436920e-02
-6.192154288291931152e-01,-1.476215481758117676e+00,8.389554172754287720e-02
-6.199729442596435547e-01,-1.478021502494812012e+00,1.402251571416854858e-01
-6.207050085067749023e-01,-1.479766726493835449e+00,1.970291137695312500e-01
-6.213845014572143555e-01,-1.481386661529541016e+00,2.544335126876831055e-01
-6.222051382064819336e-01,-1.483343005180358887e+00,3.126707375049591064e-01
-6.229628920555114746e-01,-1.485149502754211426e+00,3.718156218528747559e-01
-5.846598744392395020e-01,-1.451741576194763184e+00,-4.193531572818756104e-01
-5.855556726455688477e-01,-1.453965902328491211e+00,-3.618732690811157227e-01
-5.861942768096923828e-01,-1.455551743507385254e+00,-3.050128221511840820e-01
-5.869491696357727051e-01,-1.457425951957702637e+00,-2.488497495651245117e-01
-5.876652598381042480e-01,-1.459204077720642090e+00,-1.931514590978622437e-01
-5.883650183677673340e-01,-1.460941672325134277e+00,-1.377916336059570312e-01
-5.890644192695617676e-01,-1.462678313255310059e+00,-8.263856172561645508e-02
-5.897723436355590820e-01,-1.464436173439025879e+00,-2.755688503384590149e-02
-5.904905200004577637e-01,-1.466219425201416016e+00,2.759044058620929718e-02
-5.912137627601623535e-01,-1.468015313148498535e+00,8.294010162353515625e-02
-5.919295549392700195e-01,-1.469792604446411133e+00,1.386264264583587646e-01
-5.926186442375183105e-01,-1.471503615379333496e+00,1.947795152664184570e-01
-5.934407114982604980e-01,-1.473544836044311523e+00,2.516019642353057861e-01
-5.940235257148742676e-01,-1.474992036819458008e+00,3.090865612030029297e-01
-5.949783921241760254e-01,-1.477362990379333496e+00,3.676964938640594482e-01
-5.569831132888793945e-01,-1.442250251770019531e+00,-4.142661392688751221e-01
-5.576490163803100586e-01,-1.443974494934082031e+00,-3.573633432388305664e-01
-5.582724809646606445e-01,-1.445588827133178711e+00,-3.012197613716125488e-01
-5.590032935142517090e-01,-1.447481274604797363e+00,-2.457603663206100464e-01
-5.596943497657775879e-01,-1.449270725250244141e+00,-1.907566487789154053e-01
-5.603671073913574219e-01,-1.451012730598449707e+00,-1.360847353935241699e-01
-5.610364675521850586e-01,-1.452745914459228516e+00,-8.161534368991851807e-02
-5.617108345031738281e-01,-1.454492092132568359e+00,-2.721568197011947632e-02
-5.623919367790222168e-01,-1.456255912780761719e+00,2.724868617951869965e-02
-5.630748271942138672e-01,-1.458024144172668457e+00,8.191187679767608643e-02
-5.637475848197937012e-01,-1.459766149520874023e+00,1.369056701660156250e-01
-5.643920302391052246e-01,-1.461434960365295410e+00,1.923577189445495605e-01
-5.651598572731018066e-01,-1.463423132896423340e+00,2.484670430421829224e-01
-5.659044981002807617e-01,-1.465351223945617676e+00,3.053376674652099609e-01
-5.665861964225769043e-01,-1.467116355895996094e+00,3.630906343460083008e-01
-5.298050642013549805e-01,-1.432553887367248535e+00,-4.092608690261840820e-01
-5.304569602012634277e-01,-1.434316635131835938e+00,-3.530579209327697754e-01
-5.312032103538513184e-01,-1.436334371566772461e+00,-2.976765632629394531e-01
-5.317734479904174805e-01,-1.437876343727111816e+00,-2.428123950958251953e-01
-5.324403643608093262e-01,-1.439679622650146484e+00,-1.884718239307403564e-01
-5.330867171287536621e-01,-1.441427350044250488e+00,-1.344563663005828857e-01
-5.337268114089965820e-01,-1.443158030509948730e+00,-8.063925057649612427e-02
-5.343685746192932129e-01,-1.444893240928649902e+00,-2.689020149409770966e-02
-5.350134968757629395e-01,-1.446637034416198730e+00,2.692265436053276062e-02
-5.356568694114685059e-01,-1.448376774787902832e+00,8.093085885047912598e-02
-5.362876653671264648e-01,-1.450082302093505859e+00,1.352636963129043579e-01
-5.370264053344726562e-01,-1.452079892158508301e+00,1.900951713323593140e-01
-5.376031994819641113e-01,-1.453639388084411621e+00,2.454742938280105591e-01
-5.382928848266601562e-01,-1.455504298210144043e+00,3.016494810581207275e-01
-5.389201641082763672e-01,-1.457200407981872559e+00,3.586907684803009033e-01
-5.039480924606323242e-01,-1.425002932548522949e+00,-4.050014615058898926e-01
-5.045850872993469238e-01,-1.426804184913635254e+00,-3.493951261043548584e-01
-5.053086876869201660e-01,-1.428850412368774414e+00,-2.945963740348815918e-01
-5.058630704879760742e-01,-1.430417895317077637e+00,-2.403055727481842041e-01
-5.065060853958129883e-01,-1.432236194610595703e+00,-1.865291893482208252e-01
-5.071268081665039062e-01,-1.433991432189941406e+00,-1.330720186233520508e-01
-5.077387094497680664e-01,-1.435721755027770996e+00,-7.980947196483612061e-02
-5.083492994308471680e-01,-1.437448143959045410e+00,-2.661350555717945099e-02
-5.089600086212158203e-01,-1.439175128936767578e+00,2.664547786116600037e-02
-5.095664262771606445e-01,-1.440889835357666016e+00,8.009675890207290649e-02
-5.101580023765563965e-01,-1.442562699317932129e+00,1.338674128055572510e-01
-5.108490586280822754e-01,-1.444516777992248535e+00,1.881285756826400757e-01
-5.113838911056518555e-01,-1.446029186248779297e+00,2.429282069206237793e-01
-5.120230913162231445e-01,-1.447836518287658691e+00,2.985108792781829834e-01
-5.128130912780761719e-01,-1.450070381164550781e+00,3.550925552845001221e-01
-4.781989753246307373e-01,-1.416363120079040527e+00,-4.005595743656158447e-01
-4.787974059581756592e-01,-1.418135643005371094e+00,-3.455587923526763916e-01
-4.793507158756256104e-01,-1.419774532318115234e+00,-2.912806868553161621e-01
-4.799867868423461914e-01,-1.421658396720886230e+00,-2.376554757356643677e-01
-4.805099964141845703e-01,-1.423208117485046387e+00,-1.844387799501419067e-01
-4.811055362224578857e-01,-1.424972057342529297e+00,-1.315825134515762329e-01
-4.816894531250000000e-01,-1.426701545715332031e+00,-7.891670614480972290e-02
-4.822687804698944092e-01,-1.428417444229125977e+00,-2.631580643355846405e-02
-4.828450083732604980e-01,-1.430124163627624512e+00,2.634724788367748260e-02
-4.834138453006744385e-01,-1.431808948516845703e+00,7.919922471046447754e-02
-4.840621054172515869e-01,-1.433729052543640137e+00,1.323911398649215698e-01
-4.846075475215911865e-01,-1.435344576835632324e+00,1.860115826129913330e-01
-4.852492809295654297e-01,-1.437245249748229980e+00,2.402610927820205688e-01
-4.858621656894683838e-01,-1.439060568809509277e+00,2.952374219894409180e-01
-4.864124655723571777e-01,-1.440690517425537109e+00,3.510547280311584473e-01
-4.528687596321105957e-01,-1.407490491867065430e+00,-3.961765468120574951e-01
-4.534551501274108887e-01,-1.409312963485717773e+00,-3.417923748493194580e-01
-4.539959430694580078e-01,-1.410993814468383789e+00,-2.881165444850921631e-01
-4.546114504337310791e-01,-1.412906646728515625e+00,-2.350806146860122681e-01
-4.551174640655517578e-01,-1.414479374885559082e+00,-1.824446916580200195e-01
-4.556882679462432861e-01,-1.416253328323364258e+00,-1.301618069410324097e-01
-4.562447667121887207e-01,-1.417982935905456543e+00,-7.806522399187088013e-02
-4.567936360836029053e-01,-1.419688820838928223e+00,-2.603187598288059235e-02
-4.573361575603485107e-01,-1.421374917030334473e+00,2.606279402971267700e-02
-4.578683674335479736e-01,-1.423029065132141113e+00,7.834302634000778198e-02
-4.584720134735107422e-01,-1.424905180931091309e+00,1.309569627046585083e-01
-4.589757025241851807e-01,-1.426470518112182617e+00,1.839913427829742432e-01
-4.595667719841003418e-01,-1.428307533264160156e+00,2.376430183649063110e-01
-4.601274132728576660e-01,-1.430050015449523926e+00,2.920077145099639893e-01
-4.608162343502044678e-01,-1.432190775871276855e+00,3.473407924175262451e-01
-4.282626211643218994e-01,-1.399398803710937500e+00,-3.921332955360412598e-01
-4.286816418170928955e-01,-1.400768041610717773e+00,-3.381972610950469971e-01
-4.293192327022552490e-01,-1.402851462364196777e+00,-2.851699292659759521e-01
-4.298046827316284180e-01,-1.404437661170959473e+00,-2.326241433620452881e-01
-4.303553700447082520e-01,-1.406237125396728516e+00,-1.805685460567474365e-01
-4.308399558067321777e-01,-1.407820582389831543e+00,-1.288068294525146484e-01
-4.313696026802062988e-01,-1.409551143646240234e+00,-7.725318521261215210e-02
-4.318886399269104004e-01,-1.411247253417968750e+00,-2.576109766960144043e-02
-4.323983192443847656e-01,-1.412912607192993164e+00,2.579149790108203888e-02
-4.329564273357391357e-01,-1.414736390113830566e+00,7.753737270832061768e-02
-4.334553480148315430e-01,-1.416366577148437500e+00,1.295887380838394165e-01
-4.340285360813140869e-01,-1.418239593505859375e+00,1.821097284555435181e-01
-4.344604611396789551e-01,-1.419650912284851074e+00,2.351439893245697021e-01
-4.351275265216827393e-01,-1.421830654144287109e+00,2.890280187129974365e-01
-4.355983734130859375e-01,-1.423369288444519043e+00,3.436540365219116211e-01
-4.040286540985107422e-01,-1.391055464744567871e+00,-3.881351053714752197e-01
-4.045689105987548828e-01,-1.392915487289428711e+00,-3.348689675331115723e-01
-4.050620496273040771e-01,-1.394613385200500488e+00,-2.822878062725067139e-01
-4.055338203907012939e-01,-1.396237611770629883e+00,-2.302808910608291626e-01
-4.060634076595306396e-01,-1.398061037063598633e+00,-1.787540614604949951e-01
-4.065276980400085449e-01,-1.399659514427185059e+00,-1.275146901607513428e-01
-4.070308208465576172e-01,-1.401391863822937012e+00,-7.647885382175445557e-02
-4.075206518173217773e-01,-1.403078317642211914e+00,-2.550289221107959747e-02
-4.079983830451965332e-01,-1.404723048210144043e+00,2.553278766572475433e-02
-4.085180759429931641e-01,-1.406512379646301270e+00,7.675830274820327759e-02
-4.089789092540740967e-01,-1.408099055290222168e+00,1.282835751771926880e-01
-4.095060229301452637e-01,-1.409913778305053711e+00,1.802695542573928833e-01
-4.100230038166046143e-01,-1.411693692207336426e+00,2.328300625085830688e-01
-4.105063080787658691e-01,-1.413357734680175781e+00,2.860819101333618164e-01
-4.110963046550750732e-01,-1.415389180183410645e+00,3.402718305587768555e-01
-3.804378509521484375e-01,-1.383456230163574219e+00,-3.844560086727142334e-01
-3.808291852474212646e-01,-1.384879350662231445e+00,-3.315925598144531250e-01
-3.813100159168243408e-01,-1.386627912521362305e+00,-2.795380651950836182e-01
-3.818434774875640869e-01,-1.388567805290222168e+00,-2.280911207199096680e-01
-3.822760879993438721e-01,-1.390141010284423828e+00,-1.770236939191818237e-01
-3.827531635761260986e-01,-1.391875863075256348e+00,-1.262935250997543335e-01
-3.831972181797027588e-01,-1.393490672111511230e+00,-7.574057579040527344e-02
-3.836584687232971191e-01,-1.395168066024780273e+00,-2.525671012699604034e-02
-3.841374814510345459e-01,-1.396909952163696289e+00,2.528824284672737122e-02
-3.845873773097991943e-01,-1.398545980453491211e+00,7.601534575223922729e-02
-3.850873112678527832e-01,-1.400363922119140625e+00,1.270636916160583496e-01
-3.854941427707672119e-01,-1.401843428611755371e+00,1.785139143466949463e-01
-3.859641551971435547e-01,-1.403552651405334473e+00,2.305525839328765869e-01
-3.865377306938171387e-01,-1.405638337135314941e+00,2.833704948425292969e-01
-3.869316577911376953e-01,-1.407070875167846680e+00,3.369060754776000977e-01
-3.571788072586059570e-01,-1.375587821006774902e+00,-3.808096647262573242e-01
-3.576754927635192871e-01,-1.377500772476196289e+00,-3.285664021968841553e-01
-3.581242859363555908e-01,-1.379229187965393066e+00,-2.769847810268402100e-01
-3.585476279258728027e-01,-1.380859613418579102e+00,-2.259587794542312622e-01
-3.589640557765960693e-01,-1.382463335990905762e+00,-1.753737479448318481e-01
-3.594186902046203613e-01,-1.384214282035827637e+00,-1.251187175512313843e-01
-3.598392009735107422e-01,-1.385833740234375000e+00,-7.503676414489746094e-02
-3.602724373340606689e-01,-1.387502193450927734e+00,-2.502202056348323822e-02
-3.607188761234283447e-01,-1.389221549034118652e+00,2.505302615463733673e-02
-3.611347675323486328e-01,-1.390823245048522949e+00,7.530692219734191895e-02
-3.615940809249877930e-01,-1.392592310905456543e+00,1.258760094642639160e-01
-3.620541989803314209e-01,-1.394364237785339355e+00,1.768834590911865234e-01
-3.624986112117767334e-01,-1.396075725555419922e+00,2.284487038850784302e-01
-3.629067838191986084e-01,-1.397647738456726074e+00,2.806836962699890137e-01
-3.634022474288940430e-01,-1.399555921554565430e+00,3.338270485401153564e-01
-3.344896137714385986e-01,-1.368427991867065430e+00,-3.774634897708892822e-01
-3.348541557788848877e-01,-1.369919419288635254e+00,-3.255814611911773682e-01
-3.352903425693511963e-01,-1.371703863143920898e+00,-2.744815647602081299e-01
-3.356997668743133545e-01,-1.373378872871398926e+00,-2.239254564046859741e-01
-3.360995650291442871e-01,-1.375014424324035645e+00,-1.738007366657257080e-01
-3.365316987037658691e-01,-1.376782298088073730e+00,-1.239988505840301514e-01
-3.369289040565490723e-01,-1.378407359123229980e+00,-7.436591386795043945e-02
-3.373345732688903809e-01,-1.380066990852355957e+00,-2.479831874370574951e-02
-3.377493321895599365e-01,-1.381763696670532227e+00,2.482880838215351105e-02
-3.381324112415313721e-01,-1.383330941200256348e+00,7.463154941797256470e-02
-3.385525643825531006e-01,-1.385049939155578613e+00,1.247434616088867188e-01
-3.389703035354614258e-01,-1.386758923530578613e+00,1.752852350473403931e-01
-3.393703103065490723e-01,-1.388395309448242188e+00,2.263738512992858887e-01
-3.398541510105133057e-01,-1.390374779701232910e+00,2.782176733016967773e-01
-3.403128385543823242e-01,-1.392251372337341309e+00,3.308889865875244141e-01
-3.120974004268646240e-01,-1.360982537269592285e+00,-3.741392493247985840e-01
-3.125512599945068359e-01,-1.362961769104003906e+00,-3.228315711021423340e-01
-3.129574656486511230e-01,-1.364733099937438965e+00,-2.721624970436096191e-01
-3.132737576961517334e-01,-1.366112351417541504e+00,-2.219868302345275879e-01
-3.137006461620330811e-01,-1.367973923683166504e+00,-1.723256111145019531e-01
-3.140659630298614502e-01,-1.369567036628723145e+00,-1.229315400123596191e-01
-3.144399523735046387e-01,-1.371197938919067383e+00,-7.372659444808959961e-02
-3.148185908794403076e-01,-1.372848987579345703e+00,-2.458513155579566956e-02
-3.152024745941162109e-01,-1.374523043632507324e+00,2.461510896682739258e-02
-3.155978918075561523e-01,-1.376247286796569824e+00,7.399809360504150391e-02
-3.159364163875579834e-01,-1.377723574638366699e+00,1.236636787652969360e-01
-3.163924515247344971e-01,-1.379712224006652832e+00,1.738043129444122314e-01
-3.167668282985687256e-01,-1.381344795227050781e+00,2.244620323181152344e-01
-3.171036541461944580e-01,-1.382813572883605957e+00,2.757681906223297119e-01
-3.175098299980163574e-01,-1.384584903717041016e+00,3.279532492160797119e-01
-2.899397313594818115e-01,-1.352956533432006836e+00,-3.707540035247802734e-01
-2.902785241603851318e-01,-1.354537487030029297e+00,-3.198193013668060303e-01
-2.906724810600280762e-01,-1.356375813484191895e+00,-2.696384787559509277e-01
-2.910370528697967529e-01,-1.358077049255371094e+00,-2.199816703796386719e-01
-2.913868725299835205e-01,-1.359709382057189941e+00,-1.707416325807571411e-01
-2.917332351207733154e-01,-1.361325740814208984e+00,-1.218045279383659363e-01
-2.920841574668884277e-01,-1.362963080406188965e+00,-7.305155694484710693e-02
-2.924359440803527832e-01,-1.364604711532592773e+00,-2.436003647744655609e-02
-2.927891016006469727e-01,-1.366252660751342773e+00,2.438945509493350983e-02
-2.931494414806365967e-01,-1.367934107780456543e+00,7.331798970699310303e-02
-2.935107648372650146e-01,-1.369620203971862793e+00,1.225466728210449219e-01
-2.938634157180786133e-01,-1.371265769004821777e+00,1.721927970647811890e-01
-2.941944003105163574e-01,-1.372810244560241699e+00,2.223681658506393433e-01
-2.945909798145294189e-01,-1.374660849571228027e+00,2.732734382152557373e-01
-2.949596047401428223e-01,-1.376381039619445801e+00,3.249768018722534180e-01
-2.684418559074401855e-01,-1.346411228179931641e+00,-3.678697943687438965e-01
-2.687592208385467529e-01,-1.348003149032592773e+00,-3.173356950283050537e-01
-2.690576016902923584e-01,-1.349499702453613281e+00,-2.674785852432250977e-01
-2.694067656993865967e-01,-1.351251006126403809e+00,-2.182290256023406982e-01
-2.697395682334899902e-01,-1.352920174598693848e+00,-1.693869382143020630e-01
-2.700662314891815186e-01,-1.354558587074279785e+00,-1.208407878875732422e-01
-2.703941464424133301e-01,-1.356203317642211914e+00,-7.247438281774520874e-02
-2.707198560237884521e-01,-1.357836961746215820e+00,-2.416757494211196899e-02
-2.710438668727874756e-01,-1.359462022781372070e+00,2.419649809598922729e-02
-2.713714540004730225e-01,-1.361105203628540039e+00,7.273633033037185669e-02
-2.716970145702362061e-01,-1.362738132476806641e+00,1.215704828500747681e-01
-2.720117270946502686e-01,-1.364316582679748535e+00,1.708137691020965576e-01
-2.723849713802337646e-01,-1.366188645362854004e+00,2.206414639949798584e-01
-2.727485001087188721e-01,-1.368011951446533203e+00,2.711478173732757568e-01
-2.730830311775207520e-01,-1.369689941406250000e+00,3.224410414695739746e-01
-2.471958994865417480e-01,-1.339555740356445312e+00,-3.649925887584686279e-01
-2.475790381431579590e-01,-1.341631889343261719e+00,-3.149693608283996582e-01
-2.478549331426620483e-01,-1.343127012252807617e+00,-2.654851377010345459e-01
-2.481746375560760498e-01,-1.344859480857849121e+00,-2.166008949279785156e-01
-2.484415471553802490e-01,-1.346305847167968750e+00,-1.680963784456253052e-01
-2.487481981515884399e-01,-1.347967624664306641e+00,-1.199228838086128235e-01
-2.490530908107757568e-01,-1.349619865417480469e+00,-7.192470133304595947e-02
-2.493531256914138794e-01,-1.351245760917663574e+00,-2.398427762091159821e-02
-2.496487498283386230e-01,-1.352847695350646973e+00,2.401271276175975800e-02
-2.499448359012603760e-01,-1.354452252388000488e+00,7.218223065137863159e-02
-2.502843439579010010e-01,-1.356292009353637695e+00,1.206634789705276489e-01
-2.505763471126556396e-01,-1.357874393463134766e+00,1.695407927036285400e-01
-2.509192526340484619e-01,-1.359732508659362793e+00,2.189963310956954956e-01
-2.511623799800872803e-01,-1.361050009727478027e+00,2.690278291702270508e-01
-2.515512704849243164e-01,-1.363157510757446289e+00,3.200228214263916016e-01
-2.261773943901062012e-01,-1.332227587699890137e+00,-3.620766997337341309e-01
-2.264660894870758057e-01,-1.333927989006042480e+00,-3.123677670955657959e-01
-2.267334312200546265e-01,-1.335502743721008301e+00,-2.633096277713775635e-01
-2.270376235246658325e-01,-1.337294459342956543e+00,-2.148370891809463501e-01
-2.273224443197250366e-01,-1.338972091674804688e+00,-1.667573601007461548e-01
-2.275965511798858643e-01,-1.340586662292480469e+00,-1.189642250537872314e-01
-2.278659641742706299e-01,-1.342173576354980469e+00,-7.134674489498138428e-02
-2.281402200460433960e-01,-1.343788981437683105e+00,-2.379152365028858185e-02
-2.284203320741653442e-01,-1.345438838005065918e+00,2.382073551416397095e-02
-2.286978513002395630e-01,-1.347073554992675781e+00,7.160720974206924438e-02
-2.289679646492004395e-01,-1.348664522171020508e+00,1.196810677647590637e-01
-2.292233705520629883e-01,-1.350168943405151367e+00,1.681518256664276123e-01
-2.295220047235488892e-01,-1.351927876472473145e+00,2.171879708766937256e-01
-2.298069298267364502e-01,-1.353606224060058594e+00,2.668789327144622803e-01
-2.301533520221710205e-01,-1.355646729469299316e+00,3.174536526203155518e-01
-2.055067718029022217e-01,-1.325136065483093262e+00,-3.593130707740783691e-01
-2.057751119136810303e-01,-1.326866388320922852e+00,-3.099926412105560303e-01
-2.060212343931198120e-01,-1.328453421592712402e+00,-2.613116204738616943e-01
-2.062582820653915405e-01,-1.329981923103332520e+00,-2.131662219762802124e-01
-2.065254002809524536e-01,-1.331704258918762207e+00,-1.654671132564544678e-01
-2.067800909280776978e-01,-1.333346605300903320e+00,-1.180470064282417297e-01
-2.070277631282806396e-01,-1.334943652153015137e+00,-7.079764455556869507e-02
-2.072769999504089355e-01,-1.336550712585449219e+00,-2.360842563211917877e-02
-2.075286656618118286e-01,-1.338173508644104004e+00,2.363709174096584320e-02
-2.077752053737640381e-01,-1.339763164520263672e+00,7.105324417352676392e-02
-2.080122679471969604e-01,-1.341291904449462891e+00,1.187504306435585022e-01
-2.082837820053100586e-01,-1.343042612075805664e+00,1.668759286403656006e-01
-2.085520029067993164e-01,-1.344772100448608398e+00,2.155367434024810791e-01
-2.088048607110977173e-01,-1.346402525901794434e+00,2.648422718048095703e-01
-2.090280652046203613e-01,-1.347841858863830566e+00,3.148930966854095459e-01
-1.853000968694686890e-01,-1.319253563880920410e+00,-3.569622933864593506e-01
-1.855465024709701538e-01,-1.321007966995239258e+00,-3.079719245433807373e-01
-1.857704818248748779e-01,-1.322602629661560059e+00,-2.596110999584197998e-01
-1.859837919473648071e-01,-1.324121236801147461e+00,-2.117785066366195679e-01
-1.861961781978607178e-01,-1.325633406639099121e+00,-1.643647998571395874e-01
-1.864304840564727783e-01,-1.327301502227783203e+00,-1.172635480761528015e-01
-1.866562217473983765e-01,-1.328908681869506836e+00,-7.032869011163711548e-02
-1.868809610605239868e-01,-1.330508708953857422e+00,-2.345205098390579224e-02
-1.871055215597152710e-01,-1.332107424736022949e+00,2.348023094236850739e-02
-1.873231232166290283e-01,-1.333656668663024902e+00,7.057996839284896851e-02
-1.875653266906738281e-01,-1.335381150245666504e+00,1.179773509502410889e-01
-1.878107041120529175e-01,-1.337128043174743652e+00,1.657900214195251465e-01
-1.880505383014678955e-01,-1.338835597038269043e+00,2.141319066286087036e-01
-1.882740557193756104e-01,-1.340426921844482422e+00,2.631098031997680664e-01
-1.884686052799224854e-01,-1.341812014579772949e+00,3.128220736980438232e-01
-1.652373224496841431e-01,-1.312535285949707031e+00,-3.544681966304779053e-01
-1.654142439365386963e-01,-1.313940644264221191e+00,-3.057410120964050293e-01
-1.656257361173629761e-01,-1.315620541572570801e+00,-2.577488720417022705e-01
-1.658255606889724731e-01,-1.317207813262939453e+00,-2.102716267108917236e-01
-1.660448014736175537e-01,-1.318949341773986816e+00,-1.632246524095535278e-01
-1.662359237670898438e-01,-1.320467472076416016e+00,-1.164376288652420044e-01
-1.664396077394485474e-01,-1.322085499763488770e+00,-6.983435899019241333e-02
-1.666400134563446045e-01,-1.323677420616149902e+00,-2.328721061348915100e-02
-1.668379157781600952e-01,-1.325249314308166504e+00,2.331486716866493225e-02
-1.670497059822082520e-01,-1.326931715011596680e+00,7.009034603834152222e-02
-1.672359257936477661e-01,-1.328410863876342773e+00,1.171380653977394104e-01
-1.674450039863586426e-01,-1.330071568489074707e+00,1.646010726690292358e-01
-1.676469445228576660e-01,-1.331675648689270020e+00,2.125812023878097534e-01
-1.678895056247711182e-01,-1.333602428436279297e+00,2.612717747688293457e-01
-1.680549532175064087e-01,-1.334916591644287109e+00,3.106219172477722168e-01
-1.454596966505050659e-01,-1.306005477905273438e+00,-3.521063923835754395e-01
-1.456210762262344360e-01,-1.307454228401184082e+00,-3.037155866622924805e-01
-1.458104848861694336e-01,-1.309154987335205078e+00,-2.560470700263977051e-01
-1.459874361753463745e-01,-1.310743689537048340e+00,-2.088847607374191284e-01
-1.461593359708786011e-01,-1.312287092208862305e+00,-1.621246635913848877e-01
-1.463320404291152954e-01,-1.313837647438049316e+00,-1.156564801931381226e-01
-1.465134918689727783e-01,-1.315466880798339844e+00,-6.936687976121902466e-02
