3.017435669898986816e-01,1.572003960609436035e+00,1.400430351495742798e-01
3.020488917827606201e-01,1.573594689369201660e+00,1.967400312423706055e-01
3.024577200412750244e-01,1.575724601745605469e+00,2.541258931159973145e-01
3.027764558792114258e-01,1.577385187149047852e+00,3.122094869613647461e-01
3.031395375728607178e-01,1.579276680946350098e+00,3.712602257728576660e-01
2.765192389488220215e-01,1.560948848724365234e+00,-4.247663617134094238e-01
2.768586874008178711e-01,1.562865018844604492e+00,-3.664329946041107178e-01
2.771680057048797607e-01,1.564611077308654785e+00,-3.088642656803131104e-01
2.774651348590850830e-01,1.566288471221923828e+00,-2.519377470016479492e-01
2.777965366840362549e-01,1.568159222602844238e+00,-1.955432891845703125e-01
2.781165540218353271e-01,1.569965600967407227e+00,-1.394925266504287720e-01
2.784325182437896729e-01,1.571749329566955566e+00,-8.365426212549209595e-02
2.787486612796783447e-01,1.573533892631530762e+00,-2.789372950792312622e-02
2.790656983852386475e-01,1.575323700904846191e+00,2.792545780539512634e-02
2.793812453746795654e-01,1.577104806900024414e+00,8.393929898738861084e-02
2.796894609928131104e-01,1.578844785690307617e+00,1.402814388275146484e-01
2.800364792346954346e-01,1.580803632736206055e+00,1.971200108528137207e-01
2.803789973258972168e-01,1.582737207412719727e+00,2.545835375785827637e-01
2.807006537914276123e-01,1.584552884101867676e+00,3.128009140491485596e-01
2.810726165771484375e-01,1.586652636528015137e+00,3.720102906227111816e-01
2.546517550945281982e-01,1.567831754684448242e+00,-4.256038963794708252e-01
2.549430429935455322e-01,1.569625258445739746e+00,-3.671248257160186768e-01
2.552136778831481934e-01,1.571291565895080566e+00,-3.094302415847778320e-01
2.555217146873474121e-01,1.573187947273254395e+00,-2.524333894252777100e-01
2.558165192604064941e-01,1.575003027915954590e+00,-1.959200352430343628e-01
2.561263442039489746e-01,1.576910614967346191e+00,-1.397695541381835938e-01
2.564096152782440186e-01,1.578654646873474121e+00,-8.381786197423934937e-02
2.567004859447479248e-01,1.580445408821105957e+00,-2.794825285673141479e-02
2.569995224475860596e-01,1.582286477088928223e+00,2.798081003129482269e-02
2.572759091854095459e-01,1.583988189697265625e+00,8.410104364156723022e-02
2.575696706771850586e-01,1.585796713829040527e+00,1.405571699142456055e-01
2.578555047512054443e-01,1.587556600570678711e+00,1.974816173315048218e-01
2.581845819950103760e-01,1.589582681655883789e+00,2.550641000270843506e-01
2.585017979145050049e-01,1.591535806655883789e+00,3.134168684482574463e-01
2.587890625000000000e-01,1.593304276466369629e+00,3.726631999015808105e-01
2.327014952898025513e-01,1.574798583984375000e+00,-4.265472292900085449e-01
2.329484671354293823e-01,1.576469898223876953e+00,-3.679081797599792480e-01
2.332316339015960693e-01,1.578386306762695312e+00,-3.101381659507751465e-01
2.334972470998764038e-01,1.580183744430541992e+00,-2.529937326908111572e-01
2.337848395109176636e-01,1.582130074501037598e+00,-1.963702291250228882e-01
2.340376079082489014e-01,1.583840608596801758e+00,-1.400725245475769043e-01
2.343066185712814331e-01,1.585661172866821289e+00,-8.400320261716842651e-02
2.345721423625946045e-01,1.587458133697509766e+00,-2.801002003252506256e-02
2.348362058401107788e-01,1.589245200157165527e+00,2.804155275225639343e-02
2.351172268390655518e-01,1.591146945953369141e+00,8.429381996393203735e-02
2.353682518005371094e-01,1.592845797538757324e+00,1.408689171075820923e-01
2.356449216604232788e-01,1.594718098640441895e+00,1.979326158761978149e-01
2.359103560447692871e-01,1.596514344215393066e+00,2.556083500385284424e-01
2.362190783023834229e-01,1.598603606224060059e+00,3.141106963157653809e-01
2.365068495273590088e-01,1.600551128387451172e+00,3.735281527042388916e-01
2.106117159128189087e-01,1.581516265869140625e+00,-4.275064468383789062e-01
2.108742892742156982e-01,1.583487868309020996e+00,-3.688038289546966553e-01
2.111126929521560669e-01,1.585278153419494629e+00,-3.108667731285095215e-01
2.113404870033264160e-01,1.586988687515258789e+00,-2.535729408264160156e-01
2.115938812494277954e-01,1.588891506195068359e+00,-1.968133747577667236e-01
2.118367254734039307e-01,1.590714931488037109e+00,-1.403979361057281494e-01
2.120744287967681885e-01,1.592499971389770508e+00,-8.419606089591979980e-02
2.123144418001174927e-01,1.594302296638488770e+00,-2.807428687810897827e-02
2.125588208436965942e-01,1.596137404441833496e+00,2.810660004615783691e-02
2.127999961376190186e-01,1.597948312759399414e+00,8.448412269353866577e-02
2.130336314439773560e-01,1.599702715873718262e+00,1.411912143230438232e-01
2.132963389158248901e-01,1.601675510406494141e+00,1.983969062566757202e-01
2.135541886091232300e-01,1.603611707687377930e+00,2.562290132045745850e-01
2.137950658798217773e-01,1.605420470237731934e+00,3.148166239261627197e-01
2.140752822160720825e-01,1.607524633407592773e+00,3.744021356105804443e-01
1.884694546461105347e-01,1.588701009750366211e+00,-4.286754429340362549e-01
1.886898279190063477e-01,1.590558528900146484e+00,-3.697837293148040771e-01
1.888937354087829590e-01,1.592277526855468750e+00,-3.116772174835205078e-01
1.891250610351562500e-01,1.594227433204650879e+00,-2.542710006237030029e-01
1.893448084592819214e-01,1.596079707145690918e+00,-1.973478347063064575e-01
1.895601749420166016e-01,1.597895264625549316e+00,-1.407777816057205200e-01
1.897762119770050049e-01,1.599716305732727051e+00,-8.442533016204833984e-02
1.899920701980590820e-01,1.601535797119140625e+00,-2.815089188516139984e-02
1.902069449424743652e-01,1.603347063064575195e+00,2.818273007869720459e-02
1.904241591691970825e-01,1.605178117752075195e+00,8.471357822418212891e-02
1.906399577856063843e-01,1.606997251510620117e+00,1.415796875953674316e-01
1.908480525016784668e-01,1.608751296997070312e+00,1.989146173000335693e-01
1.910877823829650879e-01,1.610772132873535156e+00,2.569097876548767090e-01
1.913175582885742188e-01,1.612708926200866699e+00,3.156765401363372803e-01
1.915240138769149780e-01,1.614449262619018555e+00,3.753379881381988525e-01
1.661697179079055786e-01,1.595624327659606934e+00,-4.298577606678009033e-01
1.663966327905654907e-01,1.597803354263305664e+00,-3.708763122558593750e-01
1.665626019239425659e-01,1.599396944046020508e+00,-3.125721216201782227e-01
1.667572408914566040e-01,1.601266026496887207e+00,-2.549867928028106689e-01
1.669458299875259399e-01,1.603076815605163574e+00,-1.978972703218460083e-01
1.671473681926727295e-01,1.605012178421020508e+00,-1.411795616149902344e-01
1.673334240913391113e-01,1.606798768043518066e+00,-8.466403186321258545e-02
1.675235182046890259e-01,1.608624100685119629e+00,-2.823044545948505402e-02
1.677170246839523315e-01,1.610482215881347656e+00,2.826305478811264038e-02
1.678976565599441528e-01,1.612216591835021973e+00,8.494950830936431885e-02
1.680927127599716187e-01,1.614089608192443848e+00,1.419780254364013672e-01
1.682852059602737427e-01,1.615938067436218262e+00,1.994849741458892822e-01
1.685103178024291992e-01,1.618099570274353027e+00,2.576673924922943115e-01
1.686805635690689087e-01,1.619734406471252441e+00,3.165466785430908203e-01
1.688770800828933716e-01,1.621621370315551758e+00,3.764048814773559570e-01
1.437496691942214966e-01,1.602672696113586426e+00,-4.311581254005432129e-01
1.439373940229415894e-01,1.604765653610229492e+00,-3.719760775566101074e-01
1.441069245338439941e-01,1.606655716896057129e+00,-3.135554790496826172e-01
1.442673802375793457e-01,1.608444690704345703e+00,-2.557749152183532715e-01
1.444440484046936035e-01,1.610414266586303711e+00,-1.985275000333786011e-01
1.446000337600708008e-01,1.612153410911560059e+00,-1.416111588478088379e-01
1.447680890560150146e-01,1.614027142524719238e+00,-8.492702245712280273e-02
1.449323147535324097e-01,1.615857958793640137e+00,-2.831809036433696747e-02
1.450934112071990967e-01,1.617654085159301758e+00,2.834956906735897064e-02
1.452668011188507080e-01,1.619587182998657227e+00,8.521958440542221069e-02
1.454225182533264160e-01,1.621323466300964355e+00,1.424166411161422729e-01
1.455967873334884644e-01,1.623266220092773438e+00,2.001118510961532593e-01
1.457658410072326660e-01,1.625151157379150391e+00,2.584315538406372070e-01
1.459214687347412109e-01,1.626886248588562012e+00,3.175036609172821045e-01
1.461038142442703247e-01,1.628919243812561035e+00,3.775747418403625488e-01
1.211968064308166504e-01,1.609869837760925293e+00,-4.325833022594451904e-01
1.213440150022506714e-01,1.611825227737426758e+00,-3.731716275215148926e-01
1.214785277843475342e-01,1.613611936569213867e+00,-3.145414888858795166e-01
1.216081753373146057e-01,1.615334033966064453e+00,-2.565673887729644775e-01
1.217543259263038635e-01,1.617275357246398926e+00,-1.991380900144577026e-01
1.218952089548110962e-01,1.619146704673767090e+00,-1.420576274394989014e-01
1.220338791608810425e-01,1.620988726615905762e+00,-8.519269526004791260e-02
1.221723034977912903e-01,1.622827529907226562e+00,-2.840667590498924255e-02
1.223106384277343750e-01,1.624665021896362305e+00,2.843884006142616272e-02
1.224480420351028442e-01,1.626490116119384766e+00,8.548182249069213867e-02
1.225817799568176270e-01,1.628266572952270508e+00,1.428577750921249390e-01
1.227340698242187500e-01,1.630289435386657715e+00,2.007405310869216919e-01
1.228848323225975037e-01,1.632292032241821289e+00,2.592608630657196045e-01
1.230269744992256165e-01,1.634180188179016113e+00,3.185508549213409424e-01
1.231520175933837891e-01,1.635841131210327148e+00,3.787318170070648193e-01
9.846291691064834595e-02,1.616676688194274902e+00,-4.339892268180847168e-01
9.857810288667678833e-02,1.618568062782287598e+00,-3.743677139282226562e-01
9.870701283216476440e-02,1.620684623718261719e+00,-3.156124353408813477e-01
9.882507473230361938e-02,1.622623085975646973e+00,-2.574740648269653320e-01
9.893706440925598145e-02,1.624461770057678223e+00,-1.998281180858612061e-01
9.904685616493225098e-02,1.626264572143554688e+00,-1.425431370735168457e-01
9.915715456008911133e-02,1.628075480461120605e+00,-8.548180013895034790e-02
9.926949441432952881e-02,1.629920005798339844e+00,-2.850303612649440765e-02
9.938409179449081421e-02,1.631801724433898926e+00,2.853593975305557251e-02
9.950016438961029053e-02,1.633707523345947266e+00,8.577750623226165771e-02
9.961552917957305908e-02,1.635601639747619629e+00,1.433615386486053467e-01
9.972690790891647339e-02,1.637430429458618164e+00,2.014234215021133423e-01
9.982997179031372070e-02,1.639122605323791504e+00,2.600921690464019775e-01
9.994970262050628662e-02,1.641088485717773438e+00,3.195858895778656006e-01
1.000927612185478210e-01,1.643437385559082031e+00,3.801198899745941162e-01
7.560359686613082886e-02,1.624120712280273438e+00,-4.356524050235748291e-01
7.568529248237609863e-02,1.625875711441040039e+00,-3.757688701152801514e-01
7.577944546937942505e-02,1.627898454666137695e+00,-3.167735934257507324e-01
7.586678117513656616e-02,1.629774570465087891e+00,-2.584100663661956787e-01
7.595117390155792236e-02,1.631587505340576172e+00,-2.005503922700881958e-01
7.603570818901062012e-02,1.633403301239013672e+00,-1.430588066577911377e-01
7.612447440624237061e-02,1.635310292243957520e+00,-8.579565584659576416e-02
7.621061056852340698e-02,1.637160778045654297e+00,-2.860764972865581512e-02
7.629486918449401855e-02,1.638970732688903809e+00,2.863927744328975677e-02
7.638358324766159058e-02,1.640876531600952148e+00,8.608768880367279053e-02
7.647354900836944580e-02,1.642809033393859863e+00,1.438826024532318115e-01
7.656219601631164551e-02,1.644713521003723145e+00,2.021638005971908569e-01
7.664605230093002319e-02,1.646514892578125000e+00,2.610643506050109863e-01
7.674460113048553467e-02,1.648631930351257324e+00,3.208081126213073730e-01
7.683583348989486694e-02,1.650591731071472168e+00,3.814812004566192627e-01
5.255021899938583374e-02,1.631206631660461426e+00,-4.373065531253814697e-01
5.261921137571334839e-02,1.633348226547241211e+00,-3.772831857204437256e-01
5.268132314085960388e-02,1.635276198387145996e+00,-3.180299103260040283e-01
5.273982882499694824e-02,1.637092232704162598e+00,-2.594240605831146240e-01
5.279751867055892944e-02,1.638882994651794434e+00,-2.013336271047592163e-01
5.286056920886039734e-02,1.640840053558349609e+00,-1.436291635036468506e-01
5.292106792330741882e-02,1.642718076705932617e+00,-8.613574504852294922e-02
5.298090353608131409e-02,1.644575357437133789e+00,-2.872101962566375732e-02
5.304059013724327087e-02,1.646428108215332031e+00,2.875337563455104828e-02
5.309817567467689514e-02,1.648215651512145996e+00,8.642400801181793213e-02
5.316156893968582153e-02,1.650183439254760742e+00,1.444470286369323730e-01
5.322530120611190796e-02,1.652161717414855957e+00,2.029648870229721069e-01
5.328684300184249878e-02,1.654072046279907227e+00,2.621147930622100830e-01
5.334328860044479370e-02,1.655824184417724609e+00,3.220261037349700928e-01
5.340995267033576965e-02,1.657893419265747070e+00,3.829528391361236572e-01
2.932789362967014313e-02,1.638993859291076660e+00,-4.392367005348205566e-01
2.936396561563014984e-02,1.641009807586669922e+00,-3.789170384407043457e-01
2.939678914844989777e-02,1.642844080924987793e+00,-3.193871974945068359e-01
2.942826226353645325e-02,1.644603013992309570e+00,-2.605208158493041992e-01
2.946372330188751221e-02,1.646584749221801758e+00,-2.022072374820709229e-01
2.949760295450687408e-02,1.648478150367736816e+00,-1.442460119724273682e-01
2.953068166971206665e-02,1.650326728820800781e+00,-8.650367707014083862e-02
2.956402860581874847e-02,1.652190327644348145e+00,-2.884366363286972046e-02
2.959796786308288574e-02,1.654087066650390625e+00,2.887677587568759918e-02
2.963133156299591064e-02,1.655951499938964844e+00,8.679850399494171143e-02
2.966356091201305389e-02,1.657752633094787598e+00,1.450575590133666992e-01
2.970024012029170990e-02,1.659802436828613281e+00,2.038304358720779419e-01
2.973636984825134277e-02,1.661821603775024414e+00,2.632484138011932373e-01
2.977023646235466003e-02,1.663714289665222168e+00,3.234445750713348389e-01
2.979983761906623840e-02,1.665368437767028809e+00,3.845415711402893066e-01
5.892808083444833755e-03,1.646282792091369629e+00,-4.411222934722900391e-01
5.899640731513500214e-03,1.648191690444946289e+00,-3.805168867111206055e-01
5.905930884182453156e-03,1.649948954582214355e+00,-3.207191526889801025e-01
5.913134664297103882e-03,1.651961445808410645e+00,-2.616462707519531250e-01
5.919131450355052948e-03,1.653636813163757324e+00,-2.030420601367950439e-01
5.925993900746107101e-03,1.655554056167602539e+00,-1.448429226875305176e-01
5.932816769927740097e-03,1.657460093498229980e+00,-8.686423301696777344e-02
5.939554423093795776e-03,1.659342288970947266e+00,-2.896407060325145721e-02
5.946179386228322983e-03,1.661193251609802246e+00,2.899637818336486816e-02
5.952814593911170959e-03,1.663046836853027344e+00,8.715702593326568604e-02
5.960369482636451721e-03,1.665157437324523926e+00,1.456831246614456177e-01
5.966879427433013916e-03,1.666976332664489746e+00,2.046799510717391968e-01
5.974432453513145447e-03,1.669086337089538574e+00,2.643585801124572754e-01
5.981647875159978867e-03,1.671102166175842285e+00,3.248309195041656494e-01
5.988107062876224518e-03,1.672906637191772461e+00,3.862228095531463623e-01
-1.775240898132324219e-02,1.653933525085449219e+00,-4.431950151920318604e-01
-1.777242124080657959e-02,1.655798077583312988e+00,-3.822925388813018799e-01
-1.779530569911003113e-02,1.657930135726928711e+00,-3.222870528697967529e-01
-1.781637407839298248e-02,1.659892916679382324e+00,-2.629159390926361084e-01
-1.783650368452072144e-02,1.661768436431884766e+00,-2.040509581565856934e-01
-1.785641163587570190e-02,1.663623213768005371e+00,-1.455563306808471680e-01
-1.787656545639038086e-02,1.665500879287719727e+00,-8.729010075330734253e-02
-1.789684034883975983e-02,1.667389750480651855e+00,-2.910602837800979614e-02
-1.791716367006301880e-02,1.669283151626586914e+00,2.913908101618289948e-02
-1.793790608644485474e-02,1.671215653419494629e+00,8.758961409330368042e-02
-1.795866712927818298e-02,1.673150062561035156e+00,1.463898718357086182e-01
-1.797888986766338348e-02,1.675034046173095703e+00,2.056798487901687622e-01
-1.799776032567024231e-02,1.676792025566101074e+00,2.655926644802093506e-01
-1.802001893520355225e-02,1.678865909576416016e+00,3.263567686080932617e-01
-1.804041489958763123e-02,1.680766105651855469e+00,3.880572021007537842e-01
-4.162376746535301208e-02,1.661577224731445312e+00,-4.453572630882263184e-01
-4.166786372661590576e-02,1.663337469100952148e+00,-3.841316103935241699e-01
-4.171964153647422791e-02,1.665404558181762695e+00,-3.238229155540466309e-01
-4.176786914467811584e-02,1.667329668998718262e+00,-2.641615271568298340e-01
-4.181476309895515442e-02,1.669201612472534180e+00,-2.050161808729171753e-01
-4.186530038714408875e-02,1.671218991279602051e+00,-1.462583690881729126e-01
-4.191169515252113342e-02,1.673071026802062988e+00,-8.770931512117385864e-02
-4.195918142795562744e-02,1.674966692924499512e+00,-2.924578078091144562e-02
-4.200761020183563232e-02,1.676899790763854980e+00,2.927953563630580902e-02
-4.205253347754478455e-02,1.678693175315856934e+00,8.800405263900756836e-02
-4.210146516561508179e-02,1.680646419525146484e+00,1.470834165811538696e-01
-4.214990884065628052e-02,1.682580351829528809e+00,2.066593915224075317e-01
-4.219598323106765747e-02,1.684419512748718262e+00,2.668691277503967285e-01
-4.225091263651847839e-02,1.686612248420715332e+00,3.279465734958648682e-01
-4.230218753218650818e-02,1.688659071922302246e+00,3.899793922901153564e-01
-6.573863327503204346e-02,1.669411182403564453e+00,-4.476633667945861816e-01
-6.580402702093124390e-02,1.671071767807006836e+00,-3.860957324504852295e-01
-6.588285416364669800e-02,1.673073649406433105e+00,-3.254641294479370117e-01
-6.596960872411727905e-02,1.675276637077331543e+00,-2.655429840087890625e-01
-6.603980064392089844e-02,1.677059173583984375e+00,-2.060762494802474976e-01
-6.611710786819458008e-02,1.679022312164306641e+00,-1.470090448856353760e-01
-6.618900597095489502e-02,1.680848121643066406e+00,-8.815766125917434692e-02
-6.626396626234054565e-02,1.682751893997192383e+00,-2.939526364207267761e-02
-6.634162366390228271e-02,1.684723854064941406e+00,2.942971140146255493e-02
-6.641495227813720703e-02,1.686586022377014160e+00,8.845859766006469727e-02
-6.649594008922576904e-02,1.688642740249633789e+00,1.478513777256011963e-01
-6.656220555305480957e-02,1.690325498580932617e+00,2.077064216136932373e-01
-6.663774698972702026e-02,1.692243933677673340e+00,2.682324349880218506e-01
-6.672865152359008789e-02,1.694552302360534668e+00,3.296423852443695068e-01
-6.681498885154724121e-02,1.696744799613952637e+00,3.920273780822753906e-01
-9.006784856319427490e-02,1.676551818847656250e+00,-4.498777985572814941e-01
-9.015275537967681885e-02,1.678132414817810059e+00,-3.879854679107666016e-01
-9.027901291847229004e-02,1.680482506752014160e+00,-3.271232545375823975e-01
-9.037496894598007202e-02,1.682268738746643066e+00,-2.668290138244628906e-01
-9.048335254192352295e-02,1.684286236763000488e+00,-2.071022391319274902e-01
-9.057866036891937256e-02,1.686060309410095215e+00,-1.477236449718475342e-01
-9.068298339843750000e-02,1.688002228736877441e+00,-8.859188109636306763e-02
-9.078556299209594727e-02,1.689911603927612305e+00,-2.954000793397426605e-02
-9.088660031557083130e-02,1.691792368888854980e+00,2.957288362085819244e-02
-9.099692851305007935e-02,1.693846106529235840e+00,8.889858424663543701e-02
-9.109608083963394165e-02,1.695691704750061035e+00,1.485674977302551270e-01
-9.120900928974151611e-02,1.697793841361999512e+00,2.087631672620773315e-01
-9.129451215267181396e-02,1.699385404586791992e+00,2.695439159870147705e-01
-9.142368286848068237e-02,1.701789736747741699e+00,3.312709331512451172e-01
-9.151387959718704224e-02,1.703468799591064453e+00,3.938432633876800537e-01
-1.147133558988571167e-01,1.684783458709716797e+00,-4.524808824062347412e-01
-1.148476824164390564e-01,1.686756253242492676e+00,-3.903193771839141846e-01
-1.149708256125450134e-01,1.688564896583557129e+00,-3.289831876754760742e-01
-1.150904670357704163e-01,1.690322041511535645e+00,-2.683401703834533691e-01
-1.152281165122985840e-01,1.692343711853027344e+00,-2.082744687795639038e-01
-1.153607293963432312e-01,1.694291353225708008e+00,-1.485742628574371338e-01
-1.154914647340774536e-01,1.696211457252502441e+00,-8.910036087036132812e-02
-1.156219691038131714e-01,1.698128223419189453e+00,-2.970952168107032776e-02
-1.157526001334190369e-01,1.700046777725219727e+00,2.974308840930461884e-02
-1.158822923898696899e-01,1.701951503753662109e+00,8.940187841653823853e-02
-1.160087287425994873e-01,1.703808546066284180e+00,1.494088321924209595e-01
-1.161549016833305359e-01,1.705955266952514648e+00,2.099496275186538696e-01
-1.163007244467735291e-01,1.708096981048583984e+00,2.711619436740875244e-01
-1.164392828941345215e-01,1.710132002830505371e+00,3.331851363182067871e-01
-1.165626794099807739e-01,1.711944222450256348e+00,3.961479365825653076e-01
-1.395805329084396362e-01,1.692259788513183594e+00,-4.549787640571594238e-01
-1.397374123334884644e-01,1.694161772727966309e+00,-3.924556672573089600e-01
-1.398830413818359375e-01,1.695927500724792480e+00,-3.307738602161407471e-01
-1.400530338287353516e-01,1.697988390922546387e+00,-2.698477804660797119e-01
-1.402136981487274170e-01,1.699936270713806152e+00,-2.094344049692153931e-01
-1.403703540563583374e-01,1.701835632324218750e+00,-1.493967175483703613e-01
-1.405269354581832886e-01,1.703734040260314941e+00,-8.959199488162994385e-02
-1.406856477260589600e-01,1.705658078193664551e+00,-2.987343072891235352e-02
-1.408466100692749023e-01,1.707609653472900391e+00,2.990761026740074158e-02
-1.410088986158370972e-01,1.709577322006225586e+00,8.989926427602767944e-02
-1.411693245172500610e-01,1.711522102355957031e+00,1.502470523118972778e-01
-1.413233578205108643e-01,1.713389635086059570e+00,2.110918909311294556e-01
-1.415046900510787964e-01,1.715588212013244629e+00,2.726447880268096924e-01
-1.416797190904617310e-01,1.717710137367248535e+00,3.350223600864410400e-01
-1.418385356664657593e-01,1.719635605812072754e+00,3.983567357063293457e-01
-1.648410856723785400e-01,1.700977683067321777e+00,-4.579100906848907471e-01
-1.650175154209136963e-01,1.702798366546630859e+00,-3.949630558490753174e-01
-1.651833653450012207e-01,1.704509615898132324e+00,-3.328747749328613281e-01
-1.653811186552047729e-01,1.706550240516662598e+00,-2.715568542480468750e-01
-1.655707955360412598e-01,1.708507418632507324e+00,-2.107607871294021606e-01
-1.657727062702178955e-01,1.710591077804565430e+00,-1.503582149744033813e-01
-1.659545451402664185e-01,1.712467432022094727e+00,-9.016692638397216797e-02
-1.661417484283447266e-01,1.714399099349975586e+00,-3.006509505212306976e-02
-1.663346886634826660e-01,1.716390132904052734e+00,3.010001033544540405e-02
-1.665102243423461914e-01,1.718201279640197754e+00,9.046883136034011841e-02
-1.666992157697677612e-01,1.720151543617248535e+00,1.511985659599304199e-01
-1.668837070465087891e-01,1.722055196762084961e+00,2.124320268630981445e-01
-1.671036630868911743e-01,1.724324941635131836e+00,2.743852734565734863e-01
-1.673188060522079468e-01,1.726544976234436035e+00,3.371780812740325928e-01
-1.675176471471786499e-01,1.728596806526184082e+00,4.009470045566558838e-01
-1.903299689292907715e-01,1.708871722221374512e+00,-4.607213735580444336e-01
-1.905255466699600220e-01,1.710627794265747070e+00,-3.973709344863891602e-01
-1.907584816217422485e-01,1.712719202041625977e+00,-3.349769413471221924e-01
-1.909751445055007935e-01,1.714664459228515625e+00,-2.732550203800201416e-01
-1.911850422620773315e-01,1.716548919677734375e+00,-2.120686322450637817e-01
-1.913960427045822144e-01,1.718443393707275391e+00,-1.512737274169921875e-01
-1.916191279888153076e-01,1.720446348190307617e+00,-9.072216600179672241e-02
-1.918350160121917725e-01,1.722384810447692871e+00,-3.025019168853759766e-02
-1.920457482337951660e-01,1.724276781082153320e+00,3.028342127799987793e-02
-1.922687441110610962e-01,1.726278901100158691e+00,9.102972596883773804e-02
-1.924956291913986206e-01,1.728316068649291992e+00,1.521428078413009644e-01
-1.927200406789779663e-01,1.730330944061279297e+00,2.137713134288787842e-01
-1.929332315921783447e-01,1.732245087623596191e+00,2.760567367076873779e-01
-1.931894421577453613e-01,1.734545469284057617e+00,3.392457365989685059e-01
-1.934294998645782471e-01,1.736700773239135742e+00,4.034275710582733154e-01
-2.161530852317810059e-01,1.716976284980773926e+00,-4.636930525302886963e-01
-2.163666337728500366e-01,1.718672513961791992e+00,-3.999181091785430908e-01
-2.166261970996856689e-01,1.720734238624572754e+00,-3.371164500713348389e-01
-2.168704420328140259e-01,1.722674489021301270e+00,-2.749980390071868896e-01
-2.171407788991928101e-01,1.724821686744689941e+00,-2.134528011083602905e-01
-2.173734456300735474e-01,1.726669907569885254e+00,-1.522562056779861450e-01
-2.176235020160675049e-01,1.728656172752380371e+00,-9.130997955799102783e-02
-2.178684026002883911e-01,1.730601549148559570e+00,-3.044615313410758972e-02
-2.181106954813003540e-01,1.732526183128356934e+00,3.048001229763031006e-02
-2.183703482151031494e-01,1.734588623046875000e+00,9.162334352731704712e-02
-2.185971885919570923e-01,1.736390590667724609e+00,1.531133502721786499e-01
-2.188531756401062012e-01,1.738423943519592285e+00,2.151361256837844849e-01
-2.190998941659927368e-01,1.740383744239807129e+00,2.778250277042388916e-01
-2.193988114595413208e-01,1.742758035659790039e+00,3.414312303066253662e-01
-2.195983231067657471e-01,1.744342803955078125e+00,4.058913588523864746e-01
-2.423342317342758179e-01,1.725311040878295898e+00,-4.668329358100891113e-01
-2.426370978355407715e-01,1.727467417716979980e+00,-4.027314782142639160e-01
-2.429105639457702637e-01,1.729414463043212891e+00,-3.394634127616882324e-01
-2.431700676679611206e-01,1.731261849403381348e+00,-2.768961489200592041e-01
-2.434283196926116943e-01,1.733100533485412598e+00,-2.148865163326263428e-01
-2.437160164117813110e-01,1.735148787498474121e+00,-1.532957553863525391e-01
-2.439923435449600220e-01,1.737116098403930664e+00,-9.193190187215805054e-02
-2.442667931318283081e-01,1.739070057868957520e+00,-3.065350838005542755e-02
-2.445416152477264404e-01,1.741026759147644043e+00,3.068799711763858795e-02
-2.448072880506515503e-01,1.742918252944946289e+00,9.223896265029907227e-02
-2.451042383909225464e-01,1.745032310485839844e+00,1.541689485311508179e-01
-2.454051226377487183e-01,1.747174501419067383e+00,2.166315317153930664e-01
-2.456989437341690063e-01,1.749266386032104492e+00,2.797757685184478760e-01
-2.459713369607925415e-01,1.751205682754516602e+00,3.437407910823822021e-01
-2.462066113948822021e-01,1.752880811691284180e+00,4.086562097072601318e-01
-2.686952054500579834e-01,1.732583880424499512e+00,-4.697932898998260498e-01
-2.690243422985076904e-01,1.734706163406372070e+00,-4.052753150463104248e-01
-2.693242728710174561e-01,1.736640214920043945e+00,-3.416034281253814697e-01
-2.696122825145721436e-01,1.738497257232666016e+00,-2.786420583724975586e-01
-2.699404656887054443e-01,1.740613460540771484e+00,-2.162749469280242920e-01
-2.702525854110717773e-01,1.742625951766967773e+00,-1.542823016643524170e-01
-2.705553770065307617e-01,1.744578361511230469e+00,-9.252229332923889160e-02
-2.708591818809509277e-01,1.746537446975708008e+00,-3.085030801594257355e-02
-2.711671292781829834e-01,1.748523116111755371e+00,3.088538162410259247e-02
-2.714681923389434814e-01,1.750464439392089844e+00,9.283445030450820923e-02
-2.717569470405578613e-01,1.752326250076293945e+00,1.551411002874374390e-01
-2.720897793769836426e-01,1.754472613334655762e+00,2.179969698190689087e-01
-2.724181413650512695e-01,1.756589770317077637e+00,2.815418541431427002e-01
-2.727264463901519775e-01,1.758577942848205566e+00,3.459186553955078125e-01
-2.729966640472412109e-01,1.760320186614990234e+00,4.112594425678253174e-01
-2.956400811672210693e-01,1.741375923156738281e+00,-4.732761979103088379e-01
-2.959930300712585449e-01,1.743454813957214355e+00,-4.082671999931335449e-01
-2.963181138038635254e-01,1.745369672775268555e+00,-3.441196084022521973e-01
-2.966924011707305908e-01,1.747574210166931152e+00,-2.807487547397613525e-01
-2.970413267612457275e-01,1.749629497528076172e+00,-2.179011702537536621e-01
-2.973761856555938721e-01,1.751601934432983398e+00,-1.554379016160964966e-01
-2.977048754692077637e-01,1.753537893295288086e+00,-9.321388602256774902e-02
-2.980388402938842773e-01,1.755504965782165527e+00,-3.108087554574012756e-02
-2.983815371990203857e-01,1.757523536682128906e+00,3.111661411821842194e-02
-2.987205684185028076e-01,1.759520649909973145e+00,9.353191405534744263e-02
-2.990500628948211670e-01,1.761461377143859863e+00,1.563128232955932617e-01
-2.993601560592651367e-01,1.763287901878356934e+00,2.196022123098373413e-01
-2.997256517410278320e-01,1.765440702438354492e+00,2.836190164089202881e-01
-3.000731468200683594e-01,1.767487525939941406e+00,3.484803736209869385e-01
-3.005006015300750732e-01,1.770005345344543457e+00,4.144845902919769287e-01
-3.230220675468444824e-01,1.750458002090454102e+00,-4.769523143768310547e-01
-3.234968781471252441e-01,1.753031015396118164e+00,-4.115518331527709961e-01
-3.238305151462554932e-01,1.754839062690734863e+00,-3.468649089336395264e-01
-3.242225348949432373e-01,1.756963372230529785e+00,-2.829736769199371338e-01
-3.245444297790527344e-01,1.758707642555236816e+00,-2.195878326892852783e-01
-3.249190151691436768e-01,1.760737538337707520e+00,-1.566452682018280029e-01
-3.252914845943450928e-01,1.762755990028381348e+00,-9.394178539514541626e-02
-3.256585896015167236e-01,1.764745354652404785e+00,-3.132379427552223206e-02
-3.260188996791839600e-01,1.766697883605957031e+00,3.135845065116882324e-02
-3.263796567916870117e-01,1.768652915954589844e+00,9.425604343414306641e-02
-3.267958164215087891e-01,1.770907998085021973e+00,1.575500816106796265e-01
-3.271512389183044434e-01,1.772834062576293945e+00,2.213516086339950562e-01
-3.275718390941619873e-01,1.775113224983215332e+00,2.858968675136566162e-01
-3.278631865978240967e-01,1.776692032814025879e+00,3.511844277381896973e-01
-3.283435106277465820e-01,1.779294967651367188e+00,4.177176952362060547e-01
-3.506945669651031494e-01,1.758962273597717285e+00,-4.805880188941955566e-01
-3.510795533657073975e-01,1.760893344879150391e+00,-4.145348966121673584e-01
-3.514399528503417969e-01,1.762700915336608887e+00,-3.493774533271789551e-01
-3.518677651882171631e-01,1.764846801757812500e+00,-2.850253582000732422e-01
-3.522740304470062256e-01,1.766884326934814453e+00,-2.212156504392623901e-01
-3.526724278926849365e-01,1.768882632255554199e+00,-1.578028202056884766e-01
-3.530722260475158691e-01,1.770887851715087891e+00,-9.463478624820709229e-02
-3.534703254699707031e-01,1.772884607315063477e+00,-3.155483677983283997e-02
-3.538648188114166260e-01,1.774863243103027344e+00,3.159005194902420044e-02
-3.542641401290893555e-01,1.776866078376770020e+00,9.495425224304199219e-02
-3.546606004238128662e-01,1.778854608535766602e+00,1.586924344301223755e-01
-3.550429344177246094e-01,1.780772328376770020e+00,2.229544371366500854e-01
-3.555005192756652832e-01,1.783067464828491211e+00,2.879680097103118896e-01
-3.559449911117553711e-01,1.785296678543090820e+00,3.538560569286346436e-01
-3.563527166843414307e-01,1.787341713905334473e+00,4.207611680030822754e-01
-3.786777257919311523e-01,1.767037987709045410e+00,-4.842257797718048096e-01
-3.790879845619201660e-01,1.768952369689941406e+00,-4.176666736602783203e-01
-3.795715570449829102e-01,1.771208882331848145e+00,-3.521045446395874023e-01
-3.800168335437774658e-01,1.773286700248718262e+00,-2.872374355792999268e-01
-3.804425001144409180e-01,1.775273084640502930e+00,-2.229248583316802979e-01
-3.808636963367462158e-01,1.777238488197326660e+00,-1.590182930231094360e-01
-3.812908828258514404e-01,1.779231905937194824e+00,-9.536255896091461182e-02
-3.817203640937805176e-01,1.781235933303833008e+00,-3.179746493697166443e-02
-3.821504712104797363e-01,1.783242940902709961e+00,3.183329477906227112e-02
-3.825896978378295898e-01,1.785292506217956543e+00,9.568739682435989380e-02
-3.830302059650421143e-01,1.787348031997680664e+00,1.599228531122207642e-01
-3.834592700004577637e-01,1.789350271224975586e+00,2.246925681829452515e-01
-3.838599324226379395e-01,1.791219949722290039e+00,2.901422679424285889e-01
-3.843446671962738037e-01,1.793481826782226562e+00,3.565322458744049072e-01
-3.847939074039459229e-01,1.795578241348266602e+00,4.239532649517059326e-01
-4.074923396110534668e-01,1.776977181434631348e+00,-4.884977340698242188e-01
-4.080513119697570801e-01,1.779414653778076172e+00,-4.214727878570556641e-01
-4.085479080677032471e-01,1.781580209732055664e+00,-3.552924096584320068e-01
-4.089253544807434082e-01,1.783226251602172852e+00,-2.897658646106719971e-01
-4.094505310058593750e-01,1.785516381263732910e+00,-2.249240428209304810e-01
-4.098935723304748535e-01,1.787448406219482422e+00,-1.604403406381607056e-01
-4.103477001190185547e-01,1.789428710937500000e+00,-9.621403366327285767e-02
-4.108095765113830566e-01,1.791442990303039551e+00,-3.208135813474655151e-02
-4.112763702869415283e-01,1.793478488922119141e+00,3.211781010031700134e-02
-4.117587506771087646e-01,1.795582056045532227e+00,9.654488414525985718e-02
-4.121680855751037598e-01,1.797366976737976074e+00,1.613306254148483276e-01
-4.127273559570312500e-01,1.799805879592895508e+00,2.267241030931472778e-01
-4.131816923618316650e-01,1.801787137985229492e+00,2.927819192409515381e-01
-4.135871529579162598e-01,1.803555250167846680e+00,3.596747815608978271e-01
-4.140823781490325928e-01,1.805714726448059082e+00,4.277022182941436768e-01
-4.366070926189422607e-01,1.786200046539306641e+00,-4.927006363868713379e-01
-4.370447695255279541e-01,1.787990689277648926e+00,-4.249422550201416016e-01
-4.375774562358856201e-01,1.790169954299926758e+00,-3.582177758216857910e-01
-4.380751550197601318e-01,1.792206048965454102e+00,-2.922140061855316162e-01
-4.385602176189422607e-01,1.794190406799316406e+00,-2.267842590808868408e-01
-4.390892088413238525e-01,1.796354651451110840e+00,-1.617873162031173706e-01
-4.395707845687866211e-01,1.798324704170227051e+00,-9.702071547508239746e-02
-4.400646388530731201e-01,1.800345182418823242e+00,-3.235026448965072632e-02
-4.405689537525177002e-01,1.802408456802368164e+00,3.238733857870101929e-02
-4.410336017608642578e-01,1.804309248924255371e+00,9.734358638525009155e-02
-4.415446221828460693e-01,1.806399941444396973e+00,1.626920402050018311e-01
-4.420525729656219482e-01,1.808477997779846191e+00,2.285901904106140137e-01
-4.425375163555145264e-01,1.810461997985839844e+00,2.951906025409698486e-01
-4.431296586990356445e-01,1.812884449958801270e+00,3.627629876136779785e-01
-4.436905980110168457e-01,1.815179347991943359e+00,4.314040541648864746e-01
-4.660875797271728516e-01,1.795023679733276367e+00,-4.969238042831420898e-01
-4.666962921619415283e-01,1.797368049621582031e+00,-4.287146329879760742e-01
-4.672424495220184326e-01,1.799471378326416016e+00,-3.613802492618560791e-01
-4.677550494670867920e-01,1.801445603370666504e+00,-2.947819232940673828e-01
-4.682587087154388428e-01,1.803385376930236816e+00,-2.287702262401580811e-01
-4.688138365745544434e-01,1.805523276329040527e+00,-1.632007211446762085e-01
-4.693226516246795654e-01,1.807482838630676270e+00,-9.786719828844070435e-02
-4.698500633239746094e-01,1.809514045715332031e+00,-3.263252228498458862e-02
-4.703924953937530518e-01,1.811603069305419922e+00,3.267019614577293396e-02
-4.708967506885528564e-01,1.813544988632202148e+00,9.819544106721878052e-02
-4.714557826519012451e-01,1.815698027610778809e+00,1.641204059123992920e-01
-4.720159173011779785e-01,1.817855238914489746e+00,2.306058108806610107e-01
-4.725552499294281006e-01,1.819932341575622559e+00,2.978070378303527832e-01
-4.730492234230041504e-01,1.821834802627563477e+00,3.658713996410369873e-01
-4.736529290676116943e-01,1.824159741401672363e+00,4.351050853729248047e-01
-4.962930381298065186e-01,1.804761886596679688e+00,-5.015348792076110840e-01
-4.967588186264038086e-01,1.806455612182617188e+00,-4.325338900089263916e-01
-4.973434209823608398e-01,1.808581471443176270e+00,-3.646020591259002686e-01
-4.979985058307647705e-01,1.810963749885559082e+00,-2.974753975868225098e-01
-4.985199272632598877e-01,1.812859892845153809e+00,-2.308536767959594727e-01
-4.991013407707214355e-01,1.814974188804626465e+00,-1.646838486194610596e-01
-4.996375143527984619e-01,1.816923975944519043e+00,-9.875550121068954468e-02
-5.001977086067199707e-01,1.818961262702941895e+00,-3.292863070964813232e-02
-5.007795691490173340e-01,1.821076989173889160e+00,3.296693414449691772e-02
-5.013250112533569336e-01,1.823060393333435059e+00,9.908904135227203369e-02
-5.019338130950927734e-01,1.825274348258972168e+00,1.656184494495391846e-01
-5.024232268333435059e-01,1.827054142951965332e+00,2.326612025499343872e-01
-5.029927492141723633e-01,1.829125285148620605e+00,3.004586696624755859e-01
-5.036970973014831543e-01,1.831686496734619141e+00,3.692599236965179443e-01
-5.041670203208923340e-01,1.833395361900329590e+00,4.389843046665191650e-01
-5.269063711166381836e-01,1.814118742942810059e+00,-5.061790943145751953e-01
-5.275651812553405762e-01,1.816387057304382324e+00,-4.366752207279205322e-01
-5.281624197959899902e-01,1.818443417549133301e+00,-3.680765032768249512e-01
-5.287315845489501953e-01,1.820402979850769043e+00,-3.002383112907409668e-01
-5.293781161308288574e-01,1.822628974914550781e+00,-2.330387234687805176e-01
-5.299374461174011230e-01,1.824554681777954102e+00,-1.662243753671646118e-01
-5.305498242378234863e-01,1.826663136482238770e+00,-9.968739748001098633e-02
-5.311441421508789062e-01,1.828709363937377930e+00,-3.323932737112045288e-02
-5.317225456237792969e-01,1.830700755119323730e+00,3.327552229166030884e-02
-5.323538184165954590e-01,1.832874059677124023e+00,1.000263541936874390e-01
-5.329102873802185059e-01,1.834789991378784180e+00,1.671568602323532104e-01
-5.335510373115539551e-01,1.836996078491210938e+00,2.348756790161132812e-01
-5.341783165931701660e-01,1.839155793190002441e+00,3.033311963081359863e-01
-5.347632765769958496e-01,1.841169834136962891e+00,3.726766407489776611e-01
-5.354833006858825684e-01,1.843648791313171387e+00,4.432291686534881592e-01
-5.583376884460449219e-01,1.824434399604797363e+00,-5.112348794937133789e-01
-5.588326454162597656e-01,1.826051712036132812e+00,-4.408765137195587158e-01
-5.596167445182800293e-01,1.828613877296447754e+00,-3.717184066772460938e-01
-5.602003335952758789e-01,1.830520749092102051e+00,-3.031984567642211914e-01
-5.608711242675781250e-01,1.832712769508361816e+00,-2.353303581476211548e-01
-5.614530444145202637e-01,1.834614276885986328e+00,-1.678557991981506348e-01
-5.620964169502258301e-01,1.836716532707214355e+00,-1.006648167967796326e-01
-5.627250671386718750e-01,1.838770866394042969e+00,-3.356517106294631958e-02
-5.633422732353210449e-01,1.840787529945373535e+00,3.360198438167572021e-02
-5.640197992324829102e-01,1.843001484870910645e+00,1.010092720389366150e-01
-5.646225810050964355e-01,1.844971179962158203e+00,1.688033938407897949e-01
-5.653195381164550781e-01,1.847248435020446777e+00,2.371968179941177368e-01
-5.658346414566040039e-01,1.848931670188903809e+00,3.062479197978973389e-01
-5.666529536247253418e-01,1.851605534553527832e+00,3.763921260833740234e-01
-5.672164559364318848e-01,1.853446841239929199e+00,4.474906921386718750e-01
-5.902272462844848633e-01,1.834392905235290527e+00,-5.163398385047912598e-01
-5.909385085105895996e-01,1.836603522300720215e+00,-4.454206228256225586e-01
-5.915908217430114746e-01,1.838630795478820801e+00,-3.754374682903289795e-01
-5.923420786857604980e-01,1.840965747833251953e+00,-3.063014447689056396e-01
-5.929484367370605469e-01,1.842850208282470703e+00,-2.376975119113922119e-01
-5.936420559883117676e-01,1.845005989074707031e+00,-1.695666462182998657e-01
-5.943164229393005371e-01,1.847101807594299316e+00,-1.016898080706596375e-01
-5.949805974960327148e-01,1.849166154861450195e+00,-3.390691056847572327e-02
-5.956367850303649902e-01,1.851205348968505859e+00,3.394430503249168396e-02
-5.962793231010437012e-01,1.853202462196350098e+00,1.020256727933883667e-01
-5.970121026039123535e-01,1.855479836463928223e+00,1.705292463302612305e-01
-5.976174473762512207e-01,1.857361316680908203e+00,2.395692020654678345e-01
-5.983337759971618652e-01,1.859587550163269043e+00,3.093997836112976074e-01
-5.990127325057983398e-01,1.861697673797607422e+00,3.801476061344146729e-01
-5.998535752296447754e-01,1.864311099052429199e+00,4.521403908729553223e-01
-6.230363249778747559e-01,1.845352649688720703e+00,-5.218814611434936523e-01
-6.237595677375793457e-01,1.847494721412658691e+00,-4.501811861991882324e-01
-6.244242787361145020e-01,1.849463582038879395e+00,-3.794356286525726318e-01
-6.251983642578125000e-01,1.851756215095520020e+00,-3.095539808273315430e-01
-6.258234381675720215e-01,1.853607654571533203e+00,-2.402158379554748535e-01
-6.265451312065124512e-01,1.855745196342468262e+00,-1.713602840900421143e-01
-6.272515058517456055e-01,1.857837319374084473e+00,-1.027645915746688843e-01
-6.279517412185668945e-01,1.859911441802978516e+00,-3.426524251699447632e-02
-6.286478042602539062e-01,1.861973047256469727e+00,3.430322185158729553e-02
-6.293343901634216309e-01,1.864006638526916504e+00,1.031058430671691895e-01
-6.301214098930358887e-01,1.866337776184082031e+00,1.723384112119674683e-01
-6.307770609855651855e-01,1.868279576301574707e+00,2.421172261238098145e-01
-6.315553188323974609e-01,1.870584726333618164e+00,3.127014935016632080e-01
-6.322981715202331543e-01,1.872784972190856934e+00,3.842202425003051758e-01
-6.329575181007385254e-01,1.874737858772277832e+00,4.568195641040802002e-01
-6.563603281974792480e-01,1.855975747108459473e+00,-5.274886488914489746e-01
-6.571297645568847656e-01,1.858151435852050781e+00,-4.550232291221618652e-01
-6.580146551132202148e-01,1.860653638839721680e+00,-3.836243748664855957e-01
-6.586760878562927246e-01,1.862524032592773438e+00,-3.128980100154876709e-01
-6.594554185867309570e-01,1.864727616310119629e+00,-2.428552955389022827e-01
-6.602064967155456543e-01,1.866851449012756348e+00,-1.732407063245773315e-01
-6.609455347061157227e-01,1.868941307067871094e+00,-1.038914546370506287e-01
-6.616817116737365723e-01,1.871022939682006836e+00,-3.464088588953018188e-02
-6.624190211296081543e-01,1.873107790946960449e+00,3.467948362231254578e-02
-6.631511449813842773e-01,1.875177979469299316e+00,1.042381376028060913e-01
-6.638625264167785645e-01,1.877189636230468750e+00,1.742000728845596313e-01
-6.647009849548339844e-01,1.879560589790344238e+00,2.447870671749114990e-01
-6.653388738632202148e-01,1.881364226341247559e+00,3.160631060600280762e-01
-6.661120653152465820e-01,1.883550643920898438e+00,3.883452117443084717e-01
-6.670755743980407715e-01,1.886275053024291992e+00,4.619101285934448242e-01
-6.898255348205566406e-01,1.865237474441528320e+00,-5.328726172447204590e-01
-6.906101107597351074e-01,1.867358803749084473e+00,-4.596514999866485596e-01
-6.915203332901000977e-01,1.869819998741149902e+00,-3.875153362751007080e-01
-6.921986937522888184e-01,1.871654272079467773e+00,-3.160639405250549316e-01
-6.930060982704162598e-01,1.873837471008300781e+00,-2.453084439039230347e-01
-6.937855482101440430e-01,1.875945091247558594e+00,-1.749881803989410400e-01
-6.945570111274719238e-01,1.878031015396118164e+00,-1.049386188387870789e-01
-6.953308582305908203e-01,1.880123376846313477e+00,-3.499005734920501709e-02
-6.961079239845275879e-01,1.882224559783935547e+00,3.502916172146797180e-02
-6.968843340873718262e-01,1.884323954582214355e+00,1.052902489900588989e-01
-6.976430416107177734e-01,1.886375308036804199e+00,1.759611219167709351e-01
-6.985391378402709961e-01,1.888798356056213379e+00,2.472670227289199829e-01
-6.992276906967163086e-01,1.890660166740417480e+00,3.192734420299530029e-01
-7.000626921653747559e-01,1.892917990684509277e+00,3.923023045063018799e-01
-7.008129358291625977e-01,1.894946575164794922e+00,4.664422273635864258e-01
-7.249550223350524902e-01,1.877196192741394043e+00,-5.391982793807983398e-01
-7.257534265518188477e-01,1.879263520240783691e+00,-4.650912284851074219e-01
-7.264965772628784180e-01,1.881187915802001953e+00,-3.919862210750579834e-01
-7.273824214935302734e-01,1.883481621742248535e+00,-3.197866082191467285e-01
-7.282164692878723145e-01,1.885641336441040039e+00,-2.481928318738937378e-01
-7.290258407592773438e-01,1.887737154960632324e+00,-1.770433783531188965e-01
-7.298312187194824219e-01,1.889822602272033691e+00,-1.061703339219093323e-01
-7.306433320045471191e-01,1.891925454139709473e+00,-3.540070354938507080e-02
-7.314633131027221680e-01,1.894048690795898438e+00,3.544043377041816711e-02
-7.322864532470703125e-01,1.896180152893066406e+00,1.065274998545646667e-01
-7.330955266952514648e-01,1.898275136947631836e+00,1.780316978693008423e-01
-7.338672876358032227e-01,1.900273561477661133e+00,2.501187622547149658e-01
-7.347970008850097656e-01,1.902680873870849609e+00,3.230463564395904541e-01
-7.356989979743957520e-01,1.905016541481018066e+00,3.969514369964599609e-01
-7.365152239799499512e-01,1.907130122184753418e+00,4.719878137111663818e-01
-7.606974244117736816e-01,1.888852357864379883e+00,-5.456178784370422363e-01
-7.617931365966796875e-01,1.891572833061218262e+00,-4.707879722118377686e-01
-7.625510096549987793e-01,1.893454790115356445e+00,-3.967759907245635986e-01
-7.634634971618652344e-01,1.895720601081848145e+00,-3.236868381500244141e-01
-7.643256187438964844e-01,1.897861242294311523e+00,-2.512154877185821533e-01
-7.651656270027160645e-01,1.899947047233581543e+00,-1.791972965002059937e-01
-7.660057544708251953e-01,1.902033090591430664e+00,-1.074612811207771301e-01
-7.668567895889282227e-01,1.904146194458007812e+00,-3.583108633756637573e-02
-7.677205801010131836e-01,1.906291127204895020e+00,3.587144613265991211e-02
-7.685911655426025391e-01,1.908452868461608887e+00,1.078239828348159790e-01
-7.694514393806457520e-01,1.910588979721069336e+00,1.802010089159011841e-01
-7.702775001525878906e-01,1.912640094757080078e+00,2.531717121601104736e-01
-7.712725996971130371e-01,1.915111064910888672e+00,3.269976675510406494e-01
-7.719625234603881836e-01,1.916824102401733398e+00,4.016730487346649170e-01
-7.731265425682067871e-01,1.919714450836181641e+00,4.777920246124267578e-01
-7.965224385261535645e-01,1.898917078971862793e+00,-5.517620444297790527e-01
-7.973945140838623047e-01,1.900996088981628418e+00,-4.759252071380615234e-01
-7.984248399734497070e-01,1.903452515602111816e+00,-4.012247323989868164e-01
-7.993654608726501465e-01,1.905694842338562012e+00,-3.273099958896636963e-01
-8.002565503120422363e-01,1.907819271087646484e+00,-2.540237903594970703e-01
-8.011278510093688965e-01,1.909896373748779297e+00,-1.811986565589904785e-01
-8.020032048225402832e-01,1.911983370780944824e+00,-1.086608842015266418e-01
-8.028927445411682129e-01,1.914103865623474121e+00,-3.623100370168685913e-02
-8.037993907928466797e-01,1.916265487670898438e+00,3.627191856503486633e-02
-8.047167658805847168e-01,1.918452382087707520e+00,1.090285331010818481e-01
-8.056274652481079102e-01,1.920623540878295898e+00,1.822163760662078857e-01
-8.065041303634643555e-01,1.922713518142700195e+00,2.560069262981414795e-01
-8.073126673698425293e-01,1.924641013145446777e+00,3.305640518665313721e-01
-8.083036541938781738e-01,1.927003741264343262e+00,4.061890244483947754e-01
-8.092098236083984375e-01,1.929163932800292969e+00,4.829771518707275391e-01
-8.343936204910278320e-01,1.912014722824096680e+00,-5.589807629585266113e-01
-8.352841138839721680e-01,1.914055347442626953e+00,-4.821384549140930176e-01
-8.363441228866577148e-01,1.916484355926513672e+00,-4.064533710479736328e-01
-8.373138308525085449e-01,1.918706417083740234e+00,-3.315692543983459473e-01
-8.382346034049987793e-01,1.920816302299499512e+00,-2.573255002498626709e-01
-8.391389250755310059e-01,1.922888636589050293e+00,-1.835519969463348389e-01
-8.400499820709228516e-01,1.924976348876953125e+00,-1.100713685154914856e-01
-8.409807682037353516e-01,1.927109360694885254e+00,-3.670126572251319885e-02
-8.419328331947326660e-01,1.929290890693664551e+00,3.674281388521194458e-02
