-4.086558893322944641e-02,1.631311535835266113e+00,-3.171938359737396240e-01
-4.091670736670494080e-02,1.633352160453796387e+00,-2.587783336639404297e-01
-4.096649214625358582e-02,1.635339617729187012e+00,-2.008571475744247437e-01
-4.101971909403800964e-02,1.637464284896850586e+00,-1.433042883872985840e-01
-4.106904938817024231e-02,1.639433383941650391e+00,-8.594588935375213623e-02
-4.111930355429649353e-02,1.641439557075500488e+00,-2.866038121283054352e-02
-4.117063060402870178e-02,1.643488526344299316e+00,2.869615703821182251e-02
-4.121838882565498352e-02,1.645395040512084961e+00,8.625842630863189697e-02
-4.127024114131927490e-02,1.647464871406555176e+00,1.441795080900192261e-01
-4.132163152098655701e-02,1.649516224861145020e+00,2.025983631610870361e-01
-4.137069359421730042e-02,1.651474833488464355e+00,2.616495788097381592e-01
-4.142861440777778625e-02,1.653786897659301758e+00,3.215639591217041016e-01
-4.148295521736145020e-02,1.655956268310546875e+00,3.824269771575927734e-01
-6.433612108230590820e-02,1.633794665336608887e+00,-4.381125867366790771e-01
-6.440656632184982300e-02,1.635583639144897461e+00,-3.778963088989257812e-01
-6.448986381292343140e-02,1.637699127197265625e+00,-3.185826838016510010e-01
-6.458065658807754517e-02,1.640004754066467285e+00,-2.599521577358245850e-01
-6.465555727481842041e-02,1.641906738281250000e+00,-2.017567455768585205e-01
-6.473718583583831787e-02,1.643979668617248535e+00,-1.439408361911773682e-01
-6.481377780437469482e-02,1.645924806594848633e+00,-8.632598817348480225e-02
-6.489309668540954590e-02,1.647938966751098633e+00,-2.878713235259056091e-02
-6.497535109519958496e-02,1.650027871131896973e+00,2.882362343370914459e-02
-6.505313515663146973e-02,1.652003049850463867e+00,8.664478361606597900e-02
-6.513867527246475220e-02,1.654175519943237305e+00,1.448335498571395874e-01
-6.520954519510269165e-02,1.655975222587585449e+00,2.034854739904403687e-01
-6.528978794813156128e-02,1.658012866973876953e+00,2.628065645694732666e-01
-6.538535654544830322e-02,1.660439729690551758e+00,3.230064511299133301e-01
-6.547645479440689087e-02,1.662753224372863770e+00,3.841737508773803711e-01
-8.808974176645278931e-02,1.639730691909790039e+00,-4.399974048137664795e-01
-8.818165957927703857e-02,1.641441702842712402e+00,-3.795025646686553955e-01
-8.831336349248886108e-02,1.643893361091613770e+00,-3.200007975101470947e-01
-8.841575682163238525e-02,1.645799279212951660e+00,-2.610445022583007812e-01
-8.852998912334442139e-02,1.647925615310668945e+00,-2.026312947273254395e-01
-8.863178640604019165e-02,1.649820566177368164e+00,-1.445485204458236694e-01
-8.874212950468063354e-02,1.651874542236328125e+00,-8.669578284025192261e-02
-8.885072916746139526e-02,1.653896093368530273e+00,-2.891044877469539642e-02
-8.895784616470336914e-02,1.655889987945556641e+00,2.894530259072780609e-02
-8.907438069581985474e-02,1.658059120178222656e+00,8.702037483453750610e-02
-8.917972445487976074e-02,1.660019993782043457e+00,1.454421430826187134e-01
-8.929893374443054199e-02,1.662239074707031250e+00,2.043913006782531738e-01
-8.939092606306076050e-02,1.663951516151428223e+00,2.639236450195312500e-01
-8.952637761831283569e-02,1.666472673416137695e+00,3.243961036205291748e-01
-8.962336182594299316e-02,1.668278098106384277e+00,3.857071399688720703e-01
-1.121128350496292114e-01,1.646589875221252441e+00,-4.422232806682586670e-01
-1.122550964355468750e-01,1.648679256439208984e+00,-3.815082907676696777e-01
-1.123865470290184021e-01,1.650609850883483887e+00,-3.215884268283843994e-01
-1.125144585967063904e-01,1.652488470077514648e+00,-2.623340487480163574e-01
-1.126595810055732727e-01,1.654619932174682617e+00,-2.036318480968475342e-01
-1.127998456358909607e-01,1.656679987907409668e+00,-1.452760845422744751e-01
-1.129382476210594177e-01,1.658712625503540039e+00,-8.713058382272720337e-02
-1.130764707922935486e-01,1.660742759704589844e+00,-2.905544638633728027e-02
-1.132148355245590210e-01,1.662774920463562012e+00,2.909099869430065155e-02
-1.133523508906364441e-01,1.664794564247131348e+00,8.745005726814270020e-02
-1.134866625070571899e-01,1.666767120361328125e+00,1.461606323719024658e-01
-1.136407852172851562e-01,1.669030785560607910e+00,2.054053843021392822e-01
-1.137945652008056641e-01,1.671289205551147461e+00,2.653186917304992676e-01
-1.139413043856620789e-01,1.673444390296936035e+00,3.260372877120971680e-01
-1.140731573104858398e-01,1.675380945205688477e+00,3.876871168613433838e-01
-1.363244056701660156e-01,1.652782917022705078e+00,-4.443650543689727783e-01
-1.364911645650863647e-01,1.654804587364196777e+00,-3.833385109901428223e-01
-1.366469562053680420e-01,1.656693458557128906e+00,-3.231216371059417725e-01
-1.368259638547897339e-01,1.658863663673400879e+00,-2.636300325393676758e-01
-1.369958966970443726e-01,1.660924077033996582e+00,-2.046280652284622192e-01
-1.371620744466781616e-01,1.662938714027404785e+00,-1.459821313619613647e-01
-1.373281627893447876e-01,1.664952278137207031e+00,-8.755263686180114746e-02
-1.374962329864501953e-01,1.666990041732788086e+00,-2.919618599116802216e-02
-1.376667022705078125e-01,1.669056773185729980e+00,2.923238463699817657e-02
-1.378383487462997437e-01,1.671137809753417969e+00,8.787789940834045410e-02
-1.380082517862319946e-01,1.673197746276855469e+00,1.468827277421951294e-01
-1.381719410419464111e-01,1.675182223320007324e+00,2.063846886157989502e-01
-1.383630037307739258e-01,1.677498698234558105e+00,2.665915489196777344e-01
-1.385477632284164429e-01,1.679738759994506836e+00,3.276163935661315918e-01
-1.387165039777755737e-01,1.681784510612487793e+00,3.895884454250335693e-01
-1.608733236789703369e-01,1.660034894943237305e+00,-4.468881189823150635e-01
-1.610616594552993774e-01,1.661978125572204590e+00,-3.854948282241821289e-01
-1.612398028373718262e-01,1.663816452026367188e+00,-3.249277770519256592e-01
-1.614483594894409180e-01,1.665968537330627441e+00,-2.650992274284362793e-01
-1.616490632295608521e-01,1.668039560317993164e+00,-2.057686746120452881e-01
-1.618611514568328857e-01,1.670228004455566406e+00,-1.468103677034378052e-01
-1.620542854070663452e-01,1.672221064567565918e+00,-8.804782480001449585e-02
-1.622526198625564575e-01,1.674267649650573730e+00,-2.936131693422794342e-02
-1.624566763639450073e-01,1.676373243331909180e+00,2.939824201166629791e-02
-1.626430749893188477e-01,1.678296685218811035e+00,8.836772292852401733e-02
-1.628434360027313232e-01,1.680364131927490234e+00,1.477013081312179565e-01
-1.630392819643020630e-01,1.682385087013244629e+00,2.075383365154266357e-01
-1.632704883813858032e-01,1.684770941734313965e+00,2.680911719799041748e-01
-1.634971201419830322e-01,1.687109470367431641e+00,3.294766843318939209e-01
-1.637075245380401611e-01,1.689280629158020020e+00,3.918276429176330566e-01
-1.856171041727066040e-01,1.666557431221008301e+00,-4.493131935596466064e-01
-1.858267933130264282e-01,1.668440103530883789e+00,-3.875709176063537598e-01
-1.860721260309219360e-01,1.670642852783203125e+00,-3.267475664615631104e-01
-1.863015741109848022e-01,1.672702908515930176e+00,-2.665678858757019043e-01
-1.865245997905731201e-01,1.674705386161804199e+00,-2.068991214036941528e-01
-1.867486089468002319e-01,1.676716685295104980e+00,-1.476005464792251587e-01
-1.869836896657943726e-01,1.678827285766601562e+00,-8.852751553058624268e-02
-1.872125416994094849e-01,1.680882096290588379e+00,-2.952128089964389801e-02
-1.874356716871261597e-01,1.682885289192199707e+00,2.955646440386772156e-02
-1.876716464757919312e-01,1.685003995895385742e+00,8.885322511196136475e-02
-1.879114657640457153e-01,1.687157273292541504e+00,1.485196202993392944e-01
-1.881488263607025146e-01,1.689288377761840820e+00,2.087007611989974976e-01
-1.883753091096878052e-01,1.691321849822998047e+00,2.695350646972656250e-01
-1.886444985866546631e-01,1.693738818168640137e+00,3.312647044658660889e-01
-1.888978332281112671e-01,1.696013331413269043e+00,3.939760327339172363e-01
-2.106478661298751831e-01,1.673246383666992188e+00,-4.518831968307495117e-01
-2.108777463436126709e-01,1.675072431564331055e+00,-3.897728323936462402e-01
-2.111515253782272339e-01,1.677247166633605957e+00,-3.285967111587524414e-01
-2.114104479551315308e-01,1.679303765296936035e+00,-2.680746018886566162e-01
-2.116939723491668701e-01,1.681555986404418945e+00,-2.080985158681869507e-01
-2.119417935609817505e-01,1.683524489402770996e+00,-1.484516710042953491e-01
-2.122054845094680786e-01,1.685619115829467773e+00,-8.903670310974121094e-02
-2.124652415513992310e-01,1.687682390213012695e+00,-2.969108521938323975e-02
-2.127215713262557983e-01,1.689718484878540039e+00,2.972690574824810028e-02
-2.129958420991897583e-01,1.691897153854370117e+00,8.936832100152969360e-02
-2.132373005151748657e-01,1.693815112113952637e+00,1.493590921163558960e-01
-2.135081440210342407e-01,1.695966482162475586e+00,2.098818570375442505e-01
-2.137698531150817871e-01,1.698045372962951660e+00,2.710663974285125732e-01
-2.140835672616958618e-01,1.700537323951721191e+00,3.331595659255981445e-01
-2.142987847328186035e-01,1.702246785163879395e+00,3.960960209369659424e-01
-2.359866350889205933e-01,1.680119037628173828e+00,-4.546048939228057861e-01
-2.363051623106002808e-01,1.682386875152587891e+00,-3.922216892242431641e-01
-2.365951538085937500e-01,1.684451460838317871e+00,-3.306377232074737549e-01
-2.368715405464172363e-01,1.686419248580932617e+00,-2.697240710258483887e-01
-2.371467947959899902e-01,1.688378930091857910e+00,-2.093414962291717529e-01
-2.374497801065444946e-01,1.690536022186279297e+00,-1.493543386459350586e-01
-2.377418279647827148e-01,1.692615270614624023e+00,-8.957681804895401001e-02
-2.380328178405761719e-01,1.694687008857727051e+00,-2.987119555473327637e-02
-2.383234351873397827e-01,1.696756005287170410e+00,2.990766428411006927e-02
-2.386051565408706665e-01,1.698761820793151855e+00,8.990211039781570435e-02
-2.389184683561325073e-01,1.700992465019226074e+00,1.502781361341476440e-01
-2.392358034849166870e-01,1.703251719474792480e+00,2.111855596303939819e-01
-2.395461350679397583e-01,1.705461144447326660e+00,2.727696001529693604e-01
-2.398357093334197998e-01,1.707522749900817871e+00,3.351663351058959961e-01
-2.400883138179779053e-01,1.709321260452270508e+00,3.985009789466857910e-01
-2.614778876304626465e-01,1.686045527458190918e+00,-4.571743309497833252e-01
-2.618246376514434814e-01,1.688281416893005371e+00,-3.944291770458221436e-01
-2.621430754661560059e-01,1.690334796905517578e+00,-3.324950039386749268e-01
-2.624500393867492676e-01,1.692314147949218750e+00,-2.712399363517761230e-01
-2.627950012683868408e-01,1.694538354873657227e+00,-2.105500251054763794e-01
-2.631241679191589355e-01,1.696660995483398438e+00,-1.502128094434738159e-01
-2.634444534778594971e-01,1.698726296424865723e+00,-9.009055793285369873e-02
-2.637669146060943604e-01,1.700805544853210449e+00,-3.004251420497894287e-02
-2.640923261642456055e-01,1.702903866767883301e+00,3.007957711815834045e-02
-2.644111514091491699e-01,1.704959750175476074e+00,9.042114764451980591e-02
-2.647179961204528809e-01,1.706938147544860840e+00,1.511227041482925415e-01
-2.650689184665679932e-01,1.709200978279113770e+00,2.123718857765197754e-01
-2.654156386852264404e-01,1.711436629295349121e+00,2.743048369884490967e-01
-2.657428085803985596e-01,1.713546276092529297e+00,3.370607793331146240e-01
-2.660322785377502441e-01,1.715412855148315430e+00,4.007678329944610596e-01
-2.874745428562164307e-01,1.693279385566711426e+00,-4.602043926715850830e-01
-2.878473997116088867e-01,1.695475578308105469e+00,-3.970318436622619629e-01
-2.881931066513061523e-01,1.697511792182922363e+00,-3.346838653087615967e-01
-2.885853648185729980e-01,1.699822187423706055e+00,-2.730773687362670898e-01
-2.889530658721923828e-01,1.701988101005554199e+00,-2.119678556919097900e-01
-2.893071770668029785e-01,1.704073905944824219e+00,-1.512202322483062744e-01
-2.896553277969360352e-01,1.706124544143676758e+00,-9.069350361824035645e-02
-2.900099158287048340e-01,1.708213210105895996e+00,-3.024358488619327545e-02
-2.903717160224914551e-01,1.710344195365905762e+00,3.028131462633609772e-02
-2.907301783561706543e-01,1.712455749511718750e+00,9.103006124496459961e-02
-2.910792827606201172e-01,1.714511990547180176e+00,1.521465182304382324e-01
-2.914097309112548828e-01,1.716458320617675781e+00,2.137699872255325317e-01
-2.917953431606292725e-01,1.718729615211486816e+00,2.761148810386657715e-01
-2.921635806560516357e-01,1.720898628234863281e+00,3.392948508262634277e-01
-2.926102876663208008e-01,1.723529696464538574e+00,4.036013185977935791e-01
-3.138490617275238037e-01,1.700749397277832031e+00,-4.634080827236175537e-01
-3.143417239189147949e-01,1.703419208526611328e+00,-3.999046683311462402e-01
-3.146985769271850586e-01,1.705352902412414551e+00,-3.370833992958068848e-01
-3.151107728481292725e-01,1.707586646080017090e+00,-2.750211656093597412e-01
-3.154562413692474365e-01,1.709458708763122559e+00,-2.134387344121932983e-01
-3.158518075942993164e-01,1.711602449417114258e+00,-1.522739231586456299e-01
-3.162452280521392822e-01,1.713734388351440430e+00,-9.132929891347885132e-02
-3.166323006153106689e-01,1.715831875801086426e+00,-3.045559301972389221e-02
-3.170139491558074951e-01,1.717900037765502930e+00,3.049230203032493591e-02
-3.173962831497192383e-01,1.719971776008605957e+00,9.166170656681060791e-02
-3.178340196609497070e-01,1.722343921661376953e+00,1.532295495271682739e-01
-3.182111680507659912e-01,1.724387764930725098e+00,2.153027206659317017e-01
-3.186532258987426758e-01,1.726783275604248047e+00,2.781129479408264160e-01
-3.189683556556701660e-01,1.728490948677062988e+00,3.416569232940673828e-01
-3.194691538810729980e-01,1.731204867362976074e+00,4.064277708530426025e-01
-3.404828011989593506e-01,1.707743763923645020e+00,-4.665939211845397949e-01
-3.408925235271453857e-01,1.709798693656921387e+00,-4.025066196918487549e-01
-3.412781655788421631e-01,1.711732983589172363e+00,-3.392753005027770996e-01
-3.417279720306396484e-01,1.713989019393920898e+00,-2.768117487430572510e-01
-3.421569168567657471e-01,1.716140508651733398e+00,-2.148624658584594727e-01
-3.425782024860382080e-01,1.718253493309020996e+00,-1.532861739397048950e-01
-3.430010676383972168e-01,1.720374464988708496e+00,-9.193538874387741089e-02
-3.434208631515502930e-01,1.722480058670043945e+00,-3.065770491957664490e-02
-3.438387513160705566e-01,1.724575996398925781e+00,3.069500997662544250e-02
-3.442612886428833008e-01,1.726695179939270020e+00,9.227316826581954956e-02
-3.446812331676483154e-01,1.728801608085632324e+00,1.542271822690963745e-01
-3.450874388217926025e-01,1.730839014053344727e+00,2.167027443647384644e-01
-3.455682694911956787e-01,1.733250617980957031e+00,2.799225151538848877e-01
-3.460367619991302490e-01,1.735600352287292480e+00,3.440059423446655273e-01
-3.464684486389160156e-01,1.737765669822692871e+00,4.090903699398040771e-01
-3.673736751079559326e-01,1.714289546012878418e+00,-4.697709977626800537e-01
-3.678107857704162598e-01,1.716329216957092285e+00,-4.052418470382690430e-01
-3.683175146579742432e-01,1.718693733215332031e+00,-3.416648805141448975e-01
-3.687869310379028320e-01,1.720884203910827637e+00,-2.787492871284484863e-01
-3.692377209663391113e-01,1.722987771034240723e+00,-2.163592875003814697e-01
-3.696841597557067871e-01,1.725070953369140625e+00,-1.543506085872650146e-01
-3.701363801956176758e-01,1.727181196212768555e+00,-9.257277101278305054e-02
-3.705894052982330322e-01,1.729295134544372559e+00,-3.087025322020053864e-02
-3.710444867610931396e-01,1.731418728828430176e+00,3.090816177427768707e-02
-3.715086877346038818e-01,1.733584761619567871e+00,9.291598945856094360e-02
-3.719742000102996826e-01,1.735757112503051758e+00,1.553067415952682495e-01
-3.724287152290344238e-01,1.737877964973449707e+00,2.182290852069854736e-01
-3.728557825088500977e-01,1.739870786666870117e+00,2.818247377872467041e-01
-3.733663558959960938e-01,1.742253303527832031e+00,3.463483750820159912e-01
-3.738415241241455078e-01,1.744470715522766113e+00,4.118863046169281006e-01
-3.949877917766571045e-01,1.722447872161865234e+00,-4.735074341297149658e-01
-3.955703377723693848e-01,1.724988102912902832e+00,-4.085812866687774658e-01
-3.960926234722137451e-01,1.727265834808349609e+00,-3.444607257843017578e-01
-3.965014815330505371e-01,1.729048609733581543e+00,-2.809622585773468018e-01
-3.970496058464050293e-01,1.731438994407653809e+00,-2.181118279695510864e-01
-3.975202143192291260e-01,1.733491063117980957e+00,-1.555971652269363403e-01
-3.980017900466918945e-01,1.735591173171997070e+00,-9.331930428743362427e-02
-3.984889090061187744e-01,1.737715482711791992e+00,-3.111919760704040527e-02
-3.989830315113067627e-01,1.739870190620422363e+00,3.115778602659702301e-02
-3.994917869567871094e-01,1.742088675498962402e+00,9.366865456104278564e-02
-3.999282419681549072e-01,1.743991971015930176e+00,1.565397083759307861e-01
-4.005140960216522217e-01,1.746546745300292969e+00,2.200149744749069214e-01
-4.009963274002075195e-01,1.748649716377258301e+00,2.841473519802093506e-01
-4.014310240745544434e-01,1.750545263290405273e+00,3.491032421588897705e-01
-4.019539058208465576e-01,1.752825379371643066e+00,4.151748418807983398e-01
-4.228708446025848389e-01,1.730003833770751953e+00,-4.771996140480041504e-01
-4.233409464359283447e-01,1.731927037239074707e+00,-4.116179347038269043e-01
-4.239012598991394043e-01,1.734219312667846680e+00,-3.470219075679779053e-01
-4.244277477264404297e-01,1.736373186111450195e+00,-2.831106483936309814e-01
-4.249421358108520508e-01,1.738477706909179688e+00,-2.197421938180923462e-01
-4.254969358444213867e-01,1.740747451782226562e+00,-1.567790955305099487e-01
-4.260080158710479736e-01,1.742838263511657715e+00,-9.402719140052795410e-02
-4.265294969081878662e-01,1.744971632957458496e+00,-3.135526180267333984e-02
-4.270628392696380615e-01,1.747153520584106445e+00,3.139447048306465149e-02
-4.275557994842529297e-01,1.749170303344726562e+00,9.436880797147750854e-02
-4.280960261821746826e-01,1.751380443572998047e+00,1.577367484569549561e-01
-4.286331534385681152e-01,1.753577947616577148e+00,2.216508686542510986e-01
-4.291479587554931641e-01,1.755684137344360352e+00,2.862592041492462158e-01
-4.297691881656646729e-01,1.758225560188293457e+00,3.518256247043609619e-01
-4.303586483001708984e-01,1.760637044906616211e+00,4.184412956237792969e-01
-4.510566592216491699e-01,1.737135767936706543e+00,-4.808984696865081787e-01
-4.516934454441070557e-01,1.739588141441345215e+00,-4.149327576160430908e-01
-4.522697925567626953e-01,1.741807818412780762e+00,-3.497999012470245361e-01
-4.528140127658843994e-01,1.743903756141662598e+00,-2.853659987449645996e-01
-4.533494412899017334e-01,1.745965838432312012e+00,-2.214862257242202759e-01
-4.539328217506408691e-01,1.748212575912475586e+00,-1.580204218626022339e-01
-4.544735252857208252e-01,1.750294923782348633e+00,-9.477072209119796753e-02
-4.550298750400543213e-01,1.752437591552734375e+00,-3.160321339964866638e-02
-4.556033611297607422e-01,1.754646301269531250e+00,3.164304420351982117e-02
-4.561379551887512207e-01,1.756705164909362793e+00,9.511780738830566406e-02
-4.567277729511260986e-01,1.758976697921752930e+00,1.589933931827545166e-01
-4.573186039924621582e-01,1.761252045631408691e+00,2.234253734350204468e-01
-4.578895866870880127e-01,1.763451099395751953e+00,2.885646522045135498e-01
-4.584149420261383057e-01,1.765474319458007812e+00,3.545527756214141846e-01
-4.590508937835693359e-01,1.767923593521118164e+00,4.216914474964141846e-01
-4.798846244812011719e-01,1.745092868804931641e+00,-4.849531054496765137e-01
-4.803889691829681396e-01,1.746927022933959961e+00,-4.182804822921752930e-01
-4.810058772563934326e-01,1.749170303344726562e+00,-3.526250123977661133e-01
-4.816886484622955322e-01,1.751653194427490234e+00,-2.877328395843505859e-01
-4.822447001934051514e-01,1.753675341606140137e+00,-2.233169674873352051e-01
-4.828564524650573730e-01,1.755899906158447266e+00,-1.593236774206161499e-01
-4.834269881248474121e-01,1.757974624633789062e+00,-9.555141627788543701e-02
-4.840187728404998779e-01,1.760126590728759766e+00,-3.186355158686637878e-02
-4.846335053443908691e-01,1.762362122535705566e+00,3.190401941537857056e-02
-4.852110147476196289e-01,1.764462232589721680e+00,9.590404480695724487e-02
-4.858521819114685059e-01,1.766793847084045410e+00,1.603121459484100342e-01
-4.863754808902740479e-01,1.768696784973144531e+00,2.252298444509506226e-01
-4.869788885116577148e-01,1.770891070365905762e+00,2.908929288387298584e-01
-4.877135157585144043e-01,1.773562550544738770e+00,3.575423955917358398e-01
-4.882210195064544678e-01,1.775408029556274414e+00,4.250999391078948975e-01
-5.090504288673400879e-01,1.752641439437866211e+00,-4.890255331993103027e-01
-5.097421407699584961e-01,1.755023002624511719e+00,-4.219227433204650879e-01
-5.103746056556701660e-01,1.757200479507446289e+00,-3.556801676750183105e-01
-5.109800696372985840e-01,1.759285211563110352e+00,-2.901581823825836182e-01
-5.116579532623291016e-01,1.761619210243225098e+00,-2.252380847930908203e-01
-5.122541785240173340e-01,1.763671875000000000e+00,-1.606777012348175049e-01
-5.128988027572631836e-01,1.765891194343566895e+00,-9.637086093425750732e-02
-5.135266780853271484e-01,1.768052935600280762e+00,-3.213681280612945557e-02
-5.141392350196838379e-01,1.770162105560302734e+00,3.217514976859092712e-02
-5.148053765296936035e-01,1.772455453872680664e+00,9.672909975051879883e-02
-5.153967142105102539e-01,1.774491548538208008e+00,1.616634279489517212e-01
-5.160723328590393066e-01,1.776817560195922852e+00,2.271813303232192993e-01
-5.167350172996520996e-01,1.779099225997924805e+00,2.934260964393615723e-01
-5.173552632331848145e-01,1.781234741210937500e+00,3.605449795722961426e-01
-5.181107521057128906e-01,1.783835768699645996e+00,4.288496077060699463e-01
-5.389404892921447754e-01,1.761051774024963379e+00,-4.934740662574768066e-01
-5.394802093505859375e-01,1.762815475463867188e+00,-4.256089329719543457e-01
-5.402939319610595703e-01,1.765474438667297363e+00,-3.588835000991821289e-01
-5.409168004989624023e-01,1.767509579658508301e+00,-2.927615940570831299e-01
-5.416211485862731934e-01,1.769811272621154785e+00,-2.272534668445587158e-01
-5.422429442405700684e-01,1.771843075752258301e+00,-1.621126234531402588e-01
-5.429209470748901367e-01,1.774058341979980469e+00,-9.723071008920669556e-02
-5.435856580734252930e-01,1.776230454444885254e+00,-3.242355212569236755e-02
-5.442385077476501465e-01,1.778363823890686035e+00,3.246249258518218994e-02
-5.449530482292175293e-01,1.780698537826538086e+00,9.759463369846343994e-02
-5.455924272537231445e-01,1.782787799835205078e+00,1.631139963865280151e-01
-5.463259220123291016e-01,1.785184621810913086e+00,2.292274832725524902e-01
-5.468810796737670898e-01,1.786998629570007324e+00,2.959896326065063477e-01
-5.477333664894104004e-01,1.789783477783203125e+00,3.638250231742858887e-01
-5.483381748199462891e-01,1.791759848594665527e+00,4.325971603393554688e-01
-5.692089796066284180e-01,1.769069433212280273e+00,-4.979527592658996582e-01
-5.699586868286132812e-01,1.771399378776550293e+00,-4.296070635318756104e-01
-5.706511735916137695e-01,1.773551583290100098e+00,-3.621487021446228027e-01
-5.714370012283325195e-01,1.775993824005126953e+00,-2.954913675785064697e-01
-5.720857381820678711e-01,1.778010129928588867e+00,-2.293342053890228271e-01
-5.728154182434082031e-01,1.780277967453002930e+00,-1.636177599430084229e-01
-5.735272169113159180e-01,1.782490134239196777e+00,-9.813269972801208496e-02
-5.742293596267700195e-01,1.784672379493713379e+00,-3.272433578968048096e-02
-5.749235749244689941e-01,1.786830067634582520e+00,3.276389837265014648e-02
-5.756049156188964844e-01,1.788947463035583496e+00,9.848819673061370850e-02
-5.763766169548034668e-01,1.791345953941345215e+00,1.646349728107452393e-01
-5.770220756530761719e-01,1.793352127075195312e+00,2.313130646944046021e-01
-5.777780413627624512e-01,1.795701622962951660e+00,2.987703680992126465e-01
-5.784958600997924805e-01,1.797932505607604980e+00,3.671271204948425293e-01
-5.793753862380981445e-01,1.800665855407714844e+00,4.367049038410186768e-01
-6.002913713455200195e-01,1.777984976768493652e+00,-5.028293132781982422e-01
-6.010562181472778320e-01,1.780250430107116699e+00,-4.337956905364990234e-01
-6.017644405364990234e-01,1.782348036766052246e+00,-3.656662106513977051e-01
-6.025759577751159668e-01,1.784751534461975098e+00,-2.983529567718505859e-01
-6.032463312149047852e-01,1.786737084388732910e+00,-2.315498441457748413e-01
-6.040070652961730957e-01,1.788990378379821777e+00,-1.651961207389831543e-01
-6.047531962394714355e-01,1.791200280189514160e+00,-9.907862544059753418e-02
-6.054936051368713379e-01,1.793393254280090332e+00,-3.303977474570274353e-02
-6.062301397323608398e-01,1.795574784278869629e+00,3.307996317744255066e-02
-6.069573760032653809e-01,1.797728896141052246e+00,9.943974763154983521e-02
-6.077849864959716797e-01,1.800180077552795410e+00,1.662293821573257446e-01
-6.084830760955810547e-01,1.802247762680053711e+00,2.335599213838577271e-01
-6.093025803565979004e-01,1.804675102233886719e+00,3.016835153102874756e-01
-6.100859045982360840e-01,1.806995034217834473e+00,3.707228004932403564e-01
-6.107907295227050781e-01,1.809082746505737305e+00,4.408212900161743164e-01
-6.317992210388183594e-01,1.786524772644042969e+00,-5.077499151229858398e-01
-6.326123476028442383e-01,1.788824081420898438e+00,-4.380463957786560059e-01
-6.335333585739135742e-01,1.791428446769714355e+00,-3.693517148494720459e-01
-6.342430710792541504e-01,1.793435215950012207e+00,-3.012913167476654053e-01
-6.350631117820739746e-01,1.795754075050354004e+00,-2.338724136352539062e-01
-6.358552575111389160e-01,1.797994017601013184e+00,-1.668508499860763550e-01
-6.366364359855651855e-01,1.800202965736389160e+00,-1.000703945755958557e-01
-6.374158859252929688e-01,1.802406907081604004e+00,-3.337050229310989380e-02
-6.381956338882446289e-01,1.804611921310424805e+00,3.341132402420043945e-02
-6.389700174331665039e-01,1.806801557540893555e+00,1.004372015595436096e-01
-6.397258043289184570e-01,1.808938741683959961e+00,1.678664982318878174e-01
-6.406069993972778320e-01,1.811430454254150391e+00,2.359140664339065552e-01
-6.412917971611022949e-01,1.813366770744323730e+00,3.046397566795349121e-01
-6.421079635620117188e-01,1.815674662590026855e+00,3.743507266044616699e-01
-6.431141495704650879e-01,1.818519949913024902e+00,4.453182816505432129e-01
-6.634347438812255859e-01,1.793878674507141113e+00,-5.124863386154174805e-01
-6.642664670944213867e-01,1.796127557754516602e+00,-4.421178996562957764e-01
-6.652155518531799316e-01,1.798693895339965820e+00,-3.727746307849884033e-01
-6.659452319145202637e-01,1.800666928291320801e+00,-3.040764033794403076e-01
-6.667951345443725586e-01,1.802965044975280762e+00,-2.360303699970245361e-01
-6.676194071769714355e-01,1.805193781852722168e+00,-1.683885008096694946e-01
-6.684358119964599609e-01,1.807401180267333984e+00,-1.009920388460159302e-01
-6.692542433738708496e-01,1.809614181518554688e+00,-3.367784619331359863e-02
-6.700767874717712402e-01,1.811838388442993164e+00,3.371923789381980896e-02
-6.708974838256835938e-01,1.814057350158691406e+00,1.013639643788337708e-01
-6.717023253440856934e-01,1.816233754158020020e+00,1.694183051586151123e-01
-6.726433038711547852e-01,1.818777918815612793e+00,2.381004691123962402e-01
-6.733806133270263672e-01,1.820771574974060059e+00,3.074714541435241699e-01
-6.742601990699768066e-01,1.823149919509887695e+00,3.778430819511413574e-01
-6.750615239143371582e-01,1.825316667556762695e+00,4.493028223514556885e-01
-6.965205073356628418e-01,1.803567886352539062e+00,-5.180495381355285645e-01
-6.973695158958435059e-01,1.805766344070434570e+00,-4.469017088413238525e-01
-6.981656551361083984e-01,1.807827949523925781e+00,-3.767001032829284668e-01
-6.990953683853149414e-01,1.810235142707824707e+00,-3.073504865169525146e-01
-6.999752521514892578e-01,1.812513709068298340e+00,-2.385675907135009766e-01
-7.008323073387145996e-01,1.814732909202575684e+00,-1.701966077089309692e-01
-7.016852498054504395e-01,1.816941380500793457e+00,-1.020758673548698425e-01
-7.025444507598876953e-01,1.819166183471679688e+00,-3.403927013278007507e-02
-7.034121751785278320e-01,1.821413159370422363e+00,3.408131375908851624e-02
-7.042819857597351074e-01,1.823665380477905273e+00,1.024536192417144775e-01
-7.051393389701843262e-01,1.825885534286499023e+00,1.712425649166107178e-01
-7.059614062309265137e-01,1.828014135360717773e+00,2.406077831983566284e-01
-7.069383263587951660e-01,1.830543756484985352e+00,3.107985854148864746e-01
-7.078863978385925293e-01,1.832998752593994141e+00,3.819449841976165771e-01
-7.087557315826416016e-01,1.835249662399291992e+00,4.541984200477600098e-01
-7.301108241081237793e-01,1.812904119491577148e+00,-5.236793160438537598e-01
-7.312460541725158691e-01,1.815722942352294922e+00,-4.519098699092864990e-01
-7.320611476898193359e-01,1.817746758460998535e+00,-3.809112906455993652e-01
-7.330205440521240234e-01,1.820129036903381348e+00,-3.107798695564270020e-01
-7.339314818382263184e-01,1.822391033172607422e+00,-2.412256598472595215e-01
-7.348221540451049805e-01,1.824602603912353516e+00,-1.720910370349884033e-01
-7.357124090194702148e-01,1.826813101768493652e+00,-1.032114923000335693e-01
-7.366133332252502441e-01,1.829050064086914062e+00,-3.441797196865081787e-02
-7.375272512435913086e-01,1.831319451332092285e+00,3.446067497134208679e-02
-7.384473681449890137e-01,1.833604097366333008e+00,1.035951748490333557e-01
-7.393581271171569824e-01,1.835865736007690430e+00,1.731533408164978027e-01
-7.402356863021850586e-01,1.838044643402099609e+00,2.432976961135864258e-01
-7.412801980972290039e-01,1.840638160705566406e+00,3.142817318439483643e-01
-7.420250773429870605e-01,1.842487812042236328e+00,3.860957920551300049e-01
-7.432364821434020996e-01,1.845495700836181641e+00,4.593199491500854492e-01
-7.637762427330017090e-01,1.820849776268005371e+00,-5.290783047676086426e-01
-7.647045850753784180e-01,1.823063015937805176e+00,-4.564141929149627686e-01
-7.657809853553771973e-01,1.825629115104675293e+00,-3.848204910755157471e-01
-7.667715549468994141e-01,1.827990770339965820e+00,-3.139640390872955322e-01
-7.677145600318908691e-01,1.830238819122314453e+00,-2.436940521001815796e-01
-7.686395645141601562e-01,1.832444071769714355e+00,-1.738504767417907715e-01
-7.695673704147338867e-01,1.834656000137329102e+00,-1.042662560939788818e-01
-7.705098390579223633e-01,1.836902856826782227e+00,-3.476971015334129333e-02
-7.714691758155822754e-01,1.839189887046813965e+00,3.481299802660942078e-02
-7.724384665489196777e-01,1.841500759124755859e+00,1.046552583575248718e-01
-7.734013199806213379e-01,1.843796014785766602e+00,1.749274879693984985e-01
-7.743324637413024902e-01,1.846016049385070801e+00,2.457947582006454468e-01
-7.751980423927307129e-01,1.848079562187194824e+00,3.174143433570861816e-01
-7.762404084205627441e-01,1.850564599037170410e+00,3.900766074657440186e-01
-7.772046327590942383e-01,1.852863192558288574e+00,4.638748466968536377e-01
-7.992205023765563965e-01,1.831415534019470215e+00,-5.354174375534057617e-01
-8.001713752746582031e-01,1.833594441413879395e+00,-4.618708789348602295e-01
-8.012808561325073242e-01,1.836136817932128906e+00,-3.894130587577819824e-01
-8.023036122322082520e-01,1.838480472564697266e+00,-3.177054822444915771e-01
-8.032796978950500488e-01,1.840717196464538574e+00,-2.465948611497879028e-01
-8.042405247688293457e-01,1.842918872833251953e+00,-1.759183853864669800e-01
-8.052079081535339355e-01,1.845135688781738281e+00,-1.055060252547264099e-01
-8.061939477920532227e-01,1.847395062446594238e+00,-3.518313169479370117e-02
-8.072013258934020996e-01,1.849703669548034668e+00,3.522709384560585022e-02
-8.082228302955627441e-01,1.852044463157653809e+00,1.059010773897171021e-01
-8.092409968376159668e-01,1.854377388954162598e+00,1.770121753215789795e-01
-8.102292418479919434e-01,1.856642007827758789e+00,2.487282603979110718e-01
-8.111519813537597656e-01,1.858756542205810547e+00,3.212093710899353027e-01
-8.122638463973999023e-01,1.861304402351379395e+00,3.947506546974182129e-01
-8.132967352867126465e-01,1.863671302795410156e+00,4.694470465183258057e-01
-8.344144225120544434e-01,1.839775681495666504e+00,-5.412977933883666992e-01
-8.353900909423828125e-01,1.841926932334899902e+00,-4.669339358806610107e-01
-8.365345001220703125e-01,1.844450235366821289e+00,-3.936752676963806152e-01
-8.374205827713012695e-01,1.846403837203979492e+00,-3.211131989955902100e-01
-8.386014103889465332e-01,1.849007487297058105e+00,-2.492879927158355713e-01
-8.395985960960388184e-01,1.851206064224243164e+00,-1.778383851051330566e-01
-8.406054973602294922e-01,1.853426218032836914e+00,-1.066571548581123352e-01
-8.416351079940795898e-01,1.855696439743041992e+00,-3.556700795888900757e-02
-8.426898717880249023e-01,1.858021974563598633e+00,3.561158105731010437e-02
-8.437620997428894043e-01,1.860386133193969727e+00,1.070576682686805725e-01
-8.446614742279052734e-01,1.862369179725646973e+00,1.789107769727706909e-01
-8.458770513534545898e-01,1.865049362182617188e+00,2.514508068561553955e-01
-8.468546271324157715e-01,1.867204666137695312e+00,3.247307240962982178e-01
-8.480328321456909180e-01,1.869802474975585938e+00,3.990864157676696777e-01
-8.491307497024536133e-01,1.872223377227783203e+00,4.746141433715820312e-01
-8.716357350349426270e-01,1.850952982902526855e+00,-5.482009053230285645e-01
-8.726376891136169434e-01,1.853080630302429199e+00,-4.728793501853942871e-01
-8.738189339637756348e-01,1.855589032173156738e+00,-3.986814320087432861e-01
-8.747324347496032715e-01,1.857528805732727051e+00,-3.251921236515045166e-01
-8.758294582366943359e-01,1.859858393669128418e+00,-2.524152398109436035e-01
-8.769934177398681641e-01,1.862330079078674316e+00,-1.800944805145263672e-01
-8.780421614646911621e-01,1.864557266235351562e+00,-1.080098673701286316e-01
-8.791176080703735352e-01,1.866840958595275879e+00,-3.601809591054916382e-02
-8.802223801612854004e-01,1.869186997413635254e+00,3.606335818767547607e-02
-8.812190294265747070e-01,1.871303439140319824e+00,1.084006652235984802e-01
-8.822965025901794434e-01,1.873591423034667969e+00,1.811834871768951416e-01
-8.835785388946533203e-01,1.876313924789428711e+00,2.546485364437103271e-01
-8.846139907836914062e-01,1.878512740135192871e+00,3.288657069206237793e-01
-8.858622908592224121e-01,1.881163597106933594e+00,4.041762351989746094e-01
-8.870294690132141113e-01,1.883642196655273438e+00,4.806782007217407227e-01
-9.095295667648315430e-01,1.861813187599182129e+00,-5.552162528038024902e-01
-9.108968377113342285e-01,1.864612102508544922e+00,-4.791000783443450928e-01
-9.118797779083251953e-01,1.866624236106872559e+00,-4.038153290748596191e-01
-9.130607843399047852e-01,1.869041681289672852e+00,-3.294618725776672363e-01
-9.141983389854431152e-01,1.871370315551757812e+00,-2.557273209095001221e-01
-9.154082536697387695e-01,1.873847007751464844e+00,-1.824565976858139038e-01
-9.165005087852478027e-01,1.876082897186279297e+00,-1.094262301921844482e-01
-9.176231026649475098e-01,1.878380775451660156e+00,-3.649041056632995605e-02
-9.187790155410766602e-01,1.880746960639953613e+00,3.653637692332267761e-02
-9.198243021965026855e-01,1.882886648178100586e+00,1.098230704665184021e-01
-9.209566116333007812e-01,1.885204553604125977e+00,1.835624724626541138e-01
-9.220646619796752930e-01,1.887472748756408691e+00,2.579277753829956055e-01
-9.233989715576171875e-01,1.890204071998596191e+00,3.331922292709350586e-01
-9.243750572204589844e-01,1.892202019691467285e+00,4.093486964702606201e-01
-9.255624413490295410e-01,1.894632697105407715e+00,4.868136644363403320e-01
-9.473685622215270996e-01,1.870893120765686035e+00,-5.619102716445922852e-01
-9.487820267677307129e-01,1.873684525489807129e+00,-4.848708808422088623e-01
-9.497962594032287598e-01,1.875687360763549805e+00,-4.086751937866210938e-01
-9.510188102722167969e-01,1.878101706504821777e+00,-3.334242403507232666e-01
-9.521977901458740234e-01,1.880430102348327637e+00,-2.588013410568237305e-01
-9.534546732902526855e-01,1.882912158966064453e+00,-1.846491843461990356e-01
-9.545901417732238770e-01,1.885154485702514648e+00,-1.107409596443176270e-01
-9.557594060897827148e-01,1.887463688850402832e+00,-3.692883625626564026e-02
-9.569656848907470703e-01,1.889845728874206543e+00,3.697544336318969727e-02
-9.580580592155456543e-01,1.892003059387207031e+00,1.111432686448097229e-01
-9.592432379722595215e-01,1.894343614578247070e+00,1.857702136039733887e-01
-9.604050517082214355e-01,1.896638035774230957e+00,2.610320150852203369e-01
-9.618048667907714844e-01,1.899402379989624023e+00,3.372057974338531494e-01
-9.628325104713439941e-01,1.901431798934936523e+00,4.142843782901763916e-01
-9.640825986862182617e-01,1.903900504112243652e+00,4.926901459693908691e-01
-9.876681566238403320e-01,1.883111834526062012e+00,-5.697676539421081543e-01
-9.891319274902343750e-01,1.885902643203735352e+00,-4.916461110115051270e-01
-9.901805520057678223e-01,1.887902021408081055e+00,-4.143820703029632568e-01
-9.914483428001403809e-01,1.890319228172302246e+00,-3.380779922008514404e-01
-9.926723837852478027e-01,1.892652988433837891e+00,-2.624121904373168945e-01
-9.939792156219482422e-01,1.895144581794738770e+00,-1.872248053550720215e-01
-9.951615333557128906e-01,1.897398829460144043e+00,-1.122854873538017273e-01
-9.963805675506591797e-01,1.899723052978515625e+00,-3.744389489293098450e-02
-9.976397156715393066e-01,1.902123808860778809e+00,3.749121353030204773e-02
-9.987820982933044434e-01,1.904301881790161133e+00,1.126940026879310608e-01
-1.000022888183593750e+00,1.906667709350585938e+00,1.883631944656372070e-01
-1.001241087913513184e+00,1.908990383148193359e+00,2.646773159503936768e-01
-1.002709507942199707e+00,1.911789894104003906e+00,3.419179618358612061e-01
-1.003790974617004395e+00,1.913851857185363770e+00,4.200778901576995850e-01
-1.005106091499328613e+00,1.916359305381774902e+00,4.995860159397125244e-01
-1.027492761611938477e+00,1.892683267593383789e+00,-5.770543813705444336e-01
-1.029009342193603516e+00,1.895476818084716797e+00,-4.979307353496551514e-01
-1.030094623565673828e+00,1.897476077079772949e+00,-4.196767807006835938e-01
-1.031409144401550293e+00,1.899897456169128418e+00,-3.423962891101837158e-01
-1.032679319381713867e+00,1.902237176895141602e+00,-2.657631635665893555e-01
-1.034036636352539062e+00,1.904737472534179688e+00,-1.896152645349502563e-01
-1.035265445709228516e+00,1.907000780105590820e+00,-1.137189939618110657e-01
-1.036533832550048828e+00,1.909337282180786133e+00,-3.792193531990051270e-02
-1.037844896316528320e+00,1.911752462387084961e+00,3.796990215778350830e-02
-1.039035558700561523e+00,1.913945674896240234e+00,1.141331344842910767e-01
-1.040329933166503906e+00,1.916329860687255859e+00,1.907692700624465942e-01
-1.041601538658142090e+00,1.918672323226928711e+00,2.680593430995941162e-01
-1.043135046958923340e+00,1.921497106552124023e+00,3.462889194488525391e-01
-1.044266581535339355e+00,1.923581242561340332e+00,4.254506230354309082e-01
-1.045642495155334473e+00,1.926115751266479492e+00,5.059794187545776367e-01
-1.068333268165588379e+00,1.902461290359497070e+00,-5.846378803253173828e-01
-1.069567441940307617e+00,1.904659032821655273e+00,-5.043128728866577148e-01
-1.071031332015991211e+00,1.907265901565551758e+00,-4.251891672611236572e-01
-1.072395443916320801e+00,1.909695148468017578e+00,-3.468927741050720215e-01
-1.073714137077331543e+00,1.912043452262878418e+00,-2.692527770996093750e-01
-1.075124263763427734e+00,1.914554595947265625e+00,-1.921048164367675781e-01
-1.076401233673095703e+00,1.916828632354736328e+00,-1.152120083570480347e-01
-1.077719807624816895e+00,1.919176816940307617e+00,-3.841980546712875366e-02
-1.079083800315856934e+00,1.921605706214904785e+00,3.846842795610427856e-02
-1.080323219299316406e+00,1.923812866210937500e+00,1.156317964196205139e-01
-1.081671237945556641e+00,1.926213383674621582e+00,1.932746320962905884e-01
-1.082996249198913574e+00,1.928572893142700195e+00,2.715804576873779297e-01
-1.084250092506408691e+00,1.930805802345275879e+00,3.507274687290191650e-01
-1.085774660110473633e+00,1.933520674705505371e+00,4.310421645641326904e-01
-1.087210059165954590e+00,1.936076760292053223e+00,5.126315355300903320e-01
-1.112130641937255859e+00,1.915706515312194824e+00,-5.935392975807189941e-01
-1.113414168357849121e+00,1.917917609214782715e+00,-5.119907259941101074e-01
-1.114937067031860352e+00,1.920540928840637207e+00,-4.316620528697967529e-01
-1.116356492042541504e+00,1.922985792160034180e+00,-3.521734774112701416e-01
-1.117728590965270996e+00,1.925349354743957520e+00,-2.733514308929443359e-01
-1.119196057319641113e+00,1.927877306938171387e+00,-1.950290054082870483e-01
-1.120525240898132324e+00,1.930166721343994141e+00,-1.169657334685325623e-01
-1.121898174285888672e+00,1.932531714439392090e+00,-3.900462761521339417e-02
-1.123318314552307129e+00,1.934978008270263672e+00,3.905400261282920837e-02
-1.124609231948852539e+00,1.937201619148254395e+00,1.173920333385467529e-01
-1.126013040542602539e+00,1.939619779586791992e+00,1.962169110774993896e-01
-1.127393364906311035e+00,1.941997408866882324e+00,2.757150530815124512e-01
-1.128699779510498047e+00,1.944247841835021973e+00,3.560673594474792480e-01
-1.130288124084472656e+00,1.946983933448791504e+00,4.376054108142852783e-01
-1.131783843040466309e+00,1.949560284614562988e+00,5.204377770423889160e-01
-1.155281782150268555e+00,1.926013469696044922e+00,-6.017943620681762695e-01
-1.156617522239685059e+00,1.928240418434143066e+00,-5.191126465797424316e-01
-1.158201336860656738e+00,1.930880784988403320e+00,-4.376672804355621338e-01
-1.159677267074584961e+00,1.933341503143310547e+00,-3.570733368396759033e-01
-1.161103844642639160e+00,1.935719728469848633e+00,-2.771548926830291748e-01
-1.162629008293151855e+00,1.938262462615966797e+00,-1.977428197860717773e-01
-1.164010167121887207e+00,1.940564990043640137e+00,-1.185933426022529602e-01
-1.165436506271362305e+00,1.942942738533020020e+00,-3.954739123582839966e-02
-1.166911721229553223e+00,1.945402264595031738e+00,3.959745168685913086e-02
-1.168251872062683105e+00,1.947636485099792480e+00,1.190254986286163330e-01
-1.169709324836730957e+00,1.950066328048706055e+00,1.989470571279525757e-01
-1.171141862869262695e+00,1.952454447746276855e+00,2.795509696006774902e-01
-1.172497391700744629e+00,1.954714298248291016e+00,3.610207140445709229e-01
-1.174145340919494629e+00,1.957461714744567871e+00,4.436922669410705566e-01
-1.175696730613708496e+00,1.960048079490661621e+00,5.276757478713989258e-01
-1.201773524284362793e+00,1.940026164054870605e+00,-6.114847660064697266e-01
-1.203550100326538086e+00,1.942894220352172852e+00,-5.276414155960083008e-01
-1.204822182655334473e+00,1.944947719573974609e+00,-4.447191357612609863e-01
-1.206361770629882812e+00,1.947433114051818848e+00,-3.628278970718383789e-01
-1.207849144935607910e+00,1.949834108352661133e+00,-2.816222906112670898e-01
-1.209437727928161621e+00,1.952398657798767090e+00,-2.009305208921432495e-01
-1.210875749588012695e+00,1.954720020294189453e+00,-1.205052435398101807e-01
-1.212359786033630371e+00,1.957115650177001953e+00,-4.018496349453926086e-02
-1.213893294334411621e+00,1.959591150283813477e+00,4.023579508066177368e-02
-1.215285301208496094e+00,1.961838364601135254e+00,1.209440752863883972e-01
-1.216798305511474609e+00,1.964280843734741211e+00,2.021533697843551636e-01
-1.218284487724304199e+00,1.966679930686950684e+00,2.840554118156433105e-01
-1.220076203346252441e+00,1.969572305679321289e+00,3.669526875019073486e-01
-1.221397399902343750e+00,1.971705079078674316e+00,4.508373141288757324e-01
-1.223004221916198730e+00,1.974298954010009766e+00,5.361701250076293945e-01
-1.247486829757690430e+00,1.950887799263000488e+00,-6.204727888107299805e-01
-1.249340295791625977e+00,1.953786373138427734e+00,-5.354009866714477539e-01
-1.250668406486511230e+00,1.955863356590270996e+00,-4.512620270252227783e-01
-1.252272963523864746e+00,1.958372592926025391e+00,-3.681678473949432373e-01
-1.253821730613708496e+00,1.960794687271118164e+00,-2.857682108879089355e-01
-1.255474090576171875e+00,1.963378787040710449e+00,-2.038890421390533447e-01
-1.256968498229980469e+00,1.965715646743774414e+00,-1.222797334194183350e-01
-1.258508920669555664e+00,1.968124747276306152e+00,-4.077670350670814514e-02
-1.260099172592163086e+00,1.970611691474914551e+00,4.082822799682617188e-02
-1.261541366577148438e+00,1.972867012023925781e+00,1.227245926856994629e-01
-1.263107419013977051e+00,1.975316047668457031e+00,2.051286846399307251e-01
-1.264643907546997070e+00,1.977718949317932129e+00,2.882347404956817627e-01
-1.266495823860168457e+00,1.980615139007568359e+00,3.723493814468383789e-01
-1.267858505249023438e+00,1.982746124267578125e+00,4.574644863605499268e-01
-1.269515872001647949e+00,1.985337972640991211e+00,5.440471768379211426e-01
-1.296968579292297363e+00,1.965705156326293945e+00,-6.310250163078308105e-01
-1.298909783363342285e+00,1.968647360801696777e+00,-5.445123910903930664e-01
-1.300303578376770020e+00,1.970759749412536621e+00,-4.589461386203765869e-01
-1.301981806755065918e+00,1.973303318023681641e+00,-3.744398951530456543e-01
-1.303599476814270020e+00,1.975755095481872559e+00,-2.906381785869598389e-01
-1.305322408676147461e+00,1.978366374969482422e+00,-2.073644399642944336e-01
-1.306879043579101562e+00,1.980725765228271484e+00,-1.243643462657928467e-01
-1.308480620384216309e+00,1.983153104782104492e+00,-4.147185757756233215e-02
-1.310131669044494629e+00,1.985655426979064941e+00,4.152418673038482666e-02
-1.311626434326171875e+00,1.987920880317687988e+00,1.248161047697067261e-01
-1.313247084617614746e+00,1.990377187728881836e+00,2.086233645677566528e-01
-1.314834713935852051e+00,1.992783427238464355e+00,2.931430637836456299e-01
-1.316747307777404785e+00,1.995682239532470703e+00,3.786863684654235840e-01
-1.318149924278259277e+00,1.997807979583740234e+00,4.652450382709503174e-01
-1.319855809211730957e+00,2.000393629074096680e+00,5.532931685447692871e-01
-1.345522999763488770e+00,1.977144479751586914e+00,-6.408140659332275391e-01
-1.347553849220275879e+00,1.980128526687622070e+00,-5.529662966728210449e-01
-1.349014878273010254e+00,1.982275485992431641e+00,-4.660767912864685059e-01
-1.350767612457275391e+00,1.984850883483886719e+00,-3.802608549594879150e-01
-1.352455139160156250e+00,1.987330555915832520e+00,-2.951583564281463623e-01
-1.354248404502868652e+00,1.989965796470642090e+00,-2.105904221534729004e-01
-1.355866312980651855e+00,1.992343068122863770e+00,-1.262993514537811279e-01
-1.357528209686279297e+00,1.994785189628601074e+00,-4.211713746190071106e-02
-1.359238147735595703e+00,1.997297763824462891e+00,4.217018559575080872e-02
-1.360783338546752930e+00,1.999568343162536621e+00,1.267573684453964233e-01
-1.362455964088439941e+00,2.002026081085205078e+00,2.118667215108871460e-01
-1.364091634750366211e+00,2.004429578781127930e+00,2.976979017257690430e-01
-1.366060733795166016e+00,2.007323026657104492e+00,3.845660984516143799e-01
-1.367498755455017090e+00,2.009436130523681641e+00,4.724628627300262451e-01
-1.369248509407043457e+00,2.012007236480712891e+00,5.618687272071838379e-01
-1.398839712142944336e+00,1.993537902832031250e+00,-6.525499820709228516e-01
-1.400457978248596191e+00,1.995844006538391113e+00,-5.628951787948608398e-01
-1.402362465858459473e+00,1.998558282852172852e+00,-4.745761752128601074e-01
-1.403836131095886230e+00,2.000658512115478516e+00,-3.870992362499237061e-01
-1.405602097511291504e+00,2.003175258636474609e+00,-3.004688918590545654e-01
-1.407474279403686523e+00,2.005843162536621094e+00,-2.143806666135787964e-01
-1.409160375595092773e+00,2.008246183395385742e+00,-1.285729408264160156e-01
-1.410887598991394043e+00,2.010707855224609375e+00,-4.287531226873397827e-02
-1.412660598754882812e+00,2.013234376907348633e+00,4.292918741703033447e-02
-1.414258480072021484e+00,2.015511751174926758e+00,1.290380954742431641e-01
-1.415984630584716797e+00,2.017971754074096680e+00,2.156769335269927979e-01
-1.418037176132202148e+00,2.020896911621093750e+00,3.031270802021026611e-01
-1.419693112373352051e+00,2.023256778717041016e+00,3.914716839790344238e-01
-1.421688914299011230e+00,2.026101112365722656e+00,4.811164736747741699e-01
