2.027008056640625000e+00,1.144244480133056641e+01,-1.016669034957885742e+00
2.029519796371459961e+00,1.145662307739257812e+01,-6.097635030746459961e-01
2.032032728195190430e+00,1.147080898284912109e+01,-2.033407986164093018e-01
2.034553050994873047e+00,1.148503589630126953e+01,2.035930007696151733e-01
2.037062883377075195e+00,1.149920368194580078e+01,6.120297312736511230e-01
2.039519786834716797e+00,1.151307296752929688e+01,1.022944450378417969e+00
6.423487663269042969e-01,3.954792499542236328e+00,-1.073568701744079590e+00
7.646105289459228516e-01,4.707530021667480469e+00,-1.101059675216674805e+00
9.437347650527954102e-01,5.810356616973876953e+00,-1.144217848777770996e+00
1.218564629554748535e+00,7.502420425415039062e+00,-1.203836679458618164e+00
1.717324614524841309e+00,1.057316970825195312e+01,-1.315232872962951660e+00
1.854117751121520996e+00,1.141537380218505859e+01,-1.011802196502685547e+00
1.856361985206604004e+00,1.142919063568115234e+01,-6.068270206451416016e-01
1.858660817146301270e+00,1.144334411621093750e+01,-2.023615986108779907e-01
1.861019849777221680e+00,1.145786857604980469e+01,2.026184499263763428e-01
1.863208055496215820e+00,1.147134017944335938e+01,6.090649962425231934e-01
1.865529417991638184e+00,1.148563194274902344e+01,1.018029570579528809e+00
5.856090784072875977e-01,3.963087320327758789e+00,-1.073435068130493164e+00
6.985321044921875000e-01,4.727289676666259766e+00,-1.103229761123657227e+00
8.578122258186340332e-01,5.805212020874023438e+00,-1.140670061111450195e+00
1.110251545906066895e+00,7.513585567474365234e+00,-1.202955126762390137e+00
1.548039913177490234e+00,1.047630214691162109e+01,-1.300293684005737305e+00
1.682534337043762207e+00,1.138648700714111328e+01,-1.007004141807556152e+00
1.684638857841491699e+00,1.140073013305664062e+01,-6.039738059043884277e-01
1.686725139617919922e+00,1.141484832763671875e+01,-2.014101296663284302e-01
1.688796043395996094e+00,1.142886352539062500e+01,2.016574144363403320e-01
1.690994977951049805e+00,1.144374370574951172e+01,6.062525510787963867e-01
1.692971944808959961e+00,1.145712375640869141e+01,1.013251066207885742e+00
5.292797684669494629e-01,3.974444389343261719e+00,-1.074349164962768555e+00
6.285083889961242676e-01,4.719567775726318359e+00,-1.099215626716613770e+00
7.729659676551818848e-01,5.804321765899658203e+00,-1.138204574584960938e+00
1.002868533134460449e+00,7.530695915222167969e+00,-1.203273057937622070e+00
1.404330611228942871e+00,1.054533767700195312e+01,-1.306233644485473633e+00
1.512973308563232422e+00,1.136115264892578125e+01,-1.002745628356933594e+00
1.514826297760009766e+00,1.137506771087646484e+01,-6.014040112495422363e-01
1.516702651977539062e+00,1.138915634155273438e+01,-2.005532085895538330e-01
1.518604397773742676e+00,1.140343761444091797e+01,2.008046805858612061e-01
1.520483613014221191e+00,1.141754913330078125e+01,6.036500334739685059e-01
1.522309303283691406e+00,1.143125820159912109e+01,1.008933186531066895e+00
4.724777936935424805e-01,3.982745885848999023e+00,-1.074654936790466309e+00
5.622449517250061035e-01,4.739436626434326172e+00,-1.101855993270874023e+00
6.936544179916381836e-01,5.847151756286621094e+00,-1.144539117813110352e+00
8.946852087974548340e-01,7.541738033294677734e+00,-1.202868103981018066e+00
1.258371233940124512e+00,1.060742473602294922e+01,-1.311558723449707031e+00
1.344153642654418945e+00,1.133052730560302734e+01,-9.982421994209289551e-01
1.345825910568237305e+00,1.134462356567382812e+01,-5.987146496772766113e-01
1.347491145133972168e+00,1.135865974426269531e+01,-1.996561139822006226e-01
1.349155187606811523e+00,1.137268733978271484e+01,1.999026685953140259e-01
1.350836873054504395e+00,1.138686275482177734e+01,6.009438633918762207e-01
1.352508306503295898e+00,1.140095233917236328e+01,1.004446864128112793e+00
4.159583747386932373e-01,3.994189023971557617e+00,-1.076025962829589844e+00
4.927084445953369141e-01,4.731172561645507812e+00,-1.098182678222656250e+00
6.088129878044128418e-01,5.846052169799804688e+00,-1.142501115798950195e+00
7.871871590614318848e-01,7.558867931365966797e+00,-1.203679800033569336e+00
1.112203836441040039e+00,1.067980098724365234e+01,-1.318404316902160645e+00
1.177158713340759277e+00,1.130352210998535156e+01,-9.942767024040222168e-01
1.178592920303344727e+00,1.131729412078857422e+01,-5.963209271430969238e-01
1.180051326751708984e+00,1.133129787445068359e+01,-1.988579034805297852e-01
1.181539177894592285e+00,1.134558486938476562e+01,1.991086304187774658e-01
1.182931542396545410e+00,1.135895442962646484e+01,5.985161066055297852e-01
1.184430241584777832e+00,1.137334632873535156e+01,1.000418543815612793e+00
3.592907190322875977e-01,4.005751132965087891e+00,-1.077644944190979004e+00
4.264993071556091309e-01,4.755063533782958984e+00,-1.102198243141174316e+00
5.242364406585693359e-01,5.844739437103271484e+00,-1.140661358833312988e+00
6.795330643653869629e-01,7.576149940490722656e+00,-1.204759478569030762e+00
9.494422674179077148e-01,1.058538150787353516e+01,-1.304937124252319336e+00
1.011299371719360352e+00,1.127503013610839844e+01,-9.903957843780517578e-01
1.012578129768371582e+00,1.128928756713867188e+01,-5.940207242965698242e-01
1.013831138610839844e+00,1.130325698852539062e+01,-1.980908364057540894e-01
1.015061497688293457e+00,1.131697463989257812e+01,1.983312368392944336e-01
1.016382813453674316e+00,1.133170604705810547e+01,5.962527394294738770e-01
1.017577171325683594e+00,1.134502124786376953e+01,9.965438842773437500e-01
3.009370863437652588e-01,3.997378587722778320e+00,-1.074123620986938477e+00
3.576005697250366211e-01,4.750045776367187500e+00,-1.099736094474792480e+00
4.402405917644500732e-01,5.847761631011962891e+00,-1.139904618263244629e+00
5.721222758293151855e-01,7.599559307098388672e+00,-1.207056283950805664e+00
8.030018806457519531e-01,1.066635799407958984e+01,-1.313368201255798340e+00
8.469349741935729980e-01,1.124992561340332031e+01,-9.870246648788452148e-01
8.479865789413452148e-01,1.126389408111572266e+01,-5.919852852821350098e-01
8.490360379219055176e-01,1.127783393859863281e+01,-1.974121034145355225e-01
8.500859141349792480e-01,1.129178047180175781e+01,1.976562142372131348e-01
8.511287569999694824e-01,1.130563163757324219e+01,5.941788554191589355e-01
8.521469831466674805e-01,1.131915664672851562e+01,9.930987954139709473e-01
2.443445771932601929e-01,4.011928558349609375e+00,-1.076983332633972168e+00
2.910063564777374268e-01,4.778075218200683594e+00,-1.105147838592529297e+00
3.563287556171417236e-01,5.850612640380859375e+00,-1.139349460601806641e+00
4.590449333190917969e-01,7.537124633789062500e+00,-1.195973396301269531e+00
6.442573666572570801e-01,1.057815456390380859e+01,-1.301238775253295898e+00
6.836003065109252930e-01,1.122413158416748047e+01,-9.838023781776428223e-01
6.844334006309509277e-01,1.123781013488769531e+01,-5.900390744209289551e-01
6.852805614471435547e-01,1.125172042846679688e+01,-1.967631280422210693e-01
6.861438751220703125e-01,1.126589488983154297e+01,1.970110088586807251e-01
6.870171427726745605e-01,1.128023242950439453e+01,5.922664999961853027e-01
6.878857016563415527e-01,1.129449462890625000e+01,9.899697303771972656e-01
1.863479167222976685e-01,4.003136634826660156e+00,-1.073797106742858887e+00
2.221750915050506592e-01,4.772778034210205078e+00,-1.103074073791503906e+00
2.724765241146087646e-01,5.853356361389160156e+00,-1.139007568359375000e+00
3.519161343574523926e-01,7.559882640838623047e+00,-1.198662638664245605e+00
4.962145388126373291e-01,1.065970897674560547e+01,-1.310263037681579590e+00
5.212228298187255859e-01,1.119693851470947266e+01,-9.806645512580871582e-01
5.218846797943115234e-01,1.121115589141845703e+01,-5.881871581077575684e-01
5.225306749343872070e-01,1.122503376007080078e+01,-1.961455792188644409e-01
5.231616497039794922e-01,1.123858833312988281e+01,1.963824182748794556e-01
5.238255262374877930e-01,1.125284957885742188e+01,5.903745889663696289e-01
5.244979858398437500e-01,1.126729583740234375e+01,9.868267178535461426e-01
1.294360905885696411e-01,4.017814159393310547e+00,-1.077126860618591309e+00
1.535816937685012817e-01,4.767315387725830078e+00,-1.101190805435180664e+00
1.886561512947082520e-01,5.856058597564697266e+00,-1.138891220092773438e+00
2.442929148674011230e-01,7.583074092864990234e+00,-1.201662302017211914e+00
3.461191356182098389e-01,1.074385261535644531e+01,-1.319861650466918945e+00
3.598513603210449219e-01,1.117011356353759766e+01,-9.777638316154479980e-01
3.603004217147827148e-01,1.118405246734619141e+01,-5.864345431327819824e-01
3.607464134693145752e-01,1.119789695739746094e+01,-1.955611258745193481e-01
3.611900210380554199e-01,1.121166610717773438e+01,1.958016008138656616e-01
3.616194128990173340e-01,1.122499561309814453e+01,5.885813832283020020e-01
3.620901703834533691e-01,1.123960876464843750e+01,9.838469624519348145e-01
7.173223793506622314e-02,4.008767127990722656e+00,-1.074316143989562988e+00
8.520581573247909546e-02,4.761740207672119141e+00,-1.099508643150329590e+00
1.048361510038375854e-01,5.858784198760986328e+00,-1.139012932777404785e+00
1.361148804426193237e-01,7.606801509857177734e+00,-1.204990029335021973e+00
1.906107813119888306e-01,1.065231323242187500e+01,-1.308146953582763672e+00
1.993903815746307373e-01,1.114296245574951172e+01,-9.750374555587768555e-01
1.996347904205322266e-01,1.115662097930908203e+01,-5.847864747047424316e-01
1.998819708824157715e-01,1.117043399810791016e+01,-1.950115859508514404e-01
2.001321911811828613e-01,1.118441867828369141e+01,1.952557116746902466e-01
2.003788053989410400e-01,1.119820022583007812e+01,5.869659185409545898e-01
2.006177157163619995e-01,1.121155166625976562e+01,9.810392856597900391e-01
1.432644110172986984e-02,4.002399921417236328e+00,-1.072445034980773926e+00
1.703632995486259460e-02,4.759465217590332031e+00,-1.098814487457275391e+00
2.099640108644962311e-02,5.865797042846679688e+00,-1.140200972557067871e+00
2.701540477573871613e-02,7.547334671020507812e+00,-1.195386290550231934e+00
3.846371918916702271e-02,1.074566745758056641e+01,-1.319408535957336426e+00
3.979325667023658752e-02,1.111710357666015625e+01,-9.726253151893615723e-01
3.984327241778373718e-02,1.113107585906982422e+01,-5.833578705787658691e-01
3.989254683256149292e-02,1.114484214782714844e+01,-1.945348978042602539e-01
3.994126245379447937e-02,1.115845203399658203e+01,1.947724521160125732e-01
3.999005630612373352e-02,1.117208290100097656e+01,5.855069160461425781e-01
4.004521295428276062e-02,1.118749237060546875e+01,9.787836074829101562e-01
-4.312041401863098145e-02,4.017386913299560547e+00,-1.076515913009643555e+00
-5.139885097742080688e-02,4.788661956787109375e+00,-1.105611681938171387e+00
-6.299148499965667725e-02,5.868709087371826172e+00,-1.140825510025024414e+00
-8.126296103000640869e-02,7.571002960205078125e+00,-1.199196338653564453e+00
-1.143405362963676453e-01,1.065273189544677734e+01,-1.308064341545104980e+00
-1.190282851457595825e-01,1.108947372436523438e+01,-9.702576994895935059e-01
-1.191753670573234558e-01,1.110317707061767578e+01,-5.819255113601684570e-01
-1.193227693438529968e-01,1.111690998077392578e+01,-1.940572708845138550e-01
-1.194710284471511841e-01,1.113072299957275391e+01,1.942983865737915039e-01
-1.196220740675926208e-01,1.114479541778564453e+01,5.841067433357238770e-01
-1.197734102606773376e-01,1.115889453887939453e+01,9.763315320014953613e-01
-1.004754751920700073e-01,4.010875701904296875e+00,-1.075046420097351074e+00
-1.199049651622772217e-01,4.786480903625488281e+00,-1.105391144752502441e+00
-1.471958011388778687e-01,5.875902175903320312e+00,-1.142516255378723145e+00
-1.904053837060928345e-01,7.600783348083496094e+00,-1.204221725463867188e+00
-2.692379951477050781e-01,1.074769878387451172e+01,-1.320063471794128418e+00
-2.771579921245574951e-01,1.106385707855224609e+01,-9.682642817497253418e-01
-2.774950861930847168e-01,1.107731437683105469e+01,-5.807186961174011230e-01
-2.778383493423461914e-01,1.109101581573486328e+01,-1.936548501253128052e-01
-2.781889736652374268e-01,1.110501384735107422e+01,1.938992589712142944e-01
-2.785153687000274658e-01,1.111804294586181641e+01,5.828538537025451660e-01
-2.788695991039276123e-01,1.113218212127685547e+01,9.742438793182373047e-01
-1.576813459396362305e-01,4.004266262054443359e+00,-1.073769807815551758e+00
-1.883962750434875488e-01,4.784262180328369141e+00,-1.105388283729553223e+00
-2.316723614931106567e-01,5.883244037628173828e+00,-1.144471287727355957e+00
-2.969073355197906494e-01,7.539864540100097656e+00,-1.195120930671691895e+00
-4.198163151741027832e-01,1.066109848022460938e+01,-1.310030817985534668e+00
-4.346585273742675781e-01,1.103801155090332031e+01,-9.664478898048400879e-01
-4.351788759231567383e-01,1.105122566223144531e+01,-5.796182155609130859e-01
-4.357171952724456787e-01,1.106489562988281250e+01,-1.932878792285919189e-01
-4.362756311893463135e-01,1.107907676696777344e+01,1.935355961322784424e-01
-4.368035793304443359e-01,1.109248447418212891e+01,5.817821621894836426e-01
-4.373840689659118652e-01,1.110722541809082031e+01,9.725080132484436035e-01
-2.148978114128112793e-01,4.000176906585693359e+00,-1.073388099670410156e+00
-2.570703029632568359e-01,4.785189628601074219e+00,-1.106339335441589355e+00
-3.137387633323669434e-01,5.840034484863281250e+00,-1.136822938919067383e+00
-4.069354236125946045e-01,7.574826717376708984e+00,-1.201462864875793457e+00
-5.684746503829956055e-01,1.058176994323730469e+01,-1.301149487495422363e+00
-5.916292667388916016e-01,1.101277732849121094e+01,-9.648811221122741699e-01
-5.923737287521362305e-01,1.102663516998291016e+01,-5.787138938903808594e-01
-5.931066870689392090e-01,1.104027843475341797e+01,-1.929863691329956055e-01
-5.938295722007751465e-01,1.105373477935791016e+01,1.932215988636016846e-01
-5.946158170700073242e-01,1.106836986541748047e+01,5.809042453765869141e-01
-5.953269600868225098e-01,1.108160686492919922e+01,9.709115624427795410e-01
-2.719030380249023438e-01,3.993412494659423828e+00,-1.072507381439208984e+00
-3.232133388519287109e-01,4.747001647949218750e+00,-1.098467469215393066e+00
-3.981214165687561035e-01,5.847169399261474609e+00,-1.139204382896423340e+00
-5.178459882736206055e-01,7.605551719665527344e+00,-1.207388281822204590e+00
-7.270032167434692383e-01,1.067742347717285156e+01,-1.314056158065795898e+00
-7.480518817901611328e-01,1.098656272888183594e+01,-9.634237289428710938e-01
-7.489798665046691895e-01,1.100019168853759766e+01,-5.778295397758483887e-01
-7.499065995216369629e-01,1.101380252838134766e+01,-1.926914602518081665e-01
-7.508342862129211426e-01,1.102742767333984375e+01,1.929298341274261475e-01
-7.517563104629516602e-01,1.104096889495849609e+01,5.799715518951416016e-01
-7.526570558547973633e-01,1.105419826507568359e+01,9.693547487258911133e-01
-3.290292620658874512e-01,3.989116668701171875e+00,-1.072508692741394043e+00
-3.915879130363464355e-01,4.747570991516113281e+00,-1.099783539772033691e+00
-4.832054376602172852e-01,5.858332157135009766e+00,-1.142609715461730957e+00
-6.225961446762084961e-01,7.548291206359863281e+00,-1.199589848518371582e+00
-8.740311264991760254e-01,1.059666156768798828e+01,-1.305522918701171875e+00
-9.041333794593811035e-01,1.096161842346191406e+01,-9.622726440429687500e-01
-9.052404165267944336e-01,1.097504043579101562e+01,-5.771298408508300781e-01
-9.063605666160583496e-01,1.098862075805664062e+01,-1.924581527709960938e-01
-9.074966311454772949e-01,1.100239467620849609e+01,1.926994025707244873e-01
-9.086402654647827148e-01,1.101626014709472656e+01,5.792974233627319336e-01
-9.097725152969360352e-01,1.102998733520507812e+01,9.682744145393371582e-01
-3.859256803989410400e-01,3.982326030731201172e+00,-1.072058320045471191e+00
-4.598572850227355957e-01,4.745218276977539062e+00,-1.100650548934936523e+00
-5.684778690338134766e-01,5.866063117980957031e+00,-1.145587205886840820e+00
-7.345220446586608887e-01,7.579455375671386719e+00,-1.206089854240417480e+00
-1.036429286003112793e+00,1.069480419158935547e+01,-1.319306612014770508e+00
-1.094772696495056152e+00,1.129684352874755859e+01,-9.929744601249694824e-01
-1.096033215522766113e+00,1.130985069274902344e+01,-5.955000519752502441e-01
-1.097328662872314453e+00,1.132321834564208984e+01,-1.985731422901153564e-01
-1.098662495613098145e+00,1.133698272705078125e+01,1.988145262002944946e-01
-1.099879026412963867e+00,1.134953498840332031e+01,5.975895524024963379e-01
-1.101187467575073242e+00,1.136303710937500000e+01,9.987927079200744629e-01
-4.430531859397888184e-01,3.977939367294311523e+00,-1.072474718093872070e+00
-5.285826921463012695e-01,4.745863437652587891e+00,-1.102442145347595215e+00
-6.484002470970153809e-01,5.821641445159912109e+00,-1.138607978820800781e+00
-8.377410769462585449e-01,7.521632194519042969e+00,-1.198674082756042480e+00
-1.182026982307434082e+00,1.061279201507568359e+01,-1.311142563819885254e+00
-1.318647265434265137e+00,1.183943367004394531e+01,-1.042219519615173340e+00
-1.320250034332275391e+00,1.185382366180419922e+01,-6.250729560852050781e-01
-1.321807503700256348e+00,1.186780738830566406e+01,-2.084339410066604614e-01
-1.323327064514160156e+00,1.188145065307617188e+01,2.086735665798187256e-01
-1.324934363365173340e+00,1.189588165283203125e+01,6.272907853126525879e-01
-1.326568841934204102e+00,1.191055774688720703e+01,1.048480510711669922e+00
-5.002332925796508789e-01,3.973520278930664062e+00,-1.073103785514831543e+00
-5.975529551506042480e-01,4.746562957763671875e+00,-1.104478359222412109e+00
-7.343210577964782715e-01,5.832957267761230469e+00,-1.142759799957275391e+00
-9.514776468276977539e-01,7.557905197143554688e+00,-1.206501364707946777e+00
-1.325757503509521484e+00,1.053093528747558594e+01,-1.303240537643432617e+00
-1.567098379135131836e+00,1.244798564910888672e+01,-1.097652196884155273e+00
-1.568976163864135742e+00,1.246290206909179688e+01,-6.583075523376464844e-01
-1.570821762084960938e+00,1.247756195068359375e+01,-2.195154428482055664e-01
-1.572646379470825195e+00,1.249205589294433594e+01,2.197704315185546875e-01
-1.574600696563720703e+00,1.250757980346679688e+01,6.606674790382385254e-01
-1.576315522193908691e+00,1.252120113372802734e+01,1.104108214378356934e+00
-5.574919581413269043e-01,3.969092845916748047e+00,-1.073953151702880859e+00
-6.616296768188476562e-01,4.710506439208984375e+00,-1.098179459571838379e+00
-8.130056858062744141e-01,5.788236141204833984e+00,-1.136161684989929199e+00
-1.053376197814941406e+00,7.499566078186035156e+00,-1.199472427368164062e+00
-1.494079947471618652e+00,1.063718032836914062e+01,-1.318900108337402344e+00
-1.844784140586853027e+00,1.313403606414794922e+01,-1.160356998443603516e+00
-1.846963405609130859e+00,1.314955234527587891e+01,-6.959024667739868164e-01
-1.849130630493164062e+00,1.316498184204101562e+01,-2.320509552955627441e-01
-1.851298689842224121e+00,1.318041706085205078e+01,2.323230355978012085e-01
-1.853398680686950684e+00,1.319536876678466797e+01,6.983271241188049316e-01
-1.855740904808044434e+00,1.321204376220703125e+01,1.167248725891113281e+00
-6.151887178421020508e-01,3.966821908950805664e+00,-1.075611114501953125e+00
-7.310116887092590332e-01,4.713664531707763672e+00,-1.101242303848266602e+00
-8.999154567718505859e-01,5.802779197692871094e+00,-1.141427755355834961e+00
-1.169423699378967285e+00,7.540605545043945312e+00,-1.208589673042297363e+00
-1.637729525566101074e+00,1.056030654907226562e+01,-1.312140703201293945e+00
-2.144446849822998047e+00,1.382769012451171875e+01,-1.224225878715515137e+00
-2.146947145462036133e+00,1.384381198883056641e+01,-7.341952323913574219e-01
-2.149460315704345703e+00,1.386001777648925781e+01,-2.448191493749618530e-01
-2.152001857757568359e+00,1.387640571594238281e+01,2.451086193323135376e-01
-2.154489755630493164e+00,1.389244747161865234e+01,7.367746233940124512e-01
-6.727065443992614746e-01,3.962368726730346680e+00,-1.076904058456420898e+00
-8.003664016723632812e-01,4.714309215545654297e+00,-1.103956222534179688e+00
-9.871380925178527832e-01,5.814429759979248047e+00,-1.146381258964538574e+00
-1.270212769508361816e+00,7.481792926788330078e+00,-1.201954245567321777e+00
-1.778826713562011719e+00,1.047762489318847656e+01,-1.304897308349609375e+00
-2.360336065292358398e+00,1.390282535552978516e+01,-1.233742594718933105e+00
-2.363205909729003906e+00,1.391972923278808594e+01,-7.399396300315856934e-01
-2.366130113601684570e+00,1.393695259094238281e+01,-2.467510551214218140e-01
-2.369112014770507812e+00,1.395451736450195312e+01,2.470620274543762207e-01
-2.372066736221313477e+00,1.397192096710205078e+01,7.427139878273010254e-01
-7.303889989852905273e-01,3.957981348037719727e+00,-1.078442573547363281e+00
-8.632474541664123535e-01,4.677941799163818359e+00,-1.098221063613891602e+00
-1.064626574516296387e+00,5.769216537475585938e+00,-1.140354633331298828e+00
-1.369859576225280762e+00,7.423274993896484375e+00,-1.195580720901489258e+00
-1.953449010848999023e+00,1.058574867248535156e+01,-1.321709990501403809e+00
-2.560842037200927734e+00,1.387721443176269531e+01,-1.234596133232116699e+00
-2.564064502716064453e+00,1.389467716217041016e+01,-7.404829263687133789e-01
-2.567233800888061523e+00,1.391185092926025391e+01,-2.469319254159927368e-01
-2.570361137390136719e+00,1.392879867553710938e+01,2.472327500581741333e-01
-2.573493480682373047e+00,1.394577312469482422e+01,7.432060241699218750e-01
-7.834577560424804688e-01,3.929552555084228516e+00,-1.073642015457153320e+00
-9.332707524299621582e-01,4.680962562561035156e+00,-1.101953387260437012e+00
-1.153190732002258301e+00,5.784005165100097656e+00,-1.146422982215881348e+00
-1.488155126571655273e+00,7.464070320129394531e+00,-1.205458283424377441e+00
-2.095046997070312500e+00,1.050802993774414062e+01,-1.315615653991699219e+00
-2.761668205261230469e+00,1.385157012939453125e+01,-1.235704898834228516e+00
-2.765112400054931641e+00,1.386884498596191406e+01,-7.411396503448486328e-01
-2.768530368804931641e+00,1.388598823547363281e+01,-2.471509277820587158e-01
-2.771934747695922852e+00,1.390306377410888672e+01,2.474548369646072388e-01
-2.775376319885253906e+00,1.392032527923583984e+01,7.438907027244567871e-01
-8.415535688400268555e-01,3.926972866058349609e+00,-1.076117992401123047e+00
-1.003794550895690918e+00,4.684043407440185547e+00,-1.105947732925415039e+00
-1.230405211448669434e+00,5.741485595703125000e+00,-1.141369104385375977e+00
-1.587741851806640625e+00,7.408938884735107422e+00,-1.200101852416992188e+00
-2.235282421112060547e+00,1.043058204650878906e+01,-1.309790611267089844e+00
-2.962867975234985352e+00,1.382574081420898438e+01,-1.237057209014892578e+00
-2.966530323028564453e+00,1.384283161163330078e+01,-7.419425249099731445e-01
-2.970197677612304688e+00,1.385994434356689453e+01,-2.474187165498733521e-01
-2.973882913589477539e+00,1.387714099884033203e+01,2.477256953716278076e-01
-2.977642059326171875e+00,1.389468193054199219e+01,7.447215914726257324e-01
-8.995224833488464355e-01,3.922603607177734375e+00,-1.078338503837585449e+00
-1.065751910209655762e+00,4.647490501403808594e+00,-1.100806236267089844e+00
-1.306282043457031250e+00,5.696385383605957031e+00,-1.136004090309143066e+00
-1.707704186439514160e+00,7.446891784667968750e+00,-1.210084795951843262e+00
-2.372985839843750000e+00,1.034802722930908203e+01,-1.303555727005004883e+00
-3.165029764175415039e+00,1.380194282531738281e+01,-1.238854408264160156e+00
-3.168905019760131836e+00,1.381884098052978516e+01,-7.430117130279541016e-01
-3.172822713851928711e+00,1.383592510223388672e+01,-2.477752715349197388e-01
-3.176797628402709961e+00,1.385325908660888672e+01,2.480856776237487793e-01
-3.180889129638671875e+00,1.387110042572021484e+01,7.458215951919555664e-01
-9.517955780029296875e-01,3.893883943557739258e+00,-1.074078559875488281e+00
-1.136738538742065430e+00,4.650502681732177734e+00,-1.105260252952575684e+00
-1.395927190780639648e+00,5.710867404937744141e+00,-1.142759799957275391e+00
-1.806740999221801758e+00,7.391544818878173828e+00,-1.205170035362243652e+00
-2.557352781295776367e+00,1.046236705780029297e+01,-1.322434902191162109e+00
-3.367370605468750000e+00,1.377622509002685547e+01,-1.240745306015014648e+00
-3.371459007263183594e+00,1.379295063018798828e+01,-7.441381216049194336e-01
-3.375627279281616211e+00,1.381000328063964844e+01,-2.481509000062942505e-01
-3.379891395568847656e+00,1.382744884490966797e+01,2.484643757343292236e-01
-3.383834600448608398e+00,1.384358024597167969e+01,7.468696236610412598e-01
-1.010367631912231445e+00,3.891186952590942383e+00,-1.077213406562805176e+00
-1.198569893836975098e+00,4.616002559661865234e+00,-1.101025342941284180e+00
-1.471798181533813477e+00,5.668275356292724609e+00,-1.138335824012756348e+00
-1.904871940612792969e+00,7.336153984069824219e+00,-1.200461268424987793e+00
-2.696202039718627930e+00,1.038377094268798828e+01,-1.317243456840515137e+00
-3.570388555526733398e+00,1.375048828125000000e+01,-1.242902636528015137e+00
-3.574687719345092773e+00,1.376704597473144531e+01,-7.454246282577514648e-01
-3.579107522964477539e+00,1.378406715393066406e+01,-2.485799342393875122e-01
-3.583664894104003906e+00,1.380161952972412109e+01,2.488964647054672241e-01
-3.587913990020751953e+00,1.381798362731933594e+01,7.481826543807983398e-01
-1.062114596366882324e+00,3.862363100051879883e+00,-1.073332548141479492e+00
-1.270163416862487793e+00,4.618929386138916016e+00,-1.105946660041809082e+00
-1.562764286994934082e+00,5.682967662811279297e+00,-1.145661234855651855e+00
-2.002185344696044922e+00,7.280915260314941406e+00,-1.195989251136779785e+00
-2.833891868591308594e+00,1.030540275573730469e+01,-1.312313318252563477e+00
-3.774189472198486328e+00,1.372478008270263672e+01,-1.245334386825561523e+00
-3.778697967529296875e+00,1.374117565155029297e+01,-7.468758821487426758e-01
-3.783370256423950195e+00,1.375816631317138672e+01,-2.490639239549636841e-01
-3.788224697113037109e+00,1.377581977844238281e+01,2.493834942579269409e-01
-3.792785406112670898e+00,1.379240512847900391e+01,7.496603727340698242e-01
-1.120998859405517578e+00,3.859556913375854492e+00,-1.076901316642761230e+00
-1.331499814987182617e+00,4.584303855895996094e+00,-1.102106332778930664e+00
-1.638165116310119629e+00,5.640140533447265625e+00,-1.141637563705444336e+00
-2.126604318618774414e+00,7.321818828582763672e+00,-1.207584500312805176e+00
-2.970494031906127930e+00,1.022729873657226562e+01,-1.307647705078125000e+00
-3.978543758392333984e+00,1.369797611236572266e+01,-1.247941493988037109e+00
-3.983599901199340820e+00,1.371538448333740234e+01,-7.484965324401855469e-01
-3.988526105880737305e+00,1.373234462738037109e+01,-2.496044039726257324e-01
-3.993333578109741211e+00,1.374889659881591797e+01,2.499052584171295166e-01
-3.998558759689331055e+00,1.376688671112060547e+01,7.513072490692138672e-01
-1.172310948371887207e+00,3.830664873123168945e+00,-1.073411822319030762e+00
-1.403865814208984375e+00,4.587297439575195312e+00,-1.107543468475341797e+00
-1.713008046150207520e+00,5.597456455230712891e+00,-1.137844085693359375e+00
-2.223702192306518555e+00,7.266210079193115234e+00,-1.203539252281188965e+00
-3.106080770492553711e+00,1.014948654174804688e+01,-1.303249716758728027e+00
-4.126263141632080078e+00,1.348305320739746094e+01,-1.233615517616271973e+00
-4.131704807281494141e+00,1.350083446502685547e+01,-7.399393916130065918e-01
-4.137045860290527344e+00,1.351828670501708984e+01,-2.467646300792694092e-01
-4.142298221588134766e+00,1.353544998168945312e+01,2.470779418945312500e-01
-4.148033618927001953e+00,1.355419063568115234e+01,7.428637146949768066e-01
-1.231612801551818848e+00,3.827783107757568359e+00,-1.077433824539184570e+00
-1.464823722839355469e+00,4.552589416503906250e+00,-1.104112625122070312e+00
-1.805650591850280762e+00,5.611859798431396484e+00,-1.145908474922180176e+00
-2.320124149322509766e+00,7.210814476013183594e+00,-1.199741482734680176e+00
-3.302376508712768555e+00,1.026359939575195312e+01,-1.323836326599121094e+00
-4.078628063201904297e+00,1.267614555358886719e+01,-1.165010452270507812e+00
-4.083959579467773438e+00,1.269271564483642578e+01,-6.987810730934143066e-01
-4.089222908020019531e+00,1.270907306671142578e+01,-2.330377101898193359e-01
-4.094430923461914062e+00,1.272525882720947266e+01,2.333344966173171997e-01
-4.099547386169433594e+00,1.274116134643554688e+01,7.014482021331787109e-01
-1.282612562179565430e+00,3.798931598663330078e+00,-1.074370265007019043e+00
-1.525390148162841797e+00,4.518007278442382812e+00,-1.100908160209655762e+00
-1.880247950553894043e+00,5.569049835205078125e+00,-1.142545342445373535e+00
-2.415920495986938477e+00,7.155642032623291016e+00,-1.196192860603332520e+00
-3.438694477081298828e+00,1.018496608734130859e+01,-1.319907188415527344e+00
-4.034695148468017578e+00,1.195024204254150391e+01,-1.103490352630615234e+00
-4.039925575256347656e+00,1.196573448181152344e+01,-6.618738174438476562e-01
-4.045118808746337891e+00,1.198111629486083984e+01,-2.207286953926086426e-01
-4.050286293029785156e+00,1.199642086029052734e+01,2.210106700658798218e-01
-4.055392265319824219e+00,1.201154518127441406e+01,6.644077301025390625e-01
-4.061165809631347656e+00,1.202864456176757812e+01,1.110730171203613281e+00
-1.342445015907287598e+00,3.796002388000488281e+00,-1.078865528106689453e+00
-1.598747491836547852e+00,4.520743370056152344e+00,-1.107037544250488281e+00
-1.954400658607482910e+00,5.526416301727294922e+00,-1.139421105384826660e+00
-2.544956684112548828e+00,7.196318626403808594e+00,-1.208958148956298828e+00
-3.574200868606567383e+00,1.010669040679931641e+01,-1.316258192062377930e+00
-3.994021892547607422e+00,1.129380893707275391e+01,-1.048046588897705078e+00
-3.999160051345825195e+00,1.130833721160888672e+01,-6.286123394966125488e-01
-4.004287719726562500e+00,1.132283782958984375e+01,-2.096356451511383057e-01
-4.009418487548828125e+00,1.133734512329101562e+01,2.099042534828186035e-01
-4.014515399932861328e+00,1.135175800323486328e+01,6.310260295867919922e-01
-4.019477367401123047e+00,1.136578845977783203e+01,1.054726243019104004e+00
-1.393555283546447754e+00,3.768070936203002930e+00,-1.076485872268676758e+00
-1.659565091133117676e+00,4.487341880798339844e+00,-1.104561924934387207e+00
-2.028699636459350586e+00,5.485454559326171875e+00,-1.136846184730529785e+00
-2.641659021377563477e+00,7.142851352691650391e+00,-1.206204533576965332e+00
-3.709989547729492188e+00,1.003153896331787109e+01,-1.313252210617065430e+00
-3.977417469024658203e+00,1.075464439392089844e+01,-1.003193378448486328e+00
-3.982501745223999023e+00,1.076839160919189453e+01,-6.017047166824340820e-01
-3.987598657608032227e+00,1.078217315673828125e+01,-2.006617486476898193e-01
-3.992719888687133789e+00,1.079602050781250000e+01,2.009194642305374146e-01
-3.997831344604492188e+00,1.080984115600585938e+01,6.040208339691162109e-01
-4.002825736999511719e+00,1.082334613800048828e+01,1.009601831436157227e+00
-1.444025516510009766e+00,3.739154815673828125e+00,-1.074019789695739746e+00
-1.719614624977111816e+00,4.452764511108398438e+00,-1.101996421813964844e+00
-2.123831272125244141e+00,5.499442100524902344e+00,-1.145927786827087402e+00
-2.737128734588623047e+00,7.087512016296386719e+00,-1.203351974487304688e+00
-3.844047546386718750e+00,9.953763961791992188e+00,-1.310139298439025879e+00
-3.941089391708374023e+00,1.020504379272460938e+01,-9.570906162261962891e-01
-3.946092844009399414e+00,1.021800041198730469e+01,-5.740478038787841797e-01
-3.951132774353027344e+00,1.023105049133300781e+01,-1.914379745721817017e-01
-3.956220626831054688e+00,1.024422454833984375e+01,1.916844844818115234e-01
-3.961317300796508789e+00,1.025742149353027344e+01,5.762625336647033691e-01
-3.966325759887695312e+00,1.027039146423339844e+01,9.632192254066467285e-01
-1.504610657691955566e+00,3.736028432846069336e+00,-1.079197168350219727e+00
-1.779395103454589844e+00,4.418333053588867188e+00,-1.099665760993957520e+00
-2.197613954544067383e+00,5.456792354583740234e+00,-1.143478155136108398e+00
-2.832173347473144531e+00,7.032436847686767578e+00,-1.200760960578918457e+00
-3.902276277542114258e+00,9.689559936523437500e+00,-1.282584547996520996e+00
-3.907208204269409180e+00,9.701806068420410156e+00,-9.150452613830566406e-01
-3.912138223648071289e+00,9.714047431945800781e+00,-5.488253831863403320e-01
-3.917125225067138672e+00,9.726430892944335938e+00,-1.830261498689651489e-01
-3.922181367874145508e+00,9.738985061645507812e+00,1.832623928785324097e-01
-3.927263021469116211e+00,9.751603126525878906e+00,5.509471893310546875e-01
-3.932283163070678711e+00,9.764068603515625000e+00,9.209176301956176758e-01
-1.555306553840637207e+00,3.707865476608276367e+00,-1.077382206916809082e+00
-1.854698419570922852e+00,4.421618461608886719e+00,-1.106977343559265137e+00
-2.271567106246948242e+00,5.415437698364257812e+00,-1.141508698463439941e+00
-2.927447319030761719e+00,6.979062080383300781e+00,-1.198679208755493164e+00
-3.888859510421752930e+00,9.271078109741210938e+00,-1.234432578086853027e+00
-3.893732309341430664e+00,9.282694816589355469e+00,-8.806822299957275391e-01
-3.898620367050170898e+00,9.294347763061523438e+00,-5.282117724418640137e-01
-3.903582096099853516e+00,9.306177139282226562e+00,-1.761514246463775635e-01
-3.908630371093750000e+00,9.318212509155273438e+00,1.763792335987091064e-01
-3.913717508316040039e+00,9.330339431762695312e+00,5.302572250366210938e-01
-3.918764829635620117e+00,9.342372894287109375e+00,8.863440752029418945e-01
-3.923651218414306641e+00,9.354022026062011719e+00,1.245476484298706055e+00
-1.605490088462829590e+00,3.678983926773071289e+00,-1.075557231903076172e+00
-1.914497971534729004e+00,4.387076377868652344e+00,-1.105076909065246582e+00
-2.344766378402709961e+00,5.373037338256835938e+00,-1.139528870582580566e+00
-3.021748542785644531e+00,6.924343585968017578e+00,-1.196587085723876953e+00
-3.858416318893432617e+00,8.841568946838378906e+00,-1.184476137161254883e+00
-3.863208770751953125e+00,8.852551460266113281e+00,-8.450325727462768555e-01
-3.868033170700073242e+00,8.863606452941894531e+00,-5.068266391754150391e-01
-3.872948408126831055e+00,8.874869346618652344e+00,-1.690194457769393921e-01
-3.877966165542602539e+00,8.886367797851562500e+00,1.692384183406829834e-01
-3.883035898208618164e+00,8.897985458374023438e+00,5.087924599647521973e-01
-3.888087034225463867e+00,8.909560203552246094e+00,8.504744172096252441e-01
-3.892996072769165039e+00,8.920808792114257812e+00,1.195091605186462402e+00
-1.655776739120483398e+00,3.650773286819458008e+00,-1.074128508567810059e+00
-1.974428892135620117e+00,4.353360176086425781e+00,-1.103589653968811035e+00
-2.418133735656738281e+00,5.331671714782714844e+00,-1.137979984283447266e+00
-3.158824205398559570e+00,6.964798450469970703e+00,-1.211267352104187012e+00
-3.846476793289184570e+00,8.480982780456542969e+00,-1.143428206443786621e+00
-3.851221084594726562e+00,8.491443634033203125e+00,-8.157409429550170898e-01
-3.856009960174560547e+00,8.502002716064453125e+00,-4.892557263374328613e-01
-3.860903501510620117e+00,8.512791633605957031e+00,-1.631595194339752197e-01
-3.865913629531860352e+00,8.523838996887207031e+00,1.633712500333786011e-01
-3.870984792709350586e+00,8.535019874572753906e+00,4.911557734012603760e-01
-3.875257015228271484e+00,8.544440269470214844e+00,8.208320736885070801e-01
-3.880994319915771484e+00,8.557089805603027344e+00,1.153689146041870117e+00
-1.705650091171264648e+00,3.622015237808227539e+00,-1.072740435600280762e+00
-2.033865213394165039e+00,4.318993091583251953e+00,-1.102144598960876465e+00
-2.490895748138427734e+00,5.289515495300292969e+00,-1.136475563049316406e+00
-3.253852367401123047e+00,6.909683704376220703e+00,-1.209658145904541016e+00
-3.818423032760620117e+00,8.108572006225585938e+00,-1.100474834442138672e+00
-3.823651552200317383e+00,8.119674682617187500e+00,-7.852037549018859863e-01
-3.828386545181274414e+00,8.129730224609375000e+00,-4.709381163120269775e-01
-3.833237648010253906e+00,8.140031814575195312e+00,-1.570505648851394653e-01
-3.838214635848999023e+00,8.150600433349609375e+00,1.572544723749160767e-01
-3.842698812484741211e+00,8.160122871398925781e+00,4.726986885070800781e-01
-3.847541809082031250e+00,8.170407295227050781e+00,7.901097536087036133e-01
-3.853285551071166992e+00,8.182603836059570312e+00,1.110522150993347168e+00
-1.767660379409790039e+00,3.618412971496582031e+00,-1.079056501388549805e+00
-2.093184232711791992e+00,4.284762382507324219e+00,-1.100942134857177734e+00
-2.590364933013916016e+00,5.302495002746582031e+00,-1.147112846374511719e+00
-3.348704814910888672e+00,6.854821681976318359e+00,-1.208320975303649902e+00
-3.792638540267944336e+00,7.763556957244873047e+00,-1.060909032821655273e+00
-3.797805070877075195e+00,7.774133205413818359e+00,-7.569678425788879395e-01
-3.802491188049316406e+00,7.783725738525390625e+00,-4.540011286735534668e-01
-3.807303428649902344e+00,7.793576240539550781e+00,-1.514021009206771851e-01
-3.812247514724731445e+00,7.803697109222412109e+00,1.515987217426300049e-01
-3.816716432571411133e+00,7.812844753265380859e+00,4.556995630264282227e-01
-3.821553707122802734e+00,7.822746753692626953e+00,7.617012858390808105e-01
-3.826289653778076172e+00,7.832441329956054688e+00,1.070322275161743164e+00
-1.817854046821594238e+00,3.589955091476440430e+00,-1.078219056129455566e+00
-2.152602434158325195e+00,4.251026630401611328e+00,-1.100077986717224121e+00
-2.663877248764038086e+00,5.260708332061767578e+00,-1.146204352378845215e+00
-3.443732500076293945e+00,6.800790786743164062e+00,-1.207361936569213867e+00
-3.782950639724731445e+00,7.470689773559570312e+00,-1.028182029724121094e+00
-3.788084506988525391e+00,7.480827808380126953e+00,-7.336129546165466309e-01
-3.792745113372802734e+00,7.490031719207763672e+00,-4.399921894073486328e-01
-3.797540426254272461e+00,7.499501705169677734e+00,-1.467301845550537109e-01
-3.802471399307250977e+00,7.509239673614501953e+00,1.469206959009170532e-01
-3.806939363479614258e+00,7.518063545227050781e+00,4.416388869285583496e-01
-3.811781644821166992e+00,7.527626037597656250e+00,7.382022738456726074e-01
-3.816532373428344727e+00,7.537007808685302734e+00,1.037309288978576660e+00
-3.822234392166137695e+00,7.548268318176269531e+00,1.340063571929931641e+00
-1.867800474166870117e+00,3.561193227767944336e+00,-1.077499747276306152e+00
-2.211730003356933594e+00,4.216937065124511719e+00,-1.099336028099060059e+00
-2.737034797668457031e+00,5.218496322631835938e+00,-1.145425558090209961e+00
-3.538307428359985352e+00,6.746222019195556641e+00,-1.206541776657104492e+00
-3.759620904922485352e+00,7.168183326721191406e+00,-9.938528537750244141e-01
-3.764704704284667969e+00,7.177875995635986328e+00,-7.091155052185058594e-01
-3.769324541091918945e+00,7.186684608459472656e+00,-4.252982437610626221e-01
-3.774084091186523438e+00,7.195759296417236328e+00,-1.418297588825225830e-01
-3.778983354568481445e+00,7.205100536346435547e+00,1.420138627290725708e-01
-3.783431768417358398e+00,7.213581562042236328e+00,4.268899559974670410e-01
-3.788259506225585938e+00,7.222786426544189453e+00,7.135522365570068359e-01
-3.793000698089599609e+00,7.231825828552246094e+00,1.002676844596862793e+00
-3.798696279525756836e+00,7.242685794830322266e+00,1.295332908630371094e+00
-1.917790412902832031e+00,3.532647609710693359e+00,-1.077058076858520508e+00
-2.270917177200317383e+00,4.183121681213378906e+00,-1.098881721496582031e+00
-2.810274839401245117e+00,5.176640033721923828e+00,-1.144950151443481445e+00
-3.632994890213012695e+00,6.692123889923095703e+00,-1.206043124198913574e+00
-3.751093864440917969e+00,6.909666538238525391e+00,-9.653553962707519531e-01
-3.756154060363769531e+00,6.918988227844238281e+00,-6.887803077697753906e-01
-3.760754346847534180e+00,6.927461624145507812e+00,-4.131010174751281738e-01
-3.765498161315917969e+00,6.936200141906738281e+00,-1.377620100975036621e-01
-3.770384073257446289e+00,6.945199966430664062e+00,1.379407644271850586e-01
-3.774826049804687500e+00,6.953382492065429688e+00,4.146467149257659912e-01
-3.779650449752807617e+00,6.962269306182861328e+00,6.930889487266540527e-01
-3.784393310546875000e+00,6.971005916595458984e+00,9.739251136779785156e-01
-3.790093421936035156e+00,6.981505870819091797e+00,1.258195042610168457e+00
-1.967689752578735352e+00,3.504013061523437500e+00,-1.076804518699645996e+00
-2.349669218063354492e+00,4.184232711791992188e+00,-1.107895016670227051e+00
-2.883391857147216797e+00,5.134672641754150391e+00,-1.144678950309753418e+00
-3.727530717849731445e+00,6.637894153594970703e+00,-1.205761790275573730e+00
-3.742881536483764648e+00,6.665230751037597656e+00,-9.385937452316284180e-01
-3.747922658920288086e+00,6.674207687377929688e+00,-6.696844100952148438e-01
-3.752506017684936523e+00,6.682369709014892578e+00,-4.016473889350891113e-01
-3.757232666015625000e+00,6.690786361694335938e+00,-1.339421719312667847e-01
-3.762105703353881836e+00,6.699464321136474609e+00,1.341158896684646606e-01
-3.766539096832275391e+00,6.707359313964843750e+00,4.031494259834289551e-01
-3.771356344223022461e+00,6.715937614440917969e+00,6.738715767860412598e-01
-3.776094198226928711e+00,6.724374771118164062e+00,9.469223618507385254e-01
-3.780584573745727539e+00,6.732370853424072266e+00,1.222923398017883301e+00
-2.017520666122436523e+00,3.475291252136230469e+00,-1.076742053031921387e+00
-2.409177303314208984e+00,4.149941444396972656e+00,-1.107832551002502441e+00
-2.956426620483398438e+00,5.092608928680419922e+00,-1.144618153572082520e+00
-3.717868089675903320e+00,6.404233932495117188e+00,-1.172864198684692383e+00
-3.722563743591308594e+00,6.412322521209716797e+00,-9.103893041610717773e-01
-3.727571487426757812e+00,6.420948505401611328e+00,-6.495596170425415039e-01
-3.732124805450439453e+00,6.428791522979736328e+00,-3.895768523216247559e-01
-3.736818075180053711e+00,6.436876296997070312e+00,-1.299166083335876465e-01
-3.741661071777343750e+00,6.445218563079833984e+00,1.300849914550781250e-01
-3.746067523956298828e+00,6.452808856964111328e+00,3.910322785377502441e-01
-3.750857114791870117e+00,6.461059093475341797e+00,6.536173224449157715e-01
-3.755567550659179688e+00,6.469173431396484375e+00,9.184607267379760742e-01
-3.760033130645751953e+00,6.476865291595458984e+00,1.186165809631347656e+00
-2.067328214645385742e+00,3.446520328521728516e+00,-1.076885700225830078e+00
-2.468663454055786133e+00,4.115601539611816406e+00,-1.107984542846679688e+00
-3.029440879821777344e+00,5.050494670867919922e+00,-1.144781231880187988e+00
-3.710748195648193359e+00,6.186327457427978516e+00,-1.142567276954650879e+00
-3.715435266494750977e+00,6.194140911102294922e+00,-8.868725299835205078e-01
-3.720431327819824219e+00,6.202470302581787109e+00,-6.327801346778869629e-01
-3.724973201751708984e+00,6.210042476654052734e+00,-3.795129954814910889e-01
-3.729652166366577148e+00,6.217842578887939453e+00,-1.265603154897689819e-01
-3.734481334686279297e+00,6.225893974304199219e+00,1.267241984605789185e-01
-3.738874197006225586e+00,6.233217239379882812e+00,3.809292912483215332e-01
-3.743647098541259766e+00,6.241174221038818359e+00,6.367287039756774902e-01
-3.748340606689453125e+00,6.248999118804931641e+00,8.947270512580871582e-01
-3.752788066864013672e+00,6.256413936614990234e+00,1.155511617660522461e+00
-2.117199659347534180e+00,3.417801380157470703e+00,-1.077270746231079102e+00
-2.507071018218994141e+00,4.047171115875244141e+00,-1.099110364913940430e+00
-3.102572441101074219e+00,5.008491039276123047e+00,-1.145209074020385742e+00
-3.692449808120727539e+00,5.960731506347656250e+00,-1.110548973083496094e+00
-3.697118997573852539e+00,5.968268871307373047e+00,-8.620208501815795898e-01
-3.702093601226806641e+00,5.976299762725830078e+00,-6.150490641593933105e-01
-3.706611871719360352e+00,5.983593463897705078e+00,-3.688786029815673828e-01
-3.711260557174682617e+00,5.991097927093505859e+00,-1.230137124657630920e-01
-3.716058731079101562e+00,5.998843669891357422e+00,1.231727525591850281e-01
-3.720420122146606445e+00,6.005884170532226562e+00,3.702527880668640137e-01
-3.725156545639038086e+00,6.013530254364013672e+00,6.188806295394897461e-01
-3.729810476303100586e+00,6.021043300628662109e+00,8.696432709693908691e-01
-3.735405445098876953e+00,6.030075073242187500e+00,1.123468399047851562e+00
-3.739555358886718750e+00,6.036774158477783203e+00,1.380329728126525879e+00
-2.166985511779785156e+00,3.388849973678588867e+00,-1.077811360359191895e+00
-2.566048622131347656e+00,4.012926578521728516e+00,-1.099672317504882812e+00
-3.175591707229614258e+00,4.966163158416748047e+00,-1.145806431770324707e+00
-3.686341047286987305e+00,5.764900684356689453e+00,-1.083783149719238281e+00
-3.691012859344482422e+00,5.772206783294677734e+00,-8.412472605705261230e-01
-3.695984840393066406e+00,5.779982089996337891e+00,-6.002280712127685547e-01
-3.700497388839721680e+00,5.787038803100585938e+00,-3.599897921085357666e-01
-3.705132722854614258e+00,5.794288158416748047e+00,-1.200492903590202332e-01
-3.709914922714233398e+00,5.801766872406005859e+00,1.202042326331138611e-01
-3.714257001876831055e+00,5.808557510375976562e+00,3.613283634185791016e-01
-3.718968152999877930e+00,5.815925121307373047e+00,6.039605736732482910e-01
-3.723593473434448242e+00,5.823157787322998047e+00,8.486729264259338379e-01
-3.729152202606201172e+00,5.831851005554199219e+00,1.096369504928588867e+00
-3.733265638351440430e+00,5.838284015655517578e+00,1.347024440765380859e+00
-2.216973781585693359e+00,3.360078811645507812e+00,-1.078642845153808594e+00
-2.625278234481811523e+00,3.978911638259887695e+00,-1.100535750389099121e+00
-3.248936176300048828e+00,4.924137115478515625e+00,-1.146722078323364258e+00
-3.669879913330078125e+00,5.562125682830810547e+00,-1.055429100990295410e+00
-3.674548864364624023e+00,5.569201946258544922e+00,-8.192425370216369629e-01
-3.679508924484252930e+00,5.576719760894775391e+00,-5.845293998718261719e-01
-3.684002637863159180e+00,5.583530426025390625e+00,-3.505745530128479004e-01
-3.688613891601562500e+00,5.590518951416015625e+00,-1.169093847274780273e-01
-3.693364143371582031e+00,5.597718715667724609e+00,1.170599460601806641e-01
-3.697669744491577148e+00,5.604244709014892578e+00,3.518751561641693115e-01
-3.702336072921752930e+00,5.611316680908203125e+00,5.881557464599609375e-01
-3.706908464431762695e+00,5.618246555328369141e+00,8.264570832252502441e-01
-3.712402343750000000e+00,5.626573562622070312e+00,1.067658305168151855e+00
-3.716453552246093750e+00,5.632713317871093750e+00,1.311733722686767578e+00
-2.266802787780761719e+00,3.330895662307739258e+00,-1.079579591751098633e+00
-2.684324502944946289e+00,3.944412231445312500e+00,-1.101507782936096191e+00
-3.322060108184814453e+00,4.881516456604003906e+00,-1.147752404212951660e+00
-3.664725065231323242e+00,5.385036468505859375e+00,-1.031673789024353027e+00
-3.669408559799194336e+00,5.391918659210205078e+00,-8.008078336715698242e-01
-3.674373865127563477e+00,5.399215221405029297e+00,-5.713781118392944336e-01
-3.678864479064941406e+00,5.405813694000244141e+00,-3.426873087882995605e-01
-3.683466434478759766e+00,5.412575721740722656e+00,-1.142790615558624268e-01
-3.688199043273925781e+00,5.419529914855957031e+00,1.144258901476860046e-01
-3.692480802536010742e+00,5.425821781158447266e+00,3.439556956291198730e-01
-3.697113037109375000e+00,5.432628154754638672e+00,5.749141573905944824e-01
-3.701644897460937500e+00,5.439287662506103516e+00,8.078430294990539551e-01
-3.707086563110351562e+00,5.447283744812011719e+00,1.043599128723144531e+00
-3.711082935333251953e+00,5.453155994415283203e+00,1.282157540321350098e+00
-2.300930261611938477e+00,3.279140233993530273e+00,-1.073369503021240234e+00
-2.743794918060302734e+00,3.910283088684082031e+00,-1.102831363677978516e+00
-3.360522985458374023e+00,4.789204597473144531e+00,-1.137241005897521973e+00
-3.649970531463623047e+00,5.201707363128662109e+00,-1.006457090377807617e+00
-3.654663085937500000e+00,5.208394527435302734e+00,-7.812399864196777344e-01
-3.659626722335815430e+00,5.215468406677246094e+00,-5.574192404747009277e-01
-3.664104700088500977e+00,5.221850395202636719e+00,-3.343158662319183350e-01
-3.668685436248779297e+00,5.228378295898437500e+00,-1.114872768521308899e-01
-3.673384904861450195e+00,5.235075950622558594e+00,1.116300895810127258e-01
-3.677625894546508789e+00,5.241119861602783203e+00,3.355495631694793701e-01
