5.183320641517639160e-01,1.499721169471740723e+00,-4.251724779605865479e-01
5.189941525459289551e-01,1.501636862754821777e+00,-3.668015599250793457e-01
5.196110606193542480e-01,1.503421783447265625e+00,-3.091970086097717285e-01
5.202854275703430176e-01,1.505373001098632812e+00,-2.522660493850708008e-01
5.209357142448425293e-01,1.507254600524902344e+00,-1.958089470863342285e-01
5.216126441955566406e-01,1.509213089942932129e+00,-1.397026032209396362e-01
5.222502350807189941e-01,1.511057853698730469e+00,-8.378746360540390015e-02
5.228958725929260254e-01,1.512925982475280762e+00,-2.794096060097217560e-02
5.235516428947448730e-01,1.514823317527770996e+00,2.797600068151950836e-02
5.241721868515014648e-01,1.516618847846984863e+00,8.409581333398818970e-02
5.248276591300964355e-01,1.518515348434448242e+00,1.405636966228485107e-01
5.254700183868408203e-01,1.520373821258544922e+00,1.975132972002029419e-01
5.261859297752380371e-01,1.522445321083068848e+00,2.551269829273223877e-01
5.268737077713012695e-01,1.524435281753540039e+00,3.135187029838562012e-01
5.274969935417175293e-01,1.526238679885864258e+00,3.728109896183013916e-01
4.961999654769897461e-01,1.505120515823364258e+00,-4.246461689472198486e-01
4.967740774154663086e-01,1.506861925125122070e+00,-3.663034737110137939e-01
4.974096119403839111e-01,1.508789658546447754e+00,-3.088051080703735352e-01
4.980838000774383545e-01,1.510834693908691406e+00,-2.519607841968536377e-01
4.986676275730133057e-01,1.512605547904968262e+00,-1.955568194389343262e-01
4.992964863777160645e-01,1.514513134956359863e+00,-1.395173966884613037e-01
4.999165534973144531e-01,1.516394019126892090e+00,-8.367800712585449219e-02
5.005346536636352539e-01,1.518268942832946777e+00,-2.790446206927299500e-02
5.011523962020874023e-01,1.520142674446105957e+00,2.793890051543712616e-02
5.017656683921813965e-01,1.522002816200256348e+00,8.398751169443130493e-02
5.024324059486389160e-01,1.524025321006774902e+00,1.403936594724655151e-01
5.030182600021362305e-01,1.525802373886108398e+00,1.972629576921463013e-01
5.036575198173522949e-01,1.527741312980651855e+00,2.547802925109863281e-01
5.043768286705017090e-01,1.529923439025878906e+00,3.131305575370788574e-01
5.050531625747680664e-01,1.531974792480468750e+00,3.724081516265869141e-01
4.739760458469390869e-01,1.510054945945739746e+00,-4.240808188915252686e-01
4.745855927467346191e-01,1.511996984481811523e+00,-3.658629655838012695e-01
4.752388596534729004e-01,1.514078259468078613e+00,-3.084636628627777100e-01
4.758464395999908447e-01,1.516013979911804199e+00,-2.516628801822662354e-01
4.764322936534881592e-01,1.517880439758300781e+00,-1.953371316194534302e-01
4.770151674747467041e-01,1.519737482070922852e+00,-1.393554061651229858e-01
4.776169061660766602e-01,1.521654605865478516e+00,-8.358249068260192871e-02
4.782075881958007812e-01,1.523536443710327148e+00,-2.787261828780174255e-02
4.787879288196563721e-01,1.525385260581970215e+00,2.790644392371177673e-02
4.793922901153564453e-01,1.527310729026794434e+00,8.389317244291305542e-02
4.800008237361907959e-01,1.529249548912048340e+00,1.402276307344436646e-01
4.805976152420043945e-01,1.531150817871093750e+00,1.970448940992355347e-01
4.811612367630004883e-01,1.532946467399597168e+00,2.544737458229064941e-01
4.817863106727600098e-01,1.534937977790832520e+00,3.127134442329406738e-01
4.824919998645782471e-01,1.537186264991760254e+00,3.719581067562103271e-01
4.519050717353820801e-01,1.515307307243347168e+00,-4.236959218978881836e-01
4.525365531444549561e-01,1.517424702644348145e+00,-3.655715584754943848e-01
4.531119465827941895e-01,1.519354224205017090e+00,-3.081856667995452881e-01
4.536601006984710693e-01,1.521192193031311035e+00,-2.514187991619110107e-01
4.542496800422668457e-01,1.523169159889221191e+00,-1.951609998941421509e-01
4.548171162605285645e-01,1.525071859359741211e+00,-1.392333507537841797e-01
4.553743600845336914e-01,1.526940464973449707e+00,-8.350625634193420410e-02
4.559375941753387451e-01,1.528828978538513184e+00,-2.784719876945018768e-02
4.565078318119049072e-01,1.530741095542907715e+00,2.788202837109565735e-02
4.570719599723815918e-01,1.532632708549499512e+00,8.381755650043487549e-02
4.576204121112823486e-01,1.534471750259399414e+00,1.400915235280990601e-01
4.582211375236511230e-01,1.536486029624938965e+00,1.968672871589660645e-01
4.588069319725036621e-01,1.538450360298156738e+00,2.542711794376373291e-01
4.593515992164611816e-01,1.540276646614074707e+00,3.124295771121978760e-01
4.599577486515045166e-01,1.542309165000915527e+00,3.715666234493255615e-01
4.298550784587860107e-01,1.520499706268310547e+00,-4.233840703964233398e-01
4.304114580154418945e-01,1.522467732429504395e+00,-3.652648925781250000e-01
4.310083389282226562e-01,1.524579048156738281e+00,-3.079625666141510010e-01
4.315612912178039551e-01,1.526535034179687500e+00,-2.512551844120025635e-01
4.320919215679168701e-01,1.528411984443664551e+00,-1.950203478336334229e-01
4.326171875000000000e-01,1.530269980430603027e+00,-1.391283422708511353e-01
4.331488311290740967e-01,1.532150506973266602e+00,-8.344358205795288086e-02
4.336842894554138184e-01,1.534044623374938965e+00,-2.782628312706947327e-02
4.342252314090728760e-01,1.535958051681518555e+00,2.786099165678024292e-02
4.347764849662780762e-01,1.537907958030700684e+00,8.375713974237442017e-02
4.353289902210235596e-01,1.539862275123596191e+00,1.400004476308822632e-01
4.358682334423065186e-01,1.541769742965698242e+00,1.967247426509857178e-01
4.363750219345092773e-01,1.543562293052673340e+00,2.540577352046966553e-01
4.369382262229919434e-01,1.545554518699645996e+00,3.121995627880096436e-01
4.375772476196289062e-01,1.547814965248107910e+00,3.713460862636566162e-01
4.079258441925048828e-01,1.526032924652099609e+00,-4.232555925846099854e-01
4.084009528160095215e-01,1.527810335159301758e+00,-3.651067912578582764e-01
4.089294373989105225e-01,1.529787302017211914e+00,-3.078007698059082031e-01
4.094300568103790283e-01,1.531660079956054688e+00,-2.511084377765655518e-01
4.099663197994232178e-01,1.533666253089904785e+00,-1.949220597743988037e-01
4.104526937007904053e-01,1.535485744476318359e+00,-1.390541493892669678e-01
4.109680652618408203e-01,1.537413716316223145e+00,-8.340131491422653198e-02
4.114762246608734131e-01,1.539314627647399902e+00,-2.781219594180583954e-02
4.119781553745269775e-01,1.541192412376403809e+00,2.784612216055393219e-02
4.125134646892547607e-01,1.543195009231567383e+00,8.371493220329284668e-02
4.130043387413024902e-01,1.545031309127807617e+00,1.399185955524444580e-01
4.135403335094451904e-01,1.547036409378051758e+00,1.966213583946228027e-01
4.140596687793731689e-01,1.548979163169860840e+00,2.539478242397308350e-01
4.146479666233062744e-01,1.551180005073547363e+00,3.121050894260406494e-01
4.151988029479980469e-01,1.553240656852722168e+00,3.711839914321899414e-01
3.858973979949951172e-01,1.531135201454162598e+00,-4.230954349040985107e-01
3.863993585109710693e-01,1.533126831054687500e+00,-3.650182187557220459e-01
3.868634104728698730e-01,1.534968018531799316e+00,-3.076975047588348389e-01
3.873711824417114258e-01,1.536982655525207520e+00,-2.510462999343872070e-01
3.878542184829711914e-01,1.538899302482604980e+00,-1.948616206645965576e-01
3.883275985717773438e-01,1.540777444839477539e+00,-1.390157788991928101e-01
3.888016641139984131e-01,1.542658567428588867e+00,-8.337540179491043091e-02
3.892824351787567139e-01,1.544566035270690918e+00,-2.780355513095855713e-02
3.897710740566253662e-01,1.546504855155944824e+00,2.783845551311969757e-02
3.902640044689178467e-01,1.548460721969604492e+00,8.368898928165435791e-02
3.907530605792999268e-01,1.550401091575622559e+00,1.398840546607971191e-01
3.912254273891448975e-01,1.552275300025939941e+00,1.965553462505340576e-01
3.917533159255981445e-01,1.554369807243347168e+00,2.538862824440002441e-01
3.922562897205352783e-01,1.556365489959716797e+00,3.119868040084838867e-01
3.927073180675506592e-01,1.558155059814453125e+00,3.709771335124969482e-01
3.638638257980346680e-01,1.536161661148071289e+00,-4.230018854141235352e-01
3.643935322761535645e-01,1.538398027420043945e+00,-3.649940192699432373e-01
3.648010492324829102e-01,1.540118336677551270e+00,-3.076516985893249512e-01
3.652624487876892090e-01,1.542066335678100586e+00,-2.509970068931579590e-01
3.657515048980712891e-01,1.544131040573120117e+00,-1.948412358760833740e-01
3.661891222000122070e-01,1.545978546142578125e+00,-1.389978975057601929e-01
3.666474521160125732e-01,1.547913551330566406e+00,-8.336723595857620239e-02
3.671008944511413574e-01,1.549827933311462402e+00,-2.780083939433097839e-02
3.675501644611358643e-01,1.551724553108215332e+00,2.783486247062683105e-02
3.680239021778106689e-01,1.553724646568298340e+00,8.368021249771118164e-02
3.684510588645935059e-01,1.555528044700622559e+00,1.398564875125885010e-01
3.689141571521759033e-01,1.557483196258544922e+00,1.965260356664657593e-01
3.694426715373992920e-01,1.559714436531066895e+00,2.538695037364959717e-01
3.698594570159912109e-01,1.561474084854125977e+00,3.119176924228668213e-01
3.703245520591735840e-01,1.563437581062316895e+00,3.709348142147064209e-01
3.419242203235626221e-01,1.541586995124816895e+00,-4.231048524379730225e-01
3.423041999340057373e-01,1.543300151824951172e+00,-3.649572432041168213e-01
3.428045511245727539e-01,1.545556068420410156e+00,-3.077262341976165771e-01
3.432076573371887207e-01,1.547373533248901367e+00,-2.510355412960052490e-01
3.436483442783355713e-01,1.549360394477844238e+00,-1.948604583740234375e-01
3.440738320350646973e-01,1.551278710365295410e+00,-1.390173882246017456e-01
3.444932699203491211e-01,1.553169727325439453e+00,-8.337621390819549561e-02
3.449193537235260010e-01,1.555090785026550293e+00,-2.780383825302124023e-02
3.453529477119445801e-01,1.557045578956604004e+00,2.783878892660140991e-02
3.457834720611572266e-01,1.558986663818359375e+00,8.368848264217376709e-02
3.462038636207580566e-01,1.560882091522216797e+00,1.398780047893524170e-01
3.466700017452239990e-01,1.562983751296997070e+00,1.965738534927368164e-01
3.470468819141387939e-01,1.564682841300964355e+00,2.538436949253082275e-01
3.475585877895355225e-01,1.566989898681640625e+00,3.119938075542449951e-01
3.480462431907653809e-01,1.569188594818115234e+00,3.710793256759643555e-01
3.198619484901428223e-01,1.546496510505676270e+00,-4.231523871421813965e-01
3.202732205390930176e-01,1.548484921455383301e+00,-3.650618791580200195e-01
3.207200765609741211e-01,1.550645470619201660e+00,-3.077940344810485840e-01
3.211338520050048828e-01,1.552646040916442871e+00,-2.511194646358489990e-01
3.215306103229522705e-01,1.554564237594604492e+00,-1.949161589145660400e-01
3.219229280948638916e-01,1.556460976600646973e+00,-1.390546262264251709e-01
3.223195075988769531e-01,1.558378458023071289e+00,-8.339963108301162720e-02
3.227179050445556641e-01,1.560304641723632812e+00,-2.781162038445472717e-02
3.231194615364074707e-01,1.562246203422546387e+00,2.784622833132743835e-02
3.235282301902770996e-01,1.564222574234008789e+00,8.371239155530929565e-02
3.239374756813049316e-01,1.566201090812683105e+00,1.399248093366622925e-01
3.243363499641418457e-01,1.568129777908325195e+00,1.966170519590377808e-01
3.247106671333312988e-01,1.569939494132995605e+00,2.539164423942565918e-01
3.251325190067291260e-01,1.571979165077209473e+00,3.120286464691162109e-01
3.256188631057739258e-01,1.574330568313598633e+00,3.711551129817962646e-01
2.978707253932952881e-01,1.551827669143676758e+00,-4.234011173248291016e-01
2.982957959175109863e-01,1.554042220115661621e+00,-3.653280138969421387e-01
2.986209988594055176e-01,1.555736303329467773e+00,-3.079245686531066895e-01
2.990418076515197754e-01,1.557928681373596191e+00,-2.512558400630950928e-01
2.993967831134796143e-01,1.559777855873107910e+00,-1.950125694274902344e-01
2.997569143772125244e-01,1.561654090881347656e+00,-1.391210108995437622e-01
3.001367747783660889e-01,1.563633084297180176e+00,-8.344238996505737305e-02
3.005078732967376709e-01,1.565566420555114746e+00,-2.782589010894298553e-02
3.008708953857421875e-01,1.567457675933837891e+00,2.785950526595115662e-02
3.012568652629852295e-01,1.569468498229980469e+00,8.375379443168640137e-02
3.016526103019714355e-01,1.571530103683471680e+00,1.400008201599121094e-01
3.019880056381225586e-01,1.573277592658996582e+00,1.967003792524337769e-01
3.024291396141052246e-01,1.575575828552246094e+00,2.541019022464752197e-01
3.027790486812591553e-01,1.577398657798767090e+00,3.122121691703796387e-01
3.031746149063110352e-01,1.579459428787231445e+00,3.713031709194183350e-01
2.758526206016540527e-01,1.557185888290405273e+00,-4.237423837184906006e-01
2.762200832366943359e-01,1.559260129928588867e+00,-3.655877709388732910e-01
2.765577435493469238e-01,1.561166286468505859e+00,-3.081842362880706787e-01
2.768831849098205566e-01,1.563003420829772949e+00,-2.514093518257141113e-01
2.772418856620788574e-01,1.565028190612792969e+00,-1.951528638601303101e-01
2.775892615318298340e-01,1.566989183425903320e+00,-1.392280608415603638e-01
2.779327929019927979e-01,1.568928360939025879e+00,-8.350411802530288696e-02
2.782765030860900879e-01,1.570868611335754395e+00,-2.784648165106773376e-02
2.786211073398590088e-01,1.572813868522644043e+00,2.788096666336059570e-02
2.789643406867980957e-01,1.574751377105712891e+00,8.381403982639312744e-02
2.793003022670745850e-01,1.576647877693176270e+00,1.400862485170364380e-01
2.796761393547058105e-01,1.578769564628601074e+00,1.968663632869720459e-01
2.800475060939788818e-01,1.580865859985351562e+00,2.542825341224670410e-01
2.803982496261596680e-01,1.582845807075500488e+00,3.124639391899108887e-01
2.808002531528472900e-01,1.585115194320678711e+00,3.716498315334320068e-01
2.537724375724792480e-01,1.562418103218078613e+00,-4.241343140602111816e-01
2.540896534919738770e-01,1.564371109008789062e+00,-3.658959269523620605e-01
2.543864548206329346e-01,1.566198468208312988e+00,-3.084272444248199463e-01
2.547195255756378174e-01,1.568249106407165527e+00,-2.516409158706665039e-01
2.550394535064697266e-01,1.570218801498413086e+00,-1.953249126672744751e-01
2.553736269474029541e-01,1.572276234626770020e+00,-1.393587738275527954e-01
2.556822299957275391e-01,1.574176311492919922e+00,-8.358008414506912231e-02
2.559984326362609863e-01,1.576122999191284180e+00,-2.787181548774242401e-02
2.563229203224182129e-01,1.578120827674865723e+00,2.790714427828788757e-02
2.566239237785339355e-01,1.579974174499511719e+00,8.388791978359222412e-02
2.569432258605957031e-01,1.581939816474914551e+00,1.402153074741363525e-01
2.572546899318695068e-01,1.583857417106628418e+00,1.970214694738388062e-01
2.576103210449218750e-01,1.586047053337097168e+00,2.544967830181121826e-01
2.579542398452758789e-01,1.588164448738098145e+00,3.127529621124267578e-01
2.582683563232421875e-01,1.590098381042480469e+00,3.719133436679840088e-01
2.316492348909378052e-01,1.567677378654479980e+00,-4.246183931827545166e-01
2.319200485944747925e-01,1.569510102272033691e+00,-3.662839531898498535e-01
2.322260737419128418e-01,1.571581125259399414e+00,-3.088010549545288086e-01
2.325146347284317017e-01,1.573534011840820312e+00,-2.519291043281555176e-01
2.328243404626846313e-01,1.575629949569702148e+00,-1.955634504556655884e-01
2.331003397703170776e-01,1.577497720718383789e+00,-1.395115554332733154e-01
2.333915084600448608e-01,1.579468250274658203e+00,-8.367511630058288574e-02
2.336801737546920776e-01,1.581421732902526855e+00,-2.790351212024688721e-02
2.339666634798049927e-01,1.583360552787780762e+00,2.793772146105766296e-02
2.342709302902221680e-01,1.585419654846191406e+00,8.399040997028350830e-02
2.345445305109024048e-01,1.587271213531494141e+00,1.403759121894836426e-01
2.348446249961853027e-01,1.589302062988281250e+00,1.972603946924209595e-01
2.351335287094116211e-01,1.591257214546203613e+00,2.547666430473327637e-01
2.354665547609329224e-01,1.593510985374450684e+00,3.131100535392761230e-01
2.357788234949111938e-01,1.595624208450317383e+00,3.723783195018768311e-01
2.094452530145645142e-01,1.572757005691528320e+00,-4.251387119293212891e-01
2.097283750772476196e-01,1.574883103370666504e+00,-3.667997121810913086e-01
2.099875807762145996e-01,1.576829552650451660e+00,-3.092100322246551514e-01
2.102362215518951416e-01,1.578696489334106445e+00,-2.522480189800262451e-01
2.105096876621246338e-01,1.580749988555908203e+00,-1.958048939704895020e-01
2.107725143432617188e-01,1.582723736763000488e+00,-1.396926194429397583e-01
2.110304683446884155e-01,1.584660649299621582e+00,-8.378159999847412109e-02
2.112914323806762695e-01,1.586620330810546875e+00,-2.793901413679122925e-02
2.115561664104461670e-01,1.588608264923095703e+00,2.797402068972587585e-02
2.118176370859146118e-01,1.590571641921997070e+00,8.409411460161209106e-02
2.120716571807861328e-01,1.592479228973388672e+00,1.405536532402038574e-01
2.123554348945617676e-01,1.594610095024108887e+00,1.975217163562774658e-01
2.126345038414001465e-01,1.596705675125122070e+00,2.551255524158477783e-01
2.128967195749282837e-01,1.598674654960632324e+00,3.134937882423400879e-01
2.131990194320678711e-01,1.600944638252258301e+00,3.728696107864379883e-01
1.872138977050781250e-01,1.578117251396179199e+00,-4.258196949958801270e-01
1.874528527259826660e-01,1.580131530761718750e+00,-3.673595488071441650e-01
1.876754760742187500e-01,1.582008123397827148e+00,-3.096670508384704590e-01
1.879245489835739136e-01,1.584107756614685059e+00,-2.526569664478302002e-01
1.881621927022933960e-01,1.586110949516296387e+00,-1.961152404546737671e-01
1.883955448865890503e-01,1.588077902793884277e+00,-1.399128586053848267e-01
1.886296868324279785e-01,1.590051531791687012e+00,-8.391527086496353149e-02
1.888628602027893066e-01,1.592017173767089844e+00,-2.798357978463172913e-02
1.890957504510879517e-01,1.593980312347412109e+00,2.801808714866638184e-02
1.893312186002731323e-01,1.595965147018432617e+00,8.422736078500747681e-02
1.895652711391448975e-01,1.597938179969787598e+00,1.407815665006637573e-01
1.897916048765182495e-01,1.599846005439758301e+00,1.978135257959365845e-01
1.900502890348434448e-01,1.602026581764221191e+00,2.555149197578430176e-01
1.902990788221359253e-01,1.604123830795288086e+00,3.139960467815399170e-01
1.905247867107391357e-01,1.606026291847229004e+00,3.733797669410705566e-01
1.648851484060287476e-01,1.583289384841918945e+00,-4.265347719192504883e-01
1.651274561882019043e-01,1.585616111755371094e+00,-3.680474758148193359e-01
1.653099805116653442e-01,1.587368726730346680e+00,-3.102214336395263672e-01
1.655204296112060547e-01,1.589389562606811523e+00,-2.530955970287322998e-01
1.657247990369796753e-01,1.591352105140686035e+00,-1.964498609304428101e-01
1.659414768218994141e-01,1.593432664871215820e+00,-1.401610076427459717e-01
1.661435067653656006e-01,1.595372676849365234e+00,-8.406198024749755859e-02
1.663487404584884644e-01,1.597343444824218750e+00,-2.803247794508934021e-02
1.665583699941635132e-01,1.599356293678283691e+00,2.806780114769935608e-02
1.667543947696685791e-01,1.601238608360290527e+00,8.437106013298034668e-02
1.669655144214630127e-01,1.603265881538391113e+00,1.410259455442428589e-01
1.671741008758544922e-01,1.605268836021423340e+00,1.981678605079650879e-01
1.674157828092575073e-01,1.607589483261108398e+00,2.559937536716461182e-01
1.676023304462432861e-01,1.609380841255187988e+00,3.145232796669006348e-01
1.678157150745391846e-01,1.611429810523986816e+00,3.740392625331878662e-01
1.424809098243713379e-01,1.588527083396911621e+00,-4.273526072502136230e-01
1.426820009946823120e-01,1.590769171714782715e+00,-3.687317669391632080e-01
1.428651362657546997e-01,1.592810988426208496e+00,-3.108535110950469971e-01
1.430392563343048096e-01,1.594752192497253418e+00,-2.535975277423858643e-01
1.432289630174636841e-01,1.596867203712463379e+00,-1.968574672937393188e-01
1.433987766504287720e-01,1.598760485649108887e+00,-1.404347270727157593e-01
1.435799002647399902e-01,1.600779891014099121e+00,-8.422997593879699707e-02
1.437574326992034912e-01,1.602759122848510742e+00,-2.808853238821029663e-02
1.439317464828491211e-01,1.604702591896057129e+00,2.812259085476398468e-02
1.441188901662826538e-01,1.606789112091064453e+00,8.454617112874984741e-02
1.442880928516387939e-01,1.608675479888916016e+00,1.413056552410125732e-01
1.444761753082275391e-01,1.610772609710693359e+00,1.985716670751571655e-01
1.446592658758163452e-01,1.612813711166381836e+00,2.564696669578552246e-01
1.448289602994918823e-01,1.614705801010131836e+00,3.151265382766723633e-01
1.450258791446685791e-01,1.616901278495788574e+00,3.747890293598175049e-01
1.200011000037193298e-01,1.593987107276916504e+00,-4.283155202865600586e-01
1.201597303152084351e-01,1.596094250679016113e+00,-3.695295751094818115e-01
1.203057542443275452e-01,1.598033905029296875e+00,-3.115048706531524658e-01
1.204469278454780579e-01,1.599909186363220215e+00,-2.541173994541168213e-01
1.206041797995567322e-01,1.601997852325439453e+00,-1.972569376230239868e-01
1.207560598850250244e-01,1.604015350341796875e+00,-1.407300680875778198e-01
1.209058687090873718e-01,1.606005311012268066e+00,-8.440522104501724243e-02
1.210553869605064392e-01,1.607991337776184082e+00,-2.814697660505771637e-02
1.212049499154090881e-01,1.609977960586547852e+00,2.818175218999385834e-02
1.213535219430923462e-01,1.611951470375061035e+00,8.471772819757461548e-02
1.214985847473144531e-01,1.613878369331359863e+00,1.415954083204269409e-01
1.216624826192855835e-01,1.616055369377136230e+00,1.989878714084625244e-01
1.218249574303627014e-01,1.618213653564453125e+00,2.570247650146484375e-01
1.219788268208503723e-01,1.620257496833801270e+00,3.158369064331054688e-01
1.221158504486083984e-01,1.622077584266662598e+00,3.755452632904052734e-01
9.738718718290328979e-02,1.599014163017272949e+00,-4.292477965354919434e-01
9.751158952713012695e-02,1.601056814193725586e+00,-3.703174293041229248e-01
9.764931350946426392e-02,1.603317975997924805e+00,-3.122304677963256836e-01
9.777624160051345825e-02,1.605402112007141113e+00,-2.547414898872375488e-01
9.789728373289108276e-02,1.607389569282531738e+00,-1.977280378341674805e-01
9.801606088876724243e-02,1.609339714050292969e+00,-1.410596668720245361e-01
9.813541918992996216e-02,1.611299514770507812e+00,-8.460097759962081909e-02
9.825676679611206055e-02,1.613291978836059570e+00,-2.821225486695766449e-02
9.838047623634338379e-02,1.615323185920715332e+00,2.824777364730834961e-02
9.850560873746871948e-02,1.617377638816833496e+00,8.492010831832885742e-02
9.863003343343734741e-02,1.619420647621154785e+00,1.419432610273361206e-01
9.875059872865676880e-02,1.621400237083435059e+00,1.994515061378479004e-01
9.886290132999420166e-02,1.623244166374206543e+00,2.575726211071014404e-01
9.899215400218963623e-02,1.625366449356079102e+00,3.165241777896881104e-01
9.914499521255493164e-02,1.627875804901123047e+00,3.765205740928649902e-01
7.469525933265686035e-02,1.604607939720153809e+00,-4.304183125495910645e-01
7.478419691324234009e-02,1.606518387794494629e+00,-3.712950646877288818e-01
7.488506287336349487e-02,1.608685135841369629e+00,-3.130348622798919678e-01
7.497928291559219360e-02,1.610709309577941895e+00,-2.553871572017669678e-01
7.507061958312988281e-02,1.612671256065368652e+00,-1.982252597808837891e-01
7.516202330589294434e-02,1.614634871482849121e+00,-1.414149999618530273e-01
7.525741308927536011e-02,1.616684079170227051e+00,-8.481844514608383179e-02
7.535053044557571411e-02,1.618684411048889160e+00,-2.828479744493961334e-02
7.544144243001937866e-02,1.620637416839599609e+00,2.831892296671867371e-02
7.553710788488388062e-02,1.622692465782165527e+00,8.513367176055908203e-02
7.563398778438568115e-02,1.624773621559143066e+00,1.423029899597167969e-01
7.572959363460540771e-02,1.626827478408813477e+00,1.999653130769729614e-01
7.582057267427444458e-02,1.628781914710998535e+00,2.582526803016662598e-01
7.592635601758956909e-02,1.631054282188415527e+00,3.173876702785491943e-01
7.602495700120925903e-02,1.633172512054443359e+00,3.774552941322326660e-01
5.186050385236740112e-02,1.609797239303588867e+00,-4.315669536590576172e-01
5.193410813808441162e-02,1.612081885337829590e+00,-3.723709583282470703e-01
5.200089886784553528e-02,1.614155173301696777e+00,-3.139222860336303711e-01
5.206424370408058167e-02,1.616121530532836914e+00,-2.561008930206298828e-01
5.212674289941787720e-02,1.618061542510986328e+00,-1.987757384777069092e-01
5.219435691833496094e-02,1.620160222053527832e+00,-1.418189853429794312e-01
5.225939676165580750e-02,1.622179150581359863e+00,-8.505878597497940063e-02
5.232406780123710632e-02,1.624186635017395020e+00,-2.836494892835617065e-02
5.238841474056243896e-02,1.626183986663818359e+00,2.839983068406581879e-02
5.245066061615943909e-02,1.628116250038146973e+00,8.537009358406066895e-02
5.251889675855636597e-02,1.630234360694885254e+00,1.427008062601089478e-01
5.258742347359657288e-02,1.632361412048339844e+00,2.005324661731719971e-01
5.265388265252113342e-02,1.634424328804016113e+00,2.590012848377227783e-01
5.271525681018829346e-02,1.636329531669616699e+00,3.182347714900970459e-01
5.278695002198219299e-02,1.638554930686950684e+00,3.784858882427215576e-01
2.890943922102451324e-02,1.615608453750610352e+00,-4.329695999622344971e-01
2.894811891019344330e-02,1.617770075798034668e+00,-3.735508620738983154e-01
2.898363023996353149e-02,1.619754672050476074e+00,-3.148983418941497803e-01
2.901777066290378571e-02,1.621662497520446777e+00,-2.568868398666381836e-01
2.905576489865779877e-02,1.623785972595214844e+00,-1.994074583053588867e-01
2.909217588603496552e-02,1.625820755958557129e+00,-1.422634422779083252e-01
2.912782877683639526e-02,1.627813220024108887e+00,-8.532360196113586426e-02
2.916385978460311890e-02,1.629826784133911133e+00,-2.845324575901031494e-02
2.920035645365715027e-02,1.631866455078125000e+00,2.848885208368301392e-02
2.923632413148880005e-02,1.633876562118530273e+00,8.564142137765884399e-02
2.927117608487606049e-02,1.635824203491210938e+00,1.431387662887573242e-01
2.931051515042781830e-02,1.638022661209106445e+00,2.011557817459106445e-01
2.934934571385383606e-02,1.640192747116088867e+00,2.598221898078918457e-01
2.938594855368137360e-02,1.642238259315490723e+00,3.192693889141082764e-01
2.941834367811679840e-02,1.644048690795898438e+00,3.796187341213226318e-01
5.802412983030080795e-03,1.621029019355773926e+00,-4.343554973602294922e-01
5.809776484966278076e-03,1.623086214065551758e+00,-3.747207820415496826e-01
5.816606339067220688e-03,1.624994158744812012e+00,-3.158684074878692627e-01
5.824314896017313004e-03,1.627147674560546875e+00,-2.577161490917205811e-01
5.830855574458837509e-03,1.628975033760070801e+00,-2.000139653682708740e-01
5.838233511894941330e-03,1.631036281585693359e+00,-1.426978856325149536e-01
5.845563951879739761e-03,1.633084177970886230e+00,-8.558673411607742310e-02
5.852793343365192413e-03,1.635103821754455566e+00,-2.854098379611968994e-02
5.859934259206056595e-03,1.637098789215087891e+00,2.857580594718456268e-02
5.867090076208114624e-03,1.639097929000854492e+00,8.590190857648849487e-02
5.875182338058948517e-03,1.641358613967895508e+00,1.436009854078292847e-01
5.882213823497295380e-03,1.643323063850402832e+00,2.017756849527359009e-01
5.890307482331991196e-03,1.645584106445312500e+00,2.606362104415893555e-01
5.898063071072101593e-03,1.647750854492187500e+00,3.202918767929077148e-01
5.905078258365392685e-03,1.649710655212402344e+00,3.808675706386566162e-01
-1.745892316102981567e-02,1.626590371131896973e+00,-4.358680248260498047e-01
-1.748053170740604401e-02,1.628603696823120117e+00,-3.760138750076293945e-01
-1.750489696860313416e-02,1.630873560905456543e+00,-3.170275092124938965e-01
-1.752748340368270874e-02,1.632977962493896484e+00,-2.586528062820434570e-01
-1.754915900528430939e-02,1.634997367858886719e+00,-2.007637023925781250e-01
-1.757059246301651001e-02,1.636994361877441406e+00,-1.432264894247055054e-01
-1.759231649339199066e-02,1.639018297195434570e+00,-8.590212464332580566e-02
-1.761405169963836670e-02,1.641043305397033691e+00,-2.864612452685832977e-02
-1.763593032956123352e-02,1.643081545829772949e+00,2.868170477449893951e-02
-1.765823550522327423e-02,1.645159721374511719e+00,8.622400462627410889e-02
-1.768055744469165802e-02,1.647239327430725098e+00,1.441228538751602173e-01
-1.770234480500221252e-02,1.649269223213195801e+00,2.025161683559417725e-01
-1.772281713783740997e-02,1.651176452636718750e+00,2.615353465080261230e-01
-1.774670183658599854e-02,1.653401851654052734e+00,3.214067816734313965e-01
-1.776874996721744537e-02,1.655456066131591797e+00,3.822135627269744873e-01
-4.088879749178886414e-02,1.632238030433654785e+00,-4.374933838844299316e-01
-4.093677178025245667e-02,1.634153127670288086e+00,-3.773917555809020996e-01
-4.099198803305625916e-02,1.636357307434082031e+00,-3.181749582290649414e-01
-4.104383289813995361e-02,1.638426899909973145e+00,-2.595823407173156738e-01
-4.109429940581321716e-02,1.640441417694091797e+00,-2.014837712049484253e-01
-4.114824160933494568e-02,1.642594814300537109e+00,-1.437532901763916016e-01
-4.119824245572090149e-02,1.644590735435485840e+00,-8.621626347303390503e-02
-4.124922677874565125e-02,1.646625995635986328e+00,-2.875093743205070496e-02
-4.130125418305397034e-02,1.648702979087829590e+00,2.878720313310623169e-02
-4.134970158338546753e-02,1.650636911392211914e+00,8.653322607278823853e-02
-4.140229150652885437e-02,1.652736186981201172e+00,1.446408331394195557e-01
-4.145438969135284424e-02,1.654815793037414551e+00,2.032492756843566895e-01
-4.150419309735298157e-02,1.656803965568542480e+00,2.624939084053039551e-01
-4.156285151839256287e-02,1.659145593643188477e+00,3.226059377193450928e-01
-4.161795601248741150e-02,1.661345243453979492e+00,3.836715221405029297e-01
-6.450226157903671265e-02,1.638013958930969238e+00,-4.392439723014831543e-01
-6.457379460334777832e-02,1.639830470085144043e+00,-3.788775205612182617e-01
-6.465813517570495605e-02,1.641972303390502930e+00,-3.194139599800109863e-01
-6.475009769201278687e-02,1.644307613372802734e+00,-2.606341838836669922e-01
-6.482604891061782837e-02,1.646236300468444824e+00,-2.022887617349624634e-01
-6.490872055292129517e-02,1.648335814476013184e+00,-1.443222463130950928e-01
-6.498645246028900146e-02,1.650309801101684570e+00,-8.655597269535064697e-02
-6.506677716970443726e-02,1.652349472045898438e+00,-2.886417880654335022e-02
-6.515014171600341797e-02,1.654466509819030762e+00,2.890115976333618164e-02
-6.522893905639648438e-02,1.656467676162719727e+00,8.687894046306610107e-02
-6.531567126512527466e-02,1.658670186996459961e+00,1.452270895242691040e-01
-6.538755446672439575e-02,1.660495519638061523e+00,2.040409296751022339e-01
-6.546890735626220703e-02,1.662561535835266113e+00,2.635275721549987793e-01
-6.556566059589385986e-02,1.665018677711486816e+00,3.238971829414367676e-01
-6.565796583890914917e-02,1.667362570762634277e+00,3.852387368679046631e-01
-8.827761560678482056e-02,1.643227934837341309e+00,-4.409358203411102295e-01
-8.837100863456726074e-02,1.644966363906860352e+00,-3.803174495697021484e-01
-8.850411325693130493e-02,1.647444009780883789e+00,-3.206919431686401367e-01
-8.860794454813003540e-02,1.649376749992370605e+00,-2.616119384765625000e-01
-8.872356265783309937e-02,1.651528954505920410e+00,-2.030743509531021118e-01
-8.882689476013183594e-02,1.653452396392822266e+00,-1.448667198419570923e-01
-8.893860876560211182e-02,1.655531764030456543e+00,-8.688772469758987427e-02
-8.904859423637390137e-02,1.657579064369201660e+00,-2.897482924163341522e-02
-8.915720134973526001e-02,1.659600734710693359e+00,2.901016920804977417e-02
-8.927512168884277344e-02,1.661795735359191895e+00,8.721648156642913818e-02
-8.938193321228027344e-02,1.663784027099609375e+00,1.457719206809997559e-01
-8.950268477201461792e-02,1.666031718254089355e+00,2.048576474189758301e-01
-8.959599584341049194e-02,1.667768716812133789e+00,2.645291090011596680e-01
-8.973305672407150269e-02,1.670319914817810059e+00,3.251449763774871826e-01
-8.983149379491806030e-02,1.672152280807495117e+00,3.866028487682342529e-01
-1.122952252626419067e-01,1.649268627166748047e+00,-4.429426789283752441e-01
-1.124391928315162659e-01,1.651383042335510254e+00,-3.821339607238769531e-01
-1.125724539160728455e-01,1.653340220451354980e+00,-3.221203982830047607e-01
-1.127021908760070801e-01,1.655245780944824219e+00,-2.627717554569244385e-01
-1.128490418195724487e-01,1.657402515411376953e+00,-2.039743065834045410e-01
-1.129910051822662354e-01,1.659487485885620117e+00,-1.455222815275192261e-01
-1.131312549114227295e-01,1.661547303199768066e+00,-8.727948367595672607e-02
-1.132711544632911682e-01,1.663601994514465332e+00,-2.910546958446502686e-02
-1.134112253785133362e-01,1.665659189224243164e+00,2.914146147668361664e-02
-1.135505735874176025e-01,1.667705774307250977e+00,8.760298788547515869e-02
-1.136865690350532532e-01,1.669703245162963867e+00,1.464181095361709595e-01
-1.138426735997200012e-01,1.671995878219604492e+00,2.057702988386154175e-01
-1.139982193708419800e-01,1.674280285835266113e+00,2.657935023307800293e-01
-1.141467690467834473e-01,1.676462054252624512e+00,3.266251981258392334e-01
-1.142804920673370361e-01,1.678426027297973633e+00,3.883917629718780518e-01
-1.364820748567581177e-01,1.654694437980651855e+00,-4.448789954185485840e-01
-1.366508752107620239e-01,1.656740903854370117e+00,-3.837870657444000244e-01
-1.368088275194168091e-01,1.658656120300292969e+00,-3.235044479370117188e-01
-1.369897872209548950e-01,1.660849928855895996e+00,-2.639456689357757568e-01
-1.371618360280990601e-01,1.662935733795166016e+00,-2.048759013414382935e-01
-1.373299956321716309e-01,1.664974570274353027e+00,-1.461608409881591797e-01
-1.374981701374053955e-01,1.667013525962829590e+00,-8.766102045774459839e-02
-1.376683413982391357e-01,1.669076561927795410e+00,-2.923273108899593353e-02
-1.378408670425415039e-01,1.671168446540832520e+00,2.926936745643615723e-02
-1.380145400762557983e-01,1.673273921012878418e+00,8.799023181200027466e-02
-1.381866037845611572e-01,1.675359964370727539e+00,1.470725387334823608e-01
-1.383523643016815186e-01,1.677369594573974609e+00,2.066541761159896851e-01
-1.385455429553985596e-01,1.679711818695068359e+00,2.669432461261749268e-01
-1.387325227260589600e-01,1.681978583335876465e+00,3.280532658100128174e-01
-1.389034986495971680e-01,1.684051513671875000e+00,3.901136219501495361e-01
-1.609740406274795532e-01,1.661074042320251465e+00,-4.471678733825683594e-01
-1.611646562814712524e-01,1.663040995597839355e+00,-3.857413530349731445e-01
-1.613453179597854614e-01,1.664905309677124023e+00,-3.251404166221618652e-01
-1.615561246871948242e-01,1.667080640792846680e+00,-2.652761936187744141e-01
-1.617591530084609985e-01,1.669175505638122559e+00,-2.059088200330734253e-01
-1.619735956192016602e-01,1.671388387680053711e+00,-1.469123661518096924e-01
-1.621691137552261353e-01,1.673405885696411133e+00,-8.811020851135253906e-02
-1.623696684837341309e-01,1.675475478172302246e+00,-2.938249893486499786e-02
-1.625761091709136963e-01,1.677605628967285156e+00,2.941985428333282471e-02
-1.627648770809173584e-01,1.679553508758544922e+00,8.843389898538589478e-02
-1.629675626754760742e-01,1.681645035743713379e+00,1.478139013051986694e-01
-1.631659269332885742e-01,1.683691978454589844e+00,2.076995521783828735e-01
-1.633994281291961670e-01,1.686101436614990234e+00,2.683028876781463623e-01
-1.636286824941635132e-01,1.688467025756835938e+00,3.297418057918548584e-01
-1.638415604829788208e-01,1.690663695335388184e+00,3.921484053134918213e-01
-1.856417506933212280e-01,1.666778683662414551e+00,-4.493728876113891602e-01
-1.858541518449783325e-01,1.668685674667358398e+00,-3.876279890537261963e-01
-1.861021220684051514e-01,1.670912146568298340e+00,-3.268002271652221680e-01
-1.863341629505157471e-01,1.672995567321777344e+00,-2.666144967079162598e-01
-1.865597665309906006e-01,1.675021171569824219e+00,-2.069381326436996460e-01
-1.867864280939102173e-01,1.677056074142456055e+00,-1.476304233074188232e-01
-1.870239377021789551e-01,1.679188609123229980e+00,-8.854656666517257690e-02
-1.872555017471313477e-01,1.681267738342285156e+00,-2.952805534005165100e-02
-1.874812096357345581e-01,1.683294296264648438e+00,2.956364676356315613e-02
-1.877198368310928345e-01,1.685436725616455078e+00,8.887603878974914551e-02
-1.879620850086212158e-01,1.687611699104309082e+00,1.485596299171447754e-01
-1.882022619247436523e-01,1.689768195152282715e+00,2.087600380182266235e-01
-1.884314864873886108e-01,1.691826224327087402e+00,2.696154415607452393e-01
-1.887035369873046875e-01,1.694268822669982910e+00,3.313683867454528809e-01
-1.889595687389373779e-01,1.696567654609680176e+00,3.941048085689544678e-01
-2.105697244405746460e-01,1.672625660896301270e+00,-4.517155587673187256e-01
-2.108024358749389648e-01,1.674474239349365234e+00,-3.896336257457733154e-01
-2.110790908336639404e-01,1.676671743392944336e+00,-3.284839689731597900e-01
-2.113410234451293945e-01,1.678752422332763672e+00,-2.679865658283233643e-01
-2.116270810365676880e-01,1.681024551391601562e+00,-2.080327421426773071e-01
-2.118779867887496948e-01,1.683017730712890625e+00,-1.484069824218750000e-01
-2.121444195508956909e-01,1.685134053230285645e+00,-8.901108056306838989e-02
-2.124068140983581543e-01,1.687218308448791504e+00,-2.968292124569416046e-02
-2.126663476228713989e-01,1.689279913902282715e+00,2.971918880939483643e-02
-2.129431366920471191e-01,1.691478490829467773e+00,8.934620767831802368e-02
-2.131873518228530884e-01,1.693418383598327637e+00,1.493241041898727417e-01
-2.134612649679183960e-01,1.695594072341918945e+00,2.098357826471328735e-01
-2.137260735034942627e-01,1.697697639465332031e+00,2.710108757019042969e-01
-2.140427231788635254e-01,1.700212836265563965e+00,3.330959975719451904e-01
-2.142610400915145874e-01,1.701947093009948730e+00,3.960262835025787354e-01
-2.357772588729858398e-01,1.678628444671630859e+00,-4.542015790939331055e-01
-2.360987961292266846e-01,1.680917620658874512e+00,-3.918791413307189941e-01
-2.363921403884887695e-01,1.683006167411804199e+00,-3.303540349006652832e-01
-2.366712540388107300e-01,1.684993267059326172e+00,-2.694959938526153564e-01
-2.369499802589416504e-01,1.686977624893188477e+00,-2.091677486896514893e-01
-2.372557520866394043e-01,1.689154744148254395e+00,-1.492322981357574463e-01
-2.375506311655044556e-01,1.691254138946533203e+00,-8.950478583574295044e-02
-2.378449141979217529e-01,1.693349242210388184e+00,-2.984761632978916168e-02
-2.381383925676345825e-01,1.695438623428344727e+00,2.988444454967975616e-02
-2.384229898452758789e-01,1.697464823722839355e+00,8.983346819877624512e-02
-2.387396544218063354e-01,1.699719429016113281e+00,1.501656621694564819e-01
-2.390602827072143555e-01,1.702002048492431641e+00,2.110306322574615479e-01
-2.393736541271209717e-01,1.704233169555664062e+00,2.725732028484344482e-01
-2.396663725376129150e-01,1.706317186355590820e+00,3.349296748638153076e-01
-2.399223595857620239e-01,1.708139657974243164e+00,3.982255458831787109e-01
-2.611218392848968506e-01,1.683749556541442871e+00,-4.565517902374267578e-01
-2.614720761775970459e-01,1.686008214950561523e+00,-3.938980996608734131e-01
-2.617939412593841553e-01,1.688083529472351074e+00,-3.320521712303161621e-01
-2.621037960052490234e-01,1.690081477165222168e+00,-2.708820700645446777e-01
-2.624518573284149170e-01,1.692325711250305176e+00,-2.102750986814498901e-01
-2.627844810485839844e-01,1.694470643997192383e+00,-1.500188857316970825e-01
-2.631077468395233154e-01,1.696555256843566895e+00,-8.997541666030883789e-02
-2.634335756301879883e-01,1.698656082153320312e+00,-3.000454418361186981e-02
-2.637619674205780029e-01,1.700773715972900391e+00,3.004194982349872589e-02
-2.640845179557800293e-01,1.702853560447692871e+00,9.030944854021072388e-02
-2.643944621086120605e-01,1.704851984977722168e+00,1.509380042552947998e-01
-2.647483646869659424e-01,1.707134008407592773e+00,2.121150642633438110e-01
-2.650984227657318115e-01,1.709391236305236816e+00,2.739770114421844482e-01
-2.654292285442352295e-01,1.711524367332458496e+00,3.366630673408508301e-01
-2.657219469547271729e-01,1.713411927223205566e+00,4.003003537654876709e-01
-2.869281470775604248e-01,1.690060973167419434e+00,-4.593296945095062256e-01
-2.873045802116394043e-01,1.692278265953063965e+00,-3.962831199169158936e-01
-2.876536250114440918e-01,1.694334268569946289e+00,-3.340573608875274658e-01
-2.880492508411407471e-01,1.696664452552795410e+00,-2.725700736045837402e-01
-2.884203195571899414e-01,1.698850035667419434e+00,-2.115770429372787476e-01
-2.887777388095855713e-01,1.700955390930175781e+00,-1.509435027837753296e-01
-2.891289293766021729e-01,1.703023910522460938e+00,-9.052868932485580444e-02
-2.894870638847351074e-01,1.705133318901062012e+00,-3.018905781209468842e-02
-2.898525595664978027e-01,1.707286238670349121e+00,3.022717311978340149e-02
-2.902141809463500977e-01,1.709416270256042480e+00,9.086848795413970947e-02
-2.905666828155517578e-01,1.711492538452148438e+00,1.518785804510116577e-01
-2.909002006053924561e-01,1.713457226753234863e+00,2.133962213993072510e-01
-2.912897169589996338e-01,1.715751528739929199e+00,2.756364345550537109e-01
-2.916615605354309082e-01,1.717941641807556152e+00,3.387118577957153320e-01
-2.921118140220642090e-01,1.720593810081481934e+00,4.029138088226318359e-01
-3.130792081356048584e-01,1.696577787399291992e+00,-4.622713923454284668e-01
-3.135749995708465576e-01,1.699264407157897949e+00,-3.989292383193969727e-01
-3.139356672763824463e-01,1.701218843460083008e+00,-3.362662494182586670e-01
-3.143510818481445312e-01,1.703469991683959961e+00,-2.743581235408782959e-01
-3.147007226943969727e-01,1.705364704132080078e+00,-2.129275500774383545e-01
-3.150995075702667236e-01,1.707525610923767090e+00,-1.519112139940261841e-01
-3.154964745044708252e-01,1.709676742553710938e+00,-9.111305326223373413e-02
-3.158867657184600830e-01,1.711791753768920898e+00,-3.038388118147850037e-02
-3.162719309329986572e-01,1.713878989219665527e+00,3.042092919349670410e-02
-3.166576027870178223e-01,1.715968966484069824e+00,9.144838899374008179e-02
-3.170994222164154053e-01,1.718363285064697266e+00,1.528753936290740967e-01
-3.174796104431152344e-01,1.720423460006713867e+00,2.148077636957168579e-01
-3.179256916046142578e-01,1.722840785980224609e+00,2.774779498577117920e-01
-3.182443976402282715e-01,1.724567770957946777e+00,3.408814370632171631e-01
-3.187488019466400146e-01,1.727301239967346191e+00,4.055113494396209717e-01
-3.394743800163269043e-01,1.702685832977294922e+00,-4.652119874954223633e-01
-3.398878574371337891e-01,1.704759716987609863e+00,-4.013203978538513184e-01
-3.402774035930633545e-01,1.706713438034057617e+00,-3.382804095745086670e-01
-3.407309353351593018e-01,1.708988308906555176e+00,-2.760041058063507080e-01
-3.411631882190704346e-01,1.711156249046325684e+00,-2.142384350299835205e-01
-3.415881395339965820e-01,1.713287711143493652e+00,-1.528431773185729980e-01
-3.420145213603973389e-01,1.715426206588745117e+00,-9.167096018791198730e-02
-3.424379229545593262e-01,1.717549920082092285e+00,-3.056995570659637451e-02
-3.428590893745422363e-01,1.719662427902221680e+00,3.060755506157875061e-02
-3.432850539684295654e-01,1.721798777580261230e+00,9.201150387525558472e-02
-3.437091708183288574e-01,1.723926186561584473e+00,1.537922322750091553e-01
-3.441193103790283203e-01,1.725983262062072754e+00,2.160947918891906738e-01
-3.446035385131835938e-01,1.728411912918090820e+00,2.791410684585571289e-01
-3.450757563114166260e-01,1.730780482292175293e+00,3.430506289005279541e-01
-3.455113470554351807e-01,1.732965111732482910e+00,4.079602658748626709e-01
-3.660952448844909668e-01,1.708323955535888672e+00,-4.681362211704254150e-01
-3.665358126163482666e-01,1.710379719734191895e+00,-4.038370847702026367e-01
-3.670459091663360596e-01,1.712760090827941895e+00,-3.404853045940399170e-01
-3.675191700458526611e-01,1.714968323707580566e+00,-2.777910232543945312e-01
-3.679739534854888916e-01,1.717090606689453125e+00,-2.156187593936920166e-01
-3.684241473674774170e-01,1.719191312789916992e+00,-1.538245230913162231e-01
-3.688795566558837891e-01,1.721316337585449219e+00,-9.225843101739883423e-02
-3.693365454673767090e-01,1.723448991775512695e+00,-3.076589107513427734e-02
-3.697952330112457275e-01,1.725589275360107422e+00,3.080409765243530273e-02
-3.702630996704101562e-01,1.727772474288940430e+00,9.260445833206176758e-02
-3.707321882247924805e-01,1.729961514472961426e+00,1.547881811857223511e-01
-3.711904287338256836e-01,1.732099652290344238e+00,2.175034880638122559e-01
-3.716214299201965332e-01,1.734110832214355469e+00,2.808917462825775146e-01
-3.721360266208648682e-01,1.736512303352355957e+00,3.452070951461791992e-01
-3.726151287555694580e-01,1.738747835159301758e+00,4.105350971221923828e-01
-3.933800160884857178e-01,1.715436697006225586e+00,-4.715800285339355469e-01
-3.939654827117919922e-01,1.717989802360534668e+00,-4.069236814975738525e-01
-3.944913446903228760e-01,1.720282912254333496e+00,-3.430681526660919189e-01
-3.949044644832611084e-01,1.722084522247314453e+00,-2.798306345939636230e-01
-3.954559564590454102e-01,1.724489331245422363e+00,-2.172363847494125366e-01
-3.959303498268127441e-01,1.726558089256286621e+00,-1.549748629331588745e-01
-3.964158296585083008e-01,1.728675127029418945e+00,-9.294743835926055908e-02
-3.969063162803649902e-01,1.730813980102539062e+00,-3.099560737609863281e-02
-3.974040150642395020e-01,1.732984423637390137e+00,3.103447519242763519e-02
-3.979166150093078613e-01,1.735219836235046387e+00,9.329932928085327148e-02
-3.983570039272308350e-01,1.737140178680419922e+00,1.559247076511383057e-01
-3.989465832710266113e-01,1.739711165428161621e+00,2.191538959741592407e-01
-3.994326889514923096e-01,1.741831064224243164e+00,2.830393314361572266e-01
-3.998712599277496338e-01,1.743743538856506348e+00,3.477467894554138184e-01
-4.003981351852416992e-01,1.746041059494018555e+00,4.135679006576538086e-01
-4.209185540676116943e-01,1.722016811370849609e+00,-4.749965071678161621e-01
-4.213933050632476807e-01,1.723959088325500488e+00,-4.097242057323455811e-01
-4.219569265842437744e-01,1.726264834403991699e+00,-3.454301953315734863e-01
-4.224872589111328125e-01,1.728434443473815918e+00,-2.818162441253662109e-01
-4.230052232742309570e-01,1.730553507804870605e+00,-2.187405973672866821e-01
-4.235634207725524902e-01,1.732837200164794922e+00,-1.560666710138320923e-01
-4.240786135196685791e-01,1.734944820404052734e+00,-9.360133111476898193e-02
-4.246037304401397705e-01,1.737093210220336914e+00,-3.121369704604148865e-02
-4.251407682895660400e-01,1.739290237426757812e+00,3.125317394733428955e-02
-4.256368577480316162e-01,1.741319775581359863e+00,9.394526481628417969e-02
-4.261813759803771973e-01,1.743547439575195312e+00,1.570312678813934326e-01
-4.267222583293914795e-01,1.745760321617126465e+00,2.206627130508422852e-01
-4.272412657737731934e-01,1.747883677482604980e+00,2.849873900413513184e-01
-4.278662204742431641e-01,1.750440359115600586e+00,3.502677679061889648e-01
-4.284594655036926270e-01,1.752867341041564941e+00,4.165946841239929199e-01
-4.487234354019165039e-01,1.728149890899658203e+00,-4.784108698368072510e-01
-4.493632316589355469e-01,1.730613946914672852e+00,-4.127922058105468750e-01
-4.499432146549224854e-01,1.732847571372985840e+00,-3.480004668235778809e-01
-4.504917562007904053e-01,1.734960198402404785e+00,-2.839024960994720459e-01
-4.510313570499420166e-01,1.737038373947143555e+00,-2.203537076711654663e-01
-4.516175687313079834e-01,1.739295959472656250e+00,-1.572144478559494019e-01
-4.521620273590087891e-01,1.741392731666564941e+00,-9.428871423006057739e-02
-4.527219235897064209e-01,1.743549108505249023e+00,-3.144292160868644714e-02
-4.532992839813232422e-01,1.745772719383239746e+00,3.148302063345909119e-02
-4.538376629352569580e-01,1.747846007347106934e+00,9.463813155889511108e-02
-4.544314146041870117e-01,1.750132679939270020e+00,1.581939905881881714e-01
-4.550256431102752686e-01,1.752421259880065918e+00,2.223051339387893677e-01
-4.556007385253906250e-01,1.754636168479919434e+00,2.871222198009490967e-01
-4.561298489570617676e-01,1.756673932075500488e+00,3.527854084968566895e-01
-4.567700922489166260e-01,1.759139657020568848e+00,4.195962548255920410e-01
-4.771291315555572510e-01,1.735072612762451172e+00,-4.821685254573822021e-01
