-9.670825600624084473e-01,1.512376308441162109e+00,2.843219637870788574e-01
-9.681192040443420410e-01,1.513997435569763184e+00,3.493135571479797363e-01
-9.693803191184997559e-01,1.515969753265380859e+00,4.154250025749206543e-01
-9.794421195983886719e-01,1.484457373619079590e+00,-4.765362143516540527e-01
-9.809044003486633301e-01,1.486673593521118164e+00,-4.112022519111633301e-01
-9.819533228874206543e-01,1.488263368606567383e+00,-3.465834259986877441e-01
-9.832162857055664062e-01,1.490177512168884277e+00,-2.827654182910919189e-01
-9.844340085983276367e-01,1.492023110389709473e+00,-2.194800525903701782e-01
-9.857314229011535645e-01,1.493989467620849609e+00,-1.565939933061599731e-01
-9.869028329849243164e-01,1.495764970779418945e+00,-9.391497820615768433e-02
-9.881082177162170410e-01,1.497591853141784668e+00,-3.131775930523872375e-02
-9.893510341644287109e-01,1.499475359916687012e+00,3.135715052485466003e-02
-9.904758930206298828e-01,1.501180291175842285e+00,9.425499290227890015e-02
-9.916961193084716797e-01,1.503029704093933105e+00,1.575415432453155518e-01
-9.928908348083496094e-01,1.504840493202209473e+00,2.213655263185501099e-01
-9.943307042121887207e-01,1.507022738456726074e+00,2.859618365764617920e-01
-9.953853487968444824e-01,1.508621096611022949e+00,3.513243198394775391e-01
-9.966697096824645996e-01,1.510567784309387207e+00,4.178111851215362549e-01
-1.005911350250244141e+00,1.478110790252685547e+00,-4.790718257427215576e-01
-1.007424235343933105e+00,1.480333924293518066e+00,-4.133947789669036865e-01
-1.008513092994689941e+00,1.481933712959289551e+00,-3.484353721141815186e-01
-1.009819507598876953e+00,1.483853459358215332e+00,-2.842789888381958008e-01
-1.011077046394348145e+00,1.485701322555541992e+00,-2.206563651561737061e-01
-1.012413144111633301e+00,1.487664580345153809e+00,-1.574338078498840332e-01
-1.013619303703308105e+00,1.489436984062194824e+00,-9.441893547773361206e-02
-1.014857649803161621e+00,1.491256594657897949e+00,-3.148582205176353455e-02
-1.016131401062011719e+00,1.493128418922424316e+00,3.152534365653991699e-02
-1.017281770706176758e+00,1.494818687438964844e+00,9.476009011268615723e-02
-1.018528580665588379e+00,1.496650815010070801e+00,1.583847999572753906e-01
-1.019747257232666016e+00,1.498441457748413086e+00,2.225485444068908691e-01
-1.021214842796325684e+00,1.500598073005676270e+00,2.874869406223297119e-01
-1.022285699844360352e+00,1.502171516418457031e+00,3.531937599182128906e-01
-1.023588657379150391e+00,1.504086136817932129e+00,4.200277924537658691e-01
-1.033729195594787598e+00,1.473205447196960449e+00,-4.822281599044799805e-01
-1.034919500350952148e+00,1.474901795387268066e+00,-4.159719049930572510e-01
-1.036323785781860352e+00,1.476903080940246582e+00,-3.507042825222015381e-01
-1.037408709526062012e+00,1.478449225425720215e+00,-2.860591113567352295e-01
-1.038709282875061035e+00,1.480302691459655762e+00,-2.220399528741836548e-01
-1.040088772773742676e+00,1.482268691062927246e+00,-1.584220230579376221e-01
-1.041329979896545410e+00,1.484037637710571289e+00,-9.501179307699203491e-02
-1.042602300643920898e+00,1.485850811004638672e+00,-3.168352693319320679e-02
-1.043907761573791504e+00,1.487711310386657715e+00,3.172319754958152771e-02
-1.045084595680236816e+00,1.489388465881347656e+00,9.535436332225799561e-02
-1.046354889869689941e+00,1.491198778152465820e+00,1.593764424324035645e-01
-1.047867894172668457e+00,1.493355035781860352e+00,2.239977568387985229e-01
-1.049087166786193848e+00,1.495092749595642090e+00,2.892793715000152588e-01
-1.050556898117065430e+00,1.497187256813049316e+00,3.555209636688232422e-01
-1.051930546760559082e+00,1.499144792556762695e+00,4.228092730045318604e-01
-1.060747146606445312e+00,1.466609954833984375e+00,-4.849894642829895020e-01
-1.061989784240722656e+00,1.468327999114990234e+00,-4.183621406555175781e-01
-1.063446760177612305e+00,1.470342397689819336e+00,-3.527247905731201172e-01
-1.064789414405822754e+00,1.472198843955993652e+00,-2.877691388130187988e-01
-1.066073417663574219e+00,1.473974108695983887e+00,-2.233566343784332275e-01
-1.067339539527893066e+00,1.475724577903747559e+00,-1.593391001224517822e-01
-1.068616390228271484e+00,1.477490067481994629e+00,-9.556207805871963501e-02
-1.069921970367431641e+00,1.479295134544372559e+00,-3.186702728271484375e-02
-1.071258187294006348e+00,1.481142640113830566e+00,3.190682828426361084e-02
-1.072617053985595703e+00,1.483021497726440430e+00,9.591984003782272339e-02
-1.073973059654235840e+00,1.484896302223205566e+00,1.603294014930725098e-01
-1.075292706489562988e+00,1.486720919609069824e+00,2.252882122993469238e-01
-1.076526999473571777e+00,1.488427519798278809e+00,2.909413576126098633e-01
-1.078015446662902832e+00,1.490485429763793945e+00,3.575569689273834229e-01
-1.079401731491088867e+00,1.492402076721191406e+00,4.252214729785919189e-01
-1.088845252990722656e+00,1.460961341857910156e+00,-4.882253110408782959e-01
-1.090146422386169434e+00,1.462707042694091797e+00,-4.211633801460266113e-01
-1.091661930084228516e+00,1.464740514755249023e+00,-3.550929725170135498e-01
-1.093058943748474121e+00,1.466614961624145508e+00,-2.897062003612518311e-01
-1.094389915466308594e+00,1.468400835990905762e+00,-2.248627543449401855e-01
-1.095698952674865723e+00,1.470157146453857422e+00,-1.604149043560028076e-01
-1.097015142440795898e+00,1.471923232078552246e+00,-9.620775282382965088e-02
-1.098355174064636230e+00,1.473721146583557129e+00,-3.208233416080474854e-02
-1.099722743034362793e+00,1.475556135177612305e+00,3.212228044867515564e-02
-1.101107597351074219e+00,1.477414250373840332e+00,9.656666219234466553e-02
-1.102486729621887207e+00,1.479264736175537109e+00,1.614086627960205078e-01
-1.103823542594909668e+00,1.481058478355407715e+00,2.268010824918746948e-01
-1.105069518089294434e+00,1.482730150222778320e+00,2.928895056247711182e-01
-1.106571078300476074e+00,1.484745025634765625e+00,3.599426150321960449e-01
-1.107965350151062012e+00,1.486615657806396484e+00,4.280474781990051270e-01
-1.117312669754028320e+00,1.455217242240905762e+00,-4.915998280048370361e-01
-1.118676781654357910e+00,1.456993818283081055e+00,-4.240853488445281982e-01
-1.120257258415222168e+00,1.459052324295043945e+00,-3.575646877288818359e-01
-1.121711134910583496e+00,1.460945844650268555e+00,-2.917279899120330811e-01
-1.123092293739318848e+00,1.462744832038879395e+00,-2.264351248741149902e-01
-1.124445796012878418e+00,1.464507579803466797e+00,-1.615380644798278809e-01
-1.125801444053649902e+00,1.466273307800292969e+00,-9.688179194927215576e-02
-1.127176165580749512e+00,1.468063712120056152e+00,-3.230709210038185120e-02
-1.128574371337890625e+00,1.469884753227233887e+00,3.234716504812240601e-02
-1.129985332489013672e+00,1.471722483634948730e+00,9.724183380603790283e-02
-1.131384968757629395e+00,1.473545432090759277e+00,1.625349521636962891e-01
-1.132737040519714355e+00,1.475306391716003418e+00,2.283796668052673340e-01
-1.133990764617919922e+00,1.476939201354980469e+00,2.949216067790985107e-01
-1.135502457618713379e+00,1.478908061981201172e+00,3.624306619167327881e-01
-1.136896491050720215e+00,1.480723738670349121e+00,4.309923648834228516e-01
-1.145659685134887695e+00,1.448731184005737305e+00,-4.948976933956146240e-01
-1.147027850151062012e+00,1.450461387634277344e+00,-4.269189536571502686e-01
-1.148313045501708984e+00,1.452086448669433594e+00,-3.598486781120300293e-01
-1.149824142456054688e+00,1.453997254371643066e+00,-2.935967743396759033e-01
-1.151255369186401367e+00,1.455807209014892578e+00,-2.278887182474136353e-01
-1.152653217315673828e+00,1.457574844360351562e+00,-1.625765264034271240e-01
-1.154048204421997070e+00,1.459338784217834473e+00,-9.750504791736602783e-02
-1.155457377433776855e+00,1.461120724678039551e+00,-3.251492604613304138e-02
-1.156885743141174316e+00,1.462926983833312988e+00,3.255512192845344543e-02
-1.158322453498840332e+00,1.464743733406066895e+00,9.786617010831832886e-02
-1.159740328788757324e+00,1.466536641120910645e+00,1.635761260986328125e-01
-1.161105513572692871e+00,1.468263030052185059e+00,2.298385202884674072e-01
-1.162730455398559570e+00,1.470317840576171875e+00,2.968922853469848633e-01
-1.164311289787292480e+00,1.472316861152648926e+00,3.648620843887329102e-01
-1.165766000747680664e+00,1.474156498908996582e+00,4.338932037353515625e-01
-1.174854874610900879e+00,1.442720293998718262e+00,-4.985378384590148926e-01
-1.176296591758728027e+00,1.444490671157836914e+00,-4.300732016563415527e-01
-1.177646517753601074e+00,1.446148395538330078e+00,-3.625172376632690430e-01
-1.179221868515014648e+00,1.448082923889160156e+00,-2.957804501056671143e-01
-1.180709481239318848e+00,1.449909687042236328e+00,-2.295875102281570435e-01
-1.182156562805175781e+00,1.451686859130859375e+00,-1.637903302907943726e-01
-1.183593988418579102e+00,1.453451991081237793e+00,-9.823358058929443359e-02
-1.185039639472961426e+00,1.455227136611938477e+00,-3.275788202881813049e-02
-1.186497688293457031e+00,1.457017660140991211e+00,3.279818594455718994e-02
-1.187957167625427246e+00,1.458809852600097656e+00,9.859570860862731934e-02
-1.189392566680908203e+00,1.460572600364685059e+00,1.647928953170776367e-01
-1.190766930580139160e+00,1.462260365486145020e+00,2.315431833267211914e-01
-1.192399144172668457e+00,1.464264512062072754e+00,2.990856766700744629e-01
-1.193982005119323730e+00,1.466208338737487793e+00,3.675458431243896484e-01
-1.195429205894470215e+00,1.467985510826110840e+00,4.370684027671813965e-01
-1.204452991485595703e+00,1.436576247215270996e+00,-5.023205876350402832e-01
-1.205974340438842773e+00,1.438390851020812988e+00,-4.333520531654357910e-01
-1.207705616950988770e+00,1.440455675125122070e+00,-3.653860986232757568e-01
-1.209039092063903809e+00,1.442046284675598145e+00,-2.980516850948333740e-01
-1.210585951805114746e+00,1.443891286849975586e+00,-2.313545793294906616e-01
-1.212083339691162109e+00,1.445677161216735840e+00,-1.650528311729431152e-01
-1.213564991950988770e+00,1.447444438934326172e+00,-9.899140894412994385e-02
-1.215047597885131836e+00,1.449212670326232910e+00,-3.301060199737548828e-02
-1.216534614562988281e+00,1.450986266136169434e+00,3.305100277066230774e-02
-1.218015909194946289e+00,1.452753067016601562e+00,9.935447573661804199e-02
-1.219466447830200195e+00,1.454483151435852051e+00,1.660582125186920166e-01
-1.221160173416137695e+00,1.456503391265869141e+00,2.333754152059555054e-01
-1.222482442855834961e+00,1.458080291748046875e+00,3.013657033443450928e-01
-1.224062085151672363e+00,1.459964394569396973e+00,3.703346848487854004e-01
-1.225495815277099609e+00,1.461674571037292480e+00,4.403668642044067383e-01
-1.233834385871887207e+00,1.429554343223571777e+00,-5.059887170791625977e-01
-1.235368132591247559e+00,1.431331396102905273e+00,-4.365077614784240723e-01
-1.236791253089904785e+00,1.432980298995971680e+00,-3.679426908493041992e-01
-1.238186120986938477e+00,1.434596419334411621e+00,-3.001441955566406250e-01
-1.239791631698608398e+00,1.436456561088562012e+00,-2.329828441143035889e-01
-1.241340517997741699e+00,1.438251137733459473e+00,-1.662165224552154541e-01
-1.242864489555358887e+00,1.440016984939575195e+00,-9.968987852334976196e-02
-1.244382262229919434e+00,1.441775441169738770e+00,-3.324350342154502869e-02
-1.245899438858032227e+00,1.443533301353454590e+00,3.328403457999229431e-02
-1.247402310371398926e+00,1.445274472236633301e+00,1.000538468360900879e-01
-1.248865723609924316e+00,1.446970105171203613e+00,1.672241687774658203e-01
-1.250570774078369141e+00,1.448945641517639160e+00,2.350084930658340454e-01
-1.252280354499816895e+00,1.450926303863525391e+00,3.035607039928436279e-01
-1.253921270370483398e+00,1.452827453613281250e+00,3.730387985706329346e-01
-1.255404472351074219e+00,1.454545974731445312e+00,4.435874521732330322e-01
-1.264222502708435059e+00,1.423067331314086914e+00,-5.100451707839965820e-01
-1.265847444534301758e+00,1.424896478652954102e+00,-4.400258362293243408e-01
-1.267349243164062500e+00,1.426586985588073730e+00,-3.709208965301513672e-01
-1.269068837165832520e+00,1.428522586822509766e+00,-3.026428520679473877e-01
-1.270485997200012207e+00,1.430117845535278320e+00,-2.348801791667938232e-01
-1.272091865539550781e+00,1.431925535202026367e+00,-1.675726026296615601e-01
-1.273662805557250977e+00,1.433693885803222656e+00,-1.005039140582084656e-01
-1.275219202041625977e+00,1.435445785522460938e+00,-3.351498767733573914e-02
-1.276762843132019043e+00,1.437183380126953125e+00,3.355555608868598938e-02
-1.278285145759582520e+00,1.438897013664245605e+00,1.008686572313308716e-01
-1.280014634132385254e+00,1.440843701362609863e+00,1.686162650585174561e-01
-1.281469345092773438e+00,1.442481160163879395e+00,2.369107156991958618e-01
-1.283177256584167480e+00,1.444403767585754395e+00,3.060073852539062500e-01
-1.284804105758666992e+00,1.446234941482543945e+00,3.760294616222381592e-01
-1.286264181137084961e+00,1.447878479957580566e+00,4.471229612827301025e-01
-1.295045971870422363e+00,1.416406154632568359e+00,-5.142487883567810059e-01
-1.296767473220825195e+00,1.418288826942443848e+00,-4.436718225479125977e-01
-1.298354983329772949e+00,1.420025229454040527e+00,-3.740084171295166016e-01
-1.300153613090515137e+00,1.421992421150207520e+00,-3.051707148551940918e-01
-1.301636815071105957e+00,1.423614501953125000e+00,-2.368477433919906616e-01
-1.303299903869628906e+00,1.425433516502380371e+00,-1.689786463975906372e-01
-1.304919481277465820e+00,1.427204847335815430e+00,-1.013479903340339661e-01
-1.306513428688049316e+00,1.428948163986206055e+00,-3.379644453525543213e-02
-1.308086276054382324e+00,1.430668473243713379e+00,3.383713215589523315e-02
-1.309626102447509766e+00,1.432352542877197266e+00,1.017135381698608398e-01
-1.311368227005004883e+00,1.434257864952087402e+00,1.700247377157211304e-01
-1.312819838523864746e+00,1.435845613479614258e+00,2.388826310634613037e-01
-1.314519882202148438e+00,1.437704920768737793e+00,3.085427582263946533e-01
-1.316129446029663086e+00,1.439465284347534180e+00,3.791286051273345947e-01
-1.318104147911071777e+00,1.441625118255615234e+00,4.509719014167785645e-01
-1.326792478561401367e+00,1.410062313079833984e+00,-5.187874436378479004e-01
-1.328548312187194824e+00,1.411928415298461914e+00,-4.475849568843841553e-01
-1.330155014991760254e+00,1.413635969161987305e+00,-3.773015141487121582e-01
-1.331702232360839844e+00,1.415280342102050781e+00,-3.077894151210784912e-01
-1.333443403244018555e+00,1.417130708694458008e+00,-2.389199286699295044e-01
-1.334977626800537109e+00,1.418761253356933594e+00,-1.704353988170623779e-01
-1.336647152900695801e+00,1.420535564422607422e+00,-1.022225171327590942e-01
-1.338279724121093750e+00,1.422270655632019043e+00,-3.408807143568992615e-02
-1.339879631996154785e+00,1.423970818519592285e+00,3.412882238626480103e-02
-1.341628789901733398e+00,1.425829768180847168e+00,1.026034951210021973e-01
-1.343189477920532227e+00,1.427488446235656738e+00,1.714837998151779175e-01
-1.344976186752319336e+00,1.429387211799621582e+00,2.409863173961639404e-01
-1.346736550331115723e+00,1.431258201599121094e+00,3.112642168998718262e-01
-1.348393678665161133e+00,1.433019280433654785e+00,3.824749588966369629e-01
-1.349853992462158203e+00,1.434571266174316406e+00,4.547628164291381836e-01
-1.358524322509765625e+00,1.402998447418212891e+00,-5.232891440391540527e-01
-1.360388994216918945e+00,1.404924154281616211e+00,-4.514909684658050537e-01
-1.362092852592468262e+00,1.406683802604675293e+00,-3.806105852127075195e-01
-1.363723278045654297e+00,1.408367633819580078e+00,-3.104993104934692383e-01
-1.365540504455566406e+00,1.410244226455688477e+00,-2.410295009613037109e-01
-1.367135405540466309e+00,1.411891460418701172e+00,-1.719432771205902100e-01
-1.368855953216552734e+00,1.413668274879455566e+00,-1.031277105212211609e-01
-1.370528221130371094e+00,1.415395379066467285e+00,-3.438993543386459351e-02
-1.372156381607055664e+00,1.417076826095581055e+00,3.443079069256782532e-02
-1.373922824859619141e+00,1.418901085853576660e+00,1.035094484686851501e-01
-1.375485181808471680e+00,1.420514464378356934e+00,1.729934066534042358e-01
-1.377268314361572266e+00,1.422356009483337402e+00,2.430995702743530273e-01
-1.379013538360595703e+00,1.424158334732055664e+00,3.139806687831878662e-01
-1.380643486976623535e+00,1.425841689109802246e+00,3.857941627502441406e-01
-1.382626771926879883e+00,1.427889943122863770e+00,4.588713049888610840e-01
-1.391218423843383789e+00,1.396210789680480957e+00,-5.281305909156799316e-01
-1.392702221870422363e+00,1.397699952125549316e+00,-4.555288851261138916e-01
-1.394508361816406250e+00,1.399512648582458496e+00,-3.840316236019134521e-01
-1.396502494812011719e+00,1.401513814926147461e+00,-3.133630752563476562e-01
-1.398123502731323242e+00,1.403140783309936523e+00,-2.432108223438262939e-01
-1.399901628494262695e+00,1.404925227165222168e+00,-1.735173463821411133e-01
-1.401557683944702148e+00,1.406587243080139160e+00,-1.040639579296112061e-01
-1.403270006179809570e+00,1.408305764198303223e+00,-3.470214456319808960e-02
-1.405043959617614746e+00,1.410085916519165039e+00,3.474601358175277710e-02
-1.406706333160400391e+00,1.411754250526428223e+00,1.044462323188781738e-01
-1.408547401428222656e+00,1.413601994514465332e+00,1.745889931917190552e-01
-1.410044193267822266e+00,1.415104150772094727e+00,2.452844828367233276e-01
-1.411771178245544434e+00,1.416837334632873535e+00,3.167892396450042725e-01
-1.413869380950927734e+00,1.418943166732788086e+00,3.893634080886840820e-01
-1.415887951850891113e+00,1.420969009399414062e+00,4.631125628948211670e-01
-1.423899292945861816e+00,1.388679862022399902e+00,-5.329366326332092285e-01
-1.425930976867675781e+00,1.390661358833312988e+00,-4.598397016525268555e-01
-1.427768826484680176e+00,1.392453789710998535e+00,-3.876627385616302490e-01
-1.429503917694091797e+00,1.394145846366882324e+00,-3.162581622600555420e-01
-1.431203961372375488e+00,1.395803928375244141e+00,-2.454647719860076904e-01
-1.433052301406860352e+00,1.397606611251831055e+00,-1.751288622617721558e-01
-1.434760212898254395e+00,1.399272203445434570e+00,-1.050313562154769897e-01
-1.436513781547546387e+00,1.400982379913330078e+00,-3.502475842833518982e-02
-1.438315629959106445e+00,1.402739644050598145e+00,3.506869077682495117e-02
-1.439990162849426270e+00,1.404372811317443848e+00,1.054142117500305176e-01
-1.441835522651672363e+00,1.406172513961791992e+00,1.762022227048873901e-01
-1.443677663803100586e+00,1.407968997955322266e+00,2.476041316986083984e-01
-1.445453763008117676e+00,1.409701228141784668e+00,3.197868466377258301e-01
-1.447082519531250000e+00,1.411289811134338379e+00,3.929067254066467285e-01
-1.449053525924682617e+00,1.413212060928344727e+00,4.672963917255401611e-01
-1.457579374313354492e+00,1.381380677223205566e+00,-5.380868911743164062e-01
-1.459223389625549316e+00,1.382938742637634277e+00,-4.641450047492980957e-01
-1.461174368858337402e+00,1.384787678718566895e+00,-3.913110196590423584e-01
-1.463007092475891113e+00,1.386524677276611328e+00,-3.192469477653503418e-01
-1.464792251586914062e+00,1.388216495513916016e+00,-2.477921694517135620e-01
-1.466710925102233887e+00,1.390034914016723633e+00,-1.767926067113876343e-01
-1.468473434448242188e+00,1.391705274581909180e+00,-1.060302183032035828e-01
-1.470268249511718750e+00,1.393406152725219727e+00,-3.535784780979156494e-02
-1.472096681594848633e+00,1.395139098167419434e+00,3.540182113647460938e-02
-1.473783493041992188e+00,1.396737694740295410e+00,1.064136251807212830e-01
-1.475627541542053223e+00,1.398485302925109863e+00,1.778673976659774780e-01
-1.477455258369445801e+00,1.400217533111572266e+00,2.499343156814575195e-01
-1.479201316833496094e+00,1.401872277259826660e+00,3.227807283401489258e-01
-1.481310606002807617e+00,1.403871297836303711e+00,3.967036604881286621e-01
-1.483304977416992188e+00,1.405761361122131348e+00,4.718047678470611572e-01
-1.491768360137939453e+00,1.373794198036193848e+00,-5.433934926986694336e-01
-1.493464946746826172e+00,1.375356554985046387e+00,-4.687266945838928223e-01
-1.495458722114562988e+00,1.377192735671997070e+00,-3.951730132102966309e-01
-1.497313857078552246e+00,1.378901124000549316e+00,-3.223932683467864990e-01
-1.499102950096130371e+00,1.380548834800720215e+00,-2.502279579639434814e-01
-1.500887155532836914e+00,1.382191896438598633e+00,-1.785091310739517212e-01
-1.502706766128540039e+00,1.383867502212524414e+00,-1.070608273148536682e-01
-1.504541516304016113e+00,1.385557293891906738e+00,-3.570148348808288574e-02
-1.506400108337402344e+00,1.387268781661987305e+00,3.574558719992637634e-02
-1.508306503295898438e+00,1.389024376869201660e+00,1.074597835540771484e-01
-1.510230064392089844e+00,1.390795946121215820e+00,1.796203255653381348e-01
-1.512122035026550293e+00,1.392538189888000488e+00,2.524010837078094482e-01
-1.513913035392761230e+00,1.394187569618225098e+00,3.259673118591308594e-01
-1.516057491302490234e+00,1.396162509918212891e+00,4.006162285804748535e-01
-1.518067359924316406e+00,1.398013353347778320e+00,4.764482080936431885e-01
-1.527591824531555176e+00,1.366901636123657227e+00,-5.492594838142395020e-01
-1.529899358749389648e+00,1.368966460227966309e+00,-4.739633798599243164e-01
-1.531569600105285645e+00,1.370460987091064453e+00,-3.994908332824707031e-01
-1.533541679382324219e+00,1.372225761413574219e+00,-3.259311914443969727e-01
-1.535429835319519043e+00,1.373915195465087891e+00,-2.529831230640411377e-01
-1.537294030189514160e+00,1.375583291053771973e+00,-1.804789453744888306e-01
-1.539176464080810547e+00,1.377267718315124512e+00,-1.082435399293899536e-01
-1.541056394577026367e+00,1.378949880599975586e+00,-3.609589859843254089e-02
-1.542940258979797363e+00,1.380635499954223633e+00,3.614002093672752380e-02
-1.544855237007141113e+00,1.382349133491516113e+00,1.086429059505462646e-01
-1.546769857406616211e+00,1.384062290191650391e+00,1.815914213657379150e-01
-1.548634290695190430e+00,1.385730624198913574e+00,2.551587522029876709e-01
-1.550846695899963379e+00,1.387710332870483398e+00,3.296091258525848389e-01
-1.552464604377746582e+00,1.389158010482788086e+00,4.049410521984100342e-01
-1.554399132728576660e+00,1.390889048576354980e+00,4.815533757209777832e-01
-1.562885403633117676e+00,1.358710289001464844e+00,-5.549001693725585938e-01
-1.564798116683959961e+00,1.360373139381408691e+00,-4.786936640739440918e-01
-1.566980719566345215e+00,1.362270593643188477e+00,-4.036000072956085205e-01
-1.568680644035339355e+00,1.363748431205749512e+00,-3.292170464992523193e-01
-1.570663809776306152e+00,1.365472435951232910e+00,-2.555419802665710449e-01
-1.572605133056640625e+00,1.367160201072692871e+00,-1.823084354400634766e-01
-1.574549078941345215e+00,1.368850111961364746e+00,-1.093420535326004028e-01
-1.576473474502563477e+00,1.370523214340209961e+00,-3.646224737167358398e-02
-1.578381061553955078e+00,1.372181534767150879e+00,3.650636598467826843e-02
-1.580305576324462891e+00,1.373854637145996094e+00,1.097418069839477539e-01
-1.582213282585144043e+00,1.375513195991516113e+00,1.834222823381423950e-01
-1.584441423416137695e+00,1.377450227737426758e+00,2.577835619449615479e-01
-1.586222052574157715e+00,1.378998160362243652e+00,3.328984379768371582e-01
-1.588334560394287109e+00,1.380834817886352539e+00,4.091000258922576904e-01
-1.590270876884460449e+00,1.382518053054809570e+00,4.864861071109771729e-01
-1.600517034530639648e+00,1.351696848869323730e+00,-5.613344311714172363e-01
-1.602513074874877930e+00,1.353382587432861328e+00,-4.842555522918701172e-01
-1.604371190071105957e+00,1.354951858520507812e+00,-4.081934690475463867e-01
-1.606500983238220215e+00,1.356750488281250000e+00,-3.330446481704711914e-01
-1.608510136604309082e+00,1.358447313308715820e+00,-2.585094869136810303e-01
-1.610318183898925781e+00,1.359974265098571777e+00,-1.844048798084259033e-01
-1.612326860427856445e+00,1.361670732498168945e+00,-1.106006801128387451e-01
-1.614298582077026367e+00,1.363335847854614258e+00,-3.688198328018188477e-02
-1.616232037544250488e+00,1.364968776702880859e+00,3.692615777254104614e-02
-1.618383646011352539e+00,1.366785883903503418e+00,1.110161542892456055e-01
-1.620362520217895508e+00,1.368457078933715820e+00,1.855551153421401978e-01
-1.622248411178588867e+00,1.370049834251403809e+00,2.607174217700958252e-01
-1.624457240104675293e+00,1.371915221214294434e+00,3.367671668529510498e-01
-1.626577615737915039e+00,1.373705983161926270e+00,4.138433337211608887e-01
-1.628502130508422852e+00,1.375331282615661621e+00,4.921090602874755859e-01
-1.636388540267944336e+00,1.342342734336853027e+00,-5.671185851097106934e-01
-1.638544917106628418e+00,1.344111561775207520e+00,-4.892799854278564453e-01
-1.640942811965942383e+00,1.346078634262084961e+00,-4.125539660453796387e-01
-1.642797231674194336e+00,1.347599864006042480e+00,-3.365359902381896973e-01
-1.644909739494323730e+00,1.349332690238952637e+00,-2.612286806106567383e-01
-1.646933794021606445e+00,1.350993156433105469e+00,-1.863644123077392578e-01
-1.648918628692626953e+00,1.352621316909790039e+00,-1.117712259292602539e-01
-1.650934100151062012e+00,1.354274511337280273e+00,-3.727230429649353027e-02
-1.652984261512756348e+00,1.355956315994262695e+00,3.731859102845191956e-02
-1.655007839202880859e+00,1.357616305351257324e+00,1.121839806437492371e-01
-1.656971573829650879e+00,1.359227180480957031e+00,1.875002533197402954e-01
-1.659227609634399414e+00,1.361077785491943359e+00,2.635025084018707275e-01
-1.660980939865112305e+00,1.362516045570373535e+00,3.402610123157501221e-01
-1.663033008575439453e+00,1.364199399948120117e+00,4.181077182292938232e-01
-1.665525794029235840e+00,1.366244196891784668e+00,4.973366558551788330e-01
-1.675322294235229492e+00,1.334630250930786133e+00,-5.739324092864990234e-01
-1.677579641342163086e+00,1.336428523063659668e+00,-4.951732754707336426e-01
-1.679651021957397461e+00,1.338078737258911133e+00,-4.174277186393737793e-01
-1.681963801383972168e+00,1.339921116828918457e+00,-3.405956923961639404e-01
-1.683873534202575684e+00,1.341442465782165527e+00,-2.643401920795440674e-01
-1.685992598533630371e+00,1.343130588531494141e+00,-1.885894536972045898e-01
-1.688047885894775391e+00,1.344768047332763672e+00,-1.131072714924812317e-01
-1.690110087394714355e+00,1.346410751342773438e+00,-3.771780803799629211e-02
-1.692185401916503906e+00,1.348064064979553223e+00,3.776412457227706909e-02
-1.694208979606628418e+00,1.349676132202148438e+00,1.135200858116149902e-01
-1.696475505828857422e+00,1.351481795310974121e+00,1.897620409727096558e-01
-1.698368191719055176e+00,1.352989554405212402e+00,2.666156291961669922e-01
-1.700550317764282227e+00,1.354727864265441895e+00,3.443594276905059814e-01
-1.702602386474609375e+00,1.356362700462341309e+00,4.231316149234771729e-01
-1.705075979232788086e+00,1.358333349227905273e+00,5.032894015312194824e-01
-1.714965462684631348e+00,1.326538443565368652e+00,-5.809491872787475586e-01
-1.717333197593688965e+00,1.328369855880737305e+00,-5.012437701225280762e-01
-1.719484925270080566e+00,1.330034255981445312e+00,-4.225527942180633545e-01
-1.721529245376586914e+00,1.331615567207336426e+00,-3.447126746177673340e-01
-1.723559141159057617e+00,1.333185791969299316e+00,-2.675471603870391846e-01
-1.725777983665466309e+00,1.334901928901672363e+00,-1.908829212188720703e-01
-1.727906703948974609e+00,1.336548566818237305e+00,-1.144844219088554382e-01
-1.730018734931945801e+00,1.338182210922241211e+00,-3.817707300186157227e-02
-1.732116103172302246e+00,1.339804530143737793e+00,3.822335600852966309e-02
-1.734140276908874512e+00,1.341370344161987305e+00,1.148974373936653137e-01
-1.736384272575378418e+00,1.343106031417846680e+00,1.920560449361801147e-01
-1.738646984100341797e+00,1.344856262207031250e+00,2.698892354965209961e-01
-1.740849494934082031e+00,1.346559882164001465e+00,3.485813140869140625e-01
-1.742892026901245117e+00,1.348139882087707520e+00,4.283049404621124268e-01
-1.745339751243591309e+00,1.350033164024353027e+00,5.094181895256042480e-01
-1.755329608917236328e+00,1.318042755126953125e+00,-5.881716012954711914e-01
-1.757813811302185059e+00,1.319908142089843750e+00,-5.074928402900695801e-01
-1.759631037712097168e+00,1.321272611618041992e+00,-4.277271628379821777e-01
-1.761825442314147949e+00,1.322920322418212891e+00,-3.489541113376617432e-01
-1.764218807220458984e+00,1.324717521667480469e+00,-2.708876132965087891e-01
-1.766301989555358887e+00,1.326281666755676270e+00,-1.932456344366073608e-01
-1.768506646156311035e+00,1.327937126159667969e+00,-1.159031912684440613e-01
-1.770667552947998047e+00,1.329559683799743652e+00,-3.865017369389533997e-02
-1.772788643836975098e+00,1.331152319908142090e+00,3.869647160172462463e-02
-1.775050044059753418e+00,1.332850456237792969e+00,1.163320317864418030e-01
-1.777028560638427734e+00,1.334336042404174805e+00,1.944191902875900269e-01
-1.779240489006042480e+00,1.335996985435485840e+00,2.731941342353820801e-01
-1.781884670257568359e+00,1.337982416152954102e+00,3.529271185398101807e-01
-1.783913731575012207e+00,1.339506030082702637e+00,4.336297512054443359e-01
-1.786328196525573730e+00,1.341319084167480469e+00,5.157251358032226562e-01
-1.796419739723205566e+00,1.309113621711730957e+00,-5.956003069877624512e-01
-1.798509597778320312e+00,1.310636520385742188e+00,-5.137732625007629395e-01
-1.800934553146362305e+00,1.312403678894042969e+00,-4.331565201282501221e-01
-1.803193569183349609e+00,1.314049839973449707e+00,-3.533861339092254639e-01
-1.805385470390319824e+00,1.315647244453430176e+00,-2.742889821529388428e-01
-1.807572126388549805e+00,1.317240715026855469e+00,-1.956780403852462769e-01
-1.809853076934814453e+00,1.318902969360351562e+00,-1.173636838793754578e-01
-1.812066912651062012e+00,1.320516228675842285e+00,-3.913725540041923523e-02
-1.814211964607238770e+00,1.322079420089721680e+00,3.918358311057090759e-02
-1.816467523574829102e+00,1.323723077774047852e+00,1.177926138043403625e-01
-1.818753004074096680e+00,1.325388669967651367e+00,1.968884170055389404e-01
-1.821003317832946777e+00,1.327028512954711914e+00,2.766617834568023682e-01
-1.823137760162353516e+00,1.328583955764770508e+00,3.572947680950164795e-01
-1.825672268867492676e+00,1.330430984497070312e+00,4.391063749790191650e-01
-1.828045487403869629e+00,1.332160353660583496e+00,5.222106575965881348e-01
-1.838244676589965820e+00,1.299724221229553223e+00,-6.032375693321228027e-01
-1.840460300445556641e+00,1.301290750503540039e+00,-5.203830599784851074e-01
-1.842986226081848145e+00,1.303076624870300293e+00,-4.387397170066833496e-01
-1.844973921775817871e+00,1.304482102394104004e+00,-3.578782677650451660e-01
-1.847301959991455078e+00,1.306128144264221191e+00,-2.777884900569915771e-01
-1.849743247032165527e+00,1.307854175567626953e+00,-1.981964260339736938e-01
-1.851959705352783203e+00,1.309421300888061523e+00,-1.188666149973869324e-01
-1.854222536087036133e+00,1.311021208763122559e+00,-3.963838145136833191e-02
-1.856539487838745117e+00,1.312659502029418945e+00,3.968791291117668152e-02
-1.858643174171447754e+00,1.314146876335144043e+00,1.192955896258354187e-01
-1.860893607139587402e+00,1.315737962722778320e+00,1.993911713361740112e-01
-1.863525509834289551e+00,1.317598938941955566e+00,2.802281081676483154e-01
-1.865664243698120117e+00,1.319111108779907227e+00,3.618916869163513184e-01
-1.868180394172668457e+00,1.320890069007873535e+00,4.447374343872070312e-01
-1.870503187179565430e+00,1.322532415390014648e+00,5.288775563240051270e-01
-1.880814313888549805e+00,1.289848327636718750e+00,-6.110860109329223633e-01
-1.883162260055541992e+00,1.291458487510681152e+00,-5.271762609481811523e-01
-1.885352373123168945e+00,1.292960524559020996e+00,-4.443741738796234131e-01
-1.887853860855102539e+00,1.294676065444946289e+00,-3.625641763210296631e-01
-1.890224456787109375e+00,1.296301722526550293e+00,-2.814239859580993652e-01
-1.892533779144287109e+00,1.297885417938232422e+00,-2.007702887058258057e-01
-1.894830107688903809e+00,1.299460172653198242e+00,-1.204120740294456482e-01
-1.897145628929138184e+00,1.301048159599304199e+00,-4.015375301241874695e-02
-1.899484872817993164e+00,1.302652359008789062e+00,4.020326212048530579e-02
-1.901830554008483887e+00,1.304261088371276855e+00,1.208569332957267761e-01
-1.904145956039428711e+00,1.305848956108093262e+00,2.020021528005599976e-01
-1.906364202499389648e+00,1.307370185852050781e+00,2.838269472122192383e-01
-1.908950328826904297e+00,1.309143781661987305e+00,3.666157722473144531e-01
-1.911442518234252930e+00,1.310852885246276855e+00,4.505235552787780762e-01
-1.913705348968505859e+00,1.312404751777648926e+00,5.357265472412109375e-01
-1.926606893539428711e+00,1.281100749969482422e+00,-6.199429631233215332e-01
-1.929119944572448730e+00,1.282771825790405273e+00,-5.348469614982604980e-01
-1.931437730789184570e+00,1.284312963485717773e+00,-4.508573710918426514e-01
-1.934036970138549805e+00,1.286041378974914551e+00,-3.678607642650604248e-01
-1.936213254928588867e+00,1.287488579750061035e+00,-2.854980528354644775e-01
-1.938646554946899414e+00,1.289106488227844238e+00,-2.036838680505752563e-01
-1.941033840179443359e+00,1.290693998336791992e+00,-1.221617013216018677e-01
-1.943406105041503906e+00,1.292271375656127930e+00,-4.073720797896385193e-02
-1.945767998695373535e+00,1.293841958045959473e+00,4.078671336174011230e-02
-1.948103070259094238e+00,1.295394659042358398e+00,1.226066127419471741e-01
-1.950726389884948730e+00,1.297139048576354980e+00,2.049530297517776489e-01
-1.952963590621948242e+00,1.298626661300659180e+00,2.879679203033447266e-01
-1.955539107322692871e+00,1.300339221954345703e+00,3.719505667686462402e-01
-1.957981705665588379e+00,1.301963448524475098e+00,4.570535719394683838e-01
-1.960159063339233398e+00,1.303411245346069336e+00,5.434525012969970703e-01
-1.970768332481384277e+00,1.270168304443359375e+00,-6.282387375831604004e-01
-1.973433613777160645e+00,1.271886110305786133e+00,-5.420300364494323730e-01
-1.975868940353393555e+00,1.273455619812011719e+00,-4.569273293018341064e-01
-1.978195309638977051e+00,1.274955034255981445e+00,-3.727506399154663086e-01
-1.980780363082885742e+00,1.276621103286743164e+00,-2.893455624580383301e-01
-1.983075022697448730e+00,1.278100013732910156e+00,-2.064085453748703003e-01
-1.985548257827758789e+00,1.279693961143493652e+00,-1.237977966666221619e-01
-1.987976670265197754e+00,1.281259059906005859e+00,-4.128283262252807617e-02
-1.990359425544738770e+00,1.282794833183288574e+00,4.133231565356254578e-02
-1.992943525314331055e+00,1.284460306167602539e+00,1.242588907480239868e-01
-1.995266199111938477e+00,1.285957336425781250e+00,2.076774537563323975e-01
-1.997889876365661621e+00,1.287648320198059082e+00,2.918448448181152344e-01
-2.000460386276245117e+00,1.289304971694946289e+00,3.769460618495941162e-01
-2.002863883972167969e+00,1.290853977203369141e+00,4.631700217723846436e-01
-2.005718231201171875e+00,1.292693734169006348e+00,5.508974194526672363e-01
-2.018359422683715820e+00,1.260324597358703613e+00,-6.375938057899475098e-01
-2.021210670471191406e+00,1.262105107307434082e+00,-5.501344799995422363e-01
-2.023789882659912109e+00,1.263715505599975586e+00,-4.637787342071533203e-01
-2.026219844818115234e+00,1.265232801437377930e+00,-3.783486783504486084e-01
-2.028612852096557617e+00,1.266727209091186523e+00,-2.936541438102722168e-01
-2.031196117401123047e+00,1.268340229988098145e+00,-2.095061689615249634e-01
-2.033611297607421875e+00,1.269848346710205078e+00,-1.256483793258666992e-01
-2.036096096038818359e+00,1.271399855613708496e+00,-4.189988970756530762e-02
-2.038659095764160156e+00,1.273000359535217285e+00,4.195263609290122986e-02
-2.041067123413085938e+00,1.274504065513610840e+00,1.261090487241744995e-01
-2.043707847595214844e+00,1.276152968406677246e+00,2.107966989278793335e-01
-2.046346664428710938e+00,1.277800679206848145e+00,2.962211966514587402e-01
-2.048891782760620117e+00,1.279389977455139160e+00,3.825821578502655029e-01
-2.051231384277343750e+00,1.280850887298583984e+00,4.700673222541809082e-01
-2.053988933563232422e+00,1.282572746276855469e+00,5.590560436248779297e-01
-2.066908836364746094e+00,1.249884605407714844e+00,-6.472127437591552734e-01
-2.069957494735717773e+00,1.251728177070617676e+00,-5.584686994552612305e-01
-2.072215080261230469e+00,1.253093361854553223e+00,-4.707175493240356445e-01
-2.074861526489257812e+00,1.254693627357482910e+00,-3.840386271476745605e-01
-2.077695369720458984e+00,1.256407260894775391e+00,-2.981253564357757568e-01
-2.080152511596679688e+00,1.257893204689025879e+00,-2.126768678426742554e-01
-2.082664728164672852e+00,1.259412407875061035e+00,-1.275523304939270020e-01
-2.085211753845214844e+00,1.260952591896057129e+00,-4.253485053777694702e-02
-2.087794303894042969e+00,1.262514233589172363e+00,4.258752986788749695e-02
-2.090452432632446289e+00,1.264121651649475098e+00,1.280292868614196777e-01
-2.092767000198364258e+00,1.265521407127380371e+00,2.139665931463241577e-01
-2.095312356948852539e+00,1.267060518264770508e+00,3.006531894207000732e-01
-2.098307609558105469e+00,1.268871784210205078e+00,3.883782923221588135e-01
-2.100572824478149414e+00,1.270241618156433105e+00,4.771591722965240479e-01
-2.103226661682128906e+00,1.271846294403076172e+00,5.674445629119873047e-01
-2.117110729217529297e+00,1.239212989807128906e+00,-6.573109626770019531e-01
-2.119686603546142578e+00,1.240720868110656738e+00,-5.670360326766967773e-01
-2.122097253799438477e+00,1.242131829261779785e+00,-4.779609739780426025e-01
-2.124861240386962891e+00,1.243749737739562988e+00,-3.899581432342529297e-01
-2.127505064010620117e+00,1.245297193527221680e+00,-3.026838600635528564e-01
-2.130106687545776367e+00,1.246819972991943359e+00,-2.159374803304672241e-01
-2.132720708847045898e+00,1.248350024223327637e+00,-1.295103877782821655e-01
-2.135326623916625977e+00,1.249875426292419434e+00,-4.318776354193687439e-02
-2.137932777404785156e+00,1.251400828361511230e+00,4.324046894907951355e-02
-2.140572309494018555e+00,1.252945899963378906e+00,1.299871951341629028e-01
-2.143202304840087891e+00,1.254485368728637695e+00,2.172650396823883057e-01
-2.145751237869262695e+00,1.255977272987365723e+00,3.052797615528106689e-01
-2.148716926574707031e+00,1.257713079452514648e+00,3.943361639976501465e-01
-2.151594161987304688e+00,1.259397387504577637e+00,4.846045970916748047e-01
-2.154227733612060547e+00,1.260938882827758789e+00,5.762760639190673828e-01
-2.167618513107299805e+00,1.227466940879821777e+00,-6.674692034721374512e-01
-2.170403242111206055e+00,1.229043841361999512e+00,-5.758382081985473633e-01
-2.172977685928344727e+00,1.230501651763916016e+00,-4.854041635990142822e-01
-2.175872325897216797e+00,1.232140898704528809e+00,-3.960425853729248047e-01
-2.178595066070556641e+00,1.233682632446289062e+00,-3.074087500572204590e-01
-2.181070566177368164e+00,1.235084414482116699e+00,-2.192893028259277344e-01
-2.183787822723388672e+00,1.236623167991638184e+00,-1.315231472253799438e-01
-2.186457157135009766e+00,1.238134741783142090e+00,-4.385896772146224976e-02
-2.189082622528076172e+00,1.239621520042419434e+00,4.391163215041160583e-02
-2.191977024078369141e+00,1.241260528564453125e+00,1.320163607597351074e-01
-2.194652318954467773e+00,1.242775440216064453e+00,2.206548452377319336e-01
-2.197200298309326172e+00,1.244218349456787109e+00,3.100340366363525391e-01
-2.200128316879272461e+00,1.245876312255859375e+00,4.004575312137603760e-01
-2.202924013137817383e+00,1.247459530830383301e+00,4.920936226844787598e-01
-2.205431699752807617e+00,1.248879551887512207e+00,5.851317644119262695e-01
-2.222196340560913086e+00,1.216703772544860840e+00,-6.788430809974670410e-01
-2.225229024887084961e+00,1.218364238739013672e+00,-5.856974124908447266e-01
-2.228003025054931641e+00,1.219883084297180176e+00,-4.937448203563690186e-01
-2.231053352355957031e+00,1.221553206443786621e+00,-4.028626680374145508e-01
-2.233596086502075195e+00,1.222945451736450195e+00,-3.126676380634307861e-01
-2.236402750015258789e+00,1.224482178688049316e+00,-2.230675220489501953e-01
-2.239125490188598633e+00,1.225972890853881836e+00,-1.337854117155075073e-01
-2.241863489151000977e+00,1.227471947669982910e+00,-4.461338371038436890e-02
-2.244618892669677734e+00,1.228980541229248047e+00,4.466821625828742981e-02
-2.247316598892211914e+00,1.230457663536071777e+00,1.342748105525970459e-01
-2.250308990478515625e+00,1.232096076011657715e+00,2.244545668363571167e-01
-2.252839803695678711e+00,1.233481884002685547e+00,3.153614699840545654e-01
-2.255710363388061523e+00,1.235053420066833496e+00,4.073149561882019043e-01
-2.258392572402954102e+00,1.236522078514099121e+00,5.004794001579284668e-01
-2.261554718017578125e+00,1.238253355026245117e+00,5.952586531639099121e-01
-2.278703927993774414e+00,1.205578804016113281e+00,-6.907629966735839844e-01
-2.281284093856811523e+00,1.206943750381469727e+00,-5.958434343338012695e-01
-2.284269571304321289e+00,1.208523273468017578e+00,-5.023291110992431641e-01
-2.287083864212036133e+00,1.210012197494506836e+00,-4.098107218742370605e-01
-2.290131092071533203e+00,1.211624503135681152e+00,-3.181213736534118652e-01
-2.292820930480957031e+00,1.213047623634338379e+00,-2.269397974014282227e-01
-2.295663595199584961e+00,1.214551568031311035e+00,-1.361108571290969849e-01
-2.298470973968505859e+00,1.216036796569824219e+00,-4.538885504007339478e-02
-2.301245689392089844e+00,1.217504858970642090e+00,4.544365033507347107e-02
-2.304199457168579102e+00,1.219067454338073730e+00,1.366169452667236328e-01
-2.306825399398803711e+00,1.220456838607788086e+00,2.283259481191635132e-01
-2.309733390808105469e+00,1.221995353698730469e+00,3.208442926406860352e-01
-2.312534093856811523e+00,1.223477125167846680e+00,4.143710434436798096e-01
-2.315822601318359375e+00,1.225216984748840332e+00,5.092679262161254883e-01
-2.318924188613891602e+00,1.226857781410217285e+00,6.056746244430541992e-01
-2.335732698440551758e+00,1.193281769752502441e+00,-7.028010487556457520e-01
-2.339202880859375000e+00,1.195054650306701660e+00,-6.064413189888000488e-01
-2.341785669326782227e+00,1.196374177932739258e+00,-5.111592411994934082e-01
-2.344767093658447266e+00,1.197897195816040039e+00,-4.170316457748413086e-01
-2.347640037536621094e+00,1.199365139007568359e+00,-3.236921131610870361e-01
-2.350504398345947266e+00,1.200828433036804199e+00,-2.309243232011795044e-01
-2.353471755981445312e+00,1.202344417572021484e+00,-1.385037600994110107e-01
-2.356348037719726562e+00,1.203813910484313965e+00,-4.618678614497184753e-02
-2.359141349792480469e+00,1.205240845680236816e+00,4.624153673648834229e-02
-2.362063646316528320e+00,1.206733822822570801e+00,1.390094012022018433e-01
-2.365004539489746094e+00,1.208236217498779297e+00,2.323488742113113403e-01
-2.367891311645507812e+00,1.209711074829101562e+00,3.264843523502349854e-01
-2.371243953704833984e+00,1.211423873901367188e+00,4.217407405376434326e-01
-2.373780012130737305e+00,1.212719559669494629e+00,5.181429386138916016e-01
-2.376705169677734375e+00,1.214213848114013672e+00,6.161637902259826660e-01
-2.394737005233764648e+00,1.180516481399536133e+00,-7.153973579406738281e-01
-2.397758960723876953e+00,1.182006239891052246e+00,-6.171727180480957031e-01
-2.400566577911376953e+00,1.183390259742736816e+00,-5.202392339706420898e-01
-2.403722286224365234e+00,1.184945940971374512e+00,-4.244571924209594727e-01
-2.406715631484985352e+00,1.186421513557434082e+00,-3.294622302055358887e-01
-2.409643888473510742e+00,1.187865018844604492e+00,-2.350399643182754517e-01
-2.412563085556030273e+00,1.189304113388061523e+00,-1.409650743007659912e-01
-2.415511131286621094e+00,1.190757513046264648e+00,-4.700754955410957336e-02
-2.418499708175659180e+00,1.192230701446533203e+00,4.706570878624916077e-02
-2.421504020690917969e+00,1.193711638450622559e+00,1.414874941110610962e-01
-2.424472093582153320e+00,1.195174813270568848e+00,2.364863455295562744e-01
-2.427327156066894531e+00,1.196582317352294922e+00,3.322837948799133301e-01
-2.430603981018066406e+00,1.198197603225708008e+00,4.292040169239044189e-01
-2.433748245239257812e+00,1.199747681617736816e+00,5.274302363395690918e-01
-2.436588048934936523e+00,1.201147556304931641e+00,6.271671056747436523e-01
-2.454262256622314453e+00,1.166500449180603027e+00,-7.281173467636108398e-01
-2.457580804824829102e+00,1.168077707290649414e+00,-6.282027363777160645e-01
-2.460624456405639648e+00,1.169524312019348145e+00,-5.295726060867309570e-01
-2.463964462280273438e+00,1.171111941337585449e+00,-4.320906996726989746e-01
-2.466785907745361328e+00,1.172452926635742188e+00,-3.353537619113922119e-01
-2.469899892807006836e+00,1.173932909965515137e+00,-2.392539381980895996e-01
-2.472948312759399414e+00,1.175381779670715332e+00,-1.434956490993499756e-01
-2.475971221923828125e+00,1.176818609237670898e+00,-4.785144329071044922e-02
-2.478976011276245117e+00,1.178246855735778809e+00,4.790951311588287354e-02
-2.481940507888793945e+00,1.179655790328979492e+00,1.440174430608749390e-01
-2.485233545303344727e+00,1.181221008300781250e+00,2.407392710447311401e-01
-2.488054037094116211e+00,1.182561516761779785e+00,3.382451236248016357e-01
-2.491245031356811523e+00,1.184078216552734375e+00,4.368747174739837646e-01
-2.494244575500488281e+00,1.185503840446472168e+00,5.368083119392395020e-01
-2.497751951217651367e+00,1.187170982360839844e+00,6.384712457656860352e-01
-2.519493818283081055e+00,1.153594017028808594e+00,-7.424951195716857910e-01
-2.523045778274536133e+00,1.155220389366149902e+00,-6.406444907188415527e-01
-2.525712728500366211e+00,1.156441450119018555e+00,-5.399630665779113770e-01
-2.529274702072143555e+00,1.158072471618652344e+00,-4.405917823314666748e-01
-2.532241821289062500e+00,1.159430861473083496e+00,-3.419611752033233643e-01
-2.535444498062133789e+00,1.160897374153137207e+00,-2.439685165882110596e-01
-2.538453578948974609e+00,1.162275075912475586e+00,-1.463163495063781738e-01
-2.541555881500244141e+00,1.163695573806762695e+00,-4.879204556345939636e-02
-2.544761657714843750e+00,1.165163278579711914e+00,4.885358735918998718e-02
-2.547799825668334961e+00,1.166554450988769531e+00,1.468550711870193481e-01
-2.551108837127685547e+00,1.168069481849670410e+00,2.454757839441299438e-01
-2.553873538970947266e+00,1.169335365295410156e+00,3.448823988437652588e-01
-2.557609796524047852e+00,1.171046018600463867e+00,4.455276429653167725e-01
-2.560541629791259766e+00,1.172388434410095215e+00,5.474090576171875000e-01
-2.563923597335815430e+00,1.173936963081359863e+00,6.510240435600280762e-01
-2.582459211349487305e+00,1.138001799583435059e+00,-7.561733126640319824e-01
-2.585559844970703125e+00,1.139368176460266113e+00,-6.523100733757019043e-01
-2.589024782180786133e+00,1.140895009040832520e+00,-5.499508976936340332e-01
-2.592247247695922852e+00,1.142315030097961426e+00,-4.486672282218933105e-01
-2.595350027084350586e+00,1.143682360649108887e+00,-3.482371568679809570e-01
-2.598442554473876953e+00,1.145045161247253418e+00,-2.484278827905654907e-01
-2.601589202880859375e+00,1.146431803703308105e+00,-1.489943861961364746e-01
-2.604769229888916016e+00,1.147833108901977539e+00,-4.968509823083877563e-02
-2.607992172241210938e+00,1.149253249168395996e+00,4.974657297134399414e-02
-2.611296892166137695e+00,1.150709629058837891e+00,1.495503485202789307e-01
-2.614624261856079102e+00,1.152175903320312500e+00,2.499749511480331421e-01
-2.617892265319824219e+00,1.153615951538085938e+00,3.512618243694305420e-01
-2.620981693267822266e+00,1.154977321624755859e+00,4.536406099796295166e-01
-2.624532699584960938e+00,1.156542181968688965e+00,5.574933290481567383e-01
-2.627807855606079102e+00,1.157985448837280273e+00,6.629688143730163574e-01
-2.654629468917846680e+00,1.124713778495788574e+00,-7.725125551223754883e-01
-2.658019304275512695e+00,1.126150012016296387e+00,-6.664559245109558105e-01
-2.661148309707641602e+00,1.127475619316101074e+00,-5.617855191230773926e-01
-2.664190053939819336e+00,1.128764390945434570e+00,-4.582758247852325439e-01
-2.667598962783813477e+00,1.130208611488342285e+00,-3.557242751121520996e-01
-2.670926094055175781e+00,1.131618261337280273e+00,-2.537831962108612061e-01
-2.674235105514526367e+00,1.133020281791687012e+00,-1.522104740142822266e-01
-2.677505493164062500e+00,1.134405851364135742e+00,-5.075759813189506531e-02
-2.680741548538208008e+00,1.135776877403259277e+00,5.081894248723983765e-02
