1.788510203361511230e+00,-1.719463109970092773e+00,1.300230920314788818e-01
1.790751814842224121e+00,-1.721618294715881348e+00,2.173304259777069092e-01
1.792935729026794434e+00,-1.723717808723449707e+00,3.053808510303497314e-01
1.795394301414489746e+00,-1.726081609725952148e+00,3.944624662399291992e-01
1.797757983207702637e+00,-1.728353977203369141e+00,4.847488999366760254e-01
1.799901485443115234e+00,-1.730414748191833496e+00,5.764294266700744629e-01
1.828683495521545410e+00,-1.708401679992675781e+00,-6.705532073974609375e-01
1.831332564353942871e+00,-1.710876464843750000e+00,-5.785935521125793457e-01
1.833731412887573242e+00,-1.713117599487304688e+00,-4.877870678901672363e-01
1.835997223854064941e+00,-1.715234398841857910e+00,-3.979484736919403076e-01
1.838225007057189941e+00,-1.717315554618835449e+00,-3.088763952255249023e-01
1.840603709220886230e+00,-1.719537854194641113e+00,-2.203709632158279419e-01
1.842909336090087891e+00,-1.721691846847534180e+00,-1.321727782487869263e-01
1.845209956169128418e+00,-1.723841190338134766e+00,-4.407674819231033325e-02
1.847507953643798828e+00,-1.725987911224365234e+00,4.413164034485816956e-02
1.849748730659484863e+00,-1.728081345558166504e+00,1.326632946729660034e-01
1.852173209190368652e+00,-1.730346322059631348e+00,2.217561453580856323e-01
1.854598522186279297e+00,-1.732612133026123047e+00,3.116276264190673828e-01
1.856940507888793945e+00,-1.734800100326538086e+00,4.024878740310668945e-01
1.859094619750976562e+00,-1.736812591552734375e+00,4.945338964462280273e-01
1.861512541770935059e+00,-1.739071369171142578e+00,5.881286263465881348e-01
1.893089175224304199e+00,-1.718494772911071777e+00,-6.850801706314086914e-01
1.895624160766601562e+00,-1.720795869827270508e+00,-5.910635590553283691e-01
1.897958159446716309e+00,-1.722914576530456543e+00,-4.982608556747436523e-01
1.900502324104309082e+00,-1.725224137306213379e+00,-4.065358042716979980e-01
1.902702450752258301e+00,-1.727221369743347168e+00,-3.155241012573242188e-01
1.905124306678771973e+00,-1.729419946670532227e+00,-2.251090705394744873e-01
1.907532453536987305e+00,-1.731606006622314453e+00,-1.350161135196685791e-01
1.909911751747131348e+00,-1.733765840530395508e+00,-4.502489045262336731e-02
1.912272095680236816e+00,-1.735908508300781250e+00,4.508053511381149292e-02
1.914635539054870605e+00,-1.738053917884826660e+00,1.355188637971878052e-01
1.917255640029907227e+00,-1.740432381629943848e+00,2.265425026416778564e-01
1.919564962387084961e+00,-1.742528796195983887e+00,3.183203935623168945e-01
1.922144651412963867e+00,-1.744870543479919434e+00,4.111652970314025879e-01
1.924589991569519043e+00,-1.747090339660644531e+00,5.052523612976074219e-01
1.927375078201293945e+00,-1.749618530273437500e+00,6.009636521339416504e-01
1.958621740341186523e+00,-1.727502584457397461e+00,-6.997755169868469238e-01
1.961053252220153809e+00,-1.729647278785705566e+00,-6.036834120750427246e-01
1.963334560394287109e+00,-1.731659412384033203e+00,-5.088647007942199707e-01
1.965896606445312500e+00,-1.733919143676757812e+00,-4.151728451251983643e-01
1.968590736389160156e+00,-1.736295223236083984e+00,-3.222960233688354492e-01
1.970976948738098145e+00,-1.738399863243103027e+00,-2.299265265464782715e-01
1.973409891128540039e+00,-1.740545749664306641e+00,-1.379014402627944946e-01
1.975873470306396484e+00,-1.742718696594238281e+00,-4.598713666200637817e-02
1.978377580642700195e+00,-1.744927287101745605e+00,4.604541882872581482e-02
1.980946779251098633e+00,-1.747193336486816406e+00,1.384281218051910400e-01
1.983231663703918457e+00,-1.749208569526672363e+00,2.313561141490936279e-01
1.985695123672485352e+00,-1.751381397247314453e+00,3.250963389873504639e-01
1.988502383232116699e+00,-1.753857374191284180e+00,4.199469089508056641e-01
1.991231441497802734e+00,-1.756264328956604004e+00,5.160951018333435059e-01
1.993741631507873535e+00,-1.758478403091430664e+00,6.137460470199584961e-01
2.027579545974731445e+00,-1.737368345260620117e+00,-7.154546976089477539e-01
2.030469655990600586e+00,-1.739844918251037598e+00,-6.173229813575744629e-01
2.033096075057983398e+00,-1.742095470428466797e+00,-5.204296112060546875e-01
2.035592079162597656e+00,-1.744234204292297363e+00,-4.245756864547729492e-01
2.038289070129394531e+00,-1.746544957160949707e+00,-3.295803964138031006e-01
2.040726661682128906e+00,-1.748633742332458496e+00,-2.351193875074386597e-01
2.043318748474121094e+00,-1.750854849815368652e+00,-1.410209834575653076e-01
2.045871973037719727e+00,-1.753042578697204590e+00,-4.702748730778694153e-02
2.048391103744506836e+00,-1.755201101303100586e+00,4.708538949489593506e-02
2.051088809967041016e+00,-1.757512688636779785e+00,1.415572315454483032e-01
2.053552389144897461e+00,-1.759623646736145020e+00,2.365970909595489502e-01
2.056266069412231445e+00,-1.761948943138122559e+00,3.324871659278869629e-01
2.058905124664306641e+00,-1.764210343360900879e+00,4.294382035732269287e-01
2.061353445053100586e+00,-1.766308188438415527e+00,5.276629328727722168e-01
2.064135313034057617e+00,-1.768691897392272949e+00,6.275582909584045410e-01
2.098062038421630859e+00,-1.746313929557800293e+00,-7.314302921295166016e-01
2.100880622863769531e+00,-1.748660087585449219e+00,-6.310556530952453613e-01
2.103487253189086914e+00,-1.750829577445983887e+00,-5.319787859916687012e-01
2.106344938278198242e+00,-1.753208160400390625e+00,-4.340544342994689941e-01
2.109052658081054688e+00,-1.755462050437927246e+00,-3.369251191616058350e-01
2.111690759658813477e+00,-1.757657885551452637e+00,-2.403722405433654785e-01
2.114315509796142578e+00,-1.759842514991760254e+00,-1.441676318645477295e-01
2.116959571838378906e+00,-1.762043237686157227e+00,-4.807687550783157349e-02
2.119628190994262695e+00,-1.764264583587646484e+00,4.813748225569725037e-02
2.122303247451782227e+00,-1.766490936279296875e+00,1.447122842073440552e-01
2.124939441680908203e+00,-1.768685221672058105e+00,2.418803125619888306e-01
2.127469062805175781e+00,-1.770790815353393555e+00,3.398671746253967285e-01
2.130319118499755859e+00,-1.773162961006164551e+00,4.389947950839996338e-01
2.133030414581298828e+00,-1.775419712066650391e+00,5.394504070281982422e-01
2.136152505874633789e+00,-1.778018355369567871e+00,6.416504979133605957e-01
2.176727294921875000e+00,-1.759669899940490723e+00,-7.499971985816955566e-01
2.179450988769531250e+00,-1.761871695518493652e+00,-6.470150351524353027e-01
2.182460308074951172e+00,-1.764304637908935547e+00,-5.455088615417480469e-01
2.185263872146606445e+00,-1.766570925712585449e+00,-4.450610280036926270e-01
2.187975406646728516e+00,-1.768762826919555664e+00,-3.454533219337463379e-01
2.190680980682373047e+00,-1.770950078964233398e+00,-2.464530020952224731e-01
2.193487882614135742e+00,-1.773219227790832520e+00,-1.478203386068344116e-01
2.196233034133911133e+00,-1.775438427925109863e+00,-4.929502308368682861e-02
2.198917865753173828e+00,-1.777608871459960938e+00,4.935528710484504700e-02
2.201729297637939453e+00,-1.779881477355957031e+00,1.483757197856903076e-01
2.204567909240722656e+00,-1.782176256179809570e+00,2.480152845382690430e-01
2.207360744476318359e+00,-1.784433960914611816e+00,3.485140204429626465e-01
2.210009574890136719e+00,-1.786575436592102051e+00,4.501008689403533936e-01
2.213031768798828125e+00,-1.789018511772155762e+00,5.531502366065979004e-01
2.215820789337158203e+00,-1.791273236274719238e+00,6.578121781349182129e-01
2.252643823623657227e+00,-1.768336296081542969e+00,-7.673548460006713867e-01
2.255868911743164062e+00,-1.770868062973022461e+00,-6.621086001396179199e-01
2.258797883987426758e+00,-1.773167371749877930e+00,-5.581885576248168945e-01
2.261568069458007812e+00,-1.775341987609863281e+00,-4.553795158863067627e-01
2.264302015304565430e+00,-1.777488112449645996e+00,-3.534511625766754150e-01
2.267244100570678711e+00,-1.779797673225402832e+00,-2.521746158599853516e-01
2.270093202590942383e+00,-1.782034158706665039e+00,-1.512483805418014526e-01
2.272936582565307617e+00,-1.784266352653503418e+00,-5.043825879693031311e-02
2.275776386260986328e+00,-1.786495447158813477e+00,5.050127208232879639e-02
2.278542280197143555e+00,-1.788666725158691406e+00,1.518113166093826294e-01
2.281558036804199219e+00,-1.791034221649169922e+00,2.537666857242584229e-01
2.284585952758789062e+00,-1.793411135673522949e+00,3.566174209117889404e-01
2.287522315979003906e+00,-1.795716166496276855e+00,4.606055319309234619e-01
2.290237426757812500e+00,-1.797847628593444824e+00,5.659578442573547363e-01
2.293341398239135742e+00,-1.800284028053283691e+00,6.731069087982177734e-01
2.337869167327880859e+00,-1.781755685806274414e+00,-7.876183390617370605e-01
2.341040372848510742e+00,-1.784172534942626953e+00,-6.795418262481689453e-01
2.343969345092773438e+00,-1.786404728889465332e+00,-5.728585124015808105e-01
2.347176313400268555e+00,-1.788848757743835449e+00,-4.674136638641357422e-01
2.350197792053222656e+00,-1.791151642799377441e+00,-3.628201186656951904e-01
2.352961540222167969e+00,-1.793257951736450195e+00,-2.588271498680114746e-01
2.355964899063110352e+00,-1.795547008514404297e+00,-1.552414894104003906e-01
2.358912706375122070e+00,-1.797793626785278320e+00,-5.176980793476104736e-02
2.361818790435791016e+00,-1.800008296966552734e+00,5.183358490467071533e-02
2.364993095397949219e+00,-1.802427411079406738e+00,1.558363586664199829e-01
2.367936849594116211e+00,-1.804671049118041992e+00,2.604744434356689453e-01
2.370743751525878906e+00,-1.806810379028320312e+00,3.659919798374176025e-01
2.373910665512084961e+00,-1.809223890304565430e+00,4.727375209331512451e-01
2.376913070678710938e+00,-1.811512112617492676e+00,5.809099078178405762e-01
2.380391597747802734e+00,-1.814163208007812500e+00,6.909644603729248047e-01
2.424267530441284180e+00,-1.793339490890502930e+00,-8.079950213432312012e-01
2.428020000457763672e+00,-1.796115517616271973e+00,-6.972557306289672852e-01
2.430858373641967773e+00,-1.798215270042419434e+00,-5.877432823181152344e-01
2.434054613113403320e+00,-1.800579547882080078e+00,-4.795330762863159180e-01
2.437116622924804688e+00,-1.802844762802124023e+00,-3.722166717052459717e-01
2.440141916275024414e+00,-1.805082678794860840e+00,-2.655477523803710938e-01
2.443197250366210938e+00,-1.807342886924743652e+00,-1.592685580253601074e-01
2.446257591247558594e+00,-1.809606552124023438e+00,-5.311282351613044739e-02
2.449336290359497070e+00,-1.811884045600891113e+00,5.317967012524604797e-02
2.452466964721679688e+00,-1.814200043678283691e+00,1.598728299140930176e-01
2.455598115921020508e+00,-1.816516280174255371e+00,2.672297656536102295e-01
2.458648443222045898e+00,-1.818772792816162109e+00,3.755052089691162109e-01
2.462140321731567383e+00,-1.821355819702148438e+00,4.850662350654602051e-01
2.464782714843750000e+00,-1.823310494422912598e+00,5.959456562995910645e-01
2.468619346618652344e+00,-1.826148629188537598e+00,7.089146971702575684e-01
2.517428874969482422e+00,-1.807088136672973633e+00,-8.303393125534057617e-01
2.520423412322998047e+00,-1.809237718582153320e+00,-7.162811756134033203e-01
2.523813009262084961e+00,-1.811670899391174316e+00,-6.038866043090820312e-01
2.526998043060302734e+00,-1.813957214355468750e+00,-4.926782250404357910e-01
2.530105352401733398e+00,-1.816187739372253418e+00,-3.824091851711273193e-01
2.533418655395507812e+00,-1.818566083908081055e+00,-2.728379070758819580e-01
2.536528587341308594e+00,-1.820798516273498535e+00,-1.636369973421096802e-01
2.539708614349365234e+00,-1.823081254959106445e+00,-5.456967279314994812e-02
2.542974233627319336e+00,-1.825425386428833008e+00,5.463983863592147827e-02
2.546051263809204102e+00,-1.827634096145629883e+00,1.642513126134872437e-01
2.549380540847778320e+00,-1.830023884773254395e+00,2.745569050312042236e-01
2.552690744400024414e+00,-1.832400083541870117e+00,3.858228325843811035e-01
2.555866956710815430e+00,-1.834680199623107910e+00,4.983066916465759277e-01
2.559540271759033203e+00,-1.837316989898681641e+00,6.124352812767028809e-01
2.562983036041259766e+00,-1.839788317680358887e+00,7.283762693405151367e-01
2.616642236709594727e+00,-1.822131514549255371e+00,-8.543734550476074219e-01
2.620277643203735352e+00,-1.824663162231445312e+00,-7.371610403060913086e-01
2.623599767684936523e+00,-1.826976537704467773e+00,-6.214423179626464844e-01
2.626774787902832031e+00,-1.829187512397766113e+00,-5.069747567176818848e-01
2.630246877670288086e+00,-1.831605315208435059e+00,-3.935421705245971680e-01
2.633374929428100586e+00,-1.833783626556396484e+00,-2.807472348213195801e-01
2.636731147766113281e+00,-1.836120724678039551e+00,-1.683885604143142700e-01
2.640040159225463867e+00,-1.838424921035766602e+00,-5.615429580211639404e-02
2.643310785293579102e+00,-1.840702652931213379e+00,5.622386559844017029e-02
2.646842002868652344e+00,-1.843161582946777344e+00,1.690342724323272705e-01
2.650058746337890625e+00,-1.845401525497436523e+00,2.825258970260620117e-01
2.653646945953369141e+00,-1.847900271415710449e+00,3.970433175563812256e-01
2.657161235809326172e+00,-1.850347399711608887e+00,5.128393769264221191e-01
2.660449504852294922e+00,-1.852637171745300293e+00,6.301707625389099121e-01
2.664259672164916992e+00,-1.855290532112121582e+00,7.495344877243041992e-01
2.716892719268798828e+00,-1.834766387939453125e+00,-8.784419298171997070e-01
2.720548629760742188e+00,-1.837235331535339355e+00,-7.578944563865661621e-01
2.724528789520263672e+00,-1.839923024177551270e+00,-6.390454769134521484e-01
2.727707624435424805e+00,-1.842069745063781738e+00,-5.213128924369812012e-01
2.731260061264038086e+00,-1.844468951225280762e+00,-4.046643674373626709e-01
2.734712839126586914e+00,-1.846800565719604492e+00,-2.887032330036163330e-01
2.738139152526855469e+00,-1.849114418029785156e+00,-1.731567382812500000e-01
2.741579294204711914e+00,-1.851437568664550781e+00,-5.774447321891784668e-02
2.745042324066162109e+00,-1.853776335716247559e+00,5.781741440296173096e-02
2.748502969741821289e+00,-1.856113314628601074e+00,1.738121360540390015e-01
2.751904726028442383e+00,-1.858410596847534180e+00,2.905181944370269775e-01
2.755759716033935547e+00,-1.861013889312744141e+00,4.082942306995391846e-01
2.758871316909790039e+00,-1.863115310668945312e+00,5.272688269615173340e-01
2.762413978576660156e+00,-1.865507721900939941e+00,6.479316353797912598e-01
2.766569137573242188e+00,-1.868313789367675781e+00,7.707148790359497070e-01
2.825374126434326172e+00,-1.849705338478088379e+00,-9.048637747764587402e-01
2.828930854797363281e+00,-1.852033972740173340e+00,-7.806228399276733398e-01
2.832277774810791016e+00,-1.854225039482116699e+00,-6.580258011817932129e-01
2.836079359054565430e+00,-1.856713771820068359e+00,-5.368905067443847656e-01
2.839720964431762695e+00,-1.859097957611083984e+00,-4.167487025260925293e-01
2.843530178070068359e+00,-1.861591696739196777e+00,-2.973476052284240723e-01
2.847030401229858398e+00,-1.863883256912231445e+00,-1.783375144004821777e-01
2.850612401962280273e+00,-1.866228222846984863e+00,-5.947226285934448242e-02
2.854283094406127930e+00,-1.868631362915039062e+00,5.954884365200996399e-02
2.857660531997680664e+00,-1.870842456817626953e+00,1.790033727884292603e-01
2.861258268356323242e+00,-1.873197793960571289e+00,2.992014288902282715e-01
2.864766120910644531e+00,-1.875494360923767090e+00,4.204242527484893799e-01
2.868821144104003906e+00,-1.878149151802062988e+00,5.430887937545776367e-01
2.872762918472290039e+00,-1.880729675292968750e+00,6.674317717552185059e-01
2.876389265060424805e+00,-1.883103847503662109e+00,7.937186360359191895e-01
2.941341161727905273e+00,-1.866039395332336426e+00,-9.333540797233581543e-01
2.945709943771362305e+00,-1.868811130523681641e+00,-8.053834438323974609e-01
2.949007749557495117e+00,-1.870903253555297852e+00,-6.788546442985534668e-01
2.953352451324462891e+00,-1.873659491539001465e+00,-5.539574623107910156e-01
2.956955194473266602e+00,-1.875945210456848145e+00,-4.299689829349517822e-01
2.960578203201293945e+00,-1.878243803977966309e+00,-3.067446351051330566e-01
2.964376926422119141e+00,-1.880653738975524902e+00,-1.839830577373504639e-01
2.968110084533691406e+00,-1.883022189140319824e+00,-6.135502085089683533e-02
2.971777915954589844e+00,-1.885349035263061523e+00,6.143083795905113220e-02
2.975658416748046875e+00,-1.887810945510864258e+00,1.846832334995269775e-01
2.979610204696655273e+00,-1.890318036079406738e+00,3.087165057659149170e-01
2.982869863510131836e+00,-1.892385959625244141e+00,4.337372183799743652e-01
2.987292289733886719e+00,-1.895191669464111328e+00,5.603235363960266113e-01
2.990720748901367188e+00,-1.897366642951965332e+00,6.884568929672241211e-01
2.994691133499145508e+00,-1.899885654449462891e+00,8.187753558158874512e-01
3.067704916000366211e+00,-1.885178685188293457e+00,-9.647909402847290039e-01
3.071190118789672852e+00,-1.887320280075073242e+00,-8.322196602821350098e-01
3.075261592864990234e+00,-1.889822363853454590e+00,-7.016193270683288574e-01
3.079680681228637695e+00,-1.892537951469421387e+00,-5.725130438804626465e-01
3.083390712738037109e+00,-1.894817948341369629e+00,-4.443646967411041260e-01
3.087416410446166992e+00,-1.897291779518127441e+00,-3.170401155948638916e-01
3.091315031051635742e+00,-1.899687647819519043e+00,-1.901543289422988892e-01
3.095213651657104492e+00,-1.902083396911621094e+00,-6.341315060853958130e-02
3.099111557006835938e+00,-1.904478669166564941e+00,6.349300593137741089e-02
3.102909803390502930e+00,-1.906812787055969238e+00,1.908675581216812134e-01
3.107090711593627930e+00,-1.909382104873657227e+00,3.190604150295257568e-01
3.110613584518432617e+00,-1.911547064781188965e+00,4.482879340648651123e-01
3.114584445953369141e+00,-1.913987159729003906e+00,5.790016651153564453e-01
3.119268894195556641e+00,-1.916865944862365723e+00,7.116595506668090820e-01
3.123746871948242188e+00,-1.919617772102355957e+00,8.464612960815429688e-01
3.203910589218139648e+00,-1.906253933906555176e+00,-9.989441037178039551e-01
3.208305358886718750e+00,-1.908868670463562012e+00,-8.618826270103454590e-01
3.213089227676391602e+00,-1.911714911460876465e+00,-7.267472147941589355e-01
3.216876506805419922e+00,-1.913968324661254883e+00,-5.928642153739929199e-01
3.221109390258789062e+00,-1.916486740112304688e+00,-4.602116048336029053e-01
3.225180149078369141e+00,-1.918908834457397461e+00,-3.283326923847198486e-01
3.229187250137329102e+00,-1.921292901039123535e+00,-1.969234049320220947e-01
3.233266115188598633e+00,-1.923719763755798340e+00,-6.567064672708511353e-02
3.237415552139282227e+00,-1.926188588142395020e+00,6.575492024421691895e-02
3.241529226303100586e+00,-1.928636074066162109e+00,1.976760476827621460e-01
3.245540857315063477e+00,-1.931022882461547852e+00,3.304054439067840576e-01
3.250082969665527344e+00,-1.933725357055664062e+00,4.643511772155761719e-01
3.253694772720336914e+00,-1.935874462127685547e+00,5.996497869491577148e-01
3.257823705673217773e+00,-1.938331007957458496e+00,7.368654608726501465e-01
3.262699365615844727e+00,-1.941231846809387207e+00,8.764951229095458984e-01
3.342736721038818359e+00,-1.924615740776062012e+00,-1.033533453941345215e+00
3.347098827362060547e+00,-1.927127242088317871e+00,-8.916667699813842773e-01
3.351936101913452148e+00,-1.929912447929382324e+00,-7.518270611763000488e-01
3.355794191360473633e+00,-1.932133674621582031e+00,-6.133068203926086426e-01
3.360188484191894531e+00,-1.934663772583007812e+00,-4.760771691799163818e-01
3.364478349685668945e+00,-1.937133789062500000e+00,-3.396561443805694580e-01
3.368769168853759766e+00,-1.939604163169860840e+00,-2.037215530872344971e-01
3.373018264770507812e+00,-1.942050695419311523e+00,-6.793759018182754517e-02
3.377247810363769531e+00,-1.944485783576965332e+00,6.802277266979217529e-02
3.381508350372314453e+00,-1.946938991546630859e+00,2.044919431209564209e-01
3.385729551315307617e+00,-1.949369311332702637e+00,3.418015241622924805e-01
3.390575170516967773e+00,-1.952159166336059570e+00,4.803824126720428467e-01
3.394511938095092773e+00,-1.954425811767578125e+00,6.203828454017639160e-01
3.399058103561401367e+00,-1.957043409347534180e+00,7.623963356018066406e-01
3.403204202651977539e+00,-1.959430575370788574e+00,9.066132903099060059e-01
3.489762067794799805e+00,-1.943301558494567871e+00,-1.070282101631164551e+00
3.497831344604492188e+00,-1.947795033454895020e+00,-9.243000745773315430e-01
3.502732038497924805e+00,-1.950523972511291504e+00,-7.793081402778625488e-01
3.507291316986083984e+00,-1.953062891960144043e+00,-6.358202695846557617e-01
3.511684179306030273e+00,-1.955509066581726074e+00,-4.935250878334045410e-01
3.516044378280639648e+00,-1.957937121391296387e+00,-3.520919978618621826e-01
3.520467042922973633e+00,-1.960399866104125977e+00,-2.111767381429672241e-01
3.524914264678955078e+00,-1.962876319885253906e+00,-7.042390108108520508e-02
3.529409408569335938e+00,-1.965379595756530762e+00,7.051371037960052490e-02
3.534006595611572266e+00,-1.967939496040344238e+00,2.119889110326766968e-01
3.538630247116088867e+00,-1.970514297485351562e+00,3.543537259101867676e-01
3.543163061141967773e+00,-1.973038315773010254e+00,4.979490935802459717e-01
3.547447681427001953e+00,-1.975424170494079590e+00,6.431000232696533203e-01
3.552443504333496094e+00,-1.978206276893615723e+00,7.903681993484497070e-01
3.557085514068603516e+00,-1.980791091918945312e+00,9.399579167366027832e-01
3.512300491333007812e+00,-1.890510678291320801e+00,-1.068786025047302246e+00
3.662232398986816406e+00,-1.971212148666381836e+00,-9.601888656616210938e-01
3.667208671569824219e+00,-1.973890662193298340e+00,-8.095329403877258301e-01
3.671894788742065430e+00,-1.976413011550903320e+00,-6.604644060134887695e-01
3.676480054855346680e+00,-1.978881120681762695e+00,-5.126519799232482910e-01
3.681383609771728516e+00,-1.981520295143127441e+00,-3.657712042331695557e-01
3.685950040817260742e+00,-1.983978271484375000e+00,-2.193773984909057617e-01
3.690613508224487305e+00,-1.986488342285156250e+00,-7.315882295370101929e-02
3.695399761199951172e+00,-1.989064574241638184e+00,7.325369864702224731e-02
3.699877262115478516e+00,-1.991474628448486328e+00,2.202063053846359253e-01
3.704749584197998047e+00,-1.994097113609313965e+00,3.680927753448486328e-01
3.709599018096923828e+00,-1.996707439422607422e+00,5.172701478004455566e-01
3.714257240295410156e+00,-1.999214768409729004e+00,6.680841445922851562e-01
3.719739675521850586e+00,-2.002165555953979492e+00,8.211291432380676270e-01
3.724917173385620117e+00,-2.004952430725097656e+00,9.766239523887634277e-01
3.556488752365112305e+00,-1.849143266677856445e+00,-1.074068427085876465e+00
3.842370748519897461e+00,-1.997783303260803223e+00,-9.998190402984619141e-01
3.847437143325805664e+00,-2.000417470932006836e+00,-8.429112434387207031e-01
3.852271556854248047e+00,-2.002931118011474609e+00,-6.876816749572753906e-01
3.857566118240356445e+00,-2.005683898925781250e+00,-5.338450074195861816e-01
3.862286090850830078e+00,-2.008137941360473633e+00,-3.808502852916717529e-01
3.867307186126708984e+00,-2.010748624801635742e+00,-2.284349203109741211e-01
3.872209072113037109e+00,-2.013297319412231445e+00,-7.617953419685363770e-02
3.877002239227294922e+00,-2.015789508819580078e+00,7.627383619546890259e-02
3.882164001464843750e+00,-2.018473148345947266e+00,2.293124794960021973e-01
3.886792421340942383e+00,-2.020879507064819336e+00,3.832667768001556396e-01
3.891982316970825195e+00,-2.023578166961669922e+00,5.386078357696533203e-01
3.897045612335205078e+00,-2.026210784912109375e+00,6.956744790077209473e-01
3.901760339736938477e+00,-2.028661966323852539e+00,8.548125624656677246e-01
3.907335519790649414e+00,-2.031560659408569336e+00,1.016723394393920898e+00
3.579030752182006836e+00,-1.796267390251159668e+00,-1.073001503944396973e+00
4.040747165679931641e+00,-2.027996540069580078e+00,-1.043778181076049805e+00
4.045922279357910156e+00,-2.030593872070312500e+00,-8.799383640289306641e-01
4.051657676696777344e+00,-2.033472537994384766e+00,-7.180054187774658203e-01
4.056494235992431641e+00,-2.035899877548217773e+00,-5.572846531867980957e-01
4.061845302581787109e+00,-2.038585424423217773e+00,-3.976103067398071289e-01
4.067062854766845703e+00,-2.041204214096069336e+00,-2.384839206933975220e-01
4.072227478027343750e+00,-2.043796062469482422e+00,-7.953090965747833252e-02
4.077353000640869141e+00,-2.046368598937988281e+00,7.963101565837860107e-02
4.082399368286132812e+00,-2.048901319503784180e+00,2.393832355737686157e-01
4.088042736053466797e+00,-2.051733493804931641e+00,4.001747369766235352e-01
4.092846870422363281e+00,-2.054144620895385742e+00,5.622788071632385254e-01
4.098348140716552734e+00,-2.056905746459960938e+00,7.262795567512512207e-01
4.103557109832763672e+00,-2.059520006179809570e+00,8.924732208251953125e-01
4.109753131866455078e+00,-2.062629938125610352e+00,1.061603426933288574e+00
3.603781223297119141e+00,-1.744574069976806641e+00,-1.072825431823730469e+00
4.242033004760742188e+00,-2.053549051284790039e+00,-1.088068842887878418e+00
4.248336315155029297e+00,-2.056600332260131836e+00,-9.174647331237792969e-01
4.253324508666992188e+00,-2.059015274047851562e+00,-7.484439611434936523e-01
4.258976459503173828e+00,-2.061751127243041992e+00,-5.809881091117858887e-01
4.264463901519775391e+00,-2.064407587051391602e+00,-4.145094752311706543e-01
4.269892215728759766e+00,-2.067035436630249023e+00,-2.486170381307601929e-01
4.275325775146484375e+00,-2.069665908813476562e+00,-8.291038125753402710e-02
4.280785083770751953e+00,-2.072308540344238281e+00,8.301625400781631470e-02
4.286234378814697266e+00,-2.074946403503417969e+00,2.495685666799545288e-01
4.291582584381103516e+00,-2.077535629272460938e+00,4.171454608440399170e-01
4.297713756561279297e+00,-2.080503702163696289e+00,5.862724184989929199e-01
4.302611827850341797e+00,-2.082875013351440430e+00,7.571168541908264160e-01
4.308292865753173828e+00,-2.085624933242797852e+00,9.304128289222717285e-01
4.315086841583251953e+00,-2.088913917541503906e+00,1.106806993484497070e+00
3.626188993453979492e+00,-1.691795825958251953e+00,-1.072177529335021973e+00
4.317661762237548828e+00,-2.014401674270629883e+00,-1.099959015846252441e+00
4.490839958190917969e+00,-2.095197916030883789e+00,-9.632603526115417480e-01
4.496866226196289062e+00,-2.098009586334228516e+00,-7.859344482421875000e-01
4.502620697021484375e+00,-2.100694417953491211e+00,-6.100605726242065430e-01
4.508279323577880859e+00,-2.103334426879882812e+00,-4.352376461029052734e-01
4.513957977294921875e+00,-2.105983734130859375e+00,-2.610460519790649414e-01
4.519714832305908203e+00,-2.108669519424438477e+00,-8.705552667379379272e-02
4.525580883026123047e+00,-2.111406326293945312e+00,8.716851472854614258e-02
4.531514167785644531e+00,-2.114174604415893555e+00,2.620613276958465576e-01
4.537421226501464844e+00,-2.116930246353149414e+00,4.380510151386260986e-01
4.543148517608642578e+00,-2.119602441787719727e+00,6.155517101287841797e-01
4.548500061035156250e+00,-2.122099399566650391e+00,7.949587106704711914e-01
4.554764747619628906e+00,-2.125021934509277344e+00,9.769718050956726074e-01
4.560537338256835938e+00,-2.127715110778808594e+00,1.161833643913269043e+00
3.650809526443481445e+00,-1.640074372291564941e+00,-1.072406411170959473e+00
4.319196701049804688e+00,-1.940337777137756348e+00,-1.093162775039672852e+00
4.739242076873779297e+00,-2.129037141799926758e+00,-1.009901285171508789e+00
4.745569705963134766e+00,-2.131880044937133789e+00,-8.239837288856506348e-01
4.751687526702880859e+00,-2.134628295898437500e+00,-6.396014094352722168e-01
4.757781028747558594e+00,-2.137365579605102539e+00,-4.563247263431549072e-01
4.764091014862060547e+00,-2.140200376510620117e+00,-2.737118303775787354e-01
4.770182132720947266e+00,-2.142936468124389648e+00,-9.127969294786453247e-02
4.776066303253173828e+00,-2.145579814910888672e+00,9.139229357242584229e-02
4.782235622406005859e+00,-2.148351430892944336e+00,2.747543156147003174e-01
4.788454532623291016e+00,-2.151145219802856445e+00,4.592666625976562500e-01
4.794562816619873047e+00,-2.153889179229736328e+00,6.453726291656494141e-01
4.801747322082519531e+00,-2.157116889953613281e+00,8.337379693984985352e-01
4.807176113128662109e+00,-2.159555673599243164e+00,1.024377584457397461e+00
4.813558578491210938e+00,-2.162422895431518555e+00,1.218282818794250488e+00
3.675399303436279297e+00,-1.588300347328186035e+00,-1.072841525077819824e+00
4.353394508361816406e+00,-1.881291747093200684e+00,-1.094890713691711426e+00
5.017408847808837891e+00,-2.168241262435913086e+00,-1.062454581260681152e+00
5.023824691772460938e+00,-2.171013832092285156e+00,-8.668134212493896484e-01
5.030090332031250000e+00,-2.173721551895141602e+00,-6.728188991546630859e-01
5.036406040191650391e+00,-2.176450729370117188e+00,-4.800109267234802246e-01
5.043034553527832031e+00,-2.179315328598022461e+00,-2.879163622856140137e-01
5.049499034881591797e+00,-2.182108879089355469e+00,-9.601706266403198242e-02
5.055819511413574219e+00,-2.184839963912963867e+00,9.613724052906036377e-02
5.062524318695068359e+00,-2.187737464904785156e+00,2.890290617942810059e-01
5.069356441497802734e+00,-2.190690040588378906e+00,4.831513762474060059e-01
5.076145172119140625e+00,-2.193623542785644531e+00,6.789790987968444824e-01
5.082660675048828125e+00,-2.196439504623413086e+00,8.769650459289550781e-01
5.088620662689208984e+00,-2.199014902114868164e+00,1.077533960342407227e+00
5.095672130584716797e+00,-2.202062368392944336e+00,1.281575560569763184e+00
3.699992418289184570e+00,-1.536464691162109375e+00,-1.073490858078002930e+00
4.387761592864990234e+00,-1.822068810462951660e+00,-1.096862554550170898e+00
5.328414916992187500e+00,-2.212686061859130859e+00,-1.121489882469177246e+00
5.335216522216796875e+00,-2.215510368347167969e+00,-9.149758815765380859e-01
5.342650890350341797e+00,-2.218597412109375000e+00,-7.103062272071838379e-01
5.349219322204589844e+00,-2.221325159072875977e+00,-5.067424178123474121e-01
5.356197357177734375e+00,-2.224222898483276367e+00,-3.039466738700866699e-01
5.363100051879882812e+00,-2.227089405059814453e+00,-1.013636961579322815e-01
5.369910717010498047e+00,-2.229917526245117188e+00,1.014924198389053345e-01
5.377213954925537109e+00,-2.232950448989868164e+00,3.051393032073974609e-01
5.383696079254150391e+00,-2.235641956329345703e+00,5.100084543228149414e-01
5.390961170196533203e+00,-2.238658905029296875e+00,7.167290449142456055e-01
5.398017406463623047e+00,-2.241589307785034180e+00,9.257460832595825195e-01
5.404561519622802734e+00,-2.244306802749633789e+00,1.137516736984252930e+00
5.412354946136474609e+00,-2.247542858123779297e+00,1.352992534637451172e+00
3.700709104537963867e+00,-1.475024938583374023e+00,-1.067463874816894531e+00
4.422349452972412109e+00,-1.762655735015869141e+00,-1.099089264869689941e+00
5.437732219696044922e+00,-2.167366027832031250e+00,-1.137852311134338379e+00
5.688498497009277344e+00,-2.267316102981567383e+00,-9.698978066444396973e-01
5.695447921752929688e+00,-2.270086050033569336e+00,-7.528136372566223145e-01
5.703073024749755859e+00,-2.273125171661376953e+00,-5.371264219284057617e-01
5.710457324981689453e+00,-2.276068449020385742e+00,-3.221680521965026855e-01
5.717850208282470703e+00,-2.279015302658081055e+00,-1.074410080909729004e-01
5.725216865539550781e+00,-2.281951427459716797e+00,1.075794324278831482e-01
5.732394695281982422e+00,-2.284812211990356445e+00,3.234057128429412842e-01
5.740375518798828125e+00,-2.287993192672729492e+00,5.406396389007568359e-01
5.747062206268310547e+00,-2.290658473968505859e+00,7.596358656883239746e-01
5.754720687866210938e+00,-2.293710947036743164e+00,9.811887741088867188e-01
5.763916969299316406e+00,-2.297376394271850586e+00,1.206106901168823242e+00
3.725093364715576172e+00,-1.423305034637451172e+00,-1.068511605262756348e+00
4.422526836395263672e+00,-1.689784407615661621e+00,-1.093010187149047852e+00
5.437521934509277344e+00,-2.077599525451660156e+00,-1.131469726562500000e+00
6.090365409851074219e+00,-2.327041864395141602e+00,-1.032631874084472656e+00
6.098726272583007812e+00,-2.330236196517944336e+00,-8.016273975372314453e-01
6.106754302978515625e+00,-2.333303689956665039e+00,-5.719419121742248535e-01
6.114609718322753906e+00,-2.336305141448974609e+00,-3.430474400520324707e-01
6.122566223144531250e+00,-2.339345216751098633e+00,-1.144049018621444702e-01
6.130570411682128906e+00,-2.342403411865234375e+00,1.145544648170471191e-01
6.138454437255859375e+00,-2.345416069030761719e+00,3.443852066993713379e-01
6.146094799041748047e+00,-2.348335266113281250e+00,5.756264328956604004e-01
6.154816150665283203e+00,-2.351667642593383789e+00,8.090000152587890625e-01
6.163472652435302734e+00,-2.354974985122680664e+00,1.045027375221252441e+00
6.171705722808837891e+00,-2.358120918273925781e+00,1.284242868423461914e+00
3.751537322998046875e+00,-1.372206926345825195e+00,-1.070353388786315918e+00
4.459487438201904297e+00,-1.631155133247375488e+00,-1.096262335777282715e+00
5.493070125579833984e+00,-2.009210586547851562e+00,-1.136927843093872070e+00
6.508314132690429688e+00,-2.380558252334594727e+00,-1.097606062889099121e+00
6.517049312591552734e+00,-2.383753538131713867e+00,-8.520405292510986328e-01
6.525505065917968750e+00,-2.386846303939819336e+00,-6.078989505767822266e-01
6.533697128295898438e+00,-2.389842748641967773e+00,-3.646030128002166748e-01
6.542199611663818359e+00,-2.392952680587768555e+00,-1.215936094522476196e-01
6.551068782806396484e+00,-2.396196842193603516e+00,1.217584535479545593e-01
6.559685707092285156e+00,-2.399348735809326172e+00,3.660532534122467041e-01
6.568117618560791016e+00,-2.402432918548583984e+00,6.118686199188232422e-01
6.576154232025146484e+00,-2.405372381210327148e+00,8.597679138183593750e-01
6.585488319396972656e+00,-2.408786535263061523e+00,1.110621213912963867e+00
6.594454765319824219e+00,-2.412066221237182617e+00,1.364886879920959473e+00
3.776116847991943359e+00,-1.320236086845397949e+00,-1.071864843368530273e+00
4.494377136230468750e+00,-1.571359872817993164e+00,-1.099197506904602051e+00
5.492218494415283203e+00,-1.920233130455017090e+00,-1.130946874618530273e+00
7.039123058319091797e+00,-2.461074113845825195e+00,-1.181063413619995117e+00
7.048727989196777344e+00,-2.464432477951049805e+00,-9.168466329574584961e-01
7.058125972747802734e+00,-2.467718124389648438e+00,-6.541590094566345215e-01
7.067504405975341797e+00,-2.470997095108032227e+00,-3.923774063587188721e-01
7.076736450195312500e+00,-2.474225044250488281e+00,-1.308569163084030151e-01
7.085879802703857422e+00,-2.477421760559082031e+00,1.310259848833084106e-01
7.095039844512939453e+00,-2.480624437332153320e+00,3.939061462879180908e-01
7.104095458984375000e+00,-2.483790397644042969e+00,6.584196090698242188e-01
7.114598274230957031e+00,-2.487462520599365234e+00,9.254145026206970215e-01
7.123046398162841797e+00,-2.490416288375854492e+00,1.195144653320312500e+00
3.802717208862304688e+00,-1.268756985664367676e+00,-1.074150562286376953e+00
4.496056079864501953e+00,-1.500085830688476562e+00,-1.094244837760925293e+00
5.548121452331542969e+00,-1.851101875305175781e+00,-1.136886000633239746e+00
7.145361900329589844e+00,-2.384012937545776367e+00,-1.193041205406188965e+00
7.612030982971191406e+00,-2.539714574813842773e+00,-9.852875471115112305e-01
7.622061729431152344e+00,-2.543061494827270508e+00,-7.029799818992614746e-01
7.632158756256103516e+00,-2.546430110931396484e+00,-4.216594398021697998e-01
7.642184734344482422e+00,-2.549775362014770508e+00,-1.406234353780746460e-01
7.652209758758544922e+00,-2.553120136260986328e+00,1.408078968524932861e-01
7.662325382232666016e+00,-2.556495189666748047e+00,4.233261048793792725e-01
7.672415256500244141e+00,-2.559861660003662109e+00,7.076240181922912598e-01
7.682224750518798828e+00,-2.563134431838989258e+00,9.943733215332031250e-01
7.693761825561523438e+00,-2.566983699798583984e+00,1.284605979919433594e+00
3.802366733551025391e+00,-1.208443880081176758e+00,-1.069056153297424316e+00
4.531128883361816406e+00,-1.440054416656494141e+00,-1.097651720046997070e+00
5.546821117401123047e+00,-1.762855172157287598e+00,-1.131333112716674805e+00
7.143238544464111328e+00,-2.270218372344970703e+00,-1.187139511108398438e+00
8.348533630371093750e+00,-2.653277635574340820e+00,-1.075593233108520508e+00
8.359411239624023438e+00,-2.656734704971313477e+00,-7.673996090888977051e-01
8.370462417602539062e+00,-2.660246849060058594e+00,-4.602982401847839355e-01
8.381534576416015625e+00,-2.663765668869018555e+00,-1.535108685493469238e-01
8.392730712890625000e+00,-2.667323827743530273e+00,1.537159234285354614e-01
8.404105186462402344e+00,-2.670938968658447266e+00,4.621482789516448975e-01
8.415547370910644531e+00,-2.674575567245483398e+00,7.725529670715332031e-01
8.426783561706542969e+00,-2.678146600723266602e+00,1.085674643516540527e+00
3.828887224197387695e+00,-1.156805515289306641e+00,-1.071747422218322754e+00
4.532328605651855469e+00,-1.369333267211914062e+00,-1.093082427978515625e+00
5.603252410888671875e+00,-1.692886948585510254e+00,-1.137784123420715332e+00
7.237068653106689453e+00,-2.186505079269409180e+00,-1.197409391403198242e+00
9.149180412292480469e+00,-2.764203310012817383e+00,-1.173527836799621582e+00
9.161001205444335938e+00,-2.767774581909179688e+00,-8.372635245323181152e-01
9.173110008239746094e+00,-2.771433115005493164e+00,-5.022035837173461914e-01
9.185335159301757812e+00,-2.775126457214355469e+00,-1.674880832433700562e-01
9.197816848754882812e+00,-2.778897523880004883e+00,1.677156835794448853e-01
9.210564613342285156e+00,-2.782748937606811523e+00,5.042541027069091797e-01
9.221630096435546875e+00,-2.786092281341552734e+00,8.428046703338623047e-01
9.233910560607910156e+00,-2.789802312850952148e+00,1.184395790100097656e+00
3.829939365386962891e+00,-1.097557306289672852e+00,-1.067535161972045898e+00
4.569712638854980469e+00,-1.309556365013122559e+00,-1.097465395927429199e+00
5.604121208190917969e+00,-1.605990052223205566e+00,-1.133176803588867188e+00
7.237801074981689453e+00,-2.074158668518066406e+00,-1.192496299743652344e+00
1.011746215820312500e+01,-2.899391889572143555e+00,-1.292269945144653320e+00
1.013182926177978516e+01,-2.903509140014648438e+00,-9.220989942550659180e-01
1.014524555206298828e+01,-2.907353639602661133e+00,-5.530905127525329590e-01
1.015888690948486328e+01,-2.911262989044189453e+00,-1.844613850116729736e-01
1.017295169830322266e+01,-2.915293455123901367e+00,1.847167760133743286e-01
1.018587589263916016e+01,-2.918997287750244141e+00,5.553055405616760254e-01
1.020001983642578125e+01,-2.923050642013549805e+00,9.283050298690795898e-01
3.856424331665039062e+00,-1.045659303665161133e+00,-1.070636034011840820e+00
4.570464611053466797e+00,-1.239269495010375977e+00,-1.093274116516113281e+00
5.604746341705322266e+00,-1.519712209701538086e+00,-1.128789186477661133e+00
7.238249301910400391e+00,-1.962632298469543457e+00,-1.187820076942443848e+00
1.020565319061279297e+01,-2.767235994338989258e+00,-1.298342108726501465e+00
1.133208274841308594e+01,-3.072664499282836914e+00,-1.027226328849792480e+00
1.134715080261230469e+01,-3.076750040054321289e+00,-6.161510348320007324e-01
1.136257743835449219e+01,-3.080933094024658203e+00,-2.054958045482635498e-01
1.137854671478271484e+01,-3.085263013839721680e+00,2.057846039533615112e-01
1.139346027374267578e+01,-3.089306831359863281e+00,6.186656951904296875e-01
1.140977382659912109e+01,-3.093730211257934570e+00,1.034268856048583984e+00
3.883110046386718750e+00,-9.934586286544799805e-01,-1.073986768722534180e+00
4.608068466186523438e+00,-1.178932785987854004e+00,-1.098120093345642090e+00
5.661573410034179688e+00,-1.448462486267089844e+00,-1.135942220687866211e+00
7.333647727966308594e+00,-1.876247525215148926e+00,-1.198945283889770508e+00
1.020539379119873047e+01,-2.610957860946655273e+00,-1.293422341346740723e+00
1.285327053070068359e+01,-3.288393259048461914e+00,-1.160732746124267578e+00
1.287149715423583984e+01,-3.293056488037109375e+00,-6.962924003601074219e-01
1.288923740386962891e+01,-3.297595024108886719e+00,-2.322285026311874390e-01
1.290652656555175781e+01,-3.302018165588378906e+00,2.325399965047836304e-01
1.292515563964843750e+01,-3.306784391403198242e+00,6.991950869560241699e-01
1.294159984588623047e+01,-3.310991525650024414e+00,1.168709516525268555e+00
3.883667945861816406e+00,-9.345902204513549805e-01,-1.070331692695617676e+00
4.608479499816894531e+00,-1.109013438224792480e+00,-1.094323158264160156e+00
5.661799430847167969e+00,-1.362490892410278320e+00,-1.131958723068237305e+00
7.333609104156494141e+00,-1.764805674552917480e+00,-1.194686889648437500e+00
1.020484066009521484e+01,-2.455756902694702148e+00,-1.288765311241149902e+00
1.484716892242431641e+01,-3.572916030883789062e+00,-1.336039423942565918e+00
1.486846256256103516e+01,-3.578040122985839844e+00,-8.014670610427856445e-01
1.488932132720947266e+01,-3.583059549331665039e+00,-2.673130631446838379e-01
1.490978527069091797e+01,-3.587984085083007812e+00,2.676804661750793457e-01
1.493201065063476562e+01,-3.593332767486572266e+00,8.048925399780273438e-01
3.910457611083984375e+00,-8.820267319679260254e-01,-1.074125409126281738e+00
4.646416187286376953e+00,-1.048026561737060547e+00,-1.099656820297241211e+00
5.661878108978271484e+00,-1.277069926261901855e+00,-1.128204226493835449e+00
7.333391666412353516e+00,-1.654089689254760742e+00,-1.190672636032104492e+00
1.020405387878417969e+01,-2.301584482192993164e+00,-1.284373998641967773e+00
1.726304244995117188e+01,-3.893780946731567383e+00,-1.548260688781738281e+00
1.759854698181152344e+01,-3.969455957412719727e+00,-9.454695582389831543e-01
1.762382507324218750e+01,-3.975157737731933594e+00,-3.153527677059173584e-01
1.764878273010253906e+01,-3.980786800384521484e+00,3.157993257045745850e-01
1.767610168457031250e+01,-3.986948966979980469e+00,9.496361613273620605e-01
3.910792827606201172e+00,-8.234668374061584473e-01,-1.070870280265808105e+00
4.646584510803222656e+00,-9.783970713615417480e-01,-1.096269965171813965e+00
5.719413757324218750e+00,-1.204294800758361816e+00,-1.136117815971374512e+00
7.333035945892333984e+00,-1.544063448905944824e+00,-1.186904907226562500e+00
1.039453506469726562e+01,-2.188700675964355469e+00,-1.304272770881652832e+00
1.726029396057128906e+01,-3.634372711181640625e+00,-1.543190598487854004e+00
2.777138900756835938e+01,-5.847616672515869141e+00,-1.487349271774291992e+00
2.780458450317382812e+01,-5.854606628417968750e+00,-4.959723949432373047e-01
2.783746719360351562e+01,-5.861530303955078125e+00,4.965589344501495361e-01
3.911048173904418945e+00,-7.652336359024047852e-01,-1.067831516265869141e+00
4.646669864654541016e+00,-9.091650247573852539e-01,-1.093107938766479492e+00
5.719276428222656250e+00,-1.119030594825744629e+00,-1.132792830467224121e+00
7.332580566406250000e+00,-1.434688925743103027e+00,-1.183386206626892090e+00
1.039345932006835938e+01,-2.033578634262084961e+00,-1.300352215766906738e+00
1.725734901428222656e+01,-3.376563787460327148e+00,-1.538448691368103027e+00
4.296492767333984375e+01,-8.406496047973632812e+00,-2.294388771057128906e+00
4.302158355712890625e+01,-8.417580604553222656e+00,-7.651824951171875000e-01
3.937961101531982422e+00,-7.121391296386718750e-01,-1.072286605834960938e+00
4.684981346130371094e+00,-8.472300171852111816e-01,-1.099155187606811523e+00
5.719078540802001953e+00,-1.034235715866088867e+00,-1.129705905914306641e+00
7.429771423339843750e+00,-1.343596696853637695e+00,-1.195845365524291992e+00
1.039230442047119141e+01,-1.879339814186096191e+00,-1.296709418296813965e+00
1.725429153442382812e+01,-3.120258331298828125e+00,-1.534037470817565918e+00
5.055142211914062500e+01,-9.141696929931640625e+00,-2.692255020141601562e+00
9.148007965087890625e+01,-1.654321861267089844e+01,-1.622688174247741699e+00
3.939136028289794922e+00,-6.542754173278808594e-01,-1.069947004318237305e+00
4.686207771301269531e+00,-7.783612012863159180e-01,-1.096716761589050293e+00
5.779174327850341797e+00,-9.598987698554992676e-01,-1.138746142387390137e+00
7.431237697601318359e+00,-1.234300136566162109e+00,-1.193115592002868652e+00
1.039401340484619141e+01,-1.726405858993530273e+00,-1.293706774711608887e+00
1.725616836547851562e+01,-2.866183519363403320e+00,-1.530400156974792480e+00
5.054510498046875000e+01,-8.395348548889160156e+00,-2.685243844985961914e+00
3.939162015914916992e+00,-5.964786410331726074e-01,-1.067525744438171387e+00
4.686058044433593750e+00,-7.095756530761718750e-01,-1.094192743301391602e+00
5.778784751892089844e+00,-8.750392794609069824e-01,-1.136085033416748047e+00
7.430493354797363281e+00,-1.125145554542541504e+00,-1.190288424491882324e+00
1.039260387420654297e+01,-1.573676347732543945e+00,-1.290595650672912598e+00
1.725288391113281250e+01,-2.612478494644165039e+00,-1.526636123657226562e+00
5.052269744873046875e+01,-7.650284767150878906e+00,-2.677961826324462891e+00
3.966276884078979492e+00,-5.426371693611145020e-01,-1.072659134864807129e+00
4.685904979705810547e+00,-6.410914659500122070e-01,-1.091902494430541992e+00
5.778405189514160156e+00,-7.905594110488891602e-01,-1.133669614791870117e+00
7.429777622222900391e+00,-1.016488194465637207e+00,-1.187721490859985352e+00
1.039124774932861328e+01,-1.421655058860778809e+00,-1.287768363952636719e+00
1.724983596801757812e+01,-2.359997272491455078e+00,-1.523221373558044434e+00
5.050460052490234375e+01,-6.909672260284423828e+00,-2.671486377716064453e+00
7.347500610351562500e+01,-1.005231571197509766e+01,-1.294456243515014648e+00
3.967056512832641602e+00,-4.850117564201354980e-01,-1.070882797241210938e+00
4.725639820098876953e+00,-5.777560472488403320e-01,-1.099121809005737305e+00
5.779223442077636719e+00,-7.065670490264892578e-01,-1.131730079650878906e+00
7.430640220642089844e+00,-9.084690213203430176e-01,-1.185659170150756836e+00
1.039215373992919922e+01,-1.270543217658996582e+00,-1.285495162010192871e+00
1.725065994262695312e+01,-2.109063148498535156e+00,-1.520472764968872070e+00
5.050059509277343750e+01,-6.174195289611816406e+00,-2.666326761245727539e+00
6.399425888061523438e+01,-7.823929309844970703e+00,-1.125339627265930176e+00
3.966979026794433594e+00,-4.274730384349822998e-01,-1.069100737571716309e+00
4.725408554077148438e+00,-5.091997385025024414e-01,-1.097260475158691406e+00
5.778786182403564453e+00,-6.227093935012817383e-01,-1.129783272743225098e+00
7.429876327514648438e+00,-8.006273508071899414e-01,-1.183587551116943359e+00
1.039076042175292969e+01,-1.119685769081115723e+00,-1.283208966255187988e+00
1.724760627746582031e+01,-1.858564615249633789e+00,-1.517703413963317871e+00
4.112805175781250000e+01,-4.431869506835937500e+00,-2.167904615402221680e+00
4.115860748291015625e+01,-4.435162067413330078e+00,-7.225841879844665527e-01
3.967521905899047852e+00,-3.701716065406799316e-01,-1.067709684371948242e+00
4.725943565368652344e+00,-4.409326910972595215e-01,-1.095806956291198730e+00
5.779314517974853516e+00,-5.392127037048339844e-01,-1.128262162208557129e+00
7.530749320983886719e+00,-7.026223540306091309e-01,-1.197931885719299316e+00
1.058978462219238281e+01,-9.880318045616149902e-01,-1.305907249450683594e+00
1.724770545959472656e+01,-1.609218835830688477e+00,-1.515529990196228027e+00
3.122282409667968750e+01,-2.913103818893432617e+00,-1.643423080444335938e+00
3.125140380859375000e+01,-2.915770530700683594e+00,-5.478636026382446289e-01
3.128094673156738281e+01,-2.918526649475097656e+00,5.483815073966979980e-01
3.994900465011596680e+00,-3.151243627071380615e-01,-1.073753833770751953e+00
4.725689411163330078e+00,-3.727702200412750244e-01,-1.094398736953735352e+00
5.838881015777587891e+00,-4.605806171894073486e-01,-1.138487339019775391e+00
7.529999732971191406e+00,-5.939788222312927246e-01,-1.196337699890136719e+00
1.058845043182373047e+01,-8.352345228195190430e-01,-1.304134845733642578e+00
1.724481773376464844e+01,-1.360299706459045410e+00,-1.513410329818725586e+00
2.456588745117187500e+01,-1.937797784805297852e+00,-1.291440844535827637e+00
2.458873748779296875e+01,-1.939600348472595215e+00,-4.305305778980255127e-01
2.461364936828613281e+01,-1.941565394401550293e+00,4.309667944908142090e-01
3.995238304138183594e+00,-2.576743960380554199e-01,-1.072743415832519531e+00
4.726007938385009766e+00,-3.048056662082672119e-01,-1.093350172042846680e+00
5.839167118072509766e+00,-3.765992820262908936e-01,-1.137375593185424805e+00
7.530228614807128906e+00,-4.856649339199066162e-01,-1.195147275924682617e+00
