1.456827163696289062e+00,2.108091592788696289e+00,-5.915983319282531738e-01
1.458529472351074219e+00,2.110554933547973633e+00,-4.986804127693176270e-01
1.460364580154418945e+00,2.113210439682006836e+00,-4.068447053432464600e-01
1.462265729904174805e+00,2.115961551666259766e+00,-3.158093094825744629e-01
1.463997483253479004e+00,2.118467330932617188e+00,-2.252926081418991089e-01
1.465794682502746582e+00,2.121068000793457031e+00,-1.351212859153747559e-01
1.467581272125244141e+00,2.123653173446655273e+00,-4.505868256092071533e-02
1.469361305236816406e+00,2.126229047775268555e+00,4.511333629488945007e-02
1.471220612525939941e+00,2.128919601440429688e+00,1.356214582920074463e-01
1.472931146621704102e+00,2.131394863128662109e+00,2.266674041748046875e-01
1.474739551544189453e+00,2.134011745452880859e+00,3.185032904148101807e-01
1.476722955703735352e+00,2.136881828308105469e+00,4.114019870758056641e-01
1.478624224662780762e+00,2.139632940292358398e+00,5.055509209632873535e-01
1.480340719223022461e+00,2.142116785049438477e+00,6.011468768119812012e-01
1.397577524185180664e+00,2.085555553436279297e+00,-6.726936697959899902e-01
1.399300456047058105e+00,2.088126420974731445e+00,-5.803152918815612793e-01
1.401116967201232910e+00,2.090837240219116211e+00,-4.892328977584838867e-01
1.402826189994812012e+00,2.093387842178344727e+00,-3.991217017173767090e-01
1.404499769210815430e+00,2.095885276794433594e+00,-3.097807466983795166e-01
1.406262159347534180e+00,2.098515272140502930e+00,-2.210075259208679199e-01
1.407991170883178711e+00,2.101095438003540039e+00,-1.325515061616897583e-01
1.409707307815551758e+00,2.103656291961669922e+00,-4.420174658298492432e-02
1.411414742469787598e+00,2.106204271316528320e+00,4.425527900457382202e-02
1.413100957870483398e+00,2.108720541000366211e+00,1.330325603485107422e-01
1.414897799491882324e+00,2.111401796340942383e+00,2.223646938800811768e-01
1.416689395904541016e+00,2.114075422286987305e+00,3.124693334102630615e-01
1.418411135673522949e+00,2.116644620895385742e+00,4.035558104515075684e-01
1.420276403427124023e+00,2.119428157806396484e+00,4.959228634834289551e-01
1.421980142593383789e+00,2.121970653533935547e+00,5.897209644317626953e-01
1.342399477958679199e+00,2.066570520401000977e+00,-6.603048443794250488e-01
1.344269514083862305e+00,2.069449186325073242e+00,-5.697190165519714355e-01
1.345773220062255859e+00,2.071764230728149414e+00,-4.802135229110717773e-01
1.347569584846496582e+00,2.074529647827148438e+00,-3.918086290359497070e-01
1.349262356758117676e+00,2.077135562896728516e+00,-3.041238188743591309e-01
1.350836873054504395e+00,2.079559564590454102e+00,-2.169526517391204834e-01
1.352503418922424316e+00,2.082124948501586914e+00,-1.301200985908508301e-01
1.354151725769042969e+00,2.084662675857543945e+00,-4.339094087481498718e-02
1.355786442756652832e+00,2.087179183959960938e+00,4.344332218170166016e-02
1.357525348663330078e+00,2.089856147766113281e+00,1.306032538414001465e-01
1.359166026115417480e+00,2.092381954193115234e+00,2.182903736829757690e-01
1.360730648040771484e+00,2.094790458679199219e+00,3.067087531089782715e-01
1.362628936767578125e+00,2.097712993621826172e+00,3.961871564388275146e-01
1.364202618598937988e+00,2.100135564804077148e+00,4.867897331714630127e-01
1.365868330001831055e+00,2.102699756622314453e+00,5.788728594779968262e-01
1.289604067802429199e+00,2.048900127410888672e+00,-6.486945748329162598e-01
1.291142702102661133e+00,2.051344633102416992e+00,-5.595897436141967773e-01
1.292778134346008301e+00,2.053943157196044922e+00,-4.717454016208648682e-01
1.294478178024291992e+00,2.056644201278686523e+00,-3.848918080329895020e-01
1.296089410781860352e+00,2.059204101562500000e+00,-2.987515628337860107e-01
1.297661781311035156e+00,2.061702013015747070e+00,-2.131300717592239380e-01
1.299229741096496582e+00,2.064193487167358398e+00,-1.278242319822311401e-01
1.300813436508178711e+00,2.066709518432617188e+00,-4.262534901499748230e-02
1.302416443824768066e+00,2.069256305694580078e+00,4.267787560820579529e-02
1.304026842117309570e+00,2.071815013885498047e+00,1.282961815595626831e-01
1.305617809295654297e+00,2.074342489242553711e+00,2.144367843866348267e-01
1.307146787643432617e+00,2.076771974563598633e+00,3.013003170490264893e-01
1.308776855468750000e+00,2.079361677169799805e+00,3.891433179378509521e-01
1.310550212860107422e+00,2.082179069519042969e+00,4.782306253910064697e-01
1.312192916870117188e+00,2.084789037704467773e+00,5.687130689620971680e-01
1.238792896270751953e+00,2.032115936279296875e+00,-6.377013921737670898e-01
1.240255355834960938e+00,2.034514904022216797e+00,-5.500997304916381836e-01
1.241810798645019531e+00,2.037066698074340820e+00,-4.637393355369567871e-01
1.243431329727172852e+00,2.039724826812744141e+00,-3.783559203147888184e-01
1.244974255561828613e+00,2.042255878448486328e+00,-2.936773002147674561e-01
1.246487736701965332e+00,2.044738531112670898e+00,-2.095106095075607300e-01
1.248005390167236328e+00,2.047228097915649414e+00,-1.256546229124069214e-01
1.249526381492614746e+00,2.049723148345947266e+00,-4.190184175968170166e-02
1.251054883003234863e+00,2.052230596542358398e+00,4.195310175418853760e-02
1.252598881721496582e+00,2.054763317108154297e+00,1.261171102523803711e-01
1.254131913185119629e+00,2.057278156280517578e+00,2.107954472303390503e-01
1.255613088607788086e+00,2.059707880020141602e+00,2.961868941783905029e-01
1.257194519042968750e+00,2.062302112579345703e+00,3.825438618659973145e-01
1.258914113044738770e+00,2.065122842788696289e+00,4.701263308525085449e-01
1.260511636734008789e+00,2.067743539810180664e+00,5.590841770172119141e-01
1.189203500747680664e+00,2.015105485916137695e+00,-6.269574761390686035e-01
1.190813302993774414e+00,2.017833232879638672e+00,-5.409252643585205078e-01
1.192282557487487793e+00,2.020323038101196289e+00,-4.559959173202514648e-01
1.193687319755554199e+00,2.022703409194946289e+00,-3.719911277294158936e-01
1.195178627967834473e+00,2.025230407714843750e+00,-2.887394130229949951e-01
1.196644186973571777e+00,2.027713775634765625e+00,-2.059900760650634766e-01
1.198134303092956543e+00,2.030238628387451172e+00,-1.235465854406356812e-01
1.199594736099243164e+00,2.032713413238525391e+00,-4.119888693094253540e-02
1.201028943061828613e+00,2.035143613815307617e+00,4.124814644455909729e-02
1.202498435974121094e+00,2.037633657455444336e+00,1.239965930581092834e-01
1.203960061073303223e+00,2.040110588073730469e+00,2.072494477033615112e-01
1.205534696578979492e+00,2.042778730392456055e+00,2.912413179874420166e-01
1.207077503204345703e+00,2.045392990112304688e+00,3.761639595031738281e-01
1.208519577980041504e+00,2.047836542129516602e+00,4.622058570384979248e-01
1.210038423538208008e+00,2.050410270690917969e+00,5.496581792831420898e-01
1.140954136848449707e+00,1.998141169548034668e+00,-6.165351867675781250e-01
1.142566800117492676e+00,2.000965356826782227e+00,-5.319648385047912598e-01
1.143872261047363281e+00,2.003251791000366211e+00,-4.484015107154846191e-01
1.145395040512084961e+00,2.005918502807617188e+00,-3.658517003059387207e-01
1.146741271018981934e+00,2.008275985717773438e+00,-2.839529812335968018e-01
1.148158431053161621e+00,2.010757923126220703e+00,-2.025773376226425171e-01
1.149559020996093750e+00,2.013210773468017578e+00,-1.214966475963592529e-01
1.150960206985473633e+00,2.015664815902709961e+00,-4.051529988646507263e-02
1.152365326881408691e+00,2.018125534057617188e+00,4.056476056575775146e-02
1.153763890266418457e+00,2.020574808120727539e+00,1.219410598278045654e-01
1.155251502990722656e+00,2.023180007934570312e+00,2.038288265466690063e-01
1.156585454940795898e+00,2.025516271591186523e+00,2.863906025886535645e-01
1.158171176910400391e+00,2.028293371200561523e+00,3.699325323104858398e-01
1.159485459327697754e+00,2.030594825744628906e+00,4.545219242572784424e-01
1.161097764968872070e+00,2.033418655395507812e+00,5.405926704406738281e-01
1.094974875450134277e+00,1.982998967170715332e+00,-6.069648861885070801e-01
1.096334934234619141e+00,1.985462069511413574e+00,-5.236177444458007812e-01
1.097754716873168945e+00,1.988033294677734375e+00,-4.414327740669250488e-01
1.099092721939086914e+00,1.990456342697143555e+00,-3.601254522800445557e-01
1.100489139556884766e+00,1.992985248565673828e+00,-2.795352041721343994e-01
1.101837635040283203e+00,1.995427489280700684e+00,-1.994235217571258545e-01
1.103150725364685059e+00,1.997805476188659668e+00,-1.196017712354660034e-01
1.104495406150817871e+00,2.000240564346313477e+00,-3.988341614603996277e-02
1.105874776840209961e+00,2.002738714218139648e+00,3.993323072791099548e-02
1.107228636741638184e+00,2.005190610885620117e+00,1.200438886880874634e-01
1.108550906181335449e+00,2.007585048675537109e+00,2.006385624408721924e-01
1.109955430030822754e+00,2.010128736495971680e+00,2.819397449493408203e-01
1.111308097839355469e+00,2.012578487396240234e+00,3.641279339790344238e-01
1.112759590148925781e+00,2.015207052230834961e+00,4.474665522575378418e-01
1.114082098007202148e+00,2.017602205276489258e+00,5.320938825607299805e-01
1.050094962120056152e+00,1.967759609222412109e+00,-5.976385474205017090e-01
1.051401376724243164e+00,1.970207691192626953e+00,-5.155730843544006348e-01
1.052766561508178711e+00,1.972765684127807617e+00,-4.346522092819213867e-01
1.054049849510192871e+00,1.975170493125915527e+00,-3.545938730239868164e-01
1.055305480957031250e+00,1.977523565292358398e+00,-2.752197384834289551e-01
1.056624650955200195e+00,1.979995369911193848e+00,-1.963496357202529907e-01
1.057921051979064941e+00,1.982424736022949219e+00,-1.177623867988586426e-01
1.059210538864135742e+00,1.984841108322143555e+00,-3.927003964781761169e-02
1.060496091842651367e+00,1.987249970436096191e+00,3.931770101189613342e-02
1.061768531799316406e+00,1.989634394645690918e+00,1.181906685233116150e-01
1.063120484352111816e+00,1.992167830467224121e+00,1.975567340850830078e-01
1.064467310905456543e+00,1.994691610336303711e+00,2.776090800762176514e-01
1.065761208534240723e+00,1.997116208076477051e+00,3.585337102413177490e-01
1.067150950431823730e+00,1.999720454216003418e+00,4.405910670757293701e-01
1.068415164947509766e+00,2.002089738845825195e+00,5.239160656929016113e-01
1.006312608718872070e+00,1.952489495277404785e+00,-5.885658860206604004e-01
1.007580995559692383e+00,1.954950571060180664e+00,-5.077545046806335449e-01
1.008904695510864258e+00,1.957518696784973145e+00,-4.280673563480377197e-01
1.010144233703613281e+00,1.959923744201660156e+00,-3.492252230644226074e-01
1.011351466178894043e+00,1.962266087532043457e+00,-2.710538506507873535e-01
1.012614607810974121e+00,1.964716792106628418e+00,-1.933773756027221680e-01
1.013848543167114258e+00,1.967110991477966309e+00,-1.159787848591804504e-01
1.015084266662597656e+00,1.969508647918701172e+00,-3.867526352405548096e-02
1.016324877738952637e+00,1.971915721893310547e+00,3.872253000736236572e-02
1.017545223236083984e+00,1.974283576011657715e+00,1.164016723632812500e-01
1.018837094306945801e+00,1.976790070533752441e+00,1.945656836032867432e-01
1.020118236541748047e+00,1.979275703430175781e+00,2.734034359455108643e-01
1.021342396736145020e+00,1.981650948524475098e+00,3.530966341495513916e-01
1.022657632827758789e+00,1.984202623367309570e+00,4.339025616645812988e-01
1.024082899093627930e+00,1.986968159675598145e+00,5.160703659057617188e-01
9.642848968505859375e-01,1.938585400581359863e+00,-5.801544785499572754e-01
9.655122756958007812e-01,1.941052913665771484e+00,-5.005042552947998047e-01
9.666471481323242188e-01,1.943334341049194336e+00,-4.218966662883758545e-01
9.678612351417541504e-01,1.945775270462036133e+00,-3.442004919052124023e-01
9.690344333648681641e-01,1.948133826255798340e+00,-2.671584188938140869e-01
9.702520966529846191e-01,1.950581669807434082e+00,-1.905997097492218018e-01
9.714139103889465332e-01,1.952917456626892090e+00,-1.143104583024978638e-01
9.725979566574096680e-01,1.955297827720642090e+00,-3.811892867088317871e-02
9.738071560859680176e-01,1.957728862762451172e+00,3.816632181406021118e-02
9.749691486358642578e-01,1.960064888000488281e+00,1.147288158535957336e-01
9.761905074119567871e-01,1.962520241737365723e+00,1.917662769556045532e-01
9.773912429809570312e-01,1.964934110641479492e+00,2.694623470306396484e-01
9.786992073059082031e-01,1.967563629150390625e+00,3.480547964572906494e-01
9.799473285675048828e-01,1.970072865486145020e+00,4.277015924453735352e-01
9.810675978660583496e-01,1.972325086593627930e+00,5.085678100585937500e-01
9.231111407279968262e-01,1.924398779869079590e+00,-5.718961358070373535e-01
9.243394732475280762e-01,1.926959514617919922e+00,-4.934082031250000000e-01
9.254696965217590332e-01,1.929315686225891113e+00,-4.159347712993621826e-01
9.266672730445861816e-01,1.931812167167663574e+00,-3.393494188785552979e-01
9.278136491775512695e-01,1.934202194213867188e+00,-2.633997201919555664e-01
9.289448857307434082e-01,1.936560392379760742e+00,-1.879111379384994507e-01
9.301012754440307617e-01,1.938971042633056641e+00,-1.127033382654190063e-01
9.312350153923034668e-01,1.941334605216979980e+00,-3.758300840854644775e-02
9.323488473892211914e-01,1.943656563758850098e+00,3.762795776128768921e-02
9.334959387779235840e-01,1.946047902107238770e+00,1.131146773695945740e-01
9.346420764923095703e-01,1.948437333106994629e+00,1.890635788440704346e-01
9.357562065124511719e-01,1.950759768486022949e+00,2.656545341014862061e-01
9.369643926620483398e-01,1.953278541564941406e+00,3.431202769279479980e-01
9.381050467491149902e-01,1.955656409263610840e+00,4.216134846210479736e-01
9.393380284309387207e-01,1.958226799964904785e+00,5.014143586158752441e-01
8.831681609153747559e-01,1.910787582397460938e+00,-5.640366077423095703e-01
8.843817710876464844e-01,1.913413286209106445e+00,-4.866484701633453369e-01
8.854888677597045898e-01,1.915808558464050293e+00,-4.102483689785003662e-01
8.866497874259948730e-01,1.918320298194885254e+00,-3.347157239913940430e-01
8.876716494560241699e-01,1.920531153678894043e+00,-2.597811222076416016e-01
8.887689113616943359e-01,1.922905087471008301e+00,-1.853327304124832153e-01
8.898609280586242676e-01,1.925267696380615234e+00,-1.111551001667976379e-01
8.909456133842468262e-01,1.927614569664001465e+00,-3.706672042608261108e-02
8.920255899429321289e-01,1.929951071739196777e+00,3.711164742708206177e-02
8.931081295013427734e-01,1.932293295860290527e+00,1.115607172250747681e-01
8.942801952362060547e-01,1.934829115867614746e+00,1.864819824695587158e-01
8.953310847282409668e-01,1.937102794647216797e+00,2.620227038860321045e-01
8.964609503746032715e-01,1.939547300338745117e+00,3.384194970130920410e-01
8.975134491920471191e-01,1.941824436187744141e+00,4.158193469047546387e-01
8.988652229309082031e-01,1.944748997688293457e+00,4.946182370185852051e-01
8.444241285324096680e-01,1.897820949554443359e+00,-5.565842390060424805e-01
8.454507589340209961e-01,1.900128245353698730e+00,-4.801426231861114502e-01
8.465449810028076172e-01,1.902587532997131348e+00,-4.047810435295104980e-01
8.475757837295532227e-01,1.904904246330261230e+00,-3.302242159843444824e-01
8.486598134040832520e-01,1.907340526580810547e+00,-2.563275396823883057e-01
8.496547937393188477e-01,1.909576773643493652e+00,-1.828572452068328857e-01
8.507011532783508301e-01,1.911928415298461914e+00,-1.096707060933113098e-01
8.517380952835083008e-01,1.914258837699890137e+00,-3.657172247767448425e-02
8.527681231498718262e-01,1.916573762893676758e+00,3.661594912409782410e-02
8.538574576377868652e-01,1.919022083282470703e+00,1.100776121020317078e-01
8.548700213432312012e-01,1.921297788619995117e+00,1.839796304702758789e-01
8.559544682502746582e-01,1.923735022544860840e+00,2.585307955741882324e-01
8.569981455802917480e-01,1.926080703735351562e+00,3.338952660560607910e-01
8.581402301788330078e-01,1.928647518157958984e+00,4.103253781795501709e-01
8.591885566711425781e-01,1.931003570556640625e+00,4.879444837570190430e-01
8.064844608306884766e-01,1.884726047515869141e+00,-5.493021607398986816e-01
8.075234293937683105e-01,1.887154102325439453e+00,-4.738949537277221680e-01
8.086143136024475098e-01,1.889703512191772461e+00,-3.995365798473358154e-01
8.096278309822082520e-01,1.892072081565856934e+00,-3.259573876857757568e-01
8.106048703193664551e-01,1.894355297088623047e+00,-2.529972791671752930e-01
8.115770220756530762e-01,1.896627187728881836e+00,-1.804863661527633667e-01
8.125810623168945312e-01,1.898973584175109863e+00,-1.082493588328361511e-01
8.135715126991271973e-01,1.901288270950317383e+00,-3.609774634242057800e-02
8.145508766174316406e-01,1.903576970100402832e+00,3.614119812846183777e-02
8.155694603919982910e-01,1.905957341194152832e+00,1.086474582552909851e-01
8.165956139564514160e-01,1.908355474472045898e+00,1.816024482250213623e-01
8.176021575927734375e-01,1.910707831382751465e+00,2.551811933517456055e-01
8.185529112815856934e-01,1.912929654121398926e+00,3.295506238937377930e-01
8.195844292640686035e-01,1.915340185165405273e+00,4.049569070339202881e-01
8.207198381423950195e-01,1.917993545532226562e+00,4.816392362117767334e-01
7.696878314018249512e-01,1.872381925582885742e+00,-5.424380302429199219e-01
7.707232236862182617e-01,1.874900579452514648e+00,-4.679997265338897705e-01
7.716697454452514648e-01,1.877203106880187988e+00,-3.945179581642150879e-01
7.725768685340881348e-01,1.879409790039062500e+00,-3.218379616737365723e-01
7.735536694526672363e-01,1.881786108016967773e+00,-2.498142868280410767e-01
7.745071053504943848e-01,1.884105443954467773e+00,-1.782215535640716553e-01
7.754576802253723145e-01,1.886417746543884277e+00,-1.068899556994438171e-01
7.764028310775756836e-01,1.888717055320739746e+00,-3.564442694187164307e-02
7.773450613021850586e-01,1.891009211540222168e+00,3.568768501281738281e-02
7.782914042472839355e-01,1.893311262130737305e+00,1.072805598378181458e-01
7.792257070541381836e-01,1.895584106445312500e+00,1.793073564767837524e-01
7.802470326423645020e-01,1.898068785667419434e+00,2.519758641719818115e-01
7.812502384185791016e-01,1.900508999824523926e+00,3.254510760307312012e-01
7.821902036666870117e-01,1.902795672416687012e+00,3.998965620994567871e-01
7.832161188125610352e-01,1.905291318893432617e+00,4.755856394767761230e-01
7.334452867507934570e-01,1.859460234642028809e+00,-5.355983376502990723e-01
7.343325614929199219e-01,1.861709594726562500e+00,-4.620361030101776123e-01
7.352878451347351074e-01,1.864131450653076172e+00,-3.895190358161926270e-01
7.361877560615539551e-01,1.866412997245788574e+00,-3.177753090858459473e-01
7.371374964714050293e-01,1.868820905685424805e+00,-2.466671615839004517e-01
7.380045056343078613e-01,1.871018886566162109e+00,-1.759664416313171387e-01
7.389166355133056641e-01,1.873331427574157715e+00,-1.055383458733558655e-01
7.398173809051513672e-01,1.875615000724792480e+00,-3.519371151924133301e-02
7.407088875770568848e-01,1.877875208854675293e+00,3.523612022399902344e-02
7.416521906852722168e-01,1.880266785621643066e+00,1.059290617704391479e-01
7.425235509872436523e-01,1.882475733757019043e+00,1.770439445972442627e-01
7.434608340263366699e-01,1.884852051734924316e+00,2.487831264734268188e-01
7.443625330924987793e-01,1.887138128280639648e+00,3.213039636611938477e-01
7.453590631484985352e-01,1.889664530754089355e+00,3.948543071746826172e-01
7.462767362594604492e-01,1.891991019248962402e+00,4.695512950420379639e-01
6.984956860542297363e-01,1.847909569740295410e+00,-5.293372869491577148e-01
6.994017958641052246e-01,1.850306749343872070e+00,-4.566749036312103271e-01
7.002395987510681152e-01,1.852523088455200195e+00,-3.849596679210662842e-01
7.011445760726928711e-01,1.854917287826538086e+00,-3.140771985054016113e-01
7.020118832588195801e-01,1.857211828231811523e+00,-2.437836229801177979e-01
7.028687000274658203e-01,1.859478592872619629e+00,-1.739170998334884644e-01
7.037469148635864258e-01,1.861802101135253906e+00,-1.043106392025947571e-01
7.046048045158386230e-01,1.864071607589721680e+00,-3.478430956602096558e-02
7.054442763328552246e-01,1.866292357444763184e+00,3.482574969530105591e-02
7.063115239143371582e-01,1.868586778640747070e+00,1.046907603740692139e-01
7.071787714958190918e-01,1.870881199836730957e+00,1.749835908412933350e-01
7.080230116844177246e-01,1.873114705085754395e+00,2.458710819482803345e-01
7.089548707008361816e-01,1.875579953193664551e+00,3.175758123397827148e-01
7.098417878150939941e-01,1.877926230430603027e+00,3.902384936809539795e-01
7.108252048492431641e-01,1.880528092384338379e+00,4.641338288784027100e-01
6.640682816505432129e-01,1.835853457450866699e+00,-5.231074094772338867e-01
6.649918556213378906e-01,1.838406682014465332e+00,-4.513424038887023926e-01
6.658312678337097168e-01,1.840727210044860840e+00,-3.804890513420104980e-01
6.666282415390014648e-01,1.842930555343627930e+00,-3.104001581668853760e-01
6.674803495407104492e-01,1.845286250114440918e+00,-2.409394830465316772e-01
6.683010458946228027e-01,1.847555160522460938e+00,-1.718896180391311646e-01
6.691077947616577148e-01,1.849785327911376953e+00,-1.030902415513992310e-01
6.699234247207641602e-01,1.852040171623229980e+00,-3.437734395265579224e-02
6.707499027252197266e-01,1.854325175285339355e+00,3.441976010799407959e-02
6.715685129165649414e-01,1.856588244438171387e+00,1.034693717956542969e-01
6.723653674125671387e-01,1.858791232109069824e+00,1.729349792003631592e-01
6.732323169708251953e-01,1.861187934875488281e+00,2.430157512426376343e-01
6.740750074386596680e-01,1.863517642021179199e+00,3.138675689697265625e-01
6.748552918434143066e-01,1.865674734115600586e+00,3.856458365917205811e-01
6.758958697319030762e-01,1.868551373481750488e+00,4.587431252002716064e-01
6.306586265563964844e-01,1.824722409248352051e+00,-5.173106193542480469e-01
6.314527988433837891e-01,1.827020287513732910e+00,-4.462822675704956055e-01
6.321915984153747559e-01,1.829157829284667969e+00,-3.761885762214660645e-01
6.330006122589111328e-01,1.831498622894287109e+00,-3.069172501564025879e-01
6.337807774543762207e-01,1.833755850791931152e+00,-2.382250577211380005e-01
6.345933079719543457e-01,1.836106896400451660e+00,-1.699620336294174194e-01
6.353576779365539551e-01,1.838318467140197754e+00,-1.019339114427566528e-01
6.361322402954101562e-01,1.840559482574462891e+00,-3.399174660444259644e-02
6.369187235832214355e-01,1.842835068702697754e+00,3.403377532958984375e-02
6.376625299453735352e-01,1.844987154006958008e+00,1.023036837577819824e-01
6.384484767913818359e-01,1.847261309623718262e+00,1.709945499897003174e-01
6.392187476158142090e-01,1.849489927291870117e+00,2.402690798044204712e-01
6.400778293609619141e-01,1.851975679397583008e+00,3.103487193584442139e-01
6.409029364585876465e-01,1.854362964630126953e+00,3.813723325729370117e-01
6.416494846343994141e-01,1.856522917747497559e+00,4.534888267517089844e-01
5.980654358863830566e-01,1.814108371734619141e+00,-5.118222236633300781e-01
5.987462401390075684e-01,1.816173553466796875e+00,-4.414941072463989258e-01
5.995016098022460938e-01,1.818464756011962891e+00,-3.721865415573120117e-01
6.003035306930541992e-01,1.820897221565246582e+00,-3.036696910858154297e-01
6.009962558746337891e-01,1.822998523712158203e+00,-2.356858849525451660e-01
6.017438769340515137e-01,1.825266122817993164e+00,-1.681440472602844238e-01
6.024804115295410156e-01,1.827500224113464355e+00,-1.008455455303192139e-01
6.032148003578186035e-01,1.829727888107299805e+00,-3.362881019711494446e-02
6.039489507675170898e-01,1.831954717636108398e+00,3.366973623633384705e-02
6.046773195266723633e-01,1.834164142608642578e+00,1.012132763862609863e-01
6.054700016975402832e-01,1.836568593978881836e+00,1.691852360963821411e-01
6.061654686927795410e-01,1.838678240776062012e+00,2.377130389213562012e-01
6.069246530532836914e-01,1.840981006622314453e+00,3.070190548896789551e-01
6.077803969383239746e-01,1.843576788902282715e+00,3.773262202739715576e-01
6.085841059684753418e-01,1.846014618873596191e+00,4.487482011318206787e-01
5.658110380172729492e-01,1.802634954452514648e+00,-5.062484145164489746e-01
5.665284395217895508e-01,1.804920434951782227e+00,-4.367426633834838867e-01
5.672981739044189453e-01,1.807372808456420898e+00,-3.682166934013366699e-01
5.680133104324340820e-01,1.809651255607604980e+00,-3.004075586795806885e-01
5.687024593353271484e-01,1.811846852302551270e+00,-2.331678718328475952e-01
5.693880319595336914e-01,1.814031004905700684e+00,-1.663412451744079590e-01
5.700967311859130859e-01,1.816288948059082031e+00,-9.976636618375778198e-02
5.707916021347045898e-01,1.818502783775329590e+00,-3.326893597841262817e-02
5.714745521545410156e-01,1.820678472518920898e+00,3.330874070525169373e-02
5.721857547760009766e-01,1.822944283485412598e+00,1.001319363713264465e-01
5.729019045829772949e-01,1.825225949287414551e+00,1.673678010702133179e-01
5.736040472984313965e-01,1.827463030815124512e+00,2.351775169372558594e-01
5.742667913436889648e-01,1.829574346542358398e+00,3.037148714065551758e-01
5.750021934509277344e-01,1.831917405128479004e+00,3.732171654701232910e-01
5.758337378501892090e-01,1.834566473960876465e+00,4.439162015914916992e-01
5.344743728637695312e-01,1.792174816131591797e+00,-5.011110305786132812e-01
5.352115631103515625e-01,1.794646739959716797e+00,-4.323587119579315186e-01
5.358824729919433594e-01,1.796896457672119141e+00,-3.644823431968688965e-01
5.365209579467773438e-01,1.799037337303161621e+00,-2.973403334617614746e-01
5.372089743614196777e-01,1.801344394683837891e+00,-2.308031171560287476e-01
5.378707051277160645e-01,1.803563237190246582e+00,-1.646585613489151001e-01
5.385202765464782715e-01,1.805741429328918457e+00,-9.875349700450897217e-02
5.391767024993896484e-01,1.807942509651184082e+00,-3.293117508292198181e-02
5.398415923118591309e-01,1.810172080993652344e+00,3.297178819775581360e-02
5.404993295669555664e-01,1.812377452850341797e+00,9.911640733480453491e-02
5.411385893821716309e-01,1.814520955085754395e+00,1.656589657068252563e-01
5.418392419815063477e-01,1.816870450973510742e+00,2.327924370765686035e-01
5.425221920013427734e-01,1.819160461425781250e+00,3.006662428379058838e-01
5.431565046310424805e-01,1.821287274360656738e+00,3.694297671318054199e-01
5.438632369041442871e-01,1.823657274246215820e+00,4.393478035926818848e-01
5.036019682884216309e-01,1.781360149383544922e+00,-4.960207939147949219e-01
5.042445659637451172e-01,1.783633112907409668e+00,-4.279227256774902344e-01
5.049348473548889160e-01,1.786074757575988770e+00,-3.607842922210693359e-01
5.055736899375915527e-01,1.788334488868713379e+00,-2.943452298641204834e-01
5.061864256858825684e-01,1.790501832962036133e+00,-2.284621596336364746e-01
5.067927837371826172e-01,1.792646765708923340e+00,-1.629829704761505127e-01
5.074067115783691406e-01,1.794818282127380371e+00,-9.774892032146453857e-02
5.080252289772033691e-01,1.797006130218505859e+00,-3.259618580341339111e-02
5.086499452590942383e-01,1.799215912818908691e+00,3.263626620173454285e-02
5.092868208885192871e-01,1.801468610763549805e+00,9.811111539602279663e-02
5.099249482154846191e-01,1.803725957870483398e+00,1.639902740716934204e-01
5.105476379394531250e-01,1.805928587913513184e+00,2.304305434226989746e-01
5.111322402954101562e-01,1.807996392250061035e+00,2.975814044475555420e-01
5.117826461791992188e-01,1.810297131538391113e+00,3.656771779060363770e-01
5.125215649604797363e-01,1.812910795211791992e+00,4.349468946456909180e-01
4.735722839832305908e-01,1.771613359451293945e+00,-4.913690090179443359e-01
4.741151034832000732e-01,1.773643970489501953e+00,-4.238546192646026611e-01
4.747200906276702881e-01,1.775907278060913086e+00,-3.573213219642639160e-01
4.752927124500274658e-01,1.778049468994140625e+00,-2.915028035640716553e-01
4.759069979190826416e-01,1.780347466468811035e+00,-2.262741327285766602e-01
4.764630794525146484e-01,1.782427787780761719e+00,-1.614173054695129395e-01
4.770531654357910156e-01,1.784635186195373535e+00,-9.681253880262374878e-02
4.776346981525421143e-01,1.786810636520385742e+00,-3.228392824530601501e-02
4.782091081142425537e-01,1.788959503173828125e+00,3.232275694608688354e-02
4.788219034671783447e-01,1.791251897811889648e+00,9.717147797346115112e-02
4.793834090232849121e-01,1.793352484703063965e+00,1.624066680669784546e-01
4.799970388412475586e-01,1.795648097991943359e+00,2.282187789678573608e-01
4.805912673473358154e-01,1.797871112823486328e+00,2.947524785995483398e-01
4.812651872634887695e-01,1.800392150878906250e+00,3.622477948665618896e-01
4.818957149982452393e-01,1.802750945091247559e+00,4.308104217052459717e-01
4.438554346561431885e-01,1.761096715927124023e+00,-4.866402149200439453e-01
4.444247186183929443e-01,1.763355612754821777e+00,-4.198327660560607910e-01
4.449503719806671143e-01,1.765441179275512695e+00,-3.538978099822998047e-01
4.455265700817108154e-01,1.767727375030517578e+00,-2.887354791164398193e-01
4.460743367671966553e-01,1.769900679588317871e+00,-2.241119593381881714e-01
4.466108381748199463e-01,1.772029519081115723e+00,-1.598803550004959106e-01
4.471482634544372559e-01,1.774161815643310547e+00,-9.588736295700073242e-02
4.476933479309082031e-01,1.776324510574340820e+00,-3.197541087865829468e-02
4.482474625110626221e-01,1.778523087501525879e+00,3.201498836278915405e-02
4.488065242767333984e-01,1.780741333961486816e+00,9.624295681715011597e-02
4.493610560894012451e-01,1.782941579818725586e+00,1.608648896217346191e-01
4.498964548110961914e-01,1.785065889358520508e+00,2.260322272777557373e-01
4.504953920841217041e-01,1.787442207336425781e+00,2.919556498527526855e-01
4.510655999183654785e-01,1.789704680442810059e+00,3.587616384029388428e-01
4.515761137008666992e-01,1.791730284690856934e+00,4.265884459018707275e-01
4.148013293743133545e-01,1.751209735870361328e+00,-4.822181463241577148e-01
4.153978228569030762e-01,1.753728032112121582e+00,-4.160823523998260498e-01
4.158546626567840576e-01,1.755656719207763672e+00,-3.507073223590850830e-01
4.163732230663299561e-01,1.757845997810363770e+00,-2.861187458038330078e-01
4.169235229492187500e-01,1.760169267654418945e+00,-2.221013307571411133e-01
4.174149930477142334e-01,1.762244224548339844e+00,-1.584421843290328979e-01
4.179303050041198730e-01,1.764419674873352051e+00,-9.502778947353363037e-02
4.184397757053375244e-01,1.766570568084716797e+00,-3.168877214193344116e-02
4.189446568489074707e-01,1.768702030181884766e+00,3.172700852155685425e-02
4.194771945476531982e-01,1.770950436592102051e+00,9.537951648235321045e-02
4.199568927288055420e-01,1.772975564002990723e+00,1.594070345163345337e-01
4.204773306846618652e-01,1.775172829627990723e+00,2.239944934844970703e-01
4.210720062255859375e-01,1.777683377265930176e+00,2.893475890159606934e-01
4.215395748615264893e-01,1.779657363891601562e+00,3.555016517639160156e-01
4.220619201660156250e-01,1.781862616539001465e+00,4.227574467658996582e-01
3.862714469432830811e-01,1.741529226303100586e+00,-4.779810905456542969e-01
3.866934180259704590e-01,1.743431806564331055e+00,-4.122841060161590576e-01
3.872519433498382568e-01,1.745949983596801758e+00,-3.476254642009735107e-01
3.877003192901611328e-01,1.747971415519714355e+00,-2.835792005062103271e-01
3.881914317607879639e-01,1.750185728073120117e+00,-2.201179265975952148e-01
3.886652588844299316e-01,1.752321958541870117e+00,-1.570338308811187744e-01
3.891322612762451172e-01,1.754427433013916016e+00,-9.418000280857086182e-02
3.896066248416900635e-01,1.756566166877746582e+00,-3.140606358647346497e-02
3.900895416736602783e-01,1.758743524551391602e+00,3.144499287009239197e-02
3.905690908432006836e-01,1.760905504226684570e+00,9.452775865793228149e-02
3.910371661186218262e-01,1.763015866279602051e+00,1.579921543598175049e-01
3.915566504001617432e-01,1.765357971191406250e+00,2.220261245965957642e-01
3.919755518436431885e-01,1.767246603965759277e+00,2.867062687873840332e-01
3.925462961196899414e-01,1.769819855690002441e+00,3.523780405521392822e-01
3.930898308753967285e-01,1.772270321846008301e+00,4.191037714481353760e-01
3.582340180873870850e-01,1.732021212577819824e+00,-4.739156365394592285e-01
3.586880564689636230e-01,1.734216332435607910e+00,-4.088488519191741943e-01
3.591821789741516113e-01,1.736605286598205566e+00,-3.447059690952301025e-01
3.596392571926116943e-01,1.738815307617187500e+00,-2.812298238277435303e-01
3.600772321224212646e-01,1.740932941436767578e+00,-2.182836532592773438e-01
3.605102002620697021e-01,1.743026256561279297e+00,-1.557224094867706299e-01
3.609479963779449463e-01,1.745142817497253418e+00,-9.339468926191329956e-02
3.613880276679992676e-01,1.747270345687866211e+00,-3.114418685436248779e-02
3.618313372135162354e-01,1.749413728713989258e+00,3.118239156901836395e-02
3.622827529907226562e-01,1.751596331596374512e+00,9.374005347490310669e-02
3.627345860004425049e-01,1.753780841827392578e+00,1.566832363605499268e-01
3.631748855113983154e-01,1.755909681320190430e+00,2.201614975929260254e-01
3.635876774787902832e-01,1.757905483245849609e+00,2.843174040317535400e-01
3.640534579753875732e-01,1.760157346725463867e+00,3.493809103965759277e-01
3.645912110805511475e-01,1.762757420539855957e+00,4.155775308609008789e-01
3.306803703308105469e-01,1.722757101058959961e+00,-4.700375497341156006e-01
3.311463296413421631e-01,1.725184679031372070e+00,-4.055606126785278320e-01
3.315012454986572266e-01,1.727033615112304688e+00,-3.418291807174682617e-01
3.319626152515411377e-01,1.729437351226806641e+00,-2.789160013198852539e-01
3.323507606983184814e-01,1.731459379196166992e+00,-2.164772003889083862e-01
3.327445983886718750e-01,1.733511209487915039e+00,-1.544310152530670166e-01
3.331605792045593262e-01,1.735678315162658691e+00,-9.262347966432571411e-02
3.335667252540588379e-01,1.737794280052185059e+00,-3.088701330125331879e-02
3.339639902114868164e-01,1.739863872528076172e+00,3.092379868030548096e-02
3.343864381313323975e-01,1.742064833641052246e+00,9.296429157257080078e-02
3.348197638988494873e-01,1.744322419166564941e+00,1.553941369056701660e-01
3.351862728595733643e-01,1.746231794357299805e+00,2.183241248130798340e-01
3.356697261333465576e-01,1.748750329017639160e+00,2.820307314395904541e-01
3.360521793365478516e-01,1.750742912292480469e+00,3.465219438076019287e-01
3.364850580692291260e-01,1.752998113632202148e+00,4.120990633964538574e-01
3.035055100917816162e-01,1.713286161422729492e+00,-4.662204682826995850e-01
3.039043545722961426e-01,1.715537667274475098e+00,-4.022289812564849854e-01
3.042703270912170410e-01,1.717603564262390137e+00,-3.390659689903259277e-01
3.046228587627410889e-01,1.719593644142150879e+00,-2.765969336032867432e-01
3.050121963024139404e-01,1.721791386604309082e+00,-2.147006243467330933e-01
3.053890764713287354e-01,1.723918914794921875e+00,-1.531713902950286865e-01
3.057616651058197021e-01,1.726022124290466309e+00,-9.186521917581558228e-02
3.061343729496002197e-01,1.728126168251037598e+00,-3.063415549695491791e-02
3.065082132816314697e-01,1.730236411094665527e+00,3.067156486213207245e-02
3.068804442882537842e-01,1.732337713241577148e+00,9.220135957002639771e-02
3.072447478771209717e-01,1.734394073486328125e+00,1.541021019220352173e-01
3.076526522636413574e-01,1.736696720123291016e+00,2.165592610836029053e-01
3.080556392669677734e-01,1.738971590995788574e+00,2.797138988971710205e-01
3.084359169006347656e-01,1.741118311882019043e+00,3.437079489231109619e-01
3.088724315166473389e-01,1.743582367897033691e+00,4.088043868541717529e-01
2.768468856811523438e-01,1.704482078552246094e+00,-4.626989960670471191e-01
2.771878838539123535e-01,1.706581592559814453e+00,-3.991579711437225342e-01
2.775066196918487549e-01,1.708543896675109863e+00,-3.364589512348175049e-01
2.778650522232055664e-01,1.710750818252563477e+00,-2.745067179203033447e-01
2.782091796398162842e-01,1.712869405746459961e+00,-2.130697071552276611e-01
2.785688638687133789e-01,1.715083956718444824e+00,-1.520165503025054932e-01
2.789006829261779785e-01,1.717126965522766113e+00,-9.116998314857482910e-02
2.792406976222991943e-01,1.719220280647277832e+00,-3.040231764316558838e-02
2.795897126197814941e-01,1.721369147300720215e+00,3.044031746685504913e-02
2.799132466316223145e-01,1.723361134529113770e+00,9.150098264217376709e-02
2.802566289901733398e-01,1.725475192070007324e+00,1.529375761747360229e-01
2.805914580821990967e-01,1.727536678314208984e+00,2.148942202329635620e-01
2.809742689132690430e-01,1.729893445968627930e+00,2.775783240795135498e-01
2.813442349433898926e-01,1.732171297073364258e+00,3.411118388175964355e-01
2.816817164421081543e-01,1.734249114990234375e+00,4.056292474269866943e-01
2.505358755588531494e-01,1.695492029190063477e+00,-4.592380821704864502e-01
2.508241236209869385e-01,1.697442650794982910e+00,-3.961401581764221191e-01
2.511506080627441406e-01,1.699652194976806641e+00,-3.339658081531524658e-01
2.514581680297851562e-01,1.701733708381652832e+00,-2.724543809890747070e-01
2.517887651920318604e-01,1.703971028327941895e+00,-2.114928364753723145e-01
2.520827054977416992e-01,1.705960035324096680e+00,-1.508725881576538086e-01
2.523933053016662598e-01,1.708062171936035156e+00,-9.048760682344436646e-02
2.527009844779968262e-01,1.710144400596618652e+00,-3.017476759850978851e-02
2.530065178871154785e-01,1.712211966514587402e+00,3.021124936640262604e-02
2.533310353755950928e-01,1.714408159255981445e+00,9.082379937171936035e-02
2.536224722862243652e-01,1.716380476951599121e+00,1.517941504716873169e-01
2.539424598217010498e-01,1.718545913696289062e+00,2.133018374443054199e-01
2.542503774166107178e-01,1.720629811286926270e+00,2.754797339439392090e-01
2.546058297157287598e-01,1.723035216331481934e+00,3.385603725910186768e-01
2.549387812614440918e-01,1.725288510322570801e+00,4.026386737823486328e-01
2.246800512075424194e-01,1.687157511711120605e+00,-4.560627937316894531e-01
2.249796986579895020e-01,1.689407587051391602e+00,-3.934731483459472656e-01
2.252536416053771973e-01,1.691464781761169434e+00,-3.316895663738250732e-01
2.255163043737411499e-01,1.693437099456787109e+00,-2.705815434455871582e-01
2.258056998252868652e-01,1.695610284805297852e+00,-2.100324332714080811e-01
2.260837703943252563e-01,1.697698235511779785e+00,-1.498403847217559814e-01
2.263564169406890869e-01,1.699745655059814453e+00,-8.986618369817733765e-02
2.266323715448379517e-01,1.701817870140075684e+00,-2.996754273772239685e-02
2.269122898578643799e-01,1.703919768333435059e+00,3.000455535948276520e-02
2.271888256072998047e-01,1.705996394157409668e+00,9.019665420055389404e-02
2.274573445320129395e-01,1.708012700080871582e+00,1.507507413625717163e-01
2.277576625347137451e-01,1.710267901420593262e+00,2.118480503559112549e-01
2.280529290437698364e-01,1.712484955787658691e+00,2.736250758171081543e-01
2.283300161361694336e-01,1.714565634727478027e+00,3.362195491790771484e-01
2.286499589681625366e-01,1.716968178749084473e+00,3.998921811580657959e-01
1.990450173616409302e-01,1.677847504615783691e+00,-4.527296423912048340e-01
1.992953419685363770e-01,1.679957628250122070e+00,-3.905678093433380127e-01
1.995283663272857666e-01,1.681921958923339844e+00,-3.292244970798492432e-01
1.997897326946258545e-01,1.684125065803527832e+00,-2.686091959476470947e-01
2.000388205051422119e-01,1.686224818229675293e+00,-2.084938585758209229e-01
2.002833485603332520e-01,1.688286066055297852e+00,-1.487413942813873291e-01
2.005287557840347290e-01,1.690354704856872559e+00,-8.920878916978836060e-02
2.007732093334197998e-01,1.692415356636047363e+00,-2.974832057952880859e-02
2.010173499584197998e-01,1.694473266601562500e+00,2.978449314832687378e-02
2.012641131877899170e-01,1.696553349494934082e+00,8.953592181205749512e-02
2.015093415975570679e-01,1.698620557785034180e+00,1.496518850326538086e-01
2.017464339733123779e-01,1.700619101524353027e+00,2.102736532688140869e-01
2.020177394151687622e-01,1.702906131744384766e+00,2.716046869754791260e-01
2.022785246372222900e-01,1.705104351043701172e+00,3.337622880935668945e-01
2.025147527456283569e-01,1.707095623016357422e+00,3.968770205974578857e-01
1.738324016332626343e-01,1.669204354286193848e+00,-4.496800601482391357e-01
1.740847975015640259e-01,1.671627998352050781e+00,-3.880122303962707520e-01
1.742739975452423096e-01,1.673444747924804688e+00,-3.270433545112609863e-01
1.744927167892456055e-01,1.675544857978820801e+00,-2.668150067329406738e-01
1.747050881385803223e-01,1.677584171295166016e+00,-2.070950865745544434e-01
1.749304831027984619e-01,1.679748415946960449e+00,-1.477534919977188110e-01
1.751402914524078369e-01,1.681763172149658203e+00,-8.861399441957473755e-02
1.753538101911544800e-01,1.683813452720642090e+00,-2.954997681081295013e-02
1.755715459585189819e-01,1.685904145240783691e+00,2.958666905760765076e-02
1.757752150297164917e-01,1.687860012054443359e+00,8.893524110317230225e-02
1.759945899248123169e-01,1.689966559410095215e+00,1.486522853374481201e-01
1.762113124132156372e-01,1.692047595977783203e+00,2.088805586099624634e-01
1.764628291130065918e-01,1.694462656974792480e+00,2.698275148868560791e-01
1.766563504934310913e-01,1.696320891380310059e+00,3.315140902996063232e-01
1.768780648708343506e-01,1.698449850082397461e+00,3.942380547523498535e-01
1.489301472902297974e-01,1.660430073738098145e+00,-4.466962814331054688e-01
1.491376310586929321e-01,1.662743210792541504e+00,-3.854149580001831055e-01
1.493263393640518188e-01,1.664847254753112793e+00,-3.249121606349945068e-01
1.495056599378585815e-01,1.666846394538879395e+00,-2.650619447231292725e-01
1.497012823820114136e-01,1.669027447700500488e+00,-2.057531774044036865e-01
1.498760730028152466e-01,1.670976281166076660e+00,-1.467781364917755127e-01
1.500628143548965454e-01,1.673058271408081055e+00,-8.803313225507736206e-02
1.502457708120346069e-01,1.675097942352294922e+00,-2.935627847909927368e-02
1.504253298044204712e-01,1.677099943161010742e+00,2.939136326313018799e-02
1.506182551383972168e-01,1.679250836372375488e+00,8.835896849632263184e-02
1.507924646139144897e-01,1.681193113327026367e+00,1.476755887269973755e-01
1.509863138198852539e-01,1.683354496955871582e+00,2.075193673372268677e-01
1.511748731136322021e-01,1.685456752777099609e+00,2.680213749408721924e-01
1.513495445251464844e-01,1.687404155731201172e+00,3.293143510818481445e-01
1.515524685382843018e-01,1.689666509628295898e+00,3.916556537151336670e-01
1.244285926222801208e-01,1.652797937393188477e+00,-4.441184103488922119e-01
1.245907619595527649e-01,1.654952049255371094e+00,-3.831563889980316162e-01
1.247399002313613892e-01,1.656933069229125977e+00,-3.229860961437225342e-01
1.248840317130088806e-01,1.658847570419311523e+00,-2.634787559509277344e-01
1.250448226928710938e-01,1.660983443260192871e+00,-2.045199275016784668e-01
1.252001225948333740e-01,1.663046360015869141e+00,-1.459092050790786743e-01
1.253532618284225464e-01,1.665080308914184570e+00,-8.750997483730316162e-02
1.255060583353042603e-01,1.667110204696655273e+00,-2.918181940913200378e-02
1.256589442491531372e-01,1.669140815734863281e+00,2.921736426651477814e-02
1.258107572793960571e-01,1.671157360076904297e+00,8.782935142517089844e-02
1.259589344263076782e-01,1.673125624656677246e+00,1.467935293912887573e-01
1.261265724897384644e-01,1.675352454185485840e+00,2.062892168760299683e-01
1.262927055358886719e-01,1.677559137344360352e+00,2.664507329463958740e-01
1.264499723911285400e-01,1.679648160934448242e+00,3.274139463901519775e-01
1.265897303819656372e-01,1.681504607200622559e+00,3.893038928508758545e-01
1.001594439148902893e-01,1.644532322883605957e+00,-4.414669275283813477e-01
1.002855747938156128e-01,1.646603226661682129e+00,-3.808521330356597900e-01
1.004254221916198730e-01,1.648899316787719727e+00,-3.211069703102111816e-01
1.005541533231735229e-01,1.651013016700744629e+00,-2.619789242744445801e-01
1.006767749786376953e-01,1.653026342391967773e+00,-2.033419013023376465e-01
1.007971987128257751e-01,1.655003547668457031e+00,-1.450621336698532104e-01
1.009181514382362366e-01,1.656989574432373047e+00,-8.699993044137954712e-02
1.010411754250526428e-01,1.659009575843811035e+00,-2.901173569262027740e-02
1.011665910482406616e-01,1.661068677902221680e+00,2.904774434864521027e-02
1.012934520840644836e-01,1.663151741027832031e+00,8.732346445322036743e-02
1.014196351170539856e-01,1.665223479270935059e+00,1.459579169750213623e-01
1.015418022871017456e-01,1.667229413986206055e+00,2.050890475511550903e-01
1.016555130481719971e-01,1.669096469879150391e+00,2.648483514785766602e-01
1.017865762114524841e-01,1.671248316764831543e+00,3.254592418670654297e-01
1.019417569041252136e-01,1.673796296119689941e+00,3.871417641639709473e-01
7.618753612041473389e-02,1.636664986610412598e+00,-4.390172660350799561e-01
7.627681642770767212e-02,1.638582944869995117e+00,-3.787057399749755859e-01
7.637833803892135620e-02,1.640763759613037109e+00,-3.192770481109619141e-01
7.647303491830825806e-02,1.642798066139221191e+00,-2.604750096797943115e-01
7.656481117010116577e-02,1.644769668579101562e+00,-2.021706998348236084e-01
7.665668427944183350e-02,1.646743297576904297e+00,-1.442271769046783447e-01
7.675263285636901855e-02,1.648804426193237305e+00,-8.650361746549606323e-02
7.684619724750518799e-02,1.650814294815063477e+00,-2.884623222053050995e-02
7.693760842084884644e-02,1.652778148651123047e+00,2.888054773211479187e-02
7.703380286693572998e-02,1.654844522476196289e+00,8.682051301002502441e-02
7.713125646114349365e-02,1.656938076019287109e+00,1.451200544834136963e-01
7.722739875316619873e-02,1.659003376960754395e+00,2.039202749729156494e-01
7.731878012418746948e-02,1.660966396331787109e+00,2.633557319641113281e-01
7.742523401975631714e-02,1.663253307342529297e+00,3.236532807350158691e-01
7.752428948879241943e-02,1.665381312370300293e+00,3.848993182182312012e-01
5.245317518711090088e-02,1.628194332122802734e+00,-4.364989995956420898e-01
5.252666771411895752e-02,1.630475521087646484e+00,-3.766196668148040771e-01
5.259330570697784424e-02,1.632544040679931641e+00,-3.174985647201538086e-01
5.265638977289199829e-02,1.634502172470092773e+00,-2.590136229991912842e-01
5.271863937377929688e-02,1.636434555053710938e+00,-2.010328322649002075e-01
5.278609320521354675e-02,1.638528347015380859e+00,-1.434268057346343994e-01
5.285099893808364868e-02,1.640543103218078613e+00,-8.602169901132583618e-02
5.291543155908584595e-02,1.642543077468872070e+00,-2.868552692234516144e-02
5.297954007983207703e-02,1.644533157348632812e+00,2.872028201818466187e-02
5.304155871272087097e-02,1.646458268165588379e+00,8.633185923099517822e-02
5.310961604118347168e-02,1.648570775985717773e+00,1.443058699369430542e-01
5.317796766757965088e-02,1.650692462921142578e+00,2.027843892574310303e-01
5.324420332908630371e-02,1.652748584747314453e+00,2.619050443172454834e-01
5.330530554056167603e-02,1.654645085334777832e+00,3.217968046665191650e-01
5.337682738900184631e-02,1.656865239143371582e+00,3.827153146266937256e-01
2.899090759456157684e-02,1.620161294937133789e+00,-4.341897368431091309e-01
2.902916446328163147e-02,1.622299313545227051e+00,-3.745966851711273193e-01
2.906422317028045654e-02,1.624258637428283691e+00,-3.157739639282226562e-01
2.909794822335243225e-02,1.626143336296081543e+00,-2.575966417789459229e-01
2.913551591336727142e-02,1.628242850303649902e+00,-1.999547928571701050e-01
2.917153015732765198e-02,1.630255460739135742e+00,-1.426514983177185059e-01
2.920675650238990784e-02,1.632224082946777344e+00,-8.555480837821960449e-02
2.924236282706260681e-02,1.634213924407958984e+00,-2.852983400225639343e-02
2.927843853831291199e-02,1.636230111122131348e+00,2.856503240764141083e-02
2.931398525834083557e-02,1.638216614723205566e+00,8.586890995502471924e-02
2.934839949011802673e-02,1.640139818191528320e+00,1.435163915157318115e-01
2.938732132315635681e-02,1.642314910888671875e+00,2.016828954219818115e-01
2.942571230232715607e-02,1.644460558891296387e+00,2.604982554912567139e-01
2.946187742054462433e-02,1.646481513977050781e+00,3.200943470001220703e-01
2.949380688369274139e-02,1.648265957832336426e+00,3.805924952030181885e-01
5.772649310529232025e-03,1.612713932991027832e+00,-4.321274757385253906e-01
5.779866129159927368e-03,1.614730000495910645e+00,-3.727916181087493896e-01
5.786553956568241119e-03,1.616598486900329590e+00,-3.142364621162414551e-01
5.794117692857980728e-03,1.618711590766906738e+00,-2.563799917697906494e-01
5.800520535558462143e-03,1.620500326156616211e+00,-1.989734023809432983e-01
5.807752255350351334e-03,1.622520685195922852e+00,-1.419528573751449585e-01
