2.997951507568359375e+00,2.721458673477172852e+00,-7.067469507455825806e-02
3.001491785049438477e+00,2.724672317504882812e+00,7.075815647840499878e-02
3.005036830902099609e+00,2.727890491485595703e+00,2.126980125904083252e-01
3.008981704711914062e+00,2.731471538543701172e+00,3.555406332015991211e-01
3.012444496154785156e+00,2.734614849090576172e+00,4.995519816875457764e-01
3.016323089599609375e+00,2.738136053085327148e+00,6.452206373214721680e-01
3.019990682601928711e+00,2.741465091705322266e+00,7.928220629692077637e-01
3.024182319641113281e+00,2.745270252227783203e+00,9.429527521133422852e-01
2.858247518539428711e+00,2.670246124267578125e+00,-1.048080325126647949e+00
2.862230539321899414e+00,2.673967123031616211e+00,-9.042967557907104492e-01
2.865824222564697266e+00,2.677324533462524414e+00,-7.623319625854492188e-01
2.869207382202148438e+00,2.680485010147094727e+00,-6.218945384025573730e-01
2.872544527053833008e+00,2.683602571487426758e+00,-4.826727807521820068e-01
2.876113653182983398e+00,2.686937093734741211e+00,-3.443500101566314697e-01
2.879566431045532227e+00,2.690162897109985352e+00,-2.065214514732360840e-01
2.883005142211914062e+00,2.693375110626220703e+00,-6.886668503284454346e-02
2.886443138122558594e+00,2.696587085723876953e+00,6.894880533218383789e-02
2.889795541763305664e+00,2.699718952178955078e+00,2.072550803422927856e-01
2.893426656723022461e+00,2.703111171722412109e+00,3.464228510856628418e-01
2.897058010101318359e+00,2.706503629684448242e+00,4.867917895317077637e-01
2.900559902191162109e+00,2.709775209426879883e+00,6.286901235580444336e-01
2.903765439987182617e+00,2.712769985198974609e+00,7.724245786666870117e-01
2.907380104064941406e+00,2.716146945953369141e+00,9.185613989830017090e-01
2.752069950103759766e+00,2.645823955535888672e+00,-1.022928476333618164e+00
2.755475521087646484e+00,2.649097919464111328e+00,-8.824578523635864258e-01
2.758632898330688477e+00,2.652133464813232422e+00,-7.438399791717529297e-01
2.762141466140747070e+00,2.655506610870361328e+00,-6.068645715713500977e-01
2.765514850616455078e+00,2.658749818801879883e+00,-4.710349142551422119e-01
2.769015789031982422e+00,2.662115573883056641e+00,-3.360551595687866211e-01
2.772251129150390625e+00,2.665225982666015625e+00,-2.015402019023895264e-01
2.775563001632690430e+00,2.668409824371337891e+00,-6.720566749572753906e-02
2.778961896896362305e+00,2.671677589416503906e+00,6.728796660900115967e-02
2.782126188278198242e+00,2.674719810485839844e+00,2.022580951452255249e-01
2.785465955734252930e+00,2.677930593490600586e+00,3.380515873432159424e-01
2.788718461990356445e+00,2.681057453155517578e+00,4.749870598316192627e-01
2.792395114898681641e+00,2.684592247009277344e+00,6.135115027427673340e-01
2.795914888381958008e+00,2.687976121902465820e+00,7.538927197456359863e-01
2.799101829528808594e+00,2.691040277481079102e+00,8.964294791221618652e-01
2.652470588684082031e+00,2.624146223068237305e+00,-9.997665286064147949e-01
2.655358076095581055e+00,2.627002954483032227e+00,-8.623484373092651367e-01
2.658625602722167969e+00,2.630235433578491211e+00,-7.269508242607116699e-01
2.662134408950805664e+00,2.633706808090209961e+00,-5.931138396263122559e-01
2.665144443511962891e+00,2.636684894561767578e+00,-4.603202939033508301e-01
2.668412685394287109e+00,2.639918088912963867e+00,-3.283978998661041260e-01
2.671619415283203125e+00,2.643090486526489258e+00,-1.969545185565948486e-01
2.674816370010375977e+00,2.646253347396850586e+00,-6.567665934562683105e-02
2.678004741668701172e+00,2.649407625198364258e+00,6.575494259595870972e-02
2.681163549423217773e+00,2.652532815933227539e+00,1.976581066846847534e-01
2.684622049331665039e+00,2.655954360961914062e+00,3.303927779197692871e-01
2.687630653381347656e+00,2.658930778503417969e+00,4.642040729522705078e-01
2.690949916839599609e+00,2.662214756011962891e+00,5.995338559150695801e-01
2.694751024246215820e+00,2.665975332260131836e+00,7.368286252021789551e-01
2.697528600692749023e+00,2.668723106384277344e+00,8.760436177253723145e-01
2.554573535919189453e+00,2.600686550140380859e+00,-9.767979383468627930e-01
2.558252334594726562e+00,2.604431867599487305e+00,-8.428326845169067383e-01
2.561069488525390625e+00,2.607299804687500000e+00,-7.104074954986572266e-01
2.564228773117065430e+00,2.610516071319580078e+00,-5.795663595199584961e-01
2.567296981811523438e+00,2.613639831542968750e+00,-4.498355686664581299e-01
2.570516109466552734e+00,2.616917133331298828e+00,-3.209268152713775635e-01
2.573536872863769531e+00,2.619992494583129883e+00,-1.924686878919601440e-01
2.576621055603027344e+00,2.623132228851318359e+00,-6.418091803789138794e-02
2.579759120941162109e+00,2.626326799392700195e+00,6.425908207893371582e-02
2.582732200622558594e+00,2.629353761672973633e+00,1.931563764810562134e-01
2.585902452468872070e+00,2.632581233978271484e+00,3.228478133678436279e-01
2.589022636413574219e+00,2.635757684707641602e+00,4.536422789096832275e-01
2.592557907104492188e+00,2.639356851577758789e+00,5.859693288803100586e-01
2.595310211181640625e+00,2.642158746719360352e+00,7.199054360389709473e-01
2.599117994308471680e+00,2.646035194396972656e+00,8.562961816787719727e-01
2.460035324096679688e+00,2.577208280563354492e+00,-9.546566605567932129e-01
2.463287830352783203e+00,2.580615520477294922e+00,-8.236309885978698730e-01
2.466264486312866211e+00,2.583734273910522461e+00,-6.942970752716064453e-01
2.469473123550415039e+00,2.587095737457275391e+00,-5.664613246917724609e-01
2.472249984741210938e+00,2.590004682540893555e+00,-4.396322667598724365e-01
2.475279092788696289e+00,2.593178033828735352e+00,-3.136385083198547363e-01
2.478286504745483398e+00,2.596328735351562500e+00,-1.881051659584045410e-01
2.481255292892456055e+00,2.599438905715942383e+00,-6.272581964731216431e-02
2.484192132949829102e+00,2.602515697479248047e+00,6.280006468296051025e-02
2.487122058868408203e+00,2.605585098266601562e+00,1.887757778167724609e-01
2.490351200103759766e+00,2.608968019485473633e+00,3.155482709407806396e-01
2.493194341659545898e+00,2.611946582794189453e+00,4.433567225933074951e-01
2.496334552764892578e+00,2.615236282348632812e+00,5.726228952407836914e-01
2.499283075332641602e+00,2.618325233459472656e+00,7.035923600196838379e-01
2.502593755722045898e+00,2.621793746948242188e+00,8.367734551429748535e-01
2.371226310729980469e+00,2.556444168090820312e+00,-9.342971444129943848e-01
2.374605894088745117e+00,2.560087680816650391e+00,-8.061487674713134766e-01
2.377215385437011719e+00,2.562900781631469727e+00,-6.794857382774353027e-01
2.380134820938110352e+00,2.566048383712768555e+00,-5.543367266654968262e-01
2.383228063583374023e+00,2.569383144378662109e+00,-4.302976131439208984e-01
2.385988235473632812e+00,2.572359085083007812e+00,-3.069584965705871582e-01
2.388879060745239258e+00,2.575475931167602539e+00,-1.840981841087341309e-01
2.391738653182983398e+00,2.578558683395385742e+00,-6.138959527015686035e-02
2.394579648971557617e+00,2.581621646881103516e+00,6.146251782774925232e-02
2.397567272186279297e+00,2.584842681884765625e+00,1.847677379846572876e-01
2.400271654129028320e+00,2.587758064270019531e+00,3.087960481643676758e-01
2.403183937072753906e+00,2.590898036956787109e+00,4.339007139205932617e-01
2.406477928161621094e+00,2.594449281692504883e+00,5.604720711708068848e-01
2.409074306488037109e+00,2.597248315811157227e+00,6.885920763015747070e-01
2.412620782852172852e+00,2.601071834564208984e+00,8.190543651580810547e-01
2.287493944168090820e+00,2.538079738616943359e+00,-9.155256152153015137e-01
2.290505647659301758e+00,2.541421413421630859e+00,-7.898662686347961426e-01
2.293271064758300781e+00,2.544489622116088867e+00,-6.658336520195007324e-01
2.296247959136962891e+00,2.547792673110961914e+00,-5.432370901107788086e-01
2.299070119857788086e+00,2.550923824310302734e+00,-4.216518998146057129e-01
2.301818132400512695e+00,2.553972959518432617e+00,-3.008021116256713867e-01
2.304554700851440430e+00,2.557009458541870117e+00,-1.804018169641494751e-01
2.307316780090332031e+00,2.560074090957641602e+00,-6.015709042549133301e-02
2.310108423233032227e+00,2.563171386718750000e+00,6.022987142205238342e-02
2.312909841537475586e+00,2.566279888153076172e+00,1.810558587312698364e-01
2.315677642822265625e+00,2.569350719451904297e+00,3.026132881641387939e-01
2.318331003189086914e+00,2.572294950485229492e+00,4.251843988895416260e-01
2.321261644363403320e+00,2.575546264648437500e+00,5.491546988487243652e-01
2.324018001556396484e+00,2.578604698181152344e+00,6.747608184814453125e-01
2.327100992202758789e+00,2.582025527954101562e+00,8.024859428405761719e-01
2.204092502593994141e+00,2.517064571380615234e+00,-8.964734077453613281e-01
2.206743240356445312e+00,2.520091772079467773e+00,-7.733410000801086426e-01
2.209606885910034180e+00,2.523362159729003906e+00,-6.519622206687927246e-01
2.212280273437500000e+00,2.526415109634399414e+00,-5.318728685379028320e-01
2.214884757995605469e+00,2.529389381408691406e+00,-4.128098487854003906e-01
2.217627048492431641e+00,2.532521247863769531e+00,-2.945069074630737305e-01
2.220225572586059570e+00,2.535488605499267578e+00,-1.766233146190643311e-01
2.222884654998779297e+00,2.538525342941284180e+00,-5.889705196022987366e-02
2.225617408752441406e+00,2.541646003723144531e+00,5.896945670247077942e-02
2.228223562240600586e+00,2.544622182846069336e+00,1.772595643997192383e-01
2.231006622314453125e+00,2.547800540924072266e+00,2.962837219238281250e-01
2.233759164810180664e+00,2.550944089889526367e+00,4.163276851177215576e-01
2.236382961273193359e+00,2.553940296173095703e+00,5.376676321029663086e-01
2.239297866821289062e+00,2.557269096374511719e+00,6.607228517532348633e-01
2.241965770721435547e+00,2.560315847396850586e+00,7.856846451759338379e-01
2.127133607864379883e+00,2.500497579574584961e+00,-8.796389698982238770e-01
2.129946947097778320e+00,2.503804683685302734e+00,-7.589097023010253906e-01
2.132518291473388672e+00,2.506827354431152344e+00,-6.397382020950317383e-01
2.135269165039062500e+00,2.510061025619506836e+00,-5.219421982765197754e-01
2.137667179107666016e+00,2.512880086898803711e+00,-4.050802886486053467e-01
2.140269756317138672e+00,2.515939474105834961e+00,-2.889865040779113770e-01
2.142860889434814453e+00,2.518985271453857422e+00,-1.733193248510360718e-01
2.145432710647583008e+00,2.522008419036865234e+00,-5.779544264078140259e-02
2.147984981536865234e+00,2.525008916854858398e+00,5.786420404911041260e-02
2.150544404983520508e+00,2.528017520904541016e+00,1.739407926797866821e-01
2.153347492218017578e+00,2.531312465667724609e+00,2.907522916793823242e-01
2.155836820602416992e+00,2.534238815307617188e+00,4.085233509540557861e-01
2.158564329147338867e+00,2.537445306777954102e+00,5.276364088058471680e-01
2.161119461059570312e+00,2.540448904037475586e+00,6.483183503150939941e-01
2.163950443267822266e+00,2.543776750564575195e+00,7.710253596305847168e-01
2.050698757171630859e+00,2.481756687164306641e+00,-8.626319766044616699e-01
2.053218603134155273e+00,2.484806060791015625e+00,-7.441672086715698242e-01
2.055907487869262695e+00,2.488060235977172852e+00,-6.273748278617858887e-01
2.058412551879882812e+00,2.491091966629028320e+00,-5.118187665939331055e-01
2.060832262039184570e+00,2.494020223617553711e+00,-3.972443044185638428e-01
2.063248395919799805e+00,2.496944427490234375e+00,-2.833835184574127197e-01
2.065757274627685547e+00,2.499980688095092773e+00,-1.699598580598831177e-01
2.068232536315917969e+00,2.502976179122924805e+00,-5.667507648468017578e-02
2.070688009262084961e+00,2.505947589874267578e+00,5.674235895276069641e-02
2.073250055313110352e+00,2.509048223495483398e+00,1.705763041973114014e-01
2.075843334197998047e+00,2.512186765670776367e+00,2.851134240627288818e-01
2.078394651412963867e+00,2.515274524688720703e+00,4.006296396255493164e-01
2.080815553665161133e+00,2.518203973770141602e+00,5.173891782760620117e-01
2.083474397659301758e+00,2.521421670913696289e+00,6.357870697975158691e-01
2.085888385772705078e+00,2.524343252182006836e+00,7.560080885887145996e-01
1.978418111801147461e+00,2.465305089950561523e+00,-8.469837903976440430e-01
1.980674028396606445e+00,2.468116283416748047e+00,-7.306033968925476074e-01
1.983143925666809082e+00,2.471194028854370117e+00,-6.159012913703918457e-01
1.985752940177917480e+00,2.474445104598999023e+00,-5.025072693824768066e-01
1.988011598587036133e+00,2.477259397506713867e+00,-3.900023996829986572e-01
1.990435004234313965e+00,2.480279445648193359e+00,-2.782302796840667725e-01
1.992830514907836914e+00,2.483264446258544922e+00,-1.668671071529388428e-01
1.995220899581909180e+00,2.486243009567260742e+00,-5.564383417367935181e-02
1.997616291046142578e+00,2.489227771759033203e+00,5.571063980460166931e-02
1.999992251396179199e+00,2.492188453674316406e+00,1.674667745828628540e-01
2.002571344375610352e+00,2.495402336120605469e+00,2.799267172813415527e-01
2.004845380783081055e+00,2.498235940933227539e+00,3.933047950267791748e-01
2.007307052612304688e+00,2.501303434371948242e+00,5.079616308212280273e-01
2.010050296783447266e+00,2.504721641540527344e+00,6.242575049400329590e-01
2.012605190277099609e+00,2.507905483245849609e+00,7.423817515373229980e-01
1.908220529556274414e+00,2.448822259902954102e+00,-8.318519592285156250e-01
1.910638570785522461e+00,2.451925516128540039e+00,-7.176417708396911621e-01
1.912861824035644531e+00,2.454778432846069336e+00,-6.049241423606872559e-01
1.915263295173645020e+00,2.457860231399536133e+00,-4.935214817523956299e-01
1.917557597160339355e+00,2.460804462432861328e+00,-3.830515742301940918e-01
1.919822931289672852e+00,2.463711738586425781e+00,-2.732612192630767822e-01
1.922111749649047852e+00,2.466649055480957031e+00,-1.638851016759872437e-01
1.924419641494750977e+00,2.469610691070556641e+00,-5.464951694011688232e-02
1.926747083663940430e+00,2.472597360610961914e+00,5.471561104059219360e-02
1.929119825363159180e+00,2.475642442703247070e+00,1.644826233386993408e-01
1.931491017341613770e+00,2.478685379028320312e+00,2.749220430850982666e-01
1.933796644210815430e+00,2.481644153594970703e+00,3.862954676151275635e-01
1.936333060264587402e+00,2.484899282455444336e+00,4.989506900310516357e-01
1.938739180564880371e+00,2.487987041473388672e+00,6.131076216697692871e-01
1.940886259078979492e+00,2.490742206573486328e+00,7.290028929710388184e-01
1.840140700340270996e+00,2.432475090026855469e+00,-8.172680139541625977e-01
1.842366814613342285e+00,2.435417652130126953e+00,-7.050196528434753418e-01
1.844737887382507324e+00,2.438552141189575195e+00,-5.943578481674194336e-01
1.846966266632080078e+00,2.441497564315795898e+00,-4.848780333995819092e-01
1.849138379096984863e+00,2.444368839263916016e+00,-3.763346672058105469e-01
1.851428508758544922e+00,2.447396278381347656e+00,-2.684848606586456299e-01
1.853654861450195312e+00,2.450339317321777344e+00,-1.610221713781356812e-01
1.855879426002502441e+00,2.453279972076416016e+00,-5.369480699300765991e-02
1.858106732368469238e+00,2.456224203109741211e+00,5.375924706459045410e-02
1.860291957855224609e+00,2.459112882614135742e+00,1.615987271070480347e-01
1.862619876861572266e+00,2.462190151214599609e+00,2.701077759265899658e-01
1.864934802055358887e+00,2.465250253677368164e+00,3.795495331287384033e-01
1.867149233818054199e+00,2.468177556991577148e+00,4.901766180992126465e-01
1.869579672813415527e+00,2.471390247344970703e+00,6.023616194725036621e-01
1.871796846389770508e+00,2.474321126937866211e+00,7.162816524505615234e-01
1.774178385734558105e+00,2.416394710540771484e+00,-8.032509088516235352e-01
1.776586771011352539e+00,2.419674873352050781e+00,-6.930299997329711914e-01
1.778773307800292969e+00,2.422652959823608398e+00,-5.842172503471374512e-01
1.780858397483825684e+00,2.425492763519287109e+00,-4.765883386135101318e-01
1.783082365989685059e+00,2.428521633148193359e+00,-3.699275553226470947e-01
1.785239338874816895e+00,2.431459426879882812e+00,-2.639063000679016113e-01
1.787378430366516113e+00,2.434372901916503906e+00,-1.582755297422409058e-01
1.789523005485534668e+00,2.437293767929077148e+00,-5.277889221906661987e-02
1.791683554649353027e+00,2.440236330032348633e+00,5.284261330962181091e-02
1.793838500976562500e+00,2.443171262741088867e+00,1.588475853204727173e-01
1.795958518981933594e+00,2.446058750152587891e+00,2.654908895492553711e-01
1.798255085945129395e+00,2.449186801910400391e+00,3.730753660202026367e-01
1.800491809844970703e+00,2.452233076095581055e+00,4.818425774574279785e-01
1.802568793296813965e+00,2.455061912536621094e+00,5.920326113700866699e-01
1.804817438125610352e+00,2.458124399185180664e+00,7.040424942970275879e-01
1.711861610412597656e+00,2.402866125106811523e+00,-7.905277013778686523e-01
1.714061617851257324e+00,2.405954360961914062e+00,-6.820034384727478027e-01
1.716082811355590820e+00,2.408791303634643555e+00,-5.748923420906066895e-01
1.718242287635803223e+00,2.411822557449340820e+00,-4.690217077732086182e-01
1.720305085182189941e+00,2.414717912673950195e+00,-3.640367984771728516e-01
1.722341656684875488e+00,2.417576551437377930e+00,-2.596971094608306885e-01
1.724397420883178711e+00,2.420462131500244141e+00,-1.557503938674926758e-01
1.726469159126281738e+00,2.423370122909545898e+00,-5.193693935871124268e-02
1.728561282157897949e+00,2.426306724548339844e+00,5.199987068772315979e-02
1.730688571929931641e+00,2.429292678833007812e+00,1.563186198472976685e-01
1.732812166213989258e+00,2.432273626327514648e+00,2.612758874893188477e-01
1.734880328178405762e+00,2.435176610946655273e+00,3.671210706233978271e-01
1.737132549285888672e+00,2.438338041305541992e+00,4.741781055927276611e-01
1.739261507987976074e+00,2.441326379776000977e+00,5.826572775840759277e-01
1.741575717926025391e+00,2.444574594497680664e+00,6.929509043693542480e-01
1.650267362594604492e+00,2.388008117675781250e+00,-7.777886390686035156e-01
1.652316808700561523e+00,2.390973567962646484e+00,-6.709841489791870117e-01
1.654218196868896484e+00,2.393725156784057617e+00,-5.655876398086547852e-01
1.656271100044250488e+00,2.396695613861083984e+00,-4.614225327968597412e-01
1.658401846885681152e+00,2.399779081344604492e+00,-3.581693470478057861e-01
1.660336375236511230e+00,2.402578115463256836e+00,-2.555069327354431152e-01
1.662345647811889648e+00,2.405485630035400391e+00,-1.532399207353591919e-01
1.664342641830444336e+00,2.408375501632690430e+00,-5.109978467226028442e-02
1.666332006454467773e+00,2.411254167556762695e+00,5.116086080670356750e-02
1.668411970138549805e+00,2.414263963699340820e+00,1.537991464138031006e-01
1.670321583747863770e+00,2.417027473449707031e+00,2.570435702800750732e-01
1.672344207763671875e+00,2.419954061508178711e+00,3.611804842948913574e-01
1.674562454223632812e+00,2.423163890838623047e+00,4.665183126926422119e-01
1.676687955856323242e+00,2.426239728927612305e+00,5.732701420783996582e-01
1.678602695465087891e+00,2.429010391235351562e+00,6.816585063934326172e-01
1.590647935867309570e+00,2.373667478561401367e+00,-7.656238675117492676e-01
1.592580556869506836e+00,2.376551628112792969e+00,-6.604720950126647949e-01
1.594620704650878906e+00,2.379595994949340820e+00,-5.567992329597473145e-01
1.596540451049804688e+00,2.382460832595825195e+00,-4.542358815670013428e-01
1.598417282104492188e+00,2.385261535644531250e+00,-3.525517880916595459e-01
1.600395441055297852e+00,2.388213396072387695e+00,-2.515174150466918945e-01
1.602337241172790527e+00,2.391111135482788086e+00,-1.508477032184600830e-01
1.604261517524719238e+00,2.393982648849487305e+00,-5.030204355716705322e-02
1.606177687644958496e+00,2.396842241287231445e+00,5.036212503910064697e-02
1.608070015907287598e+00,2.399666070938110352e+00,1.513873934745788574e-01
1.610086441040039062e+00,2.402674913406372070e+00,2.530404627323150635e-01
1.612095475196838379e+00,2.405673027038574219e+00,3.555686771869659424e-01
1.614027142524719238e+00,2.408555507659912109e+00,4.592110514640808105e-01
1.616121411323547363e+00,2.411680698394775391e+00,5.643067359924316406e-01
1.618031501770019531e+00,2.414530992507934570e+00,6.710270643234252930e-01
1.532938003540039062e+00,2.359896898269653320e+00,-7.540276646614074707e-01
1.535047173500061035e+00,2.363143920898437500e+00,-6.505730748176574707e-01
1.536736845970153809e+00,2.365745067596435547e+00,-5.483552813529968262e-01
1.538763046264648438e+00,2.368864297866821289e+00,-4.473985135555267334e-01
1.540670514106750488e+00,2.371800661087036133e+00,-3.472672104835510254e-01
1.542442083358764648e+00,2.374528169631958008e+00,-2.477256208658218384e-01
1.544319033622741699e+00,2.377417564392089844e+00,-1.485740840435028076e-01
1.546174645423889160e+00,2.380274295806884766e+00,-4.954391345381736755e-02
1.548016548156738281e+00,2.383109807968139648e+00,4.960293322801589966e-02
1.549974799156188965e+00,2.386124372482299805e+00,1.491181999444961548e-01
1.551822066307067871e+00,2.388968229293823242e+00,2.492321133613586426e-01
1.553582668304443359e+00,2.391678571701049805e+00,3.501776456832885742e-01
1.555723190307617188e+00,2.394973754882812500e+00,4.523296952247619629e-01
1.557492852210998535e+00,2.397698163986206055e+00,5.557616949081420898e-01
1.559365630149841309e+00,2.400581121444702148e+00,6.608795523643493652e-01
1.477353811264038086e+00,2.347193717956542969e+00,-7.431361675262451172e-01
1.479089975357055664e+00,2.349952220916748047e+00,-6.410474181175231934e-01
1.480939149856567383e+00,2.352890253067016602e+00,-5.404069423675537109e-01
1.482862353324890137e+00,2.355945587158203125e+00,-4.409047663211822510e-01
1.484684944152832031e+00,2.358841180801391602e+00,-3.422232270240783691e-01
1.486461520195007324e+00,2.361663818359375000e+00,-2.441388368606567383e-01
1.488230824470520020e+00,2.364475011825561523e+00,-1.464190185070037842e-01
1.490020990371704102e+00,2.367319107055664062e+00,-4.882534220814704895e-02
1.491832137107849121e+00,2.370196580886840820e+00,4.888468980789184570e-02
1.493652343750000000e+00,2.373088598251342773e+00,1.469524204730987549e-01
1.495449900627136230e+00,2.375944614410400391e+00,2.456151247024536133e-01
1.497176527976989746e+00,2.378687620162963867e+00,3.451025784015655518e-01
1.499017477035522461e+00,2.381612539291381836e+00,4.457082152366638184e-01
1.501022815704345703e+00,2.384798526763916016e+00,5.477356314659118652e-01
1.502876996994018555e+00,2.387744665145874023e+00,6.513568162918090820e-01
1.423488855361938477e+00,2.335091352462768555e+00,-7.327785491943359375e-01
1.425143837928771973e+00,2.337806224822998047e+00,-6.321046948432922363e-01
1.426905632019042969e+00,2.340696334838867188e+00,-5.328607559204101562e-01
1.428747296333312988e+00,2.343717336654663086e+00,-4.347445964813232422e-01
1.430496454238891602e+00,2.346586704254150391e+00,-3.374401628971099854e-01
1.432211399078369141e+00,2.349399805068969727e+00,-2.407272011041641235e-01
1.433933138847351074e+00,2.352224349975585938e+00,-1.443746387958526611e-01
1.435656428337097168e+00,2.355051040649414062e+00,-4.814356192946434021e-02
1.437389373779296875e+00,2.357893705368041992e+00,4.820167645812034607e-02
1.439139485359191895e+00,2.360764741897583008e+00,1.448988318443298340e-01
1.440877795219421387e+00,2.363616228103637695e+00,2.421838492155075073e-01
1.442554831504821777e+00,2.366367101669311523e+00,3.402846157550811768e-01
1.444347739219665527e+00,2.369308233261108398e+00,4.394915401935577393e-01
1.446298956871032715e+00,2.372509002685546875e+00,5.401029586791992188e-01
1.448109626770019531e+00,2.375479459762573242e+00,6.422908902168273926e-01
1.370632767677307129e+00,2.322537422180175781e+00,-7.226083874702453613e-01
1.372465848922729492e+00,2.325643539428710938e+00,-6.234406828880310059e-01
1.374135851860046387e+00,2.328473329544067383e+00,-5.255468487739562988e-01
1.375733613967895508e+00,2.331180810928344727e+00,-4.287225604057312012e-01
1.377429723739624023e+00,2.334054708480834961e+00,-3.327688574790954590e-01
1.379096269607543945e+00,2.336878776550292969e+00,-2.373973429203033447e-01
1.380792260169982910e+00,2.339752674102783203e+00,-1.423815041780471802e-01
1.382451534271240234e+00,2.342564344406127930e+00,-4.747892543673515320e-02
1.384083509445190430e+00,2.345329761505126953e+00,4.753497615456581116e-02
1.385754346847534180e+00,2.348160982131958008e+00,1.428931802511215210e-01
1.387415409088134766e+00,2.350975751876831055e+00,2.388294041156768799e-01
1.389207243919372559e+00,2.354011774063110352e+00,3.356141746044158936e-01
1.390963315963745117e+00,2.356987476348876953e+00,4.334686100482940674e-01
1.392601847648620605e+00,2.359763860702514648e+00,5.326092243194580078e-01
1.394326686859130859e+00,2.362686872482299805e+00,6.333709359169006348e-01
1.318954586982727051e+00,2.309871435165405273e+00,-7.127209305763244629e-01
1.320799231529235840e+00,2.313102006912231445e+00,-6.149476766586303711e-01
1.322286963462829590e+00,2.315707445144653320e+00,-5.183406472206115723e-01
1.324026226997375488e+00,2.318753480911254883e+00,-4.229084253311157227e-01
1.325560450553894043e+00,2.321440219879150391e+00,-3.282317221164703369e-01
1.327178597450256348e+00,2.324274063110351562e+00,-2.341630756855010986e-01
1.328775882720947266e+00,2.327071428298950195e+00,-1.404380500316619873e-01
1.330374002456665039e+00,2.329870223999023438e+00,-4.683089628815650940e-02
1.331977486610412598e+00,2.332678556442260742e+00,4.688734561204910278e-02
1.333574056625366211e+00,2.335474491119384766e+00,1.409451514482498169e-01
1.335270166397094727e+00,2.338444948196411133e+00,2.355907261371612549e-01
1.336792111396789551e+00,2.341110229492187500e+00,3.310128748416900635e-01
1.338601946830749512e+00,2.344279766082763672e+00,4.275640845298767090e-01
1.340098738670349121e+00,2.346900939941406250e+00,5.253228545188903809e-01
1.341938138008117676e+00,2.350122451782226562e+00,6.247896552085876465e-01
1.269343614578247070e+00,2.298780679702758789e+00,-7.036207318305969238e-01
1.270900964736938477e+00,2.301600933074951172e+00,-6.069917082786560059e-01
1.272526621818542480e+00,2.304545164108276367e+00,-5.117126107215881348e-01
1.274056315422058105e+00,2.307315349578857422e+00,-4.174535274505615234e-01
1.275654911994934082e+00,2.310210466384887695e+00,-3.240290582180023193e-01
1.277199149131774902e+00,2.313007116317749023e+00,-2.311625182628631592e-01
1.278701782226562500e+00,2.315728187561035156e+00,-1.386347264051437378e-01
1.280239820480346680e+00,2.318513631820678711e+00,-4.622955992817878723e-02
1.281817674636840820e+00,2.321371078491210938e+00,4.628653824329376221e-02
1.283368825912475586e+00,2.324180364608764648e+00,1.391407251358032227e-01
1.284880638122558594e+00,2.326918125152587891e+00,2.325527817010879517e-01
1.286486983299255371e+00,2.329827308654785156e+00,3.267804980278015137e-01
1.288034915924072266e+00,2.332630634307861328e+00,4.220337271690368652e-01
1.289695858955383301e+00,2.335638523101806641e+00,5.186167359352111816e-01
1.291208386421203613e+00,2.338377714157104492e+00,6.166906952857971191e-01
1.220678806304931641e+00,2.287414312362670898e+00,-6.947225928306579590e-01
1.222177863121032715e+00,2.290223360061645508e+00,-5.993162393569946289e-01
1.223747611045837402e+00,2.293164968490600586e+00,-5.052446126937866211e-01
1.225219011306762695e+00,2.295922279357910156e+00,-4.121770560741424561e-01
1.226658701896667480e+00,2.298620223999023438e+00,-3.199079930782318115e-01
1.228173255920410156e+00,2.301458358764648438e+00,-2.282280474901199341e-01
1.229662179946899414e+00,2.304248332977294922e+00,-1.368797421455383301e-01
1.231142759323120117e+00,2.307022571563720703e+00,-4.564439505338668823e-02
1.232617616653442383e+00,2.309786319732666016e+00,4.569907486438751221e-02
1.234075546264648438e+00,2.312518358230590820e+00,1.373710185289382935e-01
1.235629200935363770e+00,2.315429925918579102e+00,2.296135723590850830e-01
1.237174749374389648e+00,2.318325996398925781e+00,3.226505219936370850e-01
1.238658308982849121e+00,2.321105957031250000e+00,4.166981875896453857e-01
1.240253448486328125e+00,2.324095249176025391e+00,5.120593309402465820e-01
1.241702437400817871e+00,2.326810359954833984e+00,6.088905334472656250e-01
1.172965884208679199e+00,2.275837182998657227e+00,-6.860370039939880371e-01
1.174428582191467285e+00,2.278675079345703125e+00,-5.918346643447875977e-01
1.175953269004821777e+00,2.281633138656616211e+00,-4.989442229270935059e-01
1.177379131317138672e+00,2.284399747848510742e+00,-4.070413708686828613e-01
1.178768396377563477e+00,2.287095308303833008e+00,-3.159235119819641113e-01
1.180223941802978516e+00,2.289919614791870117e+00,-2.253854721784591675e-01
1.181642651557922363e+00,2.292671918869018555e+00,-1.351735144853591919e-01
1.183064937591552734e+00,2.295431613922119141e+00,-4.507541656494140625e-02
1.184491753578186035e+00,2.298199892044067383e+00,4.512977972626686096e-02
1.185896754264831543e+00,2.300925970077514648e+00,1.356601566076278687e-01
1.187384605407714844e+00,2.303812980651855469e+00,2.267529368400573730e-01
1.188857913017272949e+00,2.306671619415283203e+00,3.186276257038116455e-01
1.190266609191894531e+00,2.309404611587524414e+00,4.114967882633209229e-01
1.191779375076293945e+00,2.312339782714843750e+00,5.056591033935546875e-01
1.193421959877014160e+00,2.315526962280273438e+00,6.014060974121093750e-01
1.126884222030639648e+00,2.265472888946533203e+00,-6.779810786247253418e-01
1.128301739692687988e+00,2.268322706222534180e+00,-5.848913788795471191e-01
1.129611134529113770e+00,2.270955085754394531e+00,-4.930228888988494873e-01
1.131012916564941406e+00,2.273773193359375000e+00,-4.022221267223358154e-01
1.132365703582763672e+00,2.276492834091186523e+00,-3.121880888938903809e-01
1.133771777153015137e+00,2.279319524765014648e+00,-2.227220982313156128e-01
1.135113477706909180e+00,2.282016992568969727e+00,-1.335736960172653198e-01
1.136479616165161133e+00,2.284763336181640625e+00,-4.454192519187927246e-02
1.137875318527221680e+00,2.287569284439086914e+00,4.459663107991218567e-02
1.139215230941772461e+00,2.290262937545776367e+00,1.340563595294952393e-01
1.140624165534973145e+00,2.293095350265502930e+00,2.240681946277618408e-01
1.142009496688842773e+00,2.295880556106567383e+00,3.148468434810638428e-01
1.143520116806030273e+00,2.298917293548583984e+00,4.066700339317321777e-01
1.144960165023803711e+00,2.301812648773193359e+00,4.997220635414123535e-01
1.146252512931823730e+00,2.304410696029663086e+00,5.941967368125915527e-01
1.081500291824340820e+00,2.254590749740600586e+00,-6.700231432914733887e-01
1.082924365997314453e+00,2.257559537887573242e+00,-5.780600905418395996e-01
1.084233283996582031e+00,2.260288238525390625e+00,-4.872880578041076660e-01
1.085619330406188965e+00,2.263177633285522461e+00,-3.975583016872406006e-01
1.086947679519653320e+00,2.265947103500366211e+00,-3.085767328739166260e-01
1.088255763053894043e+00,2.268673896789550781e+00,-2.201372534036636353e-01
1.089593768119812012e+00,2.271463155746459961e+00,-1.320295482873916626e-01
1.090906143188476562e+00,2.274199247360229492e+00,-4.402705654501914978e-02
1.092194437980651855e+00,2.276884794235229492e+00,4.407904669642448425e-02
1.093520998954772949e+00,2.279650211334228516e+00,1.325054317712783813e-01
1.094846248626708984e+00,2.282413005828857422e+00,2.214704006910324097e-01
1.096135616302490234e+00,2.285100936889648438e+00,3.111851215362548828e-01
1.097533941268920898e+00,2.288015842437744141e+00,4.019214808940887451e-01
1.098852038383483887e+00,2.290763854980468750e+00,4.938581883907318115e-01
1.100280284881591797e+00,2.293741226196289062e+00,5.873245596885681152e-01
1.037272095680236816e+00,2.244200706481933594e+00,-6.624553203582763672e-01
1.038682579994201660e+00,2.247252225875854492e+00,-5.715554952621459961e-01
1.039965987205505371e+00,2.250029087066650391e+00,-4.818178117275238037e-01
1.041314244270324707e+00,2.252946138381958008e+00,-3.931024968624114990e-01
1.042499303817749023e+00,2.255510091781616211e+00,-3.050921261310577393e-01
1.043772578239440918e+00,2.258264780044555664e+00,-2.176552414894104004e-01
1.045039892196655273e+00,2.261006832122802734e+00,-1.305389553308486938e-01
1.046298265457153320e+00,2.263729572296142578e+00,-4.352997988462448120e-02
1.047551155090332031e+00,2.266440153121948242e+00,4.358210414648056030e-02
1.048807024955749512e+00,2.269157171249389648e+00,1.310095041990280151e-01
1.050166964530944824e+00,2.272099733352661133e+00,2.189886718988418579e-01
1.051386117935180664e+00,2.274737119674682617e+00,3.076928853988647461e-01
1.052695631980895996e+00,2.277570486068725586e+00,3.973990380764007568e-01
1.053915858268737793e+00,2.280210494995117188e+00,4.882808327674865723e-01
1.055487036705017090e+00,2.283609628677368164e+00,5.808024406433105469e-01
9.941700696945190430e-01,2.234370946884155273e+00,-6.552861332893371582e-01
9.953639507293701172e-01,2.237054347991943359e+00,-5.652803182601928711e-01
9.966396689414978027e-01,2.239921331405639648e+00,-4.765498042106628418e-01
9.978370070457458496e-01,2.242612361907958984e+00,-3.887675106525421143e-01
9.990990161895751953e-01,2.245448589324951172e+00,-3.017658889293670654e-01
1.000255227088928223e+00,2.248047113418579102e+00,-2.152684926986694336e-01
1.001472949981689453e+00,2.250783920288085938e+00,-1.291079074144363403e-01
1.002679228782653809e+00,2.253495216369628906e+00,-4.305279627442359924e-02
1.003877520561218262e+00,2.256188154220581055e+00,4.310424625873565674e-02
1.005145192146301270e+00,2.259037256240844727e+00,1.295813322067260742e-01
1.006321907043457031e+00,2.261681795120239258e+00,2.165741324424743652e-01
1.007582902908325195e+00,2.264516115188598633e+00,3.043283522129058838e-01
1.008796930313110352e+00,2.267244577407836914e+00,3.930376172065734863e-01
1.010125160217285156e+00,2.270229578018188477e+00,4.829979836940765381e-01
1.011344194412231445e+00,2.272969245910644531e+00,5.743556618690490723e-01
9.517449736595153809e-01,2.224194765090942383e+00,-6.482400894165039062e-01
9.529578089714050293e-01,2.227029085159301758e+00,-5.592430830001831055e-01
9.542310833930969238e-01,2.230004787445068359e+00,-4.714858829975128174e-01
9.554134607315063477e-01,2.232767820358276367e+00,-3.846508860588073730e-01
9.565520882606506348e-01,2.235428810119628906e+00,-2.985487580299377441e-01
9.576855301856994629e-01,2.238077878952026367e+00,-2.129793912172317505e-01
9.588559865951538086e-01,2.240813016891479492e+00,-1.277356147766113281e-01
9.600113630294799805e-01,2.243513107299804688e+00,-4.259520769119262695e-02
9.611531496047973633e-01,2.246181488037109375e+00,4.264586791396141052e-02
9.623416662216186523e-01,2.248959064483642578e+00,1.281999647617340088e-01
9.635372757911682129e-01,2.251753091812133789e+00,2.142807543277740479e-01
9.647116661071777344e-01,2.254497528076171875e+00,3.010954260826110840e-01
9.658192992210388184e-01,2.257086038589477539e+00,3.888402879238128662e-01
9.670214056968688965e-01,2.259895324707031250e+00,4.778055846691131592e-01
9.683462977409362793e-01,2.262991428375244141e+00,5.682737827301025391e-01
9.104062914848327637e-01,2.214700698852539062e+00,-6.416094303131103516e-01
9.116191864013671875e-01,2.217651367187500000e+00,-5.535547733306884766e-01
9.127249717712402344e-01,2.220341205596923828e+00,-4.666327834129333496e-01
9.137850999832153320e-01,2.222920179367065430e+00,-3.806620836257934570e-01
9.149279594421386719e-01,2.225700378417968750e+00,-2.954702079296112061e-01
9.160422086715698242e-01,2.228410959243774414e+00,-2.107901424169540405e-01
9.171531796455383301e-01,2.231113433837890625e+00,-1.264214217662811279e-01
9.182586073875427246e-01,2.233802795410156250e+00,-4.215698689222335815e-02
9.193586707115173340e-01,2.236478567123413086e+00,4.220748692750930786e-02
9.204658269882202148e-01,2.239171981811523438e+00,1.268780380487442017e-01
9.215574860572814941e-01,2.241827726364135742e+00,2.120592743158340454e-01
9.227513074874877930e-01,2.244731664657592773e+00,2.979966998100280762e-01
9.239240288734436035e-01,2.247584581375122070e+00,3.848857283592224121e-01
9.250217080116271973e-01,2.250254869461059570e+00,4.729195237159729004e-01
9.262203574180603027e-01,2.253170728683471680e+00,5.624209046363830566e-01
8.695608377456665039e-01,2.204545974731445312e+00,-6.349967122077941895e-01
8.706006407737731934e-01,2.207182168960571289e+00,-5.477749109268188477e-01
8.717208504676818848e-01,2.210021972656250000e+00,-4.617944955825805664e-01
8.727757334709167480e-01,2.212696552276611328e+00,-3.767335116863250732e-01
8.738890886306762695e-01,2.215518951416015625e+00,-2.924281358718872070e-01
8.749045729637145996e-01,2.218093633651733398e+00,-2.086082845926284790e-01
8.759725689888000488e-01,2.220801353454589844e+00,-1.251138448715209961e-01
8.770292401313781738e-01,2.223479986190795898e+00,-4.172099009156227112e-02
8.780733346939086914e-01,2.226127147674560547e+00,4.177065938711166382e-02
8.791787028312683105e-01,2.228929519653320312e+00,1.255717575550079346e-01
8.801990151405334473e-01,2.231516122817993164e+00,2.098706513643264771e-01
8.812982439994812012e-01,2.234302997589111328e+00,2.949074208736419678e-01
8.823535442352294922e-01,2.236978530883789062e+00,3.808677494525909424e-01
8.835212588310241699e-01,2.239938974380493164e+00,4.680458009243011475e-01
8.845955133438110352e-01,2.242662429809570312e+00,5.565803647041320801e-01
8.299131393432617188e-01,2.195581674575805664e+00,-6.289286613464355469e-01
8.309777975082397461e-01,2.198398351669311523e+00,-5.425875186920166016e-01
8.319618105888366699e-01,2.201001644134521484e+00,-4.573745131492614746e-01
8.330242037773132324e-01,2.203812360763549805e+00,-3.731525540351867676e-01
8.340429663658142090e-01,2.206507444381713867e+00,-2.896333038806915283e-01
8.350496888160705566e-01,2.209170818328857422e+00,-2.066238373517990112e-01
8.360813856124877930e-01,2.211900234222412109e+00,-1.239254847168922424e-01
8.370891213417053223e-01,2.214566230773925781e+00,-4.132467880845069885e-02
8.380742669105529785e-01,2.217172622680664062e+00,4.137331247329711914e-02
8.390933275222778320e-01,2.219868421554565430e+00,1.243719160556793213e-01
8.401115536689758301e-01,2.222562313079833984e+00,2.078763395547866821e-01
8.411020636558532715e-01,2.225182771682739258e+00,2.920846939086914062e-01
8.421970009803771973e-01,2.228079319000244141e+00,3.772615194320678711e-01
8.432378768920898438e-01,2.230833053588867188e+00,4.635735750198364258e-01
8.443934321403503418e-01,2.233890295028686523e+00,5.513473153114318848e-01
7.907340526580810547e-01,2.186028003692626953e+00,-6.228860616683959961e-01
7.918233275413513184e-01,2.189039468765258789e+00,-5.374252796173095703e-01
7.928122282028198242e-01,2.191773176193237305e+00,-4.530522823333740234e-01
7.937491536140441895e-01,2.194363355636596680e+00,-3.695910871028900146e-01
7.947526574134826660e-01,2.197137594223022461e+00,-2.868807911872863770e-01
7.957187891006469727e-01,2.199808597564697266e+00,-2.046619504690170288e-01
7.966686487197875977e-01,2.202434539794921875e+00,-1.227436959743499756e-01
7.976280450820922852e-01,2.205086708068847656e+00,-4.093055054545402527e-02
7.986009716987609863e-01,2.207776546478271484e+00,4.098048061132431030e-02
7.995645999908447266e-01,2.210440397262573242e+00,1.231898814439773560e-01
8.005018830299377441e-01,2.213031768798828125e+00,2.058921903371810913e-01
8.015229701995849609e-01,2.215854644775390625e+00,2.893246710300445557e-01
8.025144338607788086e-01,2.218595504760742188e+00,3.736724555492401123e-01
8.034321069717407227e-01,2.221132516860961914e+00,4.591210186481475830e-01
8.046579360961914062e-01,2.224521398544311523e+00,5.461363792419433594e-01
7.525370717048645020e-01,2.177360773086547852e+00,-6.172839403152465820e-01
7.534745335578918457e-01,2.180073022842407227e+00,-5.325216650962829590e-01
7.543458342552185059e-01,2.182594060897827148e+00,-4.488770365715026855e-01
7.553003430366516113e-01,2.185355663299560547e+00,-3.662155866622924805e-01
7.562206983566284180e-01,2.188018798828125000e+00,-2.842476963996887207e-01
7.571796774864196777e-01,2.190793275833129883e+00,-2.027941346168518066e-01
7.580817341804504395e-01,2.193403244018554688e+00,-1.216231957077980042e-01
7.589950561523437500e-01,2.196045875549316406e+00,-4.055693000555038452e-02
7.599234580993652344e-01,2.198731899261474609e+00,4.060653597116470337e-02
7.608004808425903320e-01,2.201269626617431641e+00,1.220593899488449097e-01
7.617272138595581055e-01,2.203950881958007812e+00,2.040120810270309448e-01
7.626356482505798340e-01,2.206579446792602539e+00,2.866589426994323730e-01
7.636495828628540039e-01,2.209513187408447266e+00,3.702638149261474609e-01
7.646225094795227051e-01,2.212327957153320312e+00,4.549922049045562744e-01
7.655025124549865723e-01,2.214874267578125000e+00,5.410225391387939453e-01
7.150947451591491699e-01,2.169092655181884766e+00,-6.119755506515502930e-01
7.158994078636169434e-01,2.171533346176147461e+00,-5.278786420822143555e-01
7.167914509773254395e-01,2.174239397048950195e+00,-4.450031816959381104e-01
7.177409529685974121e-01,2.177119493484497070e+00,-3.630765974521636963e-01
7.185587286949157715e-01,2.179600000381469727e+00,-2.817890346050262451e-01
7.194433212280273438e-01,2.182283401489257812e+00,-2.010325640439987183e-01
7.203146219253540039e-01,2.184926271438598633e+00,-1.205691099166870117e-01
7.211822867393493652e-01,2.187557935714721680e+00,-4.020541533827781677e-02
7.220498323440551758e-01,2.190189599990844727e+00,4.025378078222274780e-02
7.229111790657043457e-01,2.192802190780639648e+00,1.210037246346473694e-01
7.238491177558898926e-01,2.195647478103637695e+00,2.022636681795120239e-01
7.246701717376708984e-01,2.198137760162353516e+00,2.841856777667999268e-01
7.255673408508300781e-01,2.200859069824218750e+00,3.670356571674346924e-01
7.265797257423400879e-01,2.203930139541625977e+00,4.510800242424011230e-01
7.275304198265075684e-01,2.206813812255859375e+00,5.364549756050109863e-01
6.779204010963439941e-01,2.159807682037353516e+00,-6.065561175346374512e-01
6.787703037261962891e-01,2.162515401840209961e+00,-5.232710838317871094e-01
6.796832680702209473e-01,2.165424108505249023e+00,-4.411625862121582031e-01
6.805309653282165527e-01,2.168124675750732422e+00,-3.599152565002441406e-01
6.813473105430603027e-01,2.170725584030151367e+00,-2.793522179126739502e-01
6.821590662002563477e-01,2.173311710357666016e+00,-1.992862075567245483e-01
6.829996705055236816e-01,2.175989866256713867e+00,-1.195242628455162048e-01
6.838219761848449707e-01,2.178609848022460938e+00,-3.985697776079177856e-02
6.846314072608947754e-01,2.181188583374023438e+00,3.990415483713150024e-02
6.854737401008605957e-01,2.183872222900390625e+00,1.199572309851646423e-01
6.863226890563964844e-01,2.186576843261718750e+00,2.005025893449783325e-01
6.871537566184997559e-01,2.189224481582641602e+00,2.817328572273254395e-01
6.879388093948364258e-01,2.191725730895996094e+00,3.638330698013305664e-01
6.888096928596496582e-01,2.194500207901000977e+00,4.470862746238708496e-01
6.897956132888793945e-01,2.197641134262084961e+00,5.317705869674682617e-01
6.416373252868652344e-01,2.151508808135986328e+00,-6.015846133232116699e-01
6.425135135650634766e-01,2.154446601867675781e+00,-5.190402269363403320e-01
6.433104872703552246e-01,2.157119035720825195e+00,-4.375498592853546143e-01
6.440681815147399902e-01,2.159659624099731445e+00,-3.569431006908416748e-01
6.448855996131896973e-01,2.162400722503662109e+00,-2.770646214485168457e-01
6.456711292266845703e-01,2.165034770965576172e+00,-1.976595520973205566e-01
6.464423537254333496e-01,2.167620897293090820e+00,-1.185441762208938599e-01
6.472218632698059082e-01,2.170234441757202148e+00,-3.953022509813308716e-02
6.480116248130798340e-01,2.172882795333862305e+00,3.957846388220787048e-02
6.487919688224792480e-01,2.175499439239501953e+00,1.189750507473945618e-01
6.495506763458251953e-01,2.178043603897094727e+00,1.988472044467926025e-01
6.503819823265075684e-01,2.180830955505371094e+00,2.794260680675506592e-01
6.511924266815185547e-01,2.183548450469970703e+00,3.608913719654083252e-01
6.519449949264526367e-01,2.186071872711181641e+00,4.434226453304290771e-01
6.527839303016662598e-01,2.188884973526000977e+00,5.273369550704956055e-01
6.057821512222290039e-01,2.142795801162719727e+00,-5.966627597808837891e-01
6.065465211868286133e-01,2.145499467849731445e+00,-5.147404074668884277e-01
6.073692440986633301e-01,2.148409605026245117e+00,-4.339753389358520508e-01
6.081290245056152344e-01,2.151097059249877930e+00,-3.540529608726501465e-01
6.088578701019287109e-01,2.153675079345703125e+00,-2.748018801212310791e-01
6.095796823501586914e-01,2.156228542327880859e+00,-1.960389167070388794e-01
6.103096604347229004e-01,2.158810615539550781e+00,-1.175725758075714111e-01
6.110458374023437500e-01,2.161414623260498047e+00,-3.920624777674674988e-02
6.117887496948242188e-01,2.164042472839355469e+00,3.925391659140586853e-02
6.125465631484985352e-01,2.166723012924194336e+00,1.180035024881362915e-01
6.133052110671997070e-01,2.169406652450561523e+00,1.972370445728302002e-01
6.140465140342712402e-01,2.172028541564941406e+00,2.771437168121337891e-01
6.147407293319702148e-01,2.174484491348266602e+00,3.579023480415344238e-01
6.155149936676025391e-01,2.177222967147827148e+00,4.397956430912017822e-01
6.163943409919738770e-01,2.180333375930786133e+00,5.230975747108459473e-01
5.707459449768066406e-01,2.135135889053344727e+00,-5.921944379806518555e-01
5.713923573493957520e-01,2.137554168701171875e+00,-5.108196139335632324e-01
5.721141099929809570e-01,2.140254020690917969e+00,-4.306297004222869873e-01
5.727959871292114258e-01,2.142804861068725586e+00,-3.513027429580688477e-01
5.735288858413696289e-01,2.145546674728393555e+00,-2.726893126964569092e-01
5.741914510726928711e-01,2.148025274276733398e+00,-1.945259571075439453e-01
5.748949050903320312e-01,2.150656938552856445e+00,-1.166684105992317200e-01
5.755884647369384766e-01,2.153251409530639648e+00,-3.890474885702133179e-02
5.762725472450256348e-01,2.155810594558715820e+00,3.895098716020584106e-02
5.770037174224853516e-01,2.158545970916748047e+00,1.170963719487190247e-01
5.776726007461547852e-01,2.161047935485839844e+00,1.957052946090698242e-01
5.784044265747070312e-01,2.163785696029663086e+00,2.750074267387390137e-01
5.791121721267700195e-01,2.166433572769165039e+00,3.551765382289886475e-01
5.799162983894348145e-01,2.169441699981689453e+00,4.365023970603942871e-01
5.806676149368286133e-01,2.172252178192138672e+00,5.191115736961364746e-01
5.359629392623901367e-01,2.126554012298583984e+00,-5.876262784004211426e-01
5.366436839103698730e-01,2.129255294799804688e+00,-5.069488883018493652e-01
5.372713208198547363e-01,2.131745338439941406e+00,-4.273266494274139404e-01
5.379596352577209473e-01,2.134476423263549805e+00,-3.486392199993133545e-01
5.386144518852233887e-01,2.137074470520019531e+00,-2.706049978733062744e-01
5.392544269561767578e-01,2.139613866806030273e+00,-1.930454373359680176e-01
5.398966670036315918e-01,2.142161846160888672e+00,-1.157765015959739685e-01
5.405483245849609375e-01,2.144747734069824219e+00,-3.860735520720481873e-02
5.412096381187438965e-01,2.147371530532836914e+00,3.865458816289901733e-02
5.418777465820312500e-01,2.150022506713867188e+00,1.162013337016105652e-01
5.425392985343933105e-01,2.152647256851196289e+00,1.942213773727416992e-01
5.431789755821228027e-01,2.155185222625732422e+00,2.728982567787170410e-01
5.438950657844543457e-01,2.158026695251464844e+00,3.524858355522155762e-01
5.445757508277893066e-01,2.160727500915527344e+00,4.331363141536712646e-01
5.451845526695251465e-01,2.163142919540405273e+00,5.150171518325805664e-01
5.017992854118347168e-01,2.118498086929321289e+00,-5.833557248115539551e-01
5.025148391723632812e-01,2.121519088745117188e+00,-5.033429265022277832e-01
5.030607581138610840e-01,2.123823881149291992e+00,-4.242518246173858643e-01
5.036809444427490234e-01,2.126442193984985352e+00,-3.461138904094696045e-01
5.043405890464782715e-01,2.129226922988891602e+00,-2.686696946620941162e-01
5.049287676811218262e-01,2.131710290908813477e+00,-1.916606277227401733e-01
5.055451393127441406e-01,2.134312391281127930e+00,-1.149493977427482605e-01
5.061545372009277344e-01,2.136885166168212891e+00,-3.833148255944252014e-02
5.067591071128845215e-01,2.139437437057495117e+00,3.837726637721061707e-02
5.073960423469543457e-01,2.142126560211181641e+00,1.153702512383460999e-01
5.079699158668518066e-01,2.144549131393432617e+00,1.928149759769439697e-01
5.085927844047546387e-01,2.147178888320922852e+00,2.709349095821380615e-01
