5.107334613800048828e+00,4.910161495208740234e+00,-8.699041604995727539e-01
5.113349914550781250e+00,4.915945053100585938e+00,-6.205698251724243164e-01
5.118864059448242188e+00,4.921246051788330078e+00,-3.721368908882141113e-01
5.124518394470214844e+00,4.926681995391845703e+00,-1.240817382931709290e-01
5.130328178405761719e+00,4.932267189025878906e+00,1.242224052548408508e-01
5.135721206665039062e+00,4.937452316284179688e+00,3.733623921871185303e-01
5.141424655914306641e+00,4.942935466766357422e+00,6.239770054817199707e-01
5.146961212158203125e+00,4.948258399963378906e+00,8.766535520553588867e-01
5.153259754180908203e+00,4.954313755035400391e+00,1.132212400436401367e+00
5.159284114837646484e+00,4.960105419158935547e+00,1.391153454780578613e+00
2.837510347366333008e+00,2.807210206985473633e+00,-1.069511532783508301e+00
3.385122299194335938e+00,3.348974227905273438e+00,-1.099345088005065918e+00
4.161197185516357422e+00,4.116761684417724609e+00,-1.137800574302673340e+00
5.203516483306884766e+00,5.147950649261474609e+00,-1.159324526786804199e+00
5.208876609802246094e+00,5.153254032135009766e+00,-8.996704220771789551e-01
5.214769363403320312e+00,5.159083366394042969e+00,-6.417745351791381836e-01
5.220554351806640625e+00,5.164806842803955078e+00,-3.848645985126495361e-01
5.226308345794677734e+00,5.170499324798583984e+00,-1.283252388238906860e-01
5.232047080993652344e+00,5.176177024841308594e+00,1.284661442041397095e-01
5.237724781036376953e+00,5.181794166564941406e+00,3.861304223537445068e-01
5.243975162506103516e+00,5.187977313995361328e+00,6.453688740730285645e-01
5.249357700347900391e+00,5.193302631378173828e+00,9.066622257232666016e-01
5.255334854125976562e+00,5.199215888977050781e+00,1.170869588851928711e+00
2.807994842529296875e+00,2.858682632446289062e+00,-1.073699235916137695e+00
3.324244976043701172e+00,3.384251594543457031e+00,-1.095193862915039062e+00
4.099454402923583984e+00,4.173454761505126953e+00,-1.137135505676269531e+00
5.291744232177734375e+00,5.387266635894775391e+00,-1.196038842201232910e+00
5.323853015899658203e+00,5.419955253601074219e+00,-9.328326582908630371e-01
5.330011367797851562e+00,5.426224708557128906e+00,-6.654475331306457520e-01
5.335742473602294922e+00,5.432059288024902344e+00,-3.990474641323089600e-01
5.341609954833984375e+00,5.438032150268554688e+00,-1.330538839101791382e-01
5.347585201263427734e+00,5.444115638732910156e+00,1.332027316093444824e-01
5.353224277496337891e+00,5.449856281280517578e+00,4.003548622131347656e-01
5.359251499176025391e+00,5.455992698669433594e+00,6.690981984138488770e-01
5.365184783935546875e+00,5.462032794952392578e+00,9.400746226310729980e-01
5.371952533721923828e+00,5.468923091888427734e+00,1.214167475700378418e+00
2.766773462295532227e+00,2.898556470870971680e+00,-1.073691368103027344e+00
3.285661458969116211e+00,3.442159414291381836e+00,-1.098601818084716797e+00
4.041133880615234375e+00,4.233615398406982422e+00,-1.137650728225708008e+00
5.194798469543457031e+00,5.442229747772216797e+00,-1.191611409187316895e+00
5.453503131866455078e+00,5.713256835937500000e+00,-9.697789549827575684e-01
5.459616184234619141e+00,5.719660758972167969e+00,-6.917788982391357422e-01
5.465673446655273438e+00,5.726006507873535156e+00,-4.148516952991485596e-01
5.471667766571044922e+00,5.732286453247070312e+00,-1.383230686187744141e-01
5.477569103240966797e+00,5.738469123840332031e+00,1.384722590446472168e-01
5.483462810516357422e+00,5.744643688201904297e+00,4.162019491195678711e-01
5.489989757537841797e+00,5.751481056213378906e+00,6.956274509429931641e-01
5.495682716369628906e+00,5.757445335388183594e+00,9.772796630859375000e-01
5.502016067504882812e+00,5.764080047607421875e+00,1.262082576751708984e+00
2.725522518157958984e+00,2.938414573669433594e+00,-1.073894858360290527e+00
3.228077888488769531e+00,3.480224847793579102e+00,-1.095891714096069336e+00
3.982685565948486328e+00,4.293775558471679688e+00,-1.138381600379943848e+00
5.146182537078857422e+00,5.548153400421142578e+00,-1.198553085327148438e+00
5.587568759918212891e+00,6.024016857147216797e+00,-1.008849024772644043e+00
5.593416213989257812e+00,6.030321121215820312e+00,-7.195956110954284668e-01
5.599585056304931641e+00,6.036971569061279297e+00,-4.315301775932312012e-01
5.605661392211914062e+00,6.043522834777832031e+00,-1.438824832439422607e-01
5.611708641052246094e+00,6.050042629241943359e+00,1.440376937389373779e-01
5.618080615997314453e+00,6.056911945343017578e+00,4.329555332660675049e-01
5.623809337615966797e+00,6.063087940216064453e+00,7.235056757926940918e-01
5.630007266998291016e+00,6.069770336151123047e+00,1.016511440277099609e+00
5.637075424194335938e+00,6.077390193939208984e+00,1.312882661819458008e+00
2.684180498123168945e+00,2.978221416473388672e+00,-1.074291706085205078e+00
3.188739061355590820e+00,3.538052558898925781e+00,-1.099616289138793945e+00
3.924018383026123047e+00,4.353878974914550781e+00,-1.139308691024780273e+00
5.049842357635498047e+00,5.603032112121582031e+00,-1.194671392440795898e+00
5.725038051605224609e+00,6.352192878723144531e+00,-1.049978137016296387e+00
5.731209754943847656e+00,6.359040737152099609e+00,-7.489558458328247070e-01
5.737355232238769531e+00,6.365859508514404297e+00,-4.491233527660369873e-01
5.743561267852783203e+00,6.372745037078857422e+00,-1.497479379177093506e-01
5.749844551086425781e+00,6.379716873168945312e+00,1.499117612838745117e-01
5.756153583526611328e+00,6.386716842651367188e+00,4.505948722362518311e-01
5.762368679046630859e+00,6.393612861633300781e+00,7.530276775360107422e-01
5.768302917480468750e+00,6.400197029113769531e+00,1.057912945747375488e+00
2.634815692901611328e+00,3.008948802947998047e+00,-1.071662068367004395e+00
3.136430978775024414e+00,3.581791400909423828e+00,-1.099145054817199707e+00
3.844944238662719727e+00,4.390911102294921875e+00,-1.134481668472290039e+00
4.962726593017578125e+00,5.667413711547851562e+00,-1.193130731582641602e+00
5.893301010131835938e+00,6.730126380920410156e+00,-1.098392486572265625e+00
5.899882316589355469e+00,6.737641811370849609e+00,-7.835204005241394043e-01
5.906054496765136719e+00,6.744690418243408203e+00,-4.698382616043090820e-01
5.912419795989990234e+00,6.751959323883056641e+00,-1.566541492938995361e-01
5.918941020965576172e+00,6.759407043457031250e+00,1.568269431591033936e-01
5.925158977508544922e+00,6.766507625579833984e+00,4.713580608367919922e-01
5.931815624237060547e+00,6.774109363555908203e+00,7.877612113952636719e-01
5.938394546508789062e+00,6.781622409820556641e+00,1.106796979904174805e+00
2.595465898513793945e+00,3.051033735275268555e+00,-1.073309659957885742e+00
3.081707239151000977e+00,3.622622251510620117e+00,-1.098026275634765625e+00
3.789347171783447266e+00,4.454470157623291016e+00,-1.136773347854614258e+00
4.872006893157958984e+00,5.727162837982177734e+00,-1.190906405448913574e+00
6.054275035858154297e+00,7.116948127746582031e+00,-1.147263526916503906e+00
6.060867309570312500e+00,7.124697685241699219e+00,-8.183588981628417969e-01
6.067420005798339844e+00,7.132400512695312500e+00,-4.907463490962982178e-01
6.073934078216552734e+00,7.140057563781738281e+00,-1.636246740818023682e-01
6.080371856689453125e+00,7.147625446319580078e+00,1.637981086969375610e-01
6.086823463439941406e+00,7.155210018157958984e+00,4.923157393932342529e-01
6.093942642211914062e+00,7.163578510284423828e+00,8.228248357772827148e-01
6.100197315216064453e+00,7.170930862426757812e+00,1.155965566635131836e+00
2.548506975173950195e+00,3.084204435348510742e+00,-1.072036385536193848e+00
3.031955242156982422e+00,3.669273614883422852e+00,-1.098899960517883301e+00
3.714555263519287109e+00,4.495356559753417969e+00,-1.133523106575012207e+00
4.789639472961425781e+00,5.796424388885498047e+00,-1.190931081771850586e+00
6.250934600830078125e+00,7.564884662628173828e+00,-1.204924941062927246e+00
6.257387638092041016e+00,7.572693824768066406e+00,-8.594411015510559082e-01
6.264150619506835938e+00,7.580878734588623047e+00,-5.153819918632507324e-01
6.270786285400390625e+00,7.588908672332763672e+00,-1.718362271785736084e-01
6.277373790740966797e+00,7.596880912780761719e+00,1.720167547464370728e-01
6.284268379211425781e+00,7.605224609375000000e+00,5.170371532440185547e-01
6.291248321533203125e+00,7.613671779632568359e+00,8.640918135643005371e-01
6.298105239868164062e+00,7.621970176696777344e+00,1.214017510414123535e+00
2.501724243164062500e+00,3.117396354675292969e+00,-1.071017265319824219e+00
2.982009172439575195e+00,3.715878963470458984e+00,-1.099961876869201660e+00
3.664235591888427734e+00,4.566000461578369141e+00,-1.137994647026062012e+00
4.707231998443603516e+00,5.865677356719970703e+00,-1.191194534301757812e+00
6.651679515838623047e+00,8.288652420043945312e+00,-1.304907441139221191e+00
7.587654113769531250e+00,9.454968452453613281e+00,-1.060629963874816895e+00
7.596955299377441406e+00,9.466559410095214844e+00,-6.361212730407714844e-01
7.606245040893554688e+00,9.478135108947753906e+00,-2.121272087097167969e-01
7.615544795989990234e+00,9.489723205566406250e+00,2.123865634202957153e-01
7.624788284301757812e+00,9.501241683959960938e+00,6.384518146514892578e-01
7.634796619415283203e+00,9.513712882995605469e+00,1.067219734191894531e+00
2.456958770751953125e+00,3.153018951416015625e+00,-1.071063876152038574e+00
2.919056653976440430e+00,3.746029615402221680e+00,-1.096406698226928711e+00
3.592742443084716797e+00,4.610571861267089844e+00,-1.136170268058776855e+00
4.628420352935791016e+00,5.939659118652343750e+00,-1.192642807960510254e+00
6.495985984802246094e+00,8.336308479309082031e+00,-1.297639012336730957e+00
7.433617591857910156e+00,9.539572715759277344e+00,-1.058076500892639160e+00
7.442650794982910156e+00,9.551165580749511719e+00,-6.345830559730529785e-01
7.451750755310058594e+00,9.562843322753906250e+00,-2.116142213344573975e-01
7.460941314697265625e+00,9.574637413024902344e+00,2.118752151727676392e-01
7.470292091369628906e+00,9.586637496948242188e+00,6.369398236274719238e-01
7.479642391204833984e+00,9.598636627197265625e+00,1.064627528190612793e+00
2.413999795913696289e+00,3.191057205200195312e+00,-1.072138071060180664e+00
2.873475074768066406e+00,3.798435926437377930e+00,-1.099594593048095703e+00
3.524424076080322266e+00,4.658922672271728516e+00,-1.135537505149841309e+00
4.552820205688476562e+00,6.018355846405029297e+00,-1.195237159729003906e+00
6.421928882598876953e+00,8.489123344421386719e+00,-1.306984066963195801e+00
7.280154228210449219e+00,9.623607635498046875e+00,-1.055731296539306641e+00
7.289073467254638672e+00,9.635398864746093750e+00,-6.331828236579895020e-01
7.297986030578613281e+00,9.647180557250976562e+00,-2.111473083496093750e-01
7.306913852691650391e+00,9.658981323242187500e+00,2.114056050777435303e-01
7.315662860870361328e+00,9.670546531677246094e+00,6.354926228523254395e-01
7.324986934661865234e+00,9.682871818542480469e+00,1.062232732772827148e+00
2.372640609741210938e+00,3.231488227844238281e+00,-1.074201941490173340e+00
2.815471649169921875e+00,3.834614992141723633e+00,-1.098289370536804199e+00
3.458930253982543945e+00,4.710992336273193359e+00,-1.136045217514038086e+00
4.480053424835205078e+00,6.101741313934326172e+00,-1.198939323425292969e+00
6.278214454650878906e+00,8.550799369812011719e+00,-1.302511096000671387e+00
7.468736648559570312e+00,1.017226696014404297e+01,-1.104079723358154297e+00
7.475780487060546875e+00,1.018185997009277344e+01,-6.619936227798461914e-01
7.482854843139648438e+00,1.019149589538574219e+01,-2.206939011812210083e-01
7.489981174468994141e+00,1.020120143890380859e+01,2.209040820598602295e-01
7.497093200683593750e+00,1.021088790893554688e+01,6.638809442520141602e-01
7.504033565521240234e+00,1.022034072875976562e+01,1.109297633171081543e+00
2.321509838104248047e+00,3.258602857589721680e+00,-1.072059631347656250e+00
2.757680416107177734e+00,3.870836734771728516e+00,-1.097246050834655762e+00
3.393267631530761719e+00,4.762983322143554688e+00,-1.136753797531127930e+00
4.371679782867431641e+00,6.136338233947753906e+00,-1.193319916725158691e+00
6.136198520660400391e+00,8.613116264343261719e+00,-1.298491716384887695e+00
7.999357223510742188e+00,1.122835254669189453e+01,-1.206154465675354004e+00
8.006640434265136719e+00,1.123857593536376953e+01,-7.231728434562683105e-01
8.014060020446777344e+00,1.124899005889892578e+01,-2.410849630832672119e-01
8.021507263183593750e+00,1.125944232940673828e+01,2.413089722394943237e-01
8.029110908508300781e+00,1.127011585235595703e+01,7.252024412155151367e-01
2.274100303649902344e+00,3.290721178054809570e+00,-1.071807742118835449e+00
2.704145908355712891e+00,3.913015842437744141e+00,-1.098118185997009277e+00
3.332515001296997070e+00,4.822292804718017578e+00,-1.139407873153686523e+00
4.304630756378173828e+00,6.228986263275146484e+00,-1.199232220649719238e+00
6.005102634429931641e+00,8.689641952514648438e+00,-1.296937465667724609e+00
8.674353599548339844e+00,1.255216312408447266e+01,-1.334884643554687500e+00
8.682175636291503906e+00,1.256348228454589844e+01,-8.003485798835754395e-01
8.689849853515625000e+00,1.257458782196044922e+01,-2.668017148971557617e-01
8.697557449340820312e+00,1.258574008941650391e+01,2.670383453369140625e-01
8.705650329589843750e+00,1.259745121002197266e+01,8.025125861167907715e-01
2.228347301483154297e+00,3.325283765792846680e+00,-1.072566628456115723e+00
2.652402639389038086e+00,3.958086490631103516e+00,-1.099999547004699707e+00
3.254678964614868164e+00,4.856842517852783203e+00,-1.136447548866271973e+00
4.207301616668701172e+00,6.278407573699951172e+00,-1.197030305862426758e+00
5.942181110382080078e+00,8.867306709289550781e+00,-1.310625553131103516e+00
9.506136894226074219e+00,1.418567180633544922e+01,-1.493980169296264648e+00
9.514334678649902344e+00,1.419790458679199219e+01,-8.957012295722961426e-01
9.522434234619140625e+00,1.420999240875244141e+01,-2.985784411430358887e-01
9.530467987060546875e+00,1.422198009490966797e+01,2.988303303718566895e-01
9.538373947143554688e+00,1.423377799987792969e+01,8.979643583297729492e-01
2.184023618698120117e+00,3.362217426300048828e+00,-1.074286341667175293e+00
2.590333223342895508e+00,3.987714529037475586e+00,-1.097817063331604004e+00
3.198023319244384766e+00,4.923229694366455078e+00,-1.141153812408447266e+00
4.113725185394287109e+00,6.332916259765625000e+00,-1.196074008941650391e+00
5.757613658905029297e+00,8.863616943359375000e+00,-1.297766447067260742e+00
9.742384910583496094e+00,1.499801349639892578e+01,-1.564686536788940430e+00
1.056242561340332031e+01,1.626043319702148438e+01,-1.016177773475646973e+00
1.057098770141601562e+01,1.627361297607421875e+01,-3.387250304222106934e-01
1.057933235168457031e+01,1.628646087646484375e+01,3.389924466609954834e-01
2.132987499237060547e+00,3.388853073120117188e+00,-1.072932004928588867e+00
2.541843891143798828e+00,4.038436889648437500e+00,-1.101651906967163086e+00
3.125160932540893555e+00,4.965200901031494141e+00,-1.140397071838378906e+00
4.023397445678710938e+00,6.392303466796875000e+00,-1.196291208267211914e+00
5.639894962310791016e+00,8.960565567016601562e+00,-1.300008535385131836e+00
9.411681175231933594e+00,1.495311355590820312e+01,-1.545789837837219238e+00
1.192046260833740234e+01,1.893902015686035156e+01,-1.172790169715881348e+00
1.192920684814453125e+01,1.895291328430175781e+01,-3.908989429473876953e-01
1.193815326690673828e+01,1.896712875366210938e+01,3.911921083927154541e-01
2.083623170852661133e+00,3.417975664138793945e+00,-1.072600126266479492e+00
2.483484268188476562e+00,4.073907852172851562e+00,-1.101518392562866211e+00
3.054657697677612305e+00,5.010860919952392578e+00,-1.140725255012512207e+00
3.935851573944091797e+00,6.456371307373046875e+00,-1.197615623474121094e+00
5.525397777557373047e+00,9.063863754272460938e+00,-1.303387522697448730e+00
9.252894401550292969e+00,1.517844867706298828e+01,-1.555233478546142578e+00
1.374567413330078125e+01,2.254840660095214844e+01,-1.383974432945251465e+00
1.375476360321044922e+01,2.256331634521484375e+01,-4.612547457218170166e-01
1.376373863220214844e+01,2.257803916931152344e+01,4.615556895732879639e-01
2.037122249603271484e+00,3.451903820037841797e+00,-1.073986887931823730e+00
2.418219327926635742e+00,4.097672939300537109e+00,-1.098472714424133301e+00
2.972521305084228516e+00,5.036937713623046875e+00,-1.136859297752380371e+00
3.853475332260131836e+00,6.529714584350585938e+00,-1.200866103172302246e+00
5.417577743530273438e+00,9.180086135864257812e+00,-1.308815360069274902e+00
9.103134155273437500e+00,1.542526245117187500e+01,-1.567011713981628418e+00
1.736776733398437500e+01,2.942968368530273438e+01,-1.790891289710998535e+00
1.738905143737792969e+01,2.946574974060058594e+01,-5.972096920013427734e-01
1.988989830017089844e+00,3.483297348022460938e+00,-1.074786663055419922e+00
2.358025789260864258e+00,4.129586219787597656e+00,-1.097867488861083984e+00
2.908164262771606445e+00,5.093038082122802734e+00,-1.140009403228759766e+00
3.738705873489379883e+00,6.547556877136230469e+00,-1.194183468818664551e+00
5.277945995330810547e+00,9.243211746215820312e+00,-1.306910872459411621e+00
8.811608314514160156e+00,1.543167877197265625e+01,-1.554691553115844727e+00
1.765659332275390625e+01,3.092180824279785156e+01,-1.866121530532836914e+00
1.766889572143554688e+01,3.094335365295410156e+01,-6.219681501388549805e-01
1.936652898788452148e+00,3.507277488708496094e+00,-1.073522686958312988e+00
2.305233716964721680e+00,4.174777030944824219e+00,-1.100996732711791992e+00
2.829898118972778320e+00,5.124943733215332031e+00,-1.137967944145202637e+00
3.660700559616088867e+00,6.629526615142822266e+00,-1.199454307556152344e+00
5.125527381896972656e+00,9.282327651977539062e+00,-1.301934957504272461e+00
8.529869079589843750e+00,1.544758796691894531e+01,-1.543835878372192383e+00
2.063836288452148438e+01,3.737606430053710938e+01,-2.237576961517333984e+00
2.065063095092773438e+01,3.739828109741210938e+01,-7.456959486007690430e-01
1.885669469833374023e+00,3.533531904220581055e+00,-1.073187470436096191e+00
2.244097471237182617e+00,4.205185413360595703e+00,-1.100432395935058594e+00
2.753693103790283203e+00,5.160110473632812500e+00,-1.136908173561096191e+00
3.559742212295532227e+00,6.670555591583251953e+00,-1.197536230087280273e+00
5.027776718139648438e+00,9.421485900878906250e+00,-1.311225295066833496e+00
8.396354675292968750e+00,1.573382282257080078e+01,-1.560271501541137695e+00
2.520024108886718750e+01,4.722241210937500000e+01,-2.805162668228149414e+00
2.521171569824218750e+01,4.724391174316406250e+01,-9.347198605537414551e-01
1.836023807525634766e+00,3.562329769134521484e+00,-1.073842167854309082e+00
2.184586286544799805e+00,4.238625049591064453e+00,-1.100887656211853027e+00
2.679521560668945312e+00,5.198918819427490234e+00,-1.136892080307006836e+00
3.461468458175659180e+00,6.716084957122802734e+00,-1.196692585945129395e+00
4.882767677307128906e+00,9.473749160766601562e+00,-1.308638095855712891e+00
8.126906394958496094e+00,1.576816177368164062e+01,-1.551982283592224121e+00
2.409527397155761719e+01,4.675065231323242188e+01,-2.756368875503540039e+00
3.470494842529296875e+01,6.733598327636718750e+01,-1.322277426719665527e+00
1.782145857810974121e+00,3.582802057266235352e+00,-1.072214245796203613e+00
2.118421316146850586e+00,4.258845329284667969e+00,-1.098151564598083496e+00
2.609321832656860352e+00,5.245745658874511719e+00,-1.138848066329956055e+00
3.368398427963256836e+00,6.771782875061035156e+00,-1.197903513908386230e+00
4.745225906372070312e+00,9.539738655090332031e+00,-1.308237314224243164e+00
7.870510101318359375e+00,1.582276725769042969e+01,-1.546110510826110840e+00
2.419018554687500000e+01,4.863162231445312500e+01,-2.846563100814819336e+00
1.736393451690673828e+00,3.619838714599609375e+00,-1.075749874114990234e+00
2.063631534576416016e+00,4.302028179168701172e+00,-1.101557016372680664e+00
2.541016101837158203e+00,5.297225952148437500e+00,-1.142011404037475586e+00
3.277817487716674805e+00,6.833227157592773438e+00,-1.200350403785705566e+00
4.611288070678710938e+00,9.613097190856933594e+00,-1.309111833572387695e+00
7.760555267333984375e+00,1.617833709716796875e+01,-1.569839835166931152e+00
2.301963996887207031e+01,4.798876953125000000e+01,-2.789363145828247070e+00
3.283287811279296875e+01,6.844631195068359375e+01,-1.325077295303344727e+00
1.685051560401916504e+00,3.645710468292236328e+00,-1.076160669326782227e+00
2.000587940216064453e+00,4.328392505645751953e+00,-1.100862860679626465e+00
2.459671735763549805e+00,5.321648120880126953e+00,-1.139569759368896484e+00
3.164770364761352539e+00,6.847171306610107422e+00,-1.194720149040222168e+00
4.480830192565917969e+00,9.694546699523925781e+00,-1.311335206031799316e+00
7.515177249908447266e+00,1.625953865051269531e+01,-1.567120909690856934e+00
1.474616432189941406e+01,3.190421676635742188e+01,-1.841985940933227539e+00
1.478803443908691406e+01,3.199480438232421875e+01,-6.152383685111999512e-01
1.628251075744628906e+00,3.659451246261596680e+00,-1.073227167129516602e+00
1.939065814018249512e+00,4.357999324798583984e+00,-1.101220965385437012e+00
2.380321025848388672e+00,5.349708557128906250e+00,-1.138166069984436035e+00
3.078989982604980469e+00,6.919948577880859375e+00,-1.199606060981750488e+00
4.304782390594482422e+00,9.674884796142578125e+00,-1.300207972526550293e+00
7.275910377502441406e+00,1.635241699218750000e+01,-1.565874576568603516e+00
9.306197166442871094e+00,2.091543197631835938e+01,-1.199736475944519043e+00
9.327431678771972656e+00,2.096315765380859375e+01,-4.004989862442016602e-01
9.348761558532714844e+00,2.101109504699707031e+01,4.014148414134979248e-01
1.579352736473083496e+00,3.690892219543457031e+00,-1.075708031654357910e+00
1.878989219665527344e+00,4.391132354736328125e+00,-1.102684378623962402e+00
2.302865028381347656e+00,5.381715297698974609e+00,-1.137846350669860840e+00
2.971073865890502930e+00,6.943295955657958984e+00,-1.196158766746520996e+00
4.181118965148925781e+00,9.771128654479980469e+00,-1.304965853691101074e+00
6.667596817016601562e+00,1.558194065093994141e+01,-1.482804775238037109e+00
6.681143760681152344e+00,1.561360073089599609e+01,-8.900398612022399902e-01
6.694673538208007812e+00,1.564521884918212891e+01,-2.970391809940338135e-01
6.707902431488037109e+00,1.567613506317138672e+01,2.976261675357818604e-01
6.721749782562255859e+00,1.570849514007568359e+01,8.954492211341857910e-01
1.525032639503479004e+00,3.709872245788574219e+00,-1.074767827987670898e+00
1.810956120491027832e+00,4.405424118041992188e+00,-1.099651455879211426e+00
2.227195024490356445e+00,5.417988300323486328e+00,-1.138658642768859863e+00
2.889615058898925781e+00,7.029425144195556641e+00,-1.203747987747192383e+00
4.060424327850341797e+00,9.877594947814941406e+00,-1.311288356781005859e+00
5.127881050109863281e+00,1.247434425354003906e+01,-1.179974913597106934e+00
5.137478351593017578e+00,1.249769210815429688e+01,-7.081558108329772949e-01
5.146956920623779297e+00,1.252074909210205078e+01,-2.362952828407287598e-01
5.156523704528808594e+00,1.254402160644531250e+01,2.367344945669174194e-01
5.166130065917968750e+00,1.256739044189453125e+01,7.121051549911499023e-01
1.470746040344238281e+00,3.728694915771484375e+00,-1.074012160301208496e+00
1.752217173576354980e+00,4.442292213439941406e+00,-1.102480888366699219e+00
2.151470661163330078e+00,5.454495429992675781e+00,-1.139742493629455566e+00
2.784014701843261719e+00,7.058146953582763672e+00,-1.201719522476196289e+00
3.892347097396850586e+00,9.868036270141601562e+00,-1.302489995956420898e+00
4.569136619567871094e+00,1.158386135101318359e+01,-1.089444279670715332e+00
4.574808120727539062e+00,1.159823894500732422e+01,-6.534128785133361816e-01
4.580408096313476562e+00,1.161243724822998047e+01,-2.178937345743179321e-01
4.585951805114746094e+00,1.162649059295654297e+01,2.181574404239654541e-01
4.591817378997802734e+00,1.164136123657226562e+01,6.558423042297363281e-01
4.597235679626464844e+00,1.165509796142578125e+01,1.096143960952758789e+00
1.418731689453125000e+00,3.753334283828735352e+00,-1.075149893760681152e+00
1.687042832374572754e+00,4.463166236877441406e+00,-1.101555824279785156e+00
2.079050302505493164e+00,5.500244140625000000e+00,-1.142966628074645996e+00
2.682989358901977539e+00,7.097998619079589844e+00,-1.201843023300170898e+00
3.777267456054687500e+00,9.992973327636718750e+00,-1.311710000038146973e+00
4.409087657928466797e+00,1.166448879241943359e+01,-1.090980172157287598e+00
4.414619922637939453e+00,1.167912483215332031e+01,-6.543428897857666016e-01
4.420024394989013672e+00,1.169342231750488281e+01,-2.182038724422454834e-01
4.425312995910644531e+00,1.170741462707519531e+01,2.184649705886840820e-01
4.430777549743652344e+00,1.172187042236328125e+01,6.567378044128417969e-01
4.436241149902343750e+00,1.173632526397705078e+01,1.097698926925659180e+00
1.366635799407958984e+00,3.778140068054199219e+00,-1.076541900634765625e+00
1.621906995773315430e+00,4.483851432800292969e+00,-1.100818514823913574e+00
1.992921948432922363e+00,5.509542942047119141e+00,-1.138854622840881348e+00
2.581928253173828125e+00,7.137883186340332031e+00,-1.202215671539306641e+00
3.616165637969970703e+00,9.997089385986328125e+00,-1.305322408676147461e+00
4.249012470245361328e+00,1.174662971496582031e+01,-1.092862486839294434e+00
4.254164218902587891e+00,1.176087188720703125e+01,-6.554442048072814941e-01
4.259372711181640625e+00,1.177527141571044922e+01,-2.185711562633514404e-01
4.264650344848632812e+00,1.178986072540283203e+01,2.188419699668884277e-01
4.269876956939697266e+00,1.180431079864501953e+01,6.578650474548339844e-01
4.274965763092041016e+00,1.181837940216064453e+01,1.099537730216979980e+00
1.309504628181457520e+00,3.788868427276611328e+00,-1.074147939682006836e+00
1.558072686195373535e+00,4.508064746856689453e+00,-1.101175189018249512e+00
1.921813964843750000e+00,5.560499191284179688e+00,-1.143584370613098145e+00
2.482878446578979492e+00,7.183861255645751953e+00,-1.203850626945495605e+00
3.502742290496826172e+00,1.013469409942626953e+01,-1.316608309745788574e+00
4.088011741638183594e+00,1.182808971405029297e+01,-1.094885110855102539e+00
4.092957973480224609e+00,1.184239959716796875e+01,-6.566556096076965332e-01
4.097968578338623047e+00,1.185689830780029297e+01,-2.189750969409942627e-01
4.103057384490966797e+00,1.187162113189697266e+01,2.192470133304595947e-01
4.107869625091552734e+00,1.188554477691650391e+01,6.590479612350463867e-01
4.112954139709472656e+00,1.190025711059570312e+01,1.101565480232238770e+00
1.253516435623168945e+00,3.802284240722656250e+00,-1.072754859924316406e+00
1.495408415794372559e+00,4.536013603210449219e+00,-1.102660775184631348e+00
1.838993549346923828e+00,5.578208446502685547e+00,-1.141696095466613770e+00
2.364106416702270508e+00,7.171030044555664062e+00,-1.195907473564147949e+00
3.347602128982543945e+00,1.015426254272460938e+01,-1.312791228294372559e+00
3.926208257675170898e+00,1.190934467315673828e+01,-1.097092270851135254e+00
3.931034803390502930e+00,1.192398452758789062e+01,-6.579921245574951172e-01
3.935847282409667969e+00,1.193858242034912109e+01,-2.194207757711410522e-01
3.940657377243041992e+00,1.195317363739013672e+01,2.196889370679855347e-01
3.945430517196655273e+00,1.196765136718750000e+01,6.604017019271850586e-01
3.950624227523803711e+00,1.198340606689453125e+01,1.103914737701416016e+00
1.203250765800476074e+00,3.833473920822143555e+00,-1.076585173606872559e+00
1.432616710662841797e+00,4.564218044281005859e+00,-1.104419112205505371e+00
1.756329655647277832e+00,5.595545291900634766e+00,-1.139982342720031738e+00
2.267027616500854492e+00,7.222593784332275391e+00,-1.198972344398498535e+00
2.819110870361328125e+00,8.981492042541503906e+00,-1.155834674835205078e+00
2.823207139968872070e+00,8.994543075561523438e+00,-8.247728943824768066e-01
2.827397108078002930e+00,9.007892608642578125e+00,-4.947917163372039795e-01
2.831543445587158203e+00,9.021101951599121094e+00,-1.650382280349731445e-01
2.835609436035156250e+00,9.034056663513183594e+00,1.652752161026000977e-01
2.839840173721313477e+00,9.047534942626953125e+00,4.969692528247833252e-01
2.844097852706909180e+00,9.061100006103515625e+00,8.308759331703186035e-01
2.848288297653198242e+00,9.074449539184570312e+00,1.167797446250915527e+00
1.148148059844970703e+00,3.849917173385620117e+00,-1.076477527618408203e+00
1.362900614738464355e+00,4.570015907287597656e+00,-1.100988864898681641e+00
1.675203680992126465e+00,5.617216110229492188e+00,-1.139395594596862793e+00
2.171431541442871094e+00,7.281144142150878906e+00,-1.203409075736999512e+00
2.500389575958251953e+00,8.384191513061523438e+00,-1.074251890182495117e+00
2.504035711288452148e+00,8.396416664123535156e+00,-7.665613889694213867e-01
2.507625579833984375e+00,8.408454895019531250e+00,-4.598467648029327393e-01
2.511267900466918945e+00,8.420668601989746094e+00,-1.533801555633544922e-01
2.514932870864868164e+00,8.432957649230957031e+00,1.536040008068084717e-01
2.518565177917480469e+00,8.445137023925781250e+00,4.618528485298156738e-01
2.522114038467407227e+00,8.457036972045898438e+00,7.720957398414611816e-01
2.525968790054321289e+00,8.469962120056152344e+00,1.085241556167602539e+00
1.093035459518432617e+00,3.866326570510864258e+00,-1.076581001281738281e+00
1.301066398620605469e+00,4.602181434631347656e+00,-1.104138493537902832e+00
1.594118714332580566e+00,5.638777256011962891e+00,-1.139024138450622559e+00
2.055722236633300781e+00,7.271578788757324219e+00,-1.196842432022094727e+00
2.219136714935302734e+00,7.849615097045898438e+00,-1.001585125923156738e+00
2.222271680831909180e+00,7.860703945159912109e+00,-7.146756052970886230e-01
2.225439071655273438e+00,7.871907711029052734e+00,-4.287177622318267822e-01
2.228612422943115234e+00,7.883132457733154297e+00,-1.429934054613113403e-01
2.231829881668090820e+00,7.894513607025146484e+00,1.431998610496520996e-01
2.235101938247680664e+00,7.906087398529052734e+00,4.305792748928070068e-01
2.238381385803222656e+00,7.917687892913818359e+00,7.198564410209655762e-01
2.241594076156616211e+00,7.929051876068115234e+00,1.011721014976501465e+00
2.244640827178955078e+00,7.939828872680664062e+00,1.306830883026123047e+00
1.033635616302490234e+00,3.866786241531372070e+00,-1.072479367256164551e+00
1.232623338699340820e+00,4.611190319061279297e+00,-1.101954221725463867e+00
1.514315485954284668e+00,5.664988517761230469e+00,-1.139823675155639648e+00
1.961283445358276367e+00,7.337076187133789062e+00,-1.202878952026367188e+00
1.976871967315673828e+00,7.395391941070556641e+00,-9.399210214614868164e-01
1.979585886001586914e+00,7.405545234680175781e+00,-6.706488728523254395e-01
1.982427954673767090e+00,7.416176795959472656e+00,-4.023112952709197998e-01
1.985235095024108887e+00,7.426678657531738281e+00,-1.341845393180847168e-01
1.988013744354248047e+00,7.437073230743408203e+00,1.343723535537719727e-01
1.990966320037841797e+00,7.448118209838867188e+00,4.040440618991851807e-01
1.993693590164184570e+00,7.458321094512939453e+00,6.754282712936401367e-01
1.996652126312255859e+00,7.469388961791992188e+00,9.493256807327270508e-01
1.999531149864196777e+00,7.480159282684326172e+00,1.226336717605590820e+00
9.794270396232604980e-01,3.886098146438598633e+00,-1.073837518692016602e+00
1.164367675781250000e+00,4.619891643524169922e+00,-1.099938154220581055e+00
1.434413433074951172e+00,5.691359519958496094e+00,-1.140881776809692383e+00
1.757205128669738770e+00,6.972108364105224609e+00,-1.138804078102111816e+00
1.759696722030639648e+00,6.981994628906250000e+00,-8.840882778167724609e-01
1.762145042419433594e+00,6.991708755493164062e+00,-6.308229565620422363e-01
1.764597654342651367e+00,7.001440048217773438e+00,-3.784038126468658447e-01
1.767080545425415039e+00,7.011291503906250000e+00,-1.262094527482986450e-01
1.769599914550781250e+00,7.021287441253662109e+00,1.263893842697143555e-01
1.772139668464660645e+00,7.031364440917968750e+00,3.800211250782012939e-01
1.774662733078002930e+00,7.041375160217285156e+00,6.353040933609008789e-01
1.777110576629638672e+00,7.051087856292724609e+00,8.928371667861938477e-01
1.779822468757629395e+00,7.061847686767578125e+00,1.153461813926696777e+00
9.258490800857543945e-01,3.908753156661987305e+00,-1.076325535774230957e+00
1.097187757492065430e+00,4.632111072540283203e+00,-1.098995804786682129e+00
1.355509877204895020e+00,5.722696781158447266e+00,-1.143157124519348145e+00
1.567314505577087402e+00,6.616894245147705078e+00,-1.077009797096252441e+00
1.569659471511840820e+00,6.626794338226318359e+00,-8.361808061599731445e-01
1.571793675422668457e+00,6.635804653167724609e+00,-5.966207385063171387e-01
1.574008345603942871e+00,6.645154476165771484e+00,-3.578934967517852783e-01
1.576211333274841309e+00,6.654455184936523438e+00,-1.193677261471748352e-01
1.578387498855590820e+00,6.663641929626464844e+00,1.195325255393981934e-01
1.580678462982177734e+00,6.673314571380615234e+00,3.594101369380950928e-01
1.582761049270629883e+00,6.682106494903564453e+00,6.007837057113647461e-01
1.585008144378662109e+00,6.691593170166015625e+00,8.443572521209716797e-01
1.587545633316040039e+00,6.702305793762207031e+00,1.090911984443664551e+00
1.589594602584838867e+00,6.710956573486328125e+00,1.340570449829101562e+00
8.675882220268249512e-01,3.911576509475708008e+00,-1.073573470115661621e+00
1.036477446556091309e+00,4.673024177551269531e+00,-1.105069518089294434e+00
1.266548633575439453e+00,5.710314750671386719e+00,-1.136945962905883789e+00
1.395159721374511719e+00,6.290166378021240234e+00,-1.020474433898925781e+00
1.397160887718200684e+00,6.299188137054443359e+00,-7.922383546829223633e-01
1.399100780487060547e+00,6.307934284210205078e+00,-5.652837157249450684e-01
1.401016592979431152e+00,6.316571712493896484e+00,-3.390820026397705078e-01
1.402967572212219238e+00,6.325367927551269531e+00,-1.130927577614784241e-01
1.404941082000732422e+00,6.334266185760498047e+00,1.132518500089645386e-01
1.406903147697448730e+00,6.343112468719482422e+00,3.405067026615142822e-01
1.408824443817138672e+00,6.351774215698242188e+00,5.692124366760253906e-01
1.410940170288085938e+00,6.361313343048095703e+00,8.000516891479492188e-01
1.412685513496398926e+00,6.369182586669921875e+00,1.033293604850769043e+00
1.414995670318603516e+00,6.379597663879394531e+00,1.270202755928039551e+00
8.144254088401794434e-01,3.937654972076416016e+00,-1.077421188354492188e+00
9.698792099952697754e-01,4.689256668090820312e+00,-1.105512142181396484e+00
1.188521504402160645e+00,5.746367454528808594e+00,-1.140620231628417969e+00
1.242467641830444336e+00,6.007190704345703125e+00,-9.715817570686340332e-01
1.244181752204895020e+00,6.015478610992431641e+00,-7.542396783828735352e-01
1.245878934860229492e+00,6.023684024810791016e+00,-5.381575226783752441e-01
1.247593522071838379e+00,6.031974315643310547e+00,-3.228127360343933105e-01
1.249308943748474121e+00,6.040267944335937500e+00,-1.076646447181701660e-01
1.251042962074279785e+00,6.048652172088623047e+00,1.078140810132026672e-01
1.252805590629577637e+00,6.057174205780029297e+00,3.241613507270812988e-01
1.254570126533508301e+00,6.065705299377441406e+00,5.419116616249084473e-01
1.256295323371887207e+00,6.074046611785888672e+00,7.615830898284912109e-01
1.257925748825073242e+00,6.081929206848144531e+00,9.836696982383728027e-01
1.259747266769409180e+00,6.090735912322998047e+00,1.208975434303283691e+00
7.569186687469482422e-01,3.943345785140991211e+00,-1.075903654098510742e+00
8.974927663803100586e-01,4.675699710845947266e+00,-1.099174857139587402e+00
1.100725054740905762e+00,5.734486103057861328e+00,-1.135018348693847656e+00
1.102422714233398438e+00,5.743330478668212891e+00,-9.262589812278747559e-01
1.103883862495422363e+00,5.750942230224609375e+00,-7.190164923667907715e-01
1.105364322662353516e+00,5.758655548095703125e+00,-5.130137205123901367e-01
1.106912612915039062e+00,5.766721725463867188e+00,-3.077377974987030029e-01
1.108428716659545898e+00,5.774620056152343750e+00,-1.026363000273704529e-01
1.109915614128112793e+00,5.782366275787353516e+00,1.027739793062210083e-01
1.111492395401000977e+00,5.790580749511718750e+00,3.090110421180725098e-01
1.113105893135070801e+00,5.798986911773681641e+00,5.166066288948059082e-01
1.114491462707519531e+00,5.806205272674560547e+00,7.259258031845092773e-01
1.116278529167175293e+00,5.815515518188476562e+00,9.379006624221801758e-01
1.117724180221557617e+00,5.823047161102294922e+00,1.152547001838684082e+00
1.119344353675842285e+00,5.831487655639648438e+00,1.370880246162414551e+00
6.995354294776916504e-01,3.948871850967407227e+00,-1.074569463729858398e+00
8.310987353324890137e-01,4.691545486450195312e+00,-1.099990844726562500e+00
9.723196029663085938e-01,5.488736152648925781e+00,-1.083511829376220703e+00
9.735930562019348145e-01,5.495924949645996094e+00,-8.840204477310180664e-01
9.749791622161865234e-01,5.503749370574951172e+00,-6.862959265708923340e-01
9.763256907463073730e-01,5.511350631713867188e+00,-4.896872937679290771e-01
9.776588678359985352e-01,5.518876552581787109e+00,-2.937348186969757080e-01
9.789929986000061035e-01,5.526407718658447266e+00,-9.796555340290069580e-02
9.803310632705688477e-01,5.533961296081542969e+00,9.809945523738861084e-02
9.816640019416809082e-01,5.541485309600830078e+00,2.949381768703460693e-01
9.829717278480529785e-01,5.548867225646972656e+00,4.930206835269927979e-01
9.844245910644531250e-01,5.557068824768066406e+00,6.929447054862976074e-01
9.858623147010803223e-01,5.565185070037841797e+00,8.951609730720520020e-01
9.872277379035949707e-01,5.572892665863037109e+00,1.100124716758728027e+00
9.887788295745849609e-01,5.581648349761962891e+00,1.308686375617980957e+00
6.427708268165588379e-01,3.957391262054443359e+00,-1.074274063110351562e+00
7.652229070663452148e-01,4.711299896240234375e+00,-1.101941466331481934e+00
8.564907312393188477e-01,5.273215293884277344e+00,-1.038440108299255371e+00
8.577178716659545898e-01,5.280770301818847656e+00,-8.473512530326843262e-01
8.589013218879699707e-01,5.288056373596191406e+00,-6.577994823455810547e-01
8.601285815238952637e-01,5.295612335205078125e+00,-4.693768322467803955e-01
8.612745404243469238e-01,5.302668094635009766e+00,-2.815424501895904541e-01
8.624461889266967773e-01,5.309881210327148438e+00,-9.389878809452056885e-02
8.636459112167358398e-01,5.317267894744873047e+00,9.402940422296524048e-02
8.647626042366027832e-01,5.324142932891845703e+00,2.826826572418212891e-01
8.659450411796569824e-01,5.331422805786132812e+00,4.725509285926818848e-01
8.671014904975891113e-01,5.338542938232421875e+00,6.640797257423400879e-01
8.684110045433044434e-01,5.346605300903320312e+00,8.579151630401611328e-01
8.696812391281127930e-01,5.354425907135009766e+00,1.054432749748229980e+00
8.708514571189880371e-01,5.361630916595458984e+00,1.254049539566040039e+00
5.860157012939453125e-01,3.965838909149169922e+00,-1.074180364608764648e+00
6.991233229637145996e-01,4.731290340423583984e+00,-1.104163527488708496e+00
7.493285536766052246e-01,5.071052551269531250e+00,-9.964145421981811523e-01
7.503489255905151367e-01,5.077958106994628906e+00,-8.130013942718505859e-01
7.514345049858093262e-01,5.085304737091064453e+00,-6.311758756637573242e-01
7.524146437644958496e-01,5.091937541961669922e+00,-4.503234326839447021e-01
7.534409761428833008e-01,5.098883152008056641e+00,-2.701223492622375488e-01
7.544627189636230469e-01,5.105797767639160156e+00,-9.008962661027908325e-02
7.554745674133300781e-01,5.112645626068115234e+00,9.021045267581939697e-02
7.565470933914184570e-01,5.119904041290283203e+00,2.712359428405761719e-01
7.575169801712036133e-01,5.126467227935791016e+00,4.533771872520446777e-01
7.585762739181518555e-01,5.133635997772216797e+00,6.371747255325317383e-01
7.595996856689453125e-01,5.140562057495117188e+00,8.230245709419250488e-01
7.607693076133728027e-01,5.148477554321289062e+00,1.011627793312072754e+00
7.618719339370727539e-01,5.155939579010009766e+00,1.203265786170959473e+00
5.296659469604492188e-01,3.977344036102294922e+00,-1.075132966041564941e+00
6.290635466575622559e-01,4.723736286163330078e+00,-1.100186586380004883e+00
6.517477035522460938e-01,4.894075393676757812e+00,-9.597088098526000977e-01
6.525947451591491699e-01,4.900435447692871094e+00,-7.830036282539367676e-01
6.535160541534423828e-01,4.907353878021240234e+00,-6.078658103942871094e-01
6.544047594070434570e-01,4.914027214050292969e+00,-4.337165057659149170e-01
6.552780866622924805e-01,4.920585632324218750e+00,-2.601531744003295898e-01
6.561643481254577637e-01,4.927240371704101562e+00,-8.676444739103317261e-02
6.570590734481811523e-01,4.933959484100341797e+00,8.688276261091232300e-02
6.579442620277404785e-01,4.940606117248535156e+00,2.612116634845733643e-01
6.588062644004821777e-01,4.947079181671142578e+00,4.366336762905120850e-01
6.597637534141540527e-01,4.954268932342529297e+00,6.136771440505981445e-01
6.607068777084350586e-01,4.961350917816162109e+00,7.927368283271789551e-01
6.615974307060241699e-01,4.968038558959960938e+00,9.742127060890197754e-01
6.626158356666564941e-01,4.975686073303222656e+00,1.158867120742797852e+00
4.728405177593231201e-01,3.985803365707397461e+00,-1.075479984283447266e+00
5.582517385482788086e-01,4.705776214599609375e+00,-1.094030380249023438e+00
5.589770078659057617e-01,4.711889743804931641e+00,-9.223195910453796387e-01
5.597790479660034180e-01,4.718650341033935547e+00,-7.526002526283264160e-01
5.605469346046447754e-01,4.725123405456542969e+00,-5.842395424842834473e-01
5.613021850585937500e-01,4.731490135192871094e+00,-4.168537855148315430e-01
5.620600581169128418e-01,4.737878322601318359e+00,-2.500424385070800781e-01
5.628128051757812500e-01,4.744223594665527344e+00,-8.339128643274307251e-02
5.635674595832824707e-01,4.750584602355957031e+00,8.350309729576110840e-02
5.643296837806701660e-01,4.757009983062744141e+00,2.510521113872528076e-01
5.650877356529235840e-01,4.763400077819824219e+00,4.196651279926300049e-01
5.658230781555175781e-01,4.769598484039306641e+00,5.897386670112609863e-01
5.666571855545043945e-01,4.776629447937011719e+00,7.618476152420043945e-01
5.674619078636169434e-01,4.783413410186767578e+00,9.363197684288024902e-01
5.681979656219482422e-01,4.789618015289306641e+00,1.113522410392761230e+00
4.162929356098175049e-01,3.997401952743530273e+00,-1.076891541481018066e+00
4.735556542873382568e-01,4.547260284423828125e+00,-1.055493593215942383e+00
4.741303026676177979e-01,4.552777767181396484e+00,-8.897550106048583984e-01
4.747830331325531006e-01,4.559045791625976562e+00,-7.259858846664428711e-01
4.754187762737274170e-01,4.565150260925292969e+00,-5.635604858398437500e-01
4.760877788066864014e-01,4.571574687957763672e+00,-4.021233618259429932e-01
4.767168462276458740e-01,4.577614784240722656e+00,-2.411996871232986450e-01
4.773538112640380859e-01,4.583731651306152344e+00,-8.044190704822540283e-02
4.780047237873077393e-01,4.589982032775878906e+00,8.055159449577331543e-02
4.786152541637420654e-01,4.595844268798828125e+00,2.421602010726928711e-01
4.792709350585937500e-01,4.602140426635742188e+00,4.048119783401489258e-01
4.799193739891052246e-01,4.608366966247558594e+00,5.688955187797546387e-01
4.806648492813110352e-01,4.615525245666503906e+00,7.349797487258911133e-01
4.812503159046173096e-01,4.621147155761718750e+00,9.031164646148681641e-01
4.819150269031524658e-01,4.627530097961425781e+00,1.074125528335571289e+00
3.595932126045227051e-01,4.009123802185058594e+00,-1.078552246093750000e+00
3.942262232303619385e-01,4.395248889923095703e+00,-1.018795132637023926e+00
3.947718441486358643e-01,4.401332378387451172e+00,-8.589655160903930664e-01
3.952929079532623291e-01,4.407141685485839844e+00,-7.008237242698669434e-01
3.958553671836853027e-01,4.413412094116210938e+00,-5.440734624862670898e-01
3.963645398616790771e-01,4.419089317321777344e+00,-3.881717026233673096e-01
3.969037830829620361e-01,4.425101280212402344e+00,-2.328403741121292114e-01
3.974330127239227295e-01,4.431001663208007812e+00,-7.765379548072814941e-02
3.979534506797790527e-01,4.436803817749023438e+00,7.775548100471496582e-02
3.985110819339752197e-01,4.443020820617675781e+00,2.337832748889923096e-01
3.990175724029541016e-01,4.448668003082275391e+00,3.907698988914489746e-01
3.995779156684875488e-01,4.454915523529052734e+00,5.491898655891418457e-01
4.001241922378540039e-01,4.461005687713623047e+00,7.093892693519592285e-01
4.006339907646179199e-01,4.466689586639404297e+00,8.717206120491027832e-01
4.012204110622406006e-01,4.473227500915527344e+00,1.036870121955871582e+00
3.011996746063232422e-01,4.000866889953613281e+00,-1.075060963630676270e+00
3.209042549133300781e-01,4.262604713439941406e+00,-9.868831038475036621e-01
3.213256299495697021e-01,4.268201828002929688e+00,-8.320009112358093262e-01
3.217342495918273926e-01,4.273629665374755859e+00,-6.787908673286437988e-01
3.221844732761383057e-01,4.279609680175781250e+00,-5.269562005996704102e-01
3.226206302642822266e-01,4.285403728485107422e+00,-3.759846389293670654e-01
3.230513036251068115e-01,4.291123867034912109e+00,-2.255243360996246338e-01
3.234812617301940918e-01,4.296835422515869141e+00,-7.521367073059082031e-02
3.239113986492156982e-01,4.302548885345458984e+00,7.531367987394332886e-02
3.243389725685119629e-01,4.308228015899658203e+00,2.264232635498046875e-01
3.247571587562561035e-01,4.313783168792724609e+00,3.784745633602142334e-01
3.252271711826324463e-01,4.320026397705078125e+00,5.319327712059020996e-01
3.256932199001312256e-01,4.326216697692871094e+00,6.871433854103088379e-01
3.261365592479705811e-01,4.332106113433837891e+00,8.444576859474182129e-01
3.265347778797149658e-01,4.337395191192626953e+00,1.004198789596557617e+00
2.445668131113052368e-01,4.015577793121337891e+00,-1.077962875366210938e+00
2.518077492713928223e-01,4.134467601776123047e+00,-9.562842845916748047e-01
2.521864175796508789e-01,4.140685081481933594e+00,-8.063578009605407715e-01
2.525373101234436035e-01,4.146446228027343750e+00,-6.579484939575195312e-01
2.528728842735290527e-01,4.151956081390380859e+00,-5.107399225234985352e-01
2.532030045986175537e-01,4.157376289367675781e+00,-3.643967211246490479e-01
2.535345554351806641e-01,4.162820339202880859e+00,-2.185680866241455078e-01
2.538713514804840088e-01,4.168350219726562500e+00,-7.289353758096694946e-02
2.542142271995544434e-01,4.173979759216308594e+00,7.299198210239410400e-02
2.545608282089233398e-01,4.179670810699462891e+00,2.194528132677078247e-01
2.549057304859161377e-01,4.185333728790283203e+00,3.668472170829772949e-01
2.552406787872314453e-01,4.190833091735839844e+00,5.155223011970520020e-01
2.555543482303619385e-01,4.195983409881591797e+00,6.658089756965637207e-01
2.559128105640411377e-01,4.201869010925292969e+00,8.182727694511413574e-01
2.563330829143524170e-01,4.208769798278808594e+00,9.734700322151184082e-01
1.865232586860656738e-01,4.006903648376464844e+00,-1.074807524681091309e+00
1.867931634187698364e-01,4.012701511383056641e+00,-9.274068474769592285e-01
1.870617866516113281e-01,4.018472194671630859e+00,-7.819564938545227051e-01
1.873137503862380981e-01,4.023884773254394531e+00,-6.380099058151245117e-01
1.875586211681365967e-01,4.029144763946533203e+00,-4.952517747879028320e-01
1.878037601709365845e-01,4.034410953521728516e+00,-3.533469140529632568e-01
1.880581378936767578e-01,4.039875507354736328e+00,-2.119498699903488159e-01
1.883075237274169922e-01,4.045233249664306641e+00,-7.068616151809692383e-02
1.885508596897125244e-01,4.050460338592529297e+00,7.077750563621520996e-02
1.888068020343780518e-01,4.055958271026611328e+00,2.127936333417892456e-01
1.890658736228942871e-01,4.061523914337158203e+00,3.557215631008148193e-01
1.893217712640762329e-01,4.067020893096923828e+00,4.999074041843414307e-01
1.895660310983657837e-01,4.072268486022949219e+00,6.456814408302307129e-01
1.898480653762817383e-01,4.078327178955078125e+00,7.936037182807922363e-01
1.901120394468307495e-01,4.083997726440429688e+00,9.438846707344055176e-01
1.253206580877304077e-01,3.890067100524902344e+00,-1.042879462242126465e+00
1.255093961954116821e-01,3.895925998687744141e+00,-8.999106287956237793e-01
1.256817728281021118e-01,3.901276588439941406e+00,-7.587236166000366211e-01
1.258457154035568237e-01,3.906365633010864258e+00,-6.190275549888610840e-01
1.260076761245727539e-01,3.911392927169799805e+00,-4.805071055889129639e-01
1.261815875768661499e-01,3.916791439056396484e+00,-3.428521156311035156e-01
