6.600490212440490723e-02,3.688694238662719727e+00,1.933469325304031372e-01
6.608019769191741943e-02,3.692901849746704102e+00,3.231382966041564941e-01
6.616555154323577881e-02,3.697671890258789062e+00,4.540890157222747803e-01
6.624972820281982422e-02,3.702376365661621094e+00,5.864918231964111328e-01
6.632886826992034912e-02,3.706799268722534180e+00,7.206430435180664062e-01
6.639845669269561768e-02,3.710688114166259766e+00,8.568156361579895020e-01
1.295229420065879822e-02,3.618502140045166016e+00,-9.695794582366943359e-01
1.296803448349237442e-02,3.622899532318115234e+00,-8.364163637161254883e-01
1.298259664326906204e-02,3.626967906951904297e+00,-7.050145864486694336e-01
1.299912389367818832e-02,3.631585121154785156e+00,-5.751894116401672363e-01
1.301304530352354050e-02,3.635474443435668945e+00,-4.463823139667510986e-01
1.302885543555021286e-02,3.639891147613525391e+00,-3.184507787227630615e-01
1.304455194622278214e-02,3.644276380538940430e+00,-1.909893751144409180e-01
1.306004263460636139e-02,3.648604154586791992e+00,-6.368693709373474121e-02
1.307532098144292831e-02,3.652872323989868164e+00,6.376143544912338257e-02
1.309061888605356216e-02,3.657146215438842773e+00,1.916638612747192383e-01
1.310797873884439468e-02,3.661996126174926758e+00,3.203847110271453857e-01
1.312300749123096466e-02,3.666194677352905273e+00,4.501543343067169189e-01
1.314036268740892410e-02,3.671043157577514648e+00,5.814389586448669434e-01
1.315696723759174347e-02,3.675682067871093750e+00,7.144837379455566406e-01
1.317192241549491882e-02,3.679860115051269531e+00,8.495668172836303711e-01
-3.846879675984382629e-02,3.584011077880859375e+00,-9.603867530822753906e-01
-3.851436078548431396e-02,3.588256120681762695e+00,-8.284606933593750000e-01
-3.856610879302024841e-02,3.593077421188354492e+00,-6.984626650810241699e-01
-3.861387819051742554e-02,3.597527980804443359e+00,-5.698243975639343262e-01
-3.865967318415641785e-02,3.601794719696044922e+00,-4.422695934772491455e-01
-3.870491683483123779e-02,3.606009960174560547e+00,-3.155027031898498535e-01
-3.875078260898590088e-02,3.610282897949218750e+00,-1.892175227403640747e-01
-3.879681974649429321e-02,3.614572048187255859e+00,-6.309612840414047241e-02
-3.884302452206611633e-02,3.618876695632934570e+00,6.317127496004104614e-02
-3.889011591672897339e-02,3.623264074325561523e+00,1.898978799581527710e-01
-3.893731534481048584e-02,3.627661705017089844e+00,3.173970878124237061e-01
-3.898332267999649048e-02,3.631947755813598633e+00,4.459721446037292480e-01
-3.902640566229820251e-02,3.635961771011352539e+00,5.759120583534240723e-01
-3.907695040106773376e-02,3.640670776367187500e+00,7.077144384384155273e-01
-3.912338986992835999e-02,3.644997596740722656e+00,8.415611982345581055e-01
-8.901454508304595947e-02,3.553367376327514648e+00,-9.524191617965698242e-01
-8.911420404911041260e-02,3.557345628738403320e+00,-8.215343356132507324e-01
-8.922991901636123657e-02,3.561964988708496094e+00,-6.925920248031616211e-01
-8.933813124895095825e-02,3.566284894943237305e+00,-5.650203824043273926e-01
-8.944346010684967041e-02,3.570489406585693359e+00,-4.385378360748291016e-01
-8.955647796392440796e-02,3.575001001358032227e+00,-3.128697276115417480e-01
-8.966080099344253540e-02,3.579165220260620117e+00,-1.876346766948699951e-01
-8.976725488901138306e-02,3.583415031433105469e+00,-6.256826967000961304e-02
-8.987588435411453247e-02,3.587751150131225586e+00,6.264398247003555298e-02
-8.997695147991180420e-02,3.591785907745361328e+00,1.882963031530380249e-01
-9.008675813674926758e-02,3.596169233322143555e+00,3.147222697734832764e-01
-9.019549936056137085e-02,3.600509881973266602e+00,4.422250688076019287e-01
-9.029917418956756592e-02,3.604648590087890625e+00,5.710985064506530762e-01
-9.042207896709442139e-02,3.609554767608642578e+00,7.018454074859619141e-01
-9.053708612918853760e-02,3.614145755767822266e+00,8.346517682075500488e-01
-1.387200057506561279e-01,3.522749423980712891e+00,-9.446479678153991699e-01
-1.388663947582244873e-01,3.526466608047485352e+00,-8.147786855697631836e-01
-1.390407085418701172e-01,3.530893325805664062e+00,-6.868669986724853516e-01
-1.392313539981842041e-01,3.535734891891479492e+00,-5.604385733604431152e-01
-1.393875628709793091e-01,3.539701700210571289e+00,-4.349569082260131836e-01
-1.395585089921951294e-01,3.544042587280273438e+00,-3.103033900260925293e-01
-1.397183984518051147e-01,3.548102855682373047e+00,-1.860920339822769165e-01
-1.398843973875045776e-01,3.552318572998046875e+00,-6.205391511321067810e-02
-1.400564014911651611e-01,3.556686401367187500e+00,6.213021650910377502e-02
-1.402189135551452637e-01,3.560813426971435547e+00,1.867586821317672729e-01
-1.403980404138565063e-01,3.565362453460693359e+00,3.121700882911682129e-01
-1.405456662178039551e-01,3.569111108779907227e+00,4.385707378387451172e-01
-1.407133340835571289e-01,3.573369264602661133e+00,5.664038658142089844e-01
-1.409138590097427368e-01,3.578461647033691406e+00,6.961205005645751953e-01
-1.411046087741851807e-01,3.583305597305297852e+00,8.279111385345458984e-01
-1.877374202013015747e-01,3.494604825973510742e+00,-9.377253055572509766e-01
-1.879260540008544922e-01,3.498116016387939453e+00,-8.087670803070068359e-01
-1.881999373435974121e-01,3.503214120864868164e+00,-6.819367408752441406e-01
-1.884108334779739380e-01,3.507139682769775391e+00,-5.562765002250671387e-01
-1.886475235223770142e-01,3.511545658111572266e+00,-4.317846894264221191e-01
-1.888573169708251953e-01,3.515450716018676758e+00,-3.080051243305206299e-01
-1.890855878591537476e-01,3.519700050354003906e+00,-1.847253739833831787e-01
-1.893100887537002563e-01,3.523878812789916992e+00,-6.159814074635505676e-02
-1.895315498113632202e-01,3.528001308441162109e+00,6.167019903659820557e-02
-1.897726804018020630e-01,3.532489776611328125e+00,1.853966265916824341e-01
-1.899901926517486572e-01,3.536538362503051758e+00,3.098527193069458008e-01
-1.902368962764739990e-01,3.541130781173706055e+00,4.354225099086761475e-01
-1.904261261224746704e-01,3.544653177261352539e+00,5.622266530990600586e-01
-1.907071471214294434e-01,3.549884080886840820e+00,6.910215616226196289e-01
-1.909064799547195435e-01,3.553594589233398438e+00,8.215937614440917969e-01
-2.358595877885818481e-01,3.464045763015747070e+00,-9.303358793258666992e-01
-2.361502796411514282e-01,3.468315362930297852e+00,-8.025763630867004395e-01
-2.364177703857421875e-01,3.472243785858154297e+00,-6.764974594116210938e-01
-2.366777211427688599e-01,3.476061820983886719e+00,-5.518279671669006348e-01
-2.369743734598159790e-01,3.480418682098388672e+00,-4.283304512500762939e-01
-2.372608929872512817e-01,3.484626770019531250e+00,-3.055707514286041260e-01
-2.375434637069702148e-01,3.488776683807373047e+00,-1.832620948553085327e-01
-2.378255277872085571e-01,3.492919445037841797e+00,-6.111020594835281372e-02
-2.381080389022827148e-01,3.497068643569946289e+00,6.118280068039894104e-02
-2.383886277675628662e-01,3.501189708709716797e+00,1.839141398668289185e-01
-2.386624366044998169e-01,3.505211114883422852e+00,3.073757886886596680e-01
-2.389774471521377563e-01,3.509837388992309570e+00,4.319509863853454590e-01
-2.392917871475219727e-01,3.514454126358032227e+00,5.579227805137634277e-01
-2.395913153886795044e-01,3.518853425979614258e+00,6.855784058570861816e-01
-2.398595511913299561e-01,3.522793054580688477e+00,8.151826262474060059e-01
-2.833983898162841797e-01,3.435892581939697266e+00,-9.237695336341857910e-01
-2.837344110012054443e-01,3.439966201782226562e+00,-7.968744635581970215e-01
-2.840476930141448975e-01,3.443764686584472656e+00,-6.716722249984741211e-01
-2.844091653823852539e-01,3.448147296905517578e+00,-5.479866266250610352e-01
-2.847520112991333008e-01,3.452303886413574219e+00,-4.253284335136413574e-01
-2.850871682167053223e-01,3.456367254257202148e+00,-3.034193813800811768e-01
-2.854220867156982422e-01,3.460427522659301758e+00,-1.819689124822616577e-01
-2.857611179351806641e-01,3.464538097381591797e+00,-6.067900732159614563e-02
-2.861050665378570557e-01,3.468708038330078125e+00,6.075203791260719299e-02
-2.864514887332916260e-01,3.472908020019531250e+00,1.826251894235610962e-01
-2.867940366268157959e-01,3.477061033248901367e+00,3.052360117435455322e-01
-2.871237695217132568e-01,3.481058597564697266e+00,4.288710653781890869e-01
-2.875099182128906250e-01,3.485740184783935547e+00,5.539609789848327637e-01
-2.878829240798950195e-01,3.490262508392333984e+00,6.807411313056945801e-01
-2.882227599620819092e-01,3.494382619857788086e+00,8.094801306724548340e-01
-3.300270736217498779e-01,3.405514478683471680e+00,-9.167783260345458984e-01
-3.304010629653930664e-01,3.409373760223388672e+00,-7.908021807670593262e-01
-3.307538628578186035e-01,3.413014173507690430e+00,-6.665297150611877441e-01
-3.311697244644165039e-01,3.417305231094360352e+00,-5.437827706336975098e-01
-3.315691649913787842e-01,3.421427011489868164e+00,-4.220658540725708008e-01
-3.319928348064422607e-01,3.425798892974853516e+00,-3.011222183704376221e-01
-3.323769867420196533e-01,3.429762840270996094e+00,-1.805880516767501831e-01
-3.327717185020446777e-01,3.433836221694946289e+00,-6.021853908896446228e-02
-3.331779837608337402e-01,3.438028335571289062e+00,6.029205769300460815e-02
-3.335486650466918945e-01,3.441853284835815430e+00,1.812246590852737427e-01
-3.339475095272064209e-01,3.445969104766845703e+00,3.028951585292816162e-01
-3.343369662761688232e-01,3.449987888336181641e+00,4.255890846252441406e-01
-3.347983956336975098e-01,3.454749345779418945e+00,5.497410893440246582e-01
-3.352506160736083984e-01,3.459415674209594727e+00,6.755915284156799316e-01
-3.356692492961883545e-01,3.463735342025756836e+00,8.034113049507141113e-01
-3.761722445487976074e-01,3.377450704574584961e+00,-9.105796813964843750e-01
-3.765829801559448242e-01,3.381138801574707031e+00,-7.854229211807250977e-01
-3.770666420459747314e-01,3.385481119155883789e+00,-6.621389389038085938e-01
-3.775177001953125000e-01,3.389530897140502930e+00,-5.401676893234252930e-01
-3.779558837413787842e-01,3.393465042114257812e+00,-4.192408919334411621e-01
-3.783960938453674316e-01,3.397417545318603516e+00,-2.990729808807373047e-01
-3.788592815399169922e-01,3.401576280593872070e+00,-1.793710887432098389e-01
-3.793091475963592529e-01,3.405615329742431641e+00,-5.981272086501121521e-02
-3.797481358051300049e-01,3.409556865692138672e+00,5.988194420933723450e-02
-3.802123367786407471e-01,3.413724660873413086e+00,1.800117045640945435e-01
-3.806844949722290039e-01,3.417963981628417969e+00,3.008816838264465332e-01
-3.811514973640441895e-01,3.422157049179077148e+00,4.227855801582336426e-01
-3.815965652465820312e-01,3.426152944564819336e+00,5.460038781166076660e-01
-3.821272850036621094e-01,3.430917978286743164e+00,6.710255742073059082e-01
-3.826258480548858643e-01,3.435394525527954102e+00,7.980262637138366699e-01
-4.216666519641876221e-01,3.349439144134521484e+00,-9.045621156692504883e-01
-4.221106469631195068e-01,3.352965831756591797e+00,-7.802020311355590820e-01
-4.226431846618652344e-01,3.357196092605590820e+00,-6.577227115631103516e-01
-4.231460392475128174e-01,3.361190557479858398e+00,-5.365614891052246094e-01
-4.236987531185150146e-01,3.365580797195434570e+00,-4.165025353431701660e-01
-4.241793155670166016e-01,3.369398117065429688e+00,-2.971104979515075684e-01
-4.246923327445983887e-01,3.373473167419433594e+00,-1.781914681196212769e-01
-4.251968860626220703e-01,3.377480983734130859e+00,-5.941940099000930786e-02
-4.256951212882995605e-01,3.381438732147216797e+00,5.948902666568756104e-02
-4.262285232543945312e-01,3.385675668716430664e+00,1.788360178470611572e-01
-4.266968071460723877e-01,3.389395236968994141e+00,2.988738119602203369e-01
-4.272232651710510254e-01,3.393577098846435547e+00,4.199672043323516846e-01
-4.277315139770507812e-01,3.397614240646362305e+00,5.423759818077087402e-01
-4.283427596092224121e-01,3.402469873428344727e+00,6.665924787521362305e-01
-4.287578165531158447e-01,3.405766725540161133e+00,7.924882769584655762e-01
-4.665313065052032471e-01,3.321493864059448242e+00,-8.987264633178710938e-01
-4.671440422534942627e-01,3.325856208801269531e+00,-7.753703594207763672e-01
-4.677002131938934326e-01,3.329816102981567383e+00,-6.536031365394592285e-01
-4.682295620441436768e-01,3.333584547042846680e+00,-5.331699252128601074e-01
-4.687562584877014160e-01,3.337334632873535156e+00,-4.137949049472808838e-01
-4.693390130996704102e-01,3.341483354568481445e+00,-2.952111363410949707e-01
-4.698998928070068359e-01,3.345476865768432617e+00,-1.770497858524322510e-01
-4.704581201076507568e-01,3.349451065063476562e+00,-5.903869122266769409e-02
-4.710162580013275146e-01,3.353424549102783203e+00,5.910873413085937500e-02
-4.715567231178283691e-01,3.357272386550903320e+00,1.776740401983261108e-01
-4.721586406230926514e-01,3.361557960510253906e+00,2.969846725463867188e-01
-4.727684259414672852e-01,3.365899324417114258e+00,4.173366427421569824e-01
-4.733644425868988037e-01,3.370142698287963867e+00,5.390169620513916016e-01
-4.739193618297576904e-01,3.374093532562255859e+00,6.622942686080932617e-01
-4.744011163711547852e-01,3.377523422241210938e+00,7.874157428741455078e-01
-5.110903978347778320e-01,3.295581579208374023e+00,-8.936030268669128418e-01
-5.117493867874145508e-01,3.299830913543701172e+00,-7.709316611289978027e-01
-5.123530626296997070e-01,3.303723335266113281e+00,-6.498543620109558105e-01
-5.129340291023254395e-01,3.307469367980957031e+00,-5.301130414009094238e-01
-5.135902762413024902e-01,3.311701059341430664e+00,-4.114859700202941895e-01
-5.142157673835754395e-01,3.315734386444091797e+00,-2.935564517974853516e-01
-5.148238539695739746e-01,3.319655179977416992e+00,-1.760552078485488892e-01
-5.154350399971008301e-01,3.323596477508544922e+00,-5.870700255036354065e-02
-5.160533785820007324e-01,3.327583551406860352e+00,5.877742543816566467e-02
-5.166583657264709473e-01,3.331484556198120117e+00,1.766825616359710693e-01
-5.172401070594787598e-01,3.335235595703125000e+00,2.952829897403717041e-01
-5.179066658020019531e-01,3.339533805847167969e+00,4.149442315101623535e-01
-5.185652375221252441e-01,3.343780279159545898e+00,5.359328389167785645e-01
-5.191855430603027344e-01,3.347780227661132812e+00,6.585205197334289551e-01
-5.197322368621826172e-01,3.351305246353149414e+00,7.829574942588806152e-01
-5.547811985015869141e-01,3.267765998840332031e+00,-8.881229162216186523e-01
-5.554807782173156738e-01,3.271886825561523438e+00,-7.661821842193603516e-01
-5.561274886131286621e-01,3.275695800781250000e+00,-6.458408832550048828e-01
-5.568646788597106934e-01,3.280038118362426758e+00,-5.269399285316467285e-01
-5.575549602508544922e-01,3.284103870391845703e+00,-4.090066552162170410e-01
-5.582187771797180176e-01,3.288013935089111328e+00,-2.917797565460205078e-01
-5.588713884353637695e-01,3.291857957839965820e+00,-1.749873161315917969e-01
-5.595350265502929688e-01,3.295767068862915039e+00,-5.835091695189476013e-02
-5.602135658264160156e-01,3.299763679504394531e+00,5.842167884111404419e-02
-5.608856678009033203e-01,3.303722620010375977e+00,1.756180077791213989e-01
-5.615394711494445801e-01,3.307573556900024414e+00,2.935154736042022705e-01
-5.621572732925415039e-01,3.311212539672851562e+00,4.123828113079071045e-01
-5.628806352615356445e-01,3.315473318099975586e+00,5.326325893402099609e-01
-5.635703206062316895e-01,3.319535732269287109e+00,6.544843912124633789e-01
-5.644105672836303711e-01,3.324484825134277344e+00,7.784991860389709473e-01
-5.979113578796386719e-01,3.240084171295166016e+00,-8.828350305557250977e-01
-5.988291501998901367e-01,3.245058059692382812e+00,-7.618287801742553711e-01
-5.994871854782104492e-01,3.248623609542846680e+00,-6.421293616294860840e-01
-6.002511978149414062e-01,3.252763986587524414e+00,-5.238849520683288574e-01
-6.008872985839843750e-01,3.256210803985595703e+00,-4.065623283386230469e-01
-6.016200780868530273e-01,3.260181903839111328e+00,-2.900443971157073975e-01
-6.023485660552978516e-01,3.264129400253295898e+00,-1.739538311958312988e-01
-6.030656695365905762e-01,3.268015384674072266e+00,-5.800646916031837463e-02
-6.037715673446655273e-01,3.271840810775756836e+00,5.807436630129814148e-02
-6.044785976409912109e-01,3.275672197341918945e+00,1.745689660310745239e-01
-6.052901148796081543e-01,3.280069828033447266e+00,2.918137311935424805e-01
-6.059873104095458984e-01,3.283848047256469727e+00,4.100130200386047363e-01
-6.068069338798522949e-01,3.288289546966552734e+00,5.296065807342529297e-01
-6.073858141899108887e-01,3.291426420211791992e+00,6.505898237228393555e-01
-6.083160042762756348e-01,3.296467304229736328e+00,7.738979458808898926e-01
-6.410740613937377930e-01,3.215405225753784180e+00,-8.785209059715270996e-01
-6.418221592903137207e-01,3.219157457351684570e+00,-7.578273415565490723e-01
-6.425246000289916992e-01,3.222680568695068359e+00,-6.387538313865661621e-01
-6.433488130569458008e-01,3.226814746856689453e+00,-5.211353302001953125e-01
-6.441338062286376953e-01,3.230751752853393555e+00,-4.044932723045349121e-01
-6.449049115180969238e-01,3.234619617462158203e+00,-2.885618805885314941e-01
-6.456782817840576172e-01,3.238498449325561523e+00,-1.730626821517944336e-01
-6.464470028877258301e-01,3.242353916168212891e+00,-5.770930647850036621e-02
-6.472108960151672363e-01,3.246185779571533203e+00,5.777750536799430847e-02
-6.479836106300354004e-01,3.250061273574829102e+00,1.736805886030197144e-01
-6.487513780593872070e-01,3.253912210464477539e+00,2.902829945087432861e-01
-6.494933366775512695e-01,3.257633447647094727e+00,4.078588783740997314e-01
-6.503746509552001953e-01,3.262053966522216797e+00,5.268265008926391602e-01
-6.512324213981628418e-01,3.266355991363525391e+00,6.474105119705200195e-01
-6.520210504531860352e-01,3.270311594009399414e+00,7.698696255683898926e-01
-6.835356950759887695e-01,3.189608097076416016e+00,-8.740561604499816895e-01
-6.843238472938537598e-01,3.193285703659057617e+00,-7.539654970169067383e-01
-6.852425932884216309e-01,3.197572946548461914e+00,-6.356562376022338867e-01
-6.860915422439575195e-01,3.201534509658813477e+00,-5.185853838920593262e-01
-6.869062185287475586e-01,3.205336093902587891e+00,-4.025009572505950928e-01
-6.877127289772033691e-01,3.209099531173706055e+00,-2.871339619159698486e-01
-6.885300278663635254e-01,3.212913274765014648e+00,-1.722044348716735840e-01
-6.893498897552490234e-01,3.216738939285278320e+00,-5.742313340306282043e-02
-6.901725530624389648e-01,3.220577955245971680e+00,5.749166384339332581e-02
-6.910116672515869141e-01,3.224493503570556641e+00,1.728251129388809204e-01
-6.918534636497497559e-01,3.228421688079833984e+00,2.888627946376800537e-01
-6.926746964454650879e-01,3.232253789901733398e+00,4.058810770511627197e-01
-6.934446692466735840e-01,3.235846519470214844e+00,5.241432785987854004e-01
-6.943688392639160156e-01,3.240159034729003906e+00,6.441220641136169434e-01
-6.952270269393920898e-01,3.244163751602172852e+00,7.659782171249389648e-01
-7.251633405685424805e-01,3.162264823913574219e+00,-8.693185448646545410e-01
-7.262075543403625488e-01,3.166818380355834961e+00,-7.500936985015869141e-01
-7.271408438682556152e-01,3.170888423919677734e+00,-6.323557496070861816e-01
-7.278646826744079590e-01,3.174044609069824219e+00,-5.157673358917236328e-01
-7.288465499877929688e-01,3.178326368331909180e+00,-4.003783166408538818e-01
-7.296850085258483887e-01,3.181982994079589844e+00,-2.856129407882690430e-01
-7.305434942245483398e-01,3.185726404190063477e+00,-1.712902039289474487e-01
-7.314131259918212891e-01,3.189518690109252930e+00,-5.711825191974639893e-02
-7.322942018508911133e-01,3.193360805511474609e+00,5.718705803155899048e-02
-7.332026362419128418e-01,3.197322368621826172e+00,1.719136834144592285e-01
-7.339791059494018555e-01,3.200708389282226562e+00,2.872937321662902832e-01
-7.350273132324218750e-01,3.205279350280761719e+00,4.037736058235168457e-01
-7.358866333961486816e-01,3.209026575088500977e+00,5.214517116546630859e-01
-7.366586327552795410e-01,3.212393045425415039e+00,6.406328678131103516e-01
-7.375909090042114258e-01,3.216458559036254883e+00,7.618514895439147949e-01
-7.669687867164611816e-01,3.137740373611450195e+00,-8.655058741569519043e-01
-7.677928805351257324e-01,3.141111850738525391e+00,-7.465313673019409180e-01
-7.687821388244628906e-01,3.145159006118774414e+00,-6.293546557426452637e-01
-7.697100639343261719e-01,3.148955106735229492e+00,-5.134280323982238770e-01
-7.706159353256225586e-01,3.152661323547363281e+00,-3.984938859939575195e-01
-7.715962529182434082e-01,3.156671762466430664e+00,-2.843032479286193848e-01
-7.724961638450622559e-01,3.160353183746337891e+00,-1.705029904842376709e-01
-7.734156250953674316e-01,3.164114952087402344e+00,-5.685574188828468323e-02
-7.743556499481201172e-01,3.167960643768310547e+00,5.692484602332115173e-02
-7.752236723899841309e-01,3.171511650085449219e+00,1.711049973964691162e-01
-7.761759757995605469e-01,3.175407886505126953e+00,2.859906852245330811e-01
-7.771227359771728516e-01,3.179280996322631836e+00,4.018586277961730957e-01
-7.780285477638244629e-01,3.182986974716186523e+00,5.189768075942993164e-01
-7.791264653205871582e-01,3.187478542327880859e+00,6.378229260444641113e-01
-7.801664471626281738e-01,3.191733360290527344e+00,7.585623264312744141e-01
-8.080856800079345703e-01,3.112146615982055664e+00,-8.615484237670898438e-01
-8.091976642608642578e-01,3.116429328918457031e+00,-7.433418035507202148e-01
-8.102022409439086914e-01,3.120298147201538086e+00,-6.266363263130187988e-01
-8.111485242843627930e-01,3.123942613601684570e+00,-5.111904740333557129e-01
-8.120789527893066406e-01,3.127525806427001953e+00,-3.967453539371490479e-01
-8.130966424942016602e-01,3.131445169448852539e+00,-2.830504179000854492e-01
-8.140368461608886719e-01,3.135066270828247070e+00,-1.697499603033065796e-01
-8.150058388710021973e-01,3.138797998428344727e+00,-5.660464242100715637e-02
-8.160043358802795410e-01,3.142643451690673828e+00,5.667399242520332336e-02
-8.169347047805786133e-01,3.146226644515991211e+00,1.703542470932006836e-01
-8.179624080657958984e-01,3.150184631347656250e+00,2.847442626953125000e-01
-8.189920186996459961e-01,3.154149770736694336e+00,4.001227915287017822e-01
-8.199857473373413086e-01,3.157977104187011719e+00,5.167597532272338867e-01
-8.208975195884704590e-01,3.161488533020019531e+00,6.349083781242370605e-01
-8.220064043998718262e-01,3.165759086608886719e+00,7.551081180572509766e-01
-8.490989804267883301e-01,3.087735176086425781e+00,-8.580670952796936035e-01
-8.499598503112792969e-01,3.090865612030029297e+00,-7.400703430175781250e-01
-8.510217070579528809e-01,3.094727039337158203e+00,-6.238833665847778320e-01
-8.522008657455444336e-01,3.099014997482299805e+00,-5.090553164482116699e-01
-8.531545996665954590e-01,3.102483272552490234e+00,-3.950772285461425781e-01
-8.542081713676452637e-01,3.106314659118652344e+00,-2.818551659584045410e-01
-8.551877737045288086e-01,3.109876871109008789e+00,-1.690315455198287964e-01
-8.562058806419372559e-01,3.113579273223876953e+00,-5.636508390307426453e-02
-8.572628498077392578e-01,3.117423057556152344e+00,5.643466860055923462e-02
-8.582557439804077148e-01,3.121033668518066406e+00,1.696379333734512329e-01
-8.593597412109375000e-01,3.125048160552978516e+00,2.835550010204315186e-01
-8.602566719055175781e-01,3.128309965133666992e+00,3.983660340309143066e-01
-8.612936735153198242e-01,3.132081031799316406e+00,5.144868493080139160e-01
-8.625613451004028320e-01,3.136690855026245117e+00,6.323430538177490234e-01
-8.634285926818847656e-01,3.139844417572021484e+00,7.517977356910705566e-01
-8.894332051277160645e-01,3.062284946441650391e+00,-8.544449210166931152e-01
-8.906104564666748047e-01,3.066338300704956055e+00,-7.371742725372314453e-01
-8.916839361190795898e-01,3.070034265518188477e+00,-6.214147210121154785e-01
-8.927102088928222656e-01,3.073567628860473633e+00,-5.069222450256347656e-01
-8.938645124435424805e-01,3.077541828155517578e+00,-3.934900462627410889e-01
-8.948747515678405762e-01,3.081020116806030273e+00,-2.806935012340545654e-01
-8.959707021713256836e-01,3.084793329238891602e+00,-1.683479696512222290e-01
-8.970374464988708496e-01,3.088466167449951172e+00,-5.613715201616287231e-02
-8.980776071548461914e-01,3.092047452926635742e+00,5.620224401354789734e-02
-8.992093801498413086e-01,3.095944166183471680e+00,1.689565032720565796e-01
-9.002122282981872559e-01,3.099396705627441406e+00,2.823676764965057373e-01
-9.013604521751403809e-01,3.103350162506103516e+00,3.967898786067962646e-01
-9.024862647056579590e-01,3.107226133346557617e+00,5.124735236167907715e-01
-9.035378694534301758e-01,3.110846757888793945e+00,6.296756863594055176e-01
-9.048240780830383301e-01,3.115275144577026367e+00,7.489391565322875977e-01
-9.297371506690979004e-01,3.038026094436645508e+00,-8.513021469116210938e-01
-9.306337833404541016e-01,3.040956020355224609e+00,-7.341993451118469238e-01
-9.320060610771179199e-01,3.045440196990966797e+00,-6.190733313560485840e-01
-9.330474138259887695e-01,3.048842906951904297e+00,-5.049953460693359375e-01
-9.342313408851623535e-01,3.052711486816406250e+00,-3.919848799705505371e-01
-9.352709650993347168e-01,3.056108474731445312e+00,-2.796149253845214844e-01
-9.364086389541625977e-01,3.059826135635375977e+00,-1.676997095346450806e-01
-9.375238418579101562e-01,3.063470125198364258e+00,-5.592099577188491821e-02
-9.386182427406311035e-01,3.067046165466308594e+00,5.598627403378486633e-02
-9.398174285888671875e-01,3.070964813232421875e+00,1.683101803064346313e-01
-9.408882856369018555e-01,3.074463844299316406e+00,2.812943160533905029e-01
-9.421204328536987305e-01,3.078490018844604492e+00,3.952949941158294678e-01
-9.430458545684814453e-01,3.081513881683349609e+00,5.104067921638488770e-01
-9.444808959960937500e-01,3.086203098297119141e+00,6.273596286773681641e-01
-9.454902410507202148e-01,3.089501142501831055e+00,7.459200024604797363e-01
-9.693718552589416504e-01,3.012753009796142578e+00,-8.480213284492492676e-01
-9.706146121025085449e-01,3.016615390777587891e+00,-7.316019535064697266e-01
-9.717593789100646973e-01,3.020173311233520508e+00,-6.167014241218566895e-01
-9.730645418167114258e-01,3.024229526519775391e+00,-5.031738877296447754e-01
-9.741352796554565430e-01,3.027557373046875000e+00,-3.905053436756134033e-01
-9.753449559211730957e-01,3.031316995620727539e+00,-2.785954177379608154e-01
-9.765241742134094238e-01,3.034981966018676758e+00,-1.670870184898376465e-01
-9.776869416236877441e-01,3.038595676422119141e+00,-5.571668222546577454e-02
-9.788360595703125000e-01,3.042167186737060547e+00,5.578216537833213806e-02
-9.799627661705017090e-01,3.045668840408325195e+00,1.676753759384155273e-01
-9.812421202659606934e-01,3.049644947052001953e+00,2.802798748016357422e-01
-9.823080897331237793e-01,3.052958011627197266e+00,3.937816023826599121e-01
-9.835602641105651855e-01,3.056849718093872070e+00,5.086012482643127441e-01
-9.847475290298461914e-01,3.060539722442626953e+00,6.249440312385559082e-01
-9.862080812454223633e-01,3.065078973770141602e+00,7.433555722236633301e-01
-1.009049654006958008e+00,2.988673925399780273e+00,-8.452224135398864746e-01
-1.010299682617187500e+00,2.992376327514648438e+00,-7.291558384895324707e-01
-1.011454582214355469e+00,2.995797157287597656e+00,-6.146172285079956055e-01
-1.012784481048583984e+00,2.999735832214355469e+00,-5.014591813087463379e-01
-1.013875365257263184e+00,3.002966880798339844e+00,-3.891655206680297852e-01
-1.015119791030883789e+00,3.006652832031250000e+00,-2.776356041431427002e-01
-1.016339540481567383e+00,3.010265350341796875e+00,-1.665101200342178345e-01
-1.017549753189086914e+00,3.013849973678588867e+00,-5.552431195974349976e-02
-1.018753170967102051e+00,3.017414569854736328e+00,5.558998137712478638e-02
-1.019940853118896484e+00,3.020932197570800781e+00,1.671001315116882324e-01
-1.021295428276062012e+00,3.024944305419921875e+00,2.793246209621429443e-01
-1.022434234619140625e+00,3.028317213058471680e+00,3.924507498741149902e-01
-1.023775219917297363e+00,3.032289266586303711e+00,5.069010257720947266e-01
-1.025055050849914551e+00,3.036079645156860352e+00,6.228815913200378418e-01
-1.026203036308288574e+00,3.039479732513427734e+00,7.406336069107055664e-01
-1.048070788383483887e+00,2.963607072830200195e+00,-8.422896265983581543e-01
-1.049382925033569336e+00,2.967317104339599609e+00,-7.266352176666259766e-01
-1.050874948501586914e+00,2.971536159515380859e+00,-6.126630306243896484e-01
-1.052014470100402832e+00,2.974758386611938477e+00,-4.997497797012329102e-01
-1.053339481353759766e+00,2.978504896163940430e+00,-3.879095613956451416e-01
-1.054617643356323242e+00,2.982119321823120117e+00,-2.767356932163238525e-01
-1.055878043174743652e+00,2.985683202743530273e+00,-1.659693568944931030e-01
-1.057135343551635742e+00,2.989238500595092773e+00,-5.534398555755615234e-02
-1.058392882347106934e+00,2.992794513702392578e+00,5.540982261300086975e-02
-1.059641122817993164e+00,2.996324062347412109e+00,1.665608435869216919e-01
-1.060858845710754395e+00,2.999767303466796875e+00,2.783734202384948730e-01
-1.062282681465148926e+00,3.003793478012084961e+00,3.912030458450317383e-01
-1.063382387161254883e+00,3.006903171539306641e+00,5.051500201225280762e-01
-1.064697980880737305e+00,3.010623455047607422e+00,6.207219362258911133e-01
-1.066327214241027832e+00,3.015230178833007812e+00,7.383681535720825195e-01
-1.087548971176147461e+00,2.940652370452880859e+00,-8.401037454605102539e-01
-1.088873982429504395e+00,2.944235086441040039e+00,-7.247252464294433594e-01
-1.090393066406250000e+00,2.948342561721801758e+00,-6.110363006591796875e-01
-1.091550111770629883e+00,2.951471090316772461e+00,-4.984112679958343506e-01
-1.092906594276428223e+00,2.955138921737670898e+00,-3.868641555309295654e-01
-1.094220161437988281e+00,2.958690643310546875e+00,-2.759867310523986816e-01
-1.095521569252014160e+00,2.962209701538085938e+00,-1.655191928148269653e-01
-1.096826076507568359e+00,2.965736865997314453e+00,-5.519387871026992798e-02
-1.098136901855468750e+00,2.969281435012817383e+00,5.525984242558479309e-02
-1.099444746971130371e+00,2.972817420959472656e+00,1.661119312047958374e-01
-1.100726604461669922e+00,2.976283550262451172e+00,2.776277661323547363e-01
-1.102229595184326172e+00,2.980347633361816406e+00,3.901642858982086182e-01
-1.103400349617004395e+00,2.983513355255126953e+00,5.038222074508666992e-01
-1.104802727699279785e+00,2.987305164337158203e+00,6.191111803054809570e-01
-1.106076240539550781e+00,2.990748882293701172e+00,7.361746430397033691e-01
-1.126442313194274902e+00,2.916805982589721680e+00,-8.378115892410278320e-01
-1.127775669097900391e+00,2.920258522033691406e+00,-7.227228283882141113e-01
-1.129023194313049316e+00,2.923488855361938477e+00,-6.091722249984741211e-01
-1.130487918853759766e+00,2.927281856536865234e+00,-4.970080554485321045e-01
-1.131872653961181641e+00,2.930867433547973633e+00,-3.857681155204772949e-01
-1.133220314979553223e+00,2.934356927871704102e+00,-2.752017080783843994e-01
-1.134560823440551758e+00,2.937828063964843750e+00,-1.650473326444625854e-01
-1.135911941528320312e+00,2.941326618194580078e+00,-5.503653734922409058e-02
-1.137276291847229004e+00,2.944859743118286133e+00,5.510264635086059570e-02
-1.138644337654113770e+00,2.948401689529418945e+00,1.656413674354553223e-01
-1.139992117881774902e+00,2.951891899108886719e+00,2.768462300300598145e-01
-1.141282320022583008e+00,2.955232620239257812e+00,3.889751136302947998e-01
-1.142821073532104492e+00,2.959217071533203125e+00,5.024302005767822266e-01
-1.144313097000122070e+00,2.963080644607543945e+00,6.174220442771911621e-01
-1.145677685737609863e+00,2.966614246368408203e+00,7.341951727867126465e-01
-1.164695024490356445e+00,2.891999721527099609e+00,-8.353891968727111816e-01
-1.166466116905212402e+00,2.896397590637207031e+00,-7.208757996559143066e-01
-1.167724728584289551e+00,2.899522781372070312e+00,-6.075989007949829102e-01
-1.169215440750122070e+00,2.903224229812622070e+00,-4.957141280174255371e-01
-1.170629024505615234e+00,2.906734228134155273e+00,-3.847576677799224854e-01
-1.172009944915771484e+00,2.910163164138793945e+00,-2.744778394699096680e-01
-1.173390030860900879e+00,2.913589954376220703e+00,-1.646123379468917847e-01
-1.174787282943725586e+00,2.917059421539306641e+00,-5.489147827029228210e-02
-1.176204919815063477e+00,2.920579433441162109e+00,5.495771765708923340e-02
-1.177632451057434082e+00,2.924124240875244141e+00,1.652075052261352539e-01
-1.179044842720031738e+00,2.927631139755249023e+00,2.761253714561462402e-01
-1.180404424667358398e+00,2.931007146835327148e+00,3.879705965518951416e-01
-1.182028055191040039e+00,2.935038566589355469e+00,5.011463165283203125e-01
-1.183175802230834961e+00,2.937888383865356445e+00,6.156384348869323730e-01
-1.185063242912292480e+00,2.942575216293334961e+00,7.323688268661499023e-01
-1.203467726707458496e+00,2.869078636169433594e+00,-8.336586356163024902e-01
-1.204888105392456055e+00,2.872464656829833984e+00,-7.191378474235534668e-01
-1.206542849540710449e+00,2.876409530639648438e+00,-6.063122749328613281e-01
-1.208062648773193359e+00,2.880033016204833984e+00,-4.946560859680175781e-01
-1.209506988525390625e+00,2.883476257324218750e+00,-3.839313089847564697e-01
-1.210923433303833008e+00,2.886852979660034180e+00,-2.738860249519348145e-01
-1.212344408035278320e+00,2.890240430831909180e+00,-1.642567217350006104e-01
-1.213787674903869629e+00,2.893681287765502930e+00,-5.477287620306015015e-02
-1.215257883071899414e+00,2.897186517715454102e+00,5.483922362327575684e-02
-1.216743350028991699e+00,2.900727748870849609e+00,1.648527234792709351e-01
-1.218218803405761719e+00,2.904245376586914062e+00,2.755360603332519531e-01
-1.219644188880920410e+00,2.907643556594848633e+00,3.871491253376007080e-01
-1.220965981483459473e+00,2.910794496536254883e+00,4.999394714832305908e-01
-1.222564697265625000e+00,2.914605855941772461e+00,6.143636107444763184e-01
-1.224039793014526367e+00,2.918122529983520508e+00,7.305685877799987793e-01
-1.241754412651062012e+00,2.845483064651489258e+00,-8.318818211555480957e-01
-1.243187308311462402e+00,2.848766326904296875e+00,-7.175862789154052734e-01
-1.244868755340576172e+00,2.852619409561157227e+00,-6.049914956092834473e-01
-1.246415138244628906e+00,2.856162786483764648e+00,-4.935699105262756348e-01
-1.247889280319213867e+00,2.859541177749633789e+00,-3.830833733081817627e-01
-1.249339580535888672e+00,2.862864255905151367e+00,-2.732786834239959717e-01
-1.250799775123596191e+00,2.866210460662841797e+00,-1.638917326927185059e-01
-1.252289175987243652e+00,2.869623422622680664e+00,-5.465118587017059326e-02
-1.253811478614807129e+00,2.873111724853515625e+00,5.471761897206306458e-02
-1.255355238914489746e+00,2.876649141311645508e+00,1.644886285066604614e-01
-1.256893992424011230e+00,2.880175113677978516e+00,2.749311029911041260e-01
-1.258386373519897461e+00,2.883595228195190430e+00,3.863058090209960938e-01
-1.259776711463928223e+00,2.886781215667724609e+00,4.988610446453094482e-01
-1.261458635330200195e+00,2.890635251998901367e+00,6.130540370941162109e-01
-1.263017654418945312e+00,2.894207715988159180e+00,7.290326952934265137e-01
-1.280149698257446289e+00,2.822564363479614258e+00,-8.304533362388610840e-01
-1.281601071357727051e+00,2.825764417648315430e+00,-7.163395881652832031e-01
-1.283313035964965820e+00,2.829539060592651367e+00,-6.039304137229919434e-01
-1.284626245498657227e+00,2.832434654235839844e+00,-4.925965070724487305e-01
-1.286396384239196777e+00,2.836337327957153320e+00,-3.824023604393005371e-01
-1.287882089614868164e+00,2.839613199234008789e+00,-2.727909386157989502e-01
-1.289382815361022949e+00,2.842922210693359375e+00,-1.635986268520355225e-01
-1.290918231010437012e+00,2.846307516098022461e+00,-5.455345287919044495e-02
-1.292492151260375977e+00,2.849777936935424805e+00,5.461996421217918396e-02
-1.294092655181884766e+00,2.853306770324707031e+00,1.641962230205535889e-01
-1.295430183410644531e+00,2.856255769729614258e+00,2.743897140026092529e-01
-1.297248363494873047e+00,2.860264539718627930e+00,3.856282830238342285e-01
-1.298703312873840332e+00,2.863472461700439453e+00,4.979944229125976562e-01
-1.300463438034057617e+00,2.867353439331054688e+00,6.120014190673828125e-01
-1.302100896835327148e+00,2.870963811874389648e+00,7.277978062629699707e-01
-1.318130970001220703e+00,2.799103260040283203e+00,-8.290166854858398438e-01
-1.319598913192749023e+00,2.802220582962036133e+00,-7.150861024856567383e-01
-1.321340203285217285e+00,2.805918216705322266e+00,-6.028637886047363281e-01
-1.322674632072448730e+00,2.808751821517944336e+00,-4.917199313640594482e-01
-1.324288129806518555e+00,2.812178134918212891e+00,-3.816616833209991455e-01
-1.326005101203918457e+00,2.815824270248413086e+00,-2.723010182380676270e-01
-1.327545762062072754e+00,2.819095849990844727e+00,-1.633042693138122559e-01
-1.329126238822937012e+00,2.822452306747436523e+00,-5.445528402924537659e-02
-1.330751419067382812e+00,2.825903177261352539e+00,5.452186614274978638e-02
-1.332214951515197754e+00,2.829011201858520508e+00,1.638786494731903076e-01
-1.333798289299011230e+00,2.832373380661010742e+00,2.739014029502868652e-01
-1.335688829421997070e+00,2.836388111114501953e+00,3.849473595619201660e-01
-1.337208628654479980e+00,2.839615583419799805e+00,4.971231520175933838e-01
-1.339047670364379883e+00,2.843520641326904297e+00,6.109428405761718750e-01
-1.340764164924621582e+00,2.847165584564208984e+00,7.265554666519165039e-01
-1.355495810508728027e+00,2.774709224700927734e+00,-8.274534344673156738e-01
-1.357487320899963379e+00,2.778785943984985352e+00,-7.139911651611328125e-01
-1.358904004096984863e+00,2.781685829162597656e+00,-6.017747521400451660e-01
-1.360617280006408691e+00,2.785192728042602539e+00,-4.909546971321105957e-01
-1.362265586853027344e+00,2.788567066192626953e+00,-3.810645043849945068e-01
-1.364024400711059570e+00,2.792167186737060547e+00,-2.718735039234161377e-01
-1.365605115890502930e+00,2.795403003692626953e+00,-1.630473881959915161e-01
-1.367231369018554688e+00,2.798732042312622070e+00,-5.436963587999343872e-02
-1.368906855583190918e+00,2.802161931991577148e+00,5.443626642227172852e-02
-1.370419859886169434e+00,2.805258750915527344e+00,1.636222451925277710e-01
-1.372060060501098633e+00,2.808616399765014648e+00,2.734751403331756592e-01
-1.373664021492004395e+00,2.811899662017822266e+00,3.842529654502868652e-01
-1.375602841377258301e+00,2.815868377685546875e+00,4.963620007038116455e-01
-1.377009749412536621e+00,2.818748474121093750e+00,6.097927093505859375e-01
-1.378729224205017090e+00,2.822268247604370117e+00,7.251636385917663574e-01
-1.393443822860717773e+00,2.751816511154174805e+00,-8.264897465705871582e-01
-1.395475029945373535e+00,2.755827903747558594e+00,-7.131513953208923340e-01
-1.396916508674621582e+00,2.758674621582031250e+00,-6.010606288909912109e-01
-1.398666620254516602e+00,2.762130737304687500e+00,-4.903681874275207520e-01
-1.400352954864501953e+00,2.765460968017578125e+00,-3.806070685386657715e-01
-1.402155399322509766e+00,2.769020318984985352e+00,-2.715460360050201416e-01
-1.403777718544006348e+00,2.772224187850952148e+00,-1.628507077693939209e-01
-1.405449271202087402e+00,2.775525093078613281e+00,-5.430404841899871826e-02
-1.407174706459045410e+00,2.778932571411132812e+00,5.437071621417999268e-02
-1.408735156059265137e+00,2.782014369964599609e+00,1.634258329868316650e-01
-1.410429954528808594e+00,2.785361289978027344e+00,2.731485366821289062e-01
-1.412089705467224121e+00,2.788638830184936523e+00,3.837970197200775146e-01
-1.414097189903259277e+00,2.792603492736816406e+00,4.957780838012695312e-01
-1.415559768676757812e+00,2.795491695404052734e+00,6.090824007987976074e-01
-1.417346835136413574e+00,2.799021005630493164e+00,7.243288755416870117e-01
-1.431102275848388672e+00,2.728574037551879883e+00,-8.255766630172729492e-01
-1.433174252510070801e+00,2.732524394989013672e+00,-7.123565077781677246e-01
-1.434642314910888672e+00,2.735323429107666016e+00,-6.003854870796203613e-01
-1.436429858207702637e+00,2.738731622695922852e+00,-4.898140132427215576e-01
-1.438154220581054688e+00,2.742019414901733398e+00,-3.801749646663665771e-01
-1.440000414848327637e+00,2.745539426803588867e+00,-2.712368369102478027e-01
-1.441663742065429688e+00,2.748710632324218750e+00,-1.626649647951126099e-01
-1.443380475044250488e+00,2.751983880996704102e+00,-5.424211174249649048e-02
-1.445155024528503418e+00,2.755367279052734375e+00,5.430879816412925720e-02
-1.446762800216674805e+00,2.758432626724243164e+00,1.632402986288070679e-01
-1.448510766029357910e+00,2.761765241622924805e+00,2.728398442268371582e-01
-1.450225353240966797e+00,2.765034437179565430e+00,3.833659589290618896e-01
-1.452300071716308594e+00,2.768990039825439453e+00,4.952256679534912109e-01
-1.453816533088684082e+00,2.771881341934204102e+00,6.084097027778625488e-01
-1.455669045448303223e+00,2.775413513183593750e+00,7.235374450683593750e-01
-1.468833923339843750e+00,2.705651521682739258e+00,-8.249177932739257812e-01
-1.470951557159423828e+00,2.709552288055419922e+00,-7.117836475372314453e-01
-1.472449898719787598e+00,2.712312459945678711e+00,-5.998992919921875000e-01
-1.474278330802917480e+00,2.715680599212646484e+00,-4.894153177738189697e-01
-1.476043343544006348e+00,2.718931674957275391e+00,-3.798642456531524658e-01
-1.477935194969177246e+00,2.722416639328002930e+00,-2.710146307945251465e-01
-1.479640841484069824e+00,2.725558280944824219e+00,-1.625315248966217041e-01
-1.481402754783630371e+00,2.728803873062133789e+00,-5.419761314988136292e-02
-1.483225822448730469e+00,2.732161998748779297e+00,5.426431074738502502e-02
-1.484879016876220703e+00,2.735207319259643555e+00,1.631069183349609375e-01
-1.486677885055541992e+00,2.738520860671997070e+00,2.726177871227264404e-01
-1.488443851470947266e+00,2.741774082183837891e+00,3.830555677413940430e-01
-1.490581750869750977e+00,2.745712041854858398e+00,4.948275387287139893e-01
-1.492147326469421387e+00,2.748595952987670898e+00,6.079243421554565430e-01
-1.494059681892395020e+00,2.752118587493896484e+00,7.229655385017395020e-01
-1.506465435028076172e+00,2.682676315307617188e+00,-8.244026899337768555e-01
-1.508151531219482422e+00,2.685678958892822266e+00,-7.111101150512695312e-01
-1.510163784027099609e+00,2.689262151718139648e+00,-5.995205640792846680e-01
-1.512035131454467773e+00,2.692594528198242188e+00,-4.891050755977630615e-01
-1.513842463493347168e+00,2.695813179016113281e+00,-3.796227574348449707e-01
-1.515780925750732422e+00,2.699265003204345703e+00,-2.708419859409332275e-01
-1.517529249191284180e+00,2.702378511428833008e+00,-1.624279022216796875e-01
-1.519336342811584473e+00,2.705596446990966797e+00,-5.416305735707283020e-02
-1.521207094192504883e+00,2.708927869796752930e+00,5.422975122928619385e-02
-1.522904515266418457e+00,2.711950778961181641e+00,1.630032360553741455e-01
-1.524752259254455566e+00,2.715240955352783203e+00,2.724450230598449707e-01
-1.526567578315734863e+00,2.718473672866821289e+00,3.828138113021850586e-01
-1.528282523155212402e+00,2.721527576446533203e+00,4.943606853485107422e-01
-1.530376076698303223e+00,2.725255727767944336e+00,6.075447201728820801e-01
-1.532344222068786621e+00,2.728760480880737305e+00,7.225171923637390137e-01
-1.543941259384155273e+00,2.659524202346801758e+00,-8.239947557449340820e-01
-1.545667529106140137e+00,2.662497997283935547e+00,-7.107574343681335449e-01
-1.547728419303894043e+00,2.666047811508178711e+00,-5.992226600646972656e-01
-1.549645304679870605e+00,2.669349908828735352e+00,-4.888617694377899170e-01
-1.551496744155883789e+00,2.672538995742797852e+00,-3.794336616992950439e-01
-1.553482770919799805e+00,2.675960302352905273e+00,-2.707069814205169678e-01
-1.555274248123168945e+00,2.679046154022216797e+00,-1.623468995094299316e-01
-1.557126283645629883e+00,2.682236433029174805e+00,-5.413604900240898132e-02
-1.559043884277343750e+00,2.685539484024047852e+00,5.420271679759025574e-02
-1.560784101486206055e+00,2.688537120819091797e+00,1.629220396280288696e-01
-1.562678813934326172e+00,2.691800832748413086e+00,2.723094820976257324e-01
-1.564540386199951172e+00,2.695007562637329102e+00,3.826236128807067871e-01
-1.566299438476562500e+00,2.698037624359130859e+00,4.941155910491943359e-01
-1.568446874618530273e+00,2.701736688613891602e+00,6.072441339492797852e-01
-1.570465922355651855e+00,2.705214738845825195e+00,7.221606969833374023e-01
-1.581442475318908691e+00,2.636482000350952148e+00,-8.237844109535217285e-01
-1.583213806152343750e+00,2.639435052871704102e+00,-7.105774283409118652e-01
-1.585327029228210449e+00,2.642957925796508789e+00,-5.990718007087707520e-01
-1.587292432785034180e+00,2.646234750747680664e+00,-4.887392520904541016e-01
-1.589190363883972168e+00,2.649398803710937500e+00,-3.793389499187469482e-01
-1.591225743293762207e+00,2.652791976928710938e+00,-2.706395983695983887e-01
-1.593060970306396484e+00,2.655851602554321289e+00,-1.623065024614334106e-01
-1.594958186149597168e+00,2.659014463424682617e+00,-5.412258207798004150e-02
-1.596921801567077637e+00,2.662288188934326172e+00,5.418921634554862976e-02
-1.598703503608703613e+00,2.665258646011352539e+00,1.628813892602920532e-01
-1.600642561912536621e+00,2.668491125106811523e+00,2.722412347793579102e-01
-1.602547526359558105e+00,2.671667098999023438e+00,3.825273215770721436e-01
-1.604346990585327148e+00,2.674667119979858398e+00,4.939904808998107910e-01
-1.606543660163879395e+00,2.678329229354858398e+00,6.070892810821533203e-01
-1.608608484268188477e+00,2.681771278381347656e+00,7.219750285148620605e-01
-1.618885517120361328e+00,2.613371133804321289e+00,-8.237191438674926758e-01
-1.621222734451293945e+00,2.617144346237182617e+00,-7.107508182525634766e-01
-1.622877240180969238e+00,2.619815111160278320e+00,-5.990299582481384277e-01
-1.624894976615905762e+00,2.623072385787963867e+00,-4.887068271636962891e-01
-1.626842141151428223e+00,2.626215457916259766e+00,-3.793147802352905273e-01
-1.628928542137145996e+00,2.629583597183227539e+00,-2.706228196620941162e-01
-1.630808949470520020e+00,2.632619380950927734e+00,-1.622966080904006958e-01
-1.632750868797302246e+00,2.635754108428955078e+00,-5.411928147077560425e-02
-1.634759545326232910e+00,2.638996839523315430e+00,5.418585985898971558e-02
-1.636580705642700195e+00,2.641936779022216797e+00,1.628710180521011353e-01
-1.638561487197875977e+00,2.645134210586547852e+00,2.722232043743133545e-01
-1.640506029129028320e+00,2.648273229598999023e+00,3.825006484985351562e-01
-1.642858982086181641e+00,2.652071714401245117e+00,4.941097199916839600e-01
-1.644581317901611328e+00,2.654852151870727539e+00,6.070412993431091309e-01
-1.646685123443603516e+00,2.658248186111450195e+00,7.219136357307434082e-01
-1.656310915946960449e+00,2.590229272842407227e+00,-8.238130211830139160e-01
-1.658714056015014648e+00,2.593987226486206055e+00,-7.108368873596191406e-01
-1.660417318344116211e+00,2.596651077270507812e+00,-5.991062521934509277e-01
-1.662489891052246094e+00,2.599892139434814453e+00,-4.887714982032775879e-01
-1.664488315582275391e+00,2.603017330169677734e+00,-3.793663680553436279e-01
-1.666626811027526855e+00,2.606361627578735352e+00,-2.706602513790130615e-01
-1.668552994728088379e+00,2.609374046325683594e+00,-1.623192876577377319e-01
-1.670539975166320801e+00,2.612481355667114258e+00,-5.412684008479118347e-02
-1.672593235969543457e+00,2.615692377090454102e+00,5.419337004423141479e-02
-1.674452304840087891e+00,2.618599653244018555e+00,1.628931760787963867e-01
-1.676472663879394531e+00,2.621759176254272461e+00,2.722592353820800781e-01
-1.678454041481018066e+00,2.624857664108276367e+00,3.825494050979614258e-01
-1.680850744247436523e+00,2.628605842590332031e+00,4.941695928573608398e-01
-1.682600975036621094e+00,2.631342887878417969e+00,6.071104407310485840e-01
-1.684739351272583008e+00,2.634687185287475586e+00,7.219899296760559082e-01
-1.693779587745666504e+00,2.567117929458618164e+00,-8.240888118743896484e-01
-1.696255683898925781e+00,2.570870876312255859e+00,-7.110826969146728516e-01
-1.698014259338378906e+00,2.573536157608032227e+00,-5.993193387985229492e-01
-1.700146913528442383e+00,2.576768398284912109e+00,-4.889491200447082520e-01
-1.702200174331665039e+00,2.579880475997924805e+00,-3.795064091682434082e-01
-1.704393863677978516e+00,2.583205223083496094e+00,-2.707612216472625732e-01
