3.538461923599243164e+00,-2.316546916961669922e+00,-5.192937850952148438e-01
3.543055534362792969e+00,-2.319554328918457031e+00,-3.704968988895416260e-01
3.547257423400878906e+00,-2.322305202484130859e+00,-2.221996188163757324e-01
3.551561832427978516e+00,-2.325123310089111328e+00,-7.409615814685821533e-02
3.555974960327148438e+00,-2.328012466430664062e+00,7.418823242187500000e-02
3.560030937194824219e+00,-2.330667734146118164e+00,2.229997366666793823e-01
3.564351320266723633e+00,-2.333496093750000000e+00,3.727237880229949951e-01
3.568561792373657227e+00,-2.336252689361572266e+00,5.237111449241638184e-01
3.573442697525024414e+00,-2.339448213577270508e+00,6.764787435531616211e-01
3.578187704086303711e+00,-2.342554569244384766e+00,8.313238024711608887e-01
3.582537651062011719e+00,-2.345402240753173828e+00,9.885751008987426758e-01
3.387951135635375977e+00,-2.149376869201660156e+00,-1.075073599815368652e+00
3.678669452667236328e+00,-2.333813667297363281e+00,-1.005781173706054688e+00
3.682596206665039062e+00,-2.336304903030395508e+00,-8.477249741554260254e-01
3.687845468521118164e+00,-2.339635133743286133e+00,-6.917256116867065430e-01
3.692162036895751953e+00,-2.342373609542846680e+00,-5.368749499320983887e-01
3.696512699127197266e+00,-2.345133781433105469e+00,-3.829945623874664307e-01
3.701089859008789062e+00,-2.348037481307983398e+00,-2.297068834304809570e-01
3.705578327178955078e+00,-2.350885152816772461e+00,-7.659953087568283081e-02
3.709990978240966797e+00,-2.353684663772583008e+00,7.669074833393096924e-02
3.714661598205566406e+00,-2.356647729873657227e+00,2.305492162704467773e-01
3.719421386718750000e+00,-2.359667301177978516e+00,3.853681385517120361e-01
3.723322153091430664e+00,-2.362142086029052734e+00,5.414059162139892578e-01
3.728659391403198242e+00,-2.365528106689453125e+00,6.993809938430786133e-01
3.732764720916748047e+00,-2.368132591247558594e+00,8.592736721038818359e-01
3.737539768218994141e+00,-2.371161937713623047e+00,1.021876811981201172e+00
3.408948898315429688e+00,-2.094881296157836914e+00,-1.072111845016479492e+00
3.844016551971435547e+00,-2.362240791320800781e+00,-1.041637301445007324e+00
3.848912000656127930e+00,-2.365249156951904297e+00,-8.781272172927856445e-01
3.854251384735107422e+00,-2.368530273437500000e+00,-7.165058851242065430e-01
3.858692407608032227e+00,-2.371259450912475586e+00,-5.560977458953857422e-01
3.863548994064331055e+00,-2.374243974685668945e+00,-3.967394530773162842e-01
3.868245601654052734e+00,-2.377130270004272461e+00,-2.379452288150787354e-01
3.872935771942138672e+00,-2.380012273788452148e+00,-7.934671640396118164e-02
3.877630949020385742e+00,-2.382897615432739258e+00,7.944291085004806519e-02
3.882202625274658203e+00,-2.385707139968872070e+00,2.388037592172622681e-01
3.887243509292602539e+00,-2.388804912567138672e+00,3.991726338863372803e-01
3.891469478607177734e+00,-2.391401767730712891e+00,5.608214139938354492e-01
3.896244764328002930e+00,-2.394336462020874023e+00,7.243124842643737793e-01
3.901906967163085938e+00,-2.397815942764282227e+00,8.902180194854736328e-01
3.907311439514160156e+00,-2.401137113571166992e+00,1.058788776397705078e+00
3.450208187103271484e+00,-2.052795410156250000e+00,-1.075736999511718750e+00
4.025533199310302734e+00,-2.395100593566894531e+00,-1.081423521041870117e+00
4.031324863433837891e+00,-2.398546457290649414e+00,-9.118185043334960938e-01
4.035856723785400391e+00,-2.401242971420288086e+00,-7.438006997108459473e-01
4.040951251983642578e+00,-2.404273986816406250e+00,-5.773454308509826660e-01
4.045860290527343750e+00,-2.407194852828979492e+00,-4.118802845478057861e-01
4.050689220428466797e+00,-2.410067796707153320e+00,-2.470205277204513550e-01
4.055597782135009766e+00,-2.412988424301147461e+00,-8.237297087907791138e-02
4.060604572296142578e+00,-2.415967226028442383e+00,8.247465640306472778e-02
4.065564632415771484e+00,-2.418918371200561523e+00,2.479276657104492188e-01
4.070398330688476562e+00,-2.421794176101684570e+00,4.143783152103424072e-01
4.075885772705078125e+00,-2.425059318542480469e+00,5.823366641998291016e-01
4.080213069915771484e+00,-2.427634000778198242e+00,7.519755363464355469e-01
4.085183143615722656e+00,-2.430590867996215820e+00,9.240003228187561035e-01
4.091082096099853516e+00,-2.434100627899169922e+00,1.099032640457153320e+00
3.473370790481567383e+00,-1.999829769134521484e+00,-1.073923945426940918e+00
4.133650302886962891e+00,-2.379992485046386719e+00,-1.101203918457031250e+00
4.215900897979736328e+00,-2.427349090576171875e+00,-9.456112384796142578e-01
4.220509529113769531e+00,-2.430002689361572266e+00,-7.713426351547241211e-01
4.225800514221191406e+00,-2.433048963546752930e+00,-5.987185239791870117e-01
4.230979919433593750e+00,-2.436031103134155273e+00,-4.271325767040252686e-01
4.236159801483154297e+00,-2.439013481140136719e+00,-2.561757564544677734e-01
4.241295337677001953e+00,-2.441970348358154297e+00,-8.542597293853759766e-02
4.246396064758300781e+00,-2.444906949996948242e+00,8.552870899438858032e-02
4.251535892486572266e+00,-2.447866439819335938e+00,2.571056187152862549e-01
4.256625652313232422e+00,-2.450797080993652344e+00,4.297216236591339111e-01
4.262492179870605469e+00,-2.454174518585205078e+00,6.039170622825622559e-01
4.267220020294189453e+00,-2.456896781921386719e+00,7.798795104026794434e-01
4.272708415985107422e+00,-2.460056781768798828e+00,9.583529829978942871e-01
4.277693748474121094e+00,-2.462927103042602539e+00,1.139577150344848633e+00
3.496304273605346680e+00,-1.946944713592529297e+00,-1.072288632392883301e+00
4.165685653686523438e+00,-2.319694757461547852e+00,-1.100780129432678223e+00
4.417436122894287109e+00,-2.459884405136108398e+00,-9.828168749809265137e-01
4.422929763793945312e+00,-2.462943315505981445e+00,-8.018120527267456055e-01
4.428215503692626953e+00,-2.465886831283569336e+00,-6.223325729370117188e-01
4.433468341827392578e+00,-2.468811988830566406e+00,-4.439616203308105469e-01
4.438808441162109375e+00,-2.471785545349121094e+00,-2.662638425827026367e-01
4.444188594818115234e+00,-2.474781513214111328e+00,-8.878998458385467529e-02
4.449618339538574219e+00,-2.477805137634277344e+00,8.889847248792648315e-02
4.455176353454589844e+00,-2.480900287628173828e+00,2.672456800937652588e-01
4.460766792297363281e+00,-2.484013319015502930e+00,4.466952681541442871e-01
4.466242790222167969e+00,-2.487062692642211914e+00,6.276769042015075684e-01
4.471401214599609375e+00,-2.489935159683227539e+00,8.105992674827575684e-01
4.477450370788574219e+00,-2.493303537368774414e+00,9.961691498756408691e-01
4.483052730560302734e+00,-2.496423482894897461e+00,1.184644341468811035e+00
3.519046783447265625e+00,-1.894141793251037598e+00,-1.070838928222656250e+00
4.197638988494873047e+00,-2.259397029876708984e+00,-1.100565314292907715e+00
4.638538360595703125e+00,-2.496712923049926758e+00,-1.023953080177307129e+00
4.644183635711669922e+00,-2.499751567840576172e+00,-8.353502154350280762e-01
4.649703502655029297e+00,-2.502722501754760742e+00,-6.483591794967651367e-01
4.655642032623291016e+00,-2.505918979644775391e+00,-4.625706076622009277e-01
4.661156177520751953e+00,-2.508887052536010742e+00,-2.774189114570617676e-01
4.666802883148193359e+00,-2.511926412582397461e+00,-9.250976890325546265e-02
4.672594547271728516e+00,-2.515043973922729492e+00,9.262458235025405884e-02
4.678006172180175781e+00,-2.517956733703613281e+00,2.784217894077301025e-01
4.683904647827148438e+00,-2.521131515502929688e+00,4.653787016868591309e-01
4.689773559570312500e+00,-2.524290561676025391e+00,6.539466381072998047e-01
4.695397853851318359e+00,-2.527317762374877930e+00,8.445620536804199219e-01
4.702054500579833984e+00,-2.530900955200195312e+00,1.037974357604980469e+00
4.708326816558837891e+00,-2.534276962280273438e+00,1.234460949897766113e+00
3.563527822494506836e+00,-1.852803111076354980e+00,-1.076194167137145996e+00
4.229562759399414062e+00,-2.199097871780395508e+00,-1.100569844245910645e+00
4.882364273071289062e+00,-2.538512229919433594e+00,-1.069646954536437988e+00
4.888186931610107422e+00,-2.541539907455444336e+00,-8.726063370704650879e-01
4.894608974456787109e+00,-2.544878959655761719e+00,-6.773604750633239746e-01
4.900290012359619141e+00,-2.547832727432250977e+00,-4.832052290439605713e-01
4.906385898590087891e+00,-2.551002025604248047e+00,-2.898114323616027832e-01
4.912326812744140625e+00,-2.554090976715087891e+00,-9.664218872785568237e-02
4.918130874633789062e+00,-2.557108879089355469e+00,9.675638377666473389e-02
4.924389839172363281e+00,-2.560362815856933594e+00,2.908748686313629150e-01
4.929982662200927734e+00,-2.563271045684814453e+00,4.861331582069396973e-01
4.936276912689208984e+00,-2.566543579101562500e+00,6.831268072128295898e-01
4.942403793334960938e+00,-2.569729089736938477e+00,8.822848200798034668e-01
4.948093891143798828e+00,-2.572687625885009766e+00,1.084047317504882812e+00
4.954863548278808594e+00,-2.576207399368286133e+00,1.289299488067626953e+00
3.586289167404174805e+00,-1.799910187721252441e+00,-1.075177550315856934e+00
4.261510848999023438e+00,-2.138794898986816406e+00,-1.100804448127746582e+00
5.152774333953857422e+00,-2.586107969284057617e+00,-1.120665073394775391e+00
5.159747123718261719e+00,-2.589607715606689453e+00,-9.143729805946350098e-01
5.165562629699707031e+00,-2.592526435852050781e+00,-7.096494436264038086e-01
5.172043323516845703e+00,-2.595778942108154297e+00,-5.062865614891052246e-01
5.178379535675048828e+00,-2.598958969116210938e+00,-3.036491870880126953e-01
5.184649944305419922e+00,-2.602106094360351562e+00,-1.012566089630126953e-01
5.190865993499755859e+00,-2.605225801467895508e+00,1.013780087232589722e-01
5.196983814239501953e+00,-2.608296155929565430e+00,3.047401010990142822e-01
5.203847408294677734e+00,-2.611740827560424805e+00,5.093998312950134277e-01
5.209654808044433594e+00,-2.614655494689941406e+00,7.157068252563476562e-01
5.216330528259277344e+00,-2.618005990982055664e+00,9.244002699851989746e-01
5.222638607025146484e+00,-2.621172189712524414e+00,1.135859727859497070e+00
5.230187416076660156e+00,-2.624960660934448242e+00,1.351026296615600586e+00
3.611254692077636719e+00,-1.748191952705383301e+00,-1.075050234794616699e+00
4.296275138854980469e+00,-2.079807281494140625e+00,-1.101981759071350098e+00
5.248916149139404297e+00,-2.540976524353027344e+00,-1.133548498153686523e+00
5.436244487762451172e+00,-2.631661176681518555e+00,-9.565985202789306641e-01
5.443102836608886719e+00,-2.634981393814086914e+00,-7.425206303596496582e-01
5.449753284454345703e+00,-2.638200759887695312e+00,-5.297206044197082520e-01
5.456338882446289062e+00,-2.641388893127441406e+00,-3.176986277103424072e-01
5.462943077087402344e+00,-2.644585847854614258e+00,-1.059415638446807861e-01
5.469578742980957031e+00,-2.647798299789428711e+00,1.060702502727508545e-01
5.476201057434082031e+00,-2.651004076004028320e+00,3.188551068305969238e-01
5.482693672180175781e+00,-2.654147148132324219e+00,5.329224467277526855e-01
5.490169525146484375e+00,-2.657766342163085938e+00,7.489413022994995117e-01
5.496079921722412109e+00,-2.660627365112304688e+00,9.671276211738586426e-01
5.502981185913085938e+00,-2.663968086242675781e+00,1.188416004180908203e+00
5.511289119720458984e+00,-2.667989969253540039e+00,1.413629174232482910e+00
3.633885145187377930e+00,-1.695386290550231934e+00,-1.074453115463256836e+00
4.328382492065429688e+00,-2.019403696060180664e+00,-1.102690339088439941e+00
5.297175884246826172e+00,-2.471393346786499023e+00,-1.136214971542358398e+00
5.773143291473388672e+00,-2.693455696105957031e+00,-1.008994221687316895e+00
5.780122280120849609e+00,-2.696711540222167969e+00,-7.831494212150573730e-01
5.786975860595703125e+00,-2.699909210205078125e+00,-5.586853623390197754e-01
5.793863773345947266e+00,-2.703122615814208984e+00,-3.350640833377838135e-01
5.800870895385742188e+00,-2.706391811370849609e+00,-1.117322370409965515e-01
5.808018207550048828e+00,-2.709726572036743164e+00,1.118699088692665100e-01
5.815251350402832031e+00,-2.713100910186767578e+00,3.363009393215179443e-01
5.822446346282958984e+00,-2.716457843780517578e+00,5.621097087860107422e-01
5.829415321350097656e+00,-2.719709396362304688e+00,7.898281216621398926e-01
5.835891246795654297e+00,-2.722730636596679688e+00,1.019960880279541016e+00
5.843529224395751953e+00,-2.726294040679931641e+00,1.253404617309570312e+00
3.658725023269653320e+00,-1.643630385398864746e+00,-1.074731469154357910e+00
4.330095767974853516e+00,-1.945234060287475586e+00,-1.095921277999877930e+00
5.349278450012207031e+00,-2.403087377548217773e+00,-1.139896035194396973e+00
6.120095252990722656e+00,-2.749366044998168945e+00,-1.062645673751831055e+00
6.127527713775634766e+00,-2.752704858779907227e+00,-8.247964978218078613e-01
6.134925842285156250e+00,-2.756028413772583008e+00,-5.884084105491638184e-01
6.142624378204345703e+00,-2.759486913681030273e+00,-3.529128730297088623e-01
6.150050640106201172e+00,-2.762823104858398438e+00,-1.176841408014297485e-01
6.157228946685791016e+00,-2.766047716140747070e+00,1.178214922547340393e-01
6.164754390716552734e+00,-2.769428491592407227e+00,3.541842997074127197e-01
6.172341823577880859e+00,-2.772836923599243164e+00,5.919970273971557617e-01
6.179786682128906250e+00,-2.776181459426879883e+00,8.318307995796203613e-01
6.188590049743652344e+00,-2.780136346817016602e+00,1.074538588523864746e+00
6.195158481597900391e+00,-2.783087015151977539e+00,1.320147514343261719e+00
3.683536529541015625e+00,-1.591816782951354980e+00,-1.075216770172119141e+00
4.364640235900878906e+00,-1.886151432991027832e+00,-1.097718954086303711e+00
5.350506305694580078e+00,-2.312187194824218750e+00,-1.132989168167114258e+00
6.511995315551757812e+00,-2.814117193222045898e+00,-1.123583078384399414e+00
6.519597530364990234e+00,-2.817402362823486328e+00,-8.720535635948181152e-01
6.527267456054687500e+00,-2.820716857910156250e+00,-6.221023201942443848e-01
6.535355567932128906e+00,-2.824212074279785156e+00,-3.731157779693603516e-01
6.543252944946289062e+00,-2.827625036239624023e+00,-1.244210377335548401e-01
6.550981044769287109e+00,-2.830964565277099609e+00,1.245679855346679688e-01
6.559185981750488281e+00,-2.834510326385498047e+00,3.744763135910034180e-01
6.567554473876953125e+00,-2.838126659393310547e+00,6.259419918060302734e-01
6.575865745544433594e+00,-2.841718435287475586e+00,8.795799612998962402e-01
6.583814620971679688e+00,-2.845153331756591797e+00,1.135974884033203125e+00
6.591051578521728516e+00,-2.848280906677246094e+00,1.395679116249084473e+00
3.708357810974121094e+00,-1.539938449859619141e+00,-1.075917840003967285e+00
4.399360179901123047e+00,-1.826885223388671875e+00,-1.099761843681335449e+00
5.402693748474121094e+00,-2.243530988693237305e+00,-1.137123584747314453e+00
6.955492496490478516e+00,-2.888348817825317383e+00,-1.192849040031433105e+00
6.964618206024169922e+00,-2.892138242721557617e+00,-9.259470105171203613e-01
6.972590446472167969e+00,-2.895448923110961914e+00,-6.605276465415954590e-01
6.981127262115478516e+00,-2.898993968963623047e+00,-3.961561322212219238e-01
6.989557266235351562e+00,-2.902494430541992188e+00,-1.321040689945220947e-01
6.997909069061279297e+00,-2.905962705612182617e+00,1.322619169950485229e-01
7.006879806518554688e+00,-2.909687995910644531e+00,3.976175189018249512e-01
7.014801025390625000e+00,-2.912977218627929688e+00,6.645263433456420898e-01
7.023717403411865234e+00,-2.916679859161376953e+00,9.338042736053466797e-01
7.032353401184082031e+00,-2.920265913009643555e+00,1.206030368804931641e+00
3.709198951721191406e+00,-1.478408932685852051e+00,-1.069912791252136230e+00
4.434306621551513672e+00,-1.767421603202819824e+00,-1.102061033248901367e+00
5.455517292022705078e+00,-2.174454689025878906e+00,-1.141573786735534668e+00
6.993356227874755859e+00,-2.787405252456665039e+00,-1.192378044128417969e+00
7.473262786865234375e+00,-2.978685617446899414e+00,-9.878017902374267578e-01
7.482618331909179688e+00,-2.982414722442626953e+00,-7.047274708747863770e-01
7.491660118103027344e+00,-2.986018419265747070e+00,-4.226585328578948975e-01
7.500701904296875000e+00,-2.989622354507446289e+00,-1.409416049718856812e-01
7.509766101837158203e+00,-2.993235111236572266e+00,1.411119252443313599e-01
7.518580913543701172e+00,-2.996748685836791992e+00,4.241773188114166260e-01
7.528420448303222656e+00,-3.000670433044433594e+00,7.090411782264709473e-01
7.536588668823242188e+00,-3.003926038742065430e+00,9.961721301078796387e-01
7.545989990234375000e+00,-3.007673501968383789e+00,1.286602973937988281e+00
3.733817100524902344e+00,-1.426638364791870117e+00,-1.071014046669006348e+00
4.434659481048583984e+00,-1.694420218467712402e+00,-1.096008777618408203e+00
5.455585479736328125e+00,-2.084501504898071289e+00,-1.135228514671325684e+00
7.081916809082031250e+00,-2.705899477005004883e+00,-1.200751066207885742e+00
8.062895774841308594e+00,-3.080717325210571289e+00,-1.059801340103149414e+00
8.072759628295898438e+00,-3.084486246109008789e+00,-7.560725808143615723e-01
8.082392692565917969e+00,-3.088167190551757812e+00,-4.534458220005035400e-01
8.092130661010742188e+00,-3.091887950897216797e+00,-1.512077450752258301e-01
8.102010726928710938e+00,-3.095662832260131836e+00,1.513923704624176025e-01
8.111745834350585938e+00,-3.099382400512695312e+00,4.550925791263580322e-01
8.121146202087402344e+00,-3.102974176406860352e+00,7.606043219566345215e-01
8.131941795349121094e+00,-3.107099056243896484e+00,1.068876862525939941e+00
3.760491609573364258e+00,-1.375482201576232910e+00,-1.072908163070678711e+00
4.471974372863769531e+00,-1.635722517967224121e+00,-1.099331974983215332e+00
5.511747360229492188e+00,-2.016042232513427734e+00,-1.140793561935424805e+00
7.085070133209228516e+00,-2.591519355773925781e+00,-1.194874048233032227e+00
8.683504104614257812e+00,-3.176181554794311523e+00,-1.135283231735229492e+00
8.693905830383300781e+00,-3.179986238479614258e+00,-8.099014759063720703e-01
8.703915596008300781e+00,-3.183647632598876953e+00,-4.857087433338165283e-01
8.714406013488769531e+00,-3.187484741210937500e+00,-1.619663238525390625e-01
8.725379943847656250e+00,-3.191498756408691406e+00,1.621702909469604492e-01
8.736051559448242188e+00,-3.195402145385742188e+00,4.875020384788513184e-01
8.746490478515625000e+00,-3.199220418930053711e+00,8.148001432418823242e-01
8.756388664245605469e+00,-3.202841043472290039e+00,1.144812345504760742e+00
3.785311222076416016e+00,-1.323450684547424316e+00,-1.074474692344665527e+00
4.507237911224365234e+00,-1.575856447219848633e+00,-1.102342963218688965e+00
5.511179924011230469e+00,-1.926862597465515137e+00,-1.134851455688476562e+00
7.175168037414550781e+00,-2.508639335632324219e+00,-1.203889846801757812e+00
9.487406730651855469e+00,-3.317062616348266602e+00,-1.234051942825317383e+00
9.499033927917480469e+00,-3.321127891540527344e+00,-8.803865313529968262e-01
9.510629653930664062e+00,-3.325182199478149414e+00,-5.280161499977111816e-01
9.522080421447753906e+00,-3.329185485839843750e+00,-1.760741025209426880e-01
9.533396720886230469e+00,-3.333142042160034180e+00,1.762833446264266968e-01
9.544766426086425781e+00,-3.337117195129394531e+00,5.299113392829895020e-01
9.555994033813476562e+00,-3.341042757034301758e+00,8.856656551361083984e-01
9.569118499755859375e+00,-3.345631361007690430e+00,1.244680404663085938e+00
3.812151908874511719e+00,-1.271904826164245605e+00,-1.076815605163574219e+00
4.509085655212402344e+00,-1.504433035850524902e+00,-1.097415924072265625e+00
5.567710399627685547e+00,-1.857637763023376465e+00,-1.140900015830993652e+00
7.177414894104003906e+00,-2.394707202911376953e+00,-1.198392987251281738e+00
1.008526515960693359e+01,-3.364896535873413086e+00,-1.305418491363525391e+00
1.692543411254882812e+01,-5.647083282470703125e+00,-1.561026573181152344e+00
1.894528770446777344e+01,-6.320996761322021484e+00,-1.046684145927429199e+00
1.896837234497070312e+01,-6.328699111938476562e+00,-3.490360081195831299e-01
1.899141502380371094e+01,-6.336387157440185547e+00,3.494600057601928711e-01
3.811915636062622070e+00,-1.211478710174560547e+00,-1.071740865707397461e+00
4.544543266296386719e+00,-1.444317698478698730e+00,-1.100901365280151367e+00
5.566681385040283203e+00,-1.769167065620422363e+00,-1.135383844375610352e+00
7.175766468048095703e+00,-2.280556201934814453e+00,-1.192545294761657715e+00
1.008266067504882812e+01,-3.204406738281250000e+00,-1.299011468887329102e+00
1.692084312438964844e+01,-5.377674579620361328e+00,-1.553344964981079102e+00
1.898827743530273438e+01,-6.034732818603515625e+00,-1.044180035591125488e+00
1.901141357421875000e+01,-6.042086124420166016e+00,-3.482009768486022949e-01
1.903474044799804688e+01,-6.049499511718750000e+00,3.486282229423522949e-01
3.838681697845458984e+00,-1.159764647483825684e+00,-1.074488997459411621e+00
4.545908927917480469e+00,-1.373436212539672852e+00,-1.096357583999633789e+00
5.623762607574462891e+00,-1.699083566665649414e+00,-1.141948938369750977e+00
7.270889282226562500e+00,-2.196722984313964844e+00,-1.203005194664001465e+00
1.008456039428710938e+01,-3.046805620193481445e+00,-1.293505191802978516e+00
1.692385292053222656e+01,-5.113132476806640625e+00,-1.546744227409362793e+00
1.903519058227539062e+01,-5.751021862030029297e+00,-1.042126536369323730e+00
1.905838394165039062e+01,-5.758028984069824219e+00,-3.475161492824554443e-01
1.908197212219238281e+01,-5.765155315399169922e+00,3.479462563991546631e-01
3.839859485626220703e+00,-1.100400209426879883e+00,-1.070300340652465820e+00
4.583671092987060547e+00,-1.313556432723999023e+00,-1.100817680358886719e+00
5.624886989593505859e+00,-1.611940979957580566e+00,-1.137375712394714355e+00
7.272080421447753906e+00,-2.083982229232788086e+00,-1.198144078254699707e+00
1.027293014526367188e+01,-2.943944692611694336e+00,-1.312127351760864258e+00
1.692606353759765625e+01,-4.850553512573242188e+00,-1.540442943572998047e+00
1.908143424987792969e+01,-5.468224525451660156e+00,-1.040266633033752441e+00
1.910468292236328125e+01,-5.474886894226074219e+00,-3.468959331512451172e-01
1.912852287292480469e+01,-5.481719017028808594e+00,3.473288118839263916e-01
3.866598844528198242e+00,-1.048418045043945312e+00,-1.073460698127746582e+00
4.584588527679443359e+00,-1.243099093437194824e+00,-1.096652507781982422e+00
5.625765800476074219e+00,-1.525411605834960938e+00,-1.133022427558898926e+00
7.272967815399169922e+00,-1.972046017646789551e+00,-1.193517446517944336e+00
1.027394199371337891e+01,-2.785752296447753906e+00,-1.307029724121093750e+00
1.692761230468750000e+01,-4.589877605438232422e+00,-1.534447669982910156e+00
1.912712669372558594e+01,-5.186270236968994141e+00,-1.038604259490966797e+00
1.915043067932128906e+01,-5.192589282989501953e+00,-3.463415801525115967e-01
1.917451667785644531e+01,-5.199120044708251953e+00,3.467772006988525391e-01
3.893539905548095703e+00,-9.961270093917846680e-01,-1.076871514320373535e+00
4.622594833374023438e+00,-1.182649135589599609e+00,-1.101581692695617676e+00
5.683266162872314453e+00,-1.454012274742126465e+00,-1.140294551849365234e+00
7.369702339172363281e+00,-1.885471820831298828e+00,-1.204839706420898438e+00
1.027452373504638672e+01,-2.628644227981567383e+00,-1.302183747291564941e+00
1.746368217468261719e+01,-4.467925548553466797e+00,-1.577082633972167969e+00
2.174615669250488281e+01,-5.563558101654052734e+00,-1.176373124122619629e+00
2.177166938781738281e+01,-5.570085048675537109e+00,-3.922654390335083008e-01
2.179640769958496094e+01,-5.576414108276367188e+00,3.927111625671386719e-01
3.894214630126953125e+00,-9.371282458305358887e-01,-1.073238253593444824e+00
4.623172760009765625e+00,-1.112549304962158203e+00,-1.097812294960021973e+00
5.683743953704833984e+00,-1.367771863937377930e+00,-1.136346101760864258e+00
7.370044708251953125e+00,-1.773573756217956543e+00,-1.200622439384460449e+00
1.027476310729980469e+01,-2.472583532333374023e+00,-1.297595739364624023e+00
1.746386718750000000e+01,-4.202614784240722656e+00,-1.571506023406982422e+00
2.544879913330078125e+01,-6.124158859252929688e+00,-1.371787667274475098e+00
2.547894668579101562e+01,-6.131413936614990234e+00,-4.574322700500488281e-01
2.550791168212890625e+01,-6.138383865356445312e+00,4.579522609710693359e-01
3.921269178390502930e+00,-8.844653367996215820e-01,-1.077095150947570801e+00
4.661521434783935547e+00,-1.051433563232421875e+00,-1.103231668472290039e+00
5.684072017669677734e+00,-1.282076001167297363e+00,-1.132626771926879883e+00
7.370236873626708984e+00,-1.662400364875793457e+00,-1.196654915809631348e+00
1.027476501464843750e+01,-2.317533731460571289e+00,-1.293274283409118652e+00
1.746366691589355469e+01,-3.939032793045043945e+00,-1.566254019737243652e+00
3.066992378234863281e+01,-6.917782306671142578e+00,-1.647720098495483398e+00
3.070729064941406250e+01,-6.926209926605224609e+00,-5.494623780250549316e-01
3.074215507507324219e+01,-6.934074401855468750e+00,5.500862002372741699e-01
3.921725988388061523e+00,-8.257689476013183594e-01,-1.073863983154296875e+00
4.661858081817626953e+00,-9.816131591796875000e-01,-1.099873542785644531e+00
5.742315292358398438e+00,-1.209117054939270020e+00,-1.140667080879211426e+00
7.370294094085693359e+00,-1.551908493041992188e+00,-1.192935347557067871e+00
1.046870803833007812e+01,-2.204318761825561523e+00,-1.313579797744750977e+00
1.746317481994628906e+01,-3.677092075347900391e+00,-1.561329603195190430e+00
3.858638381958007812e+01,-8.124851226806640625e+00,-2.066566944122314453e+00
3.863338470458984375e+01,-8.134747505187988281e+00,-6.891342997550964355e-01
3.922101736068725586e+00,-7.673963904380798340e-01,-1.070849537849426270e+00
4.662116050720214844e+00,-9.121872186660766602e-01,-1.096741676330566406e+00
5.742434501647949219e+00,-1.123561739921569824e+00,-1.137379646301269531e+00
7.370248794555664062e+00,-1.442059040069580078e+00,-1.189465403556823730e+00
1.046845436096191406e+01,-2.048252344131469727e+00,-1.309735059738159180e+00
1.746251869201660156e+01,-3.416707038879394531e+00,-1.556738972663879395e+00
5.235250854492187500e+01,-1.024326419830322266e+01,-2.795698881149291992e+00
8.026364135742187500e+01,-1.570434188842773438e+01,-1.427570223808288574e+00
3.949287414550781250e+00,-7.141874432563781738e-01,-1.075370788574218750e+00
4.700851440429687500e+00,-8.500999212265014648e-01,-1.102878451347351074e+00
5.742492198944091797e+00,-1.038469791412353516e+00,-1.134330868721008301e+00
7.468869686126708984e+00,-1.350667119026184082e+00,-1.202138304710388184e+00
1.046812343597412109e+01,-1.893050789833068848e+00,-1.306169748306274414e+00
1.746189689636230469e+01,-3.157801628112792969e+00,-1.552495121955871582e+00
5.234744262695312500e+01,-9.466488838195800781e+00,-2.787907123565673828e+00
3.950575113296508789e+00,-6.561754345893859863e-01,-1.073054075241088867e+00
4.702232837677001953e+00,-7.810228466987609863e-01,-1.100467085838317871e+00
5.803307533264160156e+00,-9.639071822166442871e-01,-1.143501400947570801e+00
7.470726966857910156e+00,-1.240859150886535645e+00,-1.199455738067626953e+00
1.047058391571044922e+01,-1.739123940467834473e+00,-1.303237318992614746e+00
1.746595382690429688e+01,-2.901028156280517578e+00,-1.549005508422851562e+00
5.236329269409179688e+01,-8.697342872619628906e+00,-2.781836271286010742e+00
3.950723648071289062e+00,-5.982293486595153809e-01,-1.070658922195434570e+00
4.702252388000488281e+00,-7.120278477668762207e-01,-1.097974061965942383e+00
5.803177356719970703e+00,-8.787329196929931641e-01,-1.140880584716796875e+00
7.470411777496337891e+00,-1.131190061569213867e+00,-1.196682929992675781e+00
1.046999263763427734e+01,-1.585394859313964844e+00,-1.300206184387207031e+00
1.746493148803710938e+01,-2.644587278366088867e+00,-1.545399308204650879e+00
5.236514282226562500e+01,-7.929272651672363281e+00,-2.775620698928833008e+00
3.978120088577270508e+00,-5.442575216293334961e-01,-1.075862050056457520e+00
4.702271938323974609e+00,-6.433306932449340820e-01,-1.095716238021850586e+00
5.803058624267578125e+00,-7.939323186874389648e-01,-1.138506531715393066e+00
7.470123767852783203e+00,-1.022008061408996582e+00,-1.194171190261840820e+00
1.046945667266845703e+01,-1.432354927062988281e+00,-1.297460556030273438e+00
1.746401596069335938e+01,-2.389299869537353516e+00,-1.542134284973144531e+00
4.806534576416015625e+01,-6.575951576232910156e+00,-2.542459964752197266e+00
4.813011169433593750e+01,-6.584812164306640625e+00,-8.479390144348144531e-01
3.979014635086059570e+00,-4.864737689495086670e-01,-1.074110865592956543e+00
4.742429733276367188e+00,-5.798087716102600098e-01,-1.103026866912841797e+00
5.804114341735839844e+00,-7.096101641654968262e-01,-1.136604428291320801e+00
7.471374988555908203e+00,-9.134492874145507812e-01,-1.192159056663513184e+00
1.047110939025878906e+01,-1.280196309089660645e+00,-1.295261859893798828e+00
1.746676826477050781e+01,-2.135484695434570312e+00,-1.539520502090454102e+00
3.008669471740722656e+01,-3.678395032882690430e+00,-1.588515281677246094e+00
3.012222862243652344e+01,-3.682739257812500000e+00,-5.296996831893920898e-01
3.016082191467285156e+01,-3.687457799911499023e+00,5.303783416748046875e-01
3.979056596755981445e+00,-4.287745058536529541e-01,-1.072355628013610840e+00
4.742370128631591797e+00,-5.110275149345397949e-01,-1.101199030876159668e+00
5.803936004638671875e+00,-6.254194974899291992e-01,-1.134700179100036621e+00
7.471040248870849609e+00,-8.050630688667297363e-01,-1.190145015716552734e+00
1.047054386138916016e+01,-1.128283023834228516e+00,-1.293061733245849609e+00
1.746583366394042969e+01,-1.882080316543579102e+00,-1.536906361579895020e+00
2.116963195800781250e+01,-2.281193494796752930e+00,-1.115874528884887695e+00
2.119576263427734375e+01,-2.284009218215942383e+00,-3.721146881580352783e-01
2.122248649597167969e+01,-2.286888837814331055e+00,3.725838363170623779e-01
3.979709148406982422e+00,-3.713086843490600586e-01,-1.070989489555358887e+00
4.743062019348144531e+00,-4.425298869609832764e-01,-1.099776268005371094e+00
5.804700374603271484e+00,-5.415812134742736816e-01,-1.133218050003051758e+00
7.573422431945800781e+00,-7.066037654876708984e-01,-1.204720020294189453e+00
1.067341518402099609e+01,-9.958345293998718262e-01,-1.316220402717590332e+00
1.746794319152832031e+01,-1.629767179489135742e+00,-1.534882068634033203e+00
1.949944114685058594e+01,-1.819306731224060059e+00,-1.026359081268310547e+00
1.952319335937500000e+01,-1.821522951126098633e+00,-3.422581255435943604e-01
1.954755401611328125e+01,-1.823795795440673828e+00,3.426851928234100342e-01
4.007381916046142578e+00,-3.161089122295379639e-01,-1.077108621597290039e+00
4.742982864379882812e+00,-3.741343319416046143e-01,-1.098403573036193848e+00
5.865060806274414062e+00,-4.626457095146179199e-01,-1.143592000007629395e+00
7.573112487792968750e+00,-5.973796844482421875e-01,-1.203187346458435059e+00
1.067292785644531250e+01,-8.418982028961181641e-01,-1.314539551734924316e+00
1.746727752685546875e+01,-1.377847790718078613e+00,-1.532933592796325684e+00
1.954829216003417969e+01,-1.542001605033874512e+00,-1.027663350105285645e+00
1.957210350036621094e+01,-1.543879866600036621e+00,-3.426930308341979980e-01
1.959658813476562500e+01,-1.545811295509338379e+00,3.431217670440673828e-01
4.007832527160644531e+00,-2.584866881370544434e-01,-1.076125025749206543e+00
4.743453979492187500e+00,-3.059308528900146484e-01,-1.097386240959167480e+00
5.865587234497070312e+00,-3.783032596111297607e-01,-1.142521858215332031e+00
7.573737621307373047e+00,-4.884710609912872314e-01,-1.202052712440490723e+00
1.067377853393554688e+01,-6.884093284606933594e-01,-1.313296198844909668e+00
1.746879386901855469e+01,-1.126656413078308105e+00,-1.531494498252868652e+00
1.959431076049804688e+01,-1.263742446899414062e+00,-1.029026269912719727e+00
1.961817932128906250e+01,-1.265281915664672852e+00,-3.431475460529327393e-01
1.964276695251464844e+01,-1.266867637634277344e+00,3.435776233673095703e-01
4.007821083068847656e+00,-2.009346485137939453e-01,-1.075239539146423340e+00
4.743393898010253906e+00,-2.378130555152893066e-01,-1.096472501754760742e+00
5.865457057952880859e+00,-2.940684258937835693e-01,-1.141559600830078125e+00
7.573524951934814453e+00,-3.797034621238708496e-01,-1.201033234596252441e+00
1.067345905303955078e+01,-5.351206660270690918e-01,-1.312180042266845703e+00
1.746840476989746094e+01,-8.757895827293395996e-01,-1.530204653739929199e+00
1.964402008056640625e+01,-9.848653674125671387e-01,-1.030790925025939941e+00
1.966794776916503906e+01,-9.860650300979614258e-01,-3.437359929084777832e-01
1.969264221191406250e+01,-9.873030781745910645e-01,3.441675603389739990e-01
4.008088588714599609e+00,-1.434754878282546997e-01,-1.074650287628173828e+00
4.743679523468017578e+00,-1.698070466518402100e-01,-1.095864415168762207e+00
5.865776062011718750e+00,-2.099741697311401367e-01,-1.140919923782348633e+00
7.573911190032958984e+00,-2.711193859577178955e-01,-1.200356245040893555e+00
1.067400169372558594e+01,-3.820917308330535889e-01,-1.311440110206604004e+00
1.531018161773681641e+01,-5.480507016181945801e-01,-1.340323328971862793e+00
1.532856082916259766e+01,-5.487086176872253418e-01,-8.038491606712341309e-01
1.534752273559570312e+01,-5.493873357772827148e-01,-2.680631875991821289e-01
1.536710834503173828e+01,-5.500884652137756348e-01,2.684052884578704834e-01
1.538489246368408203e+01,-5.507251024246215820e-01,8.068032860755920410e-01
4.008090496063232422e+00,-8.606180548667907715e-02,-1.074210405349731445e+00
4.743658542633056641e+00,-1.018559411168098450e-01,-1.095410585403442383e+00
5.865728855133056641e+00,-1.259490698575973511e-01,-1.140443325042724609e+00
7.573836803436279297e+00,-1.626255959272384644e-01,-1.199852585792541504e+00
1.067391300201416016e+01,-2.291905134916305542e-01,-1.310891866683959961e+00
1.398643398284912109e+01,-3.003170192241668701e-01,-1.223934650421142578e+00
1.400317001342773438e+01,-3.006764054298400879e-01,-7.340431213378906250e-01
1.402047252655029297e+01,-3.010479211807250977e-01,-2.447843104600906372e-01
1.403835868835449219e+01,-3.014319837093353271e-01,2.450965791940689087e-01
1.405461502075195312e+01,-3.017810285091400146e-01,7.367398142814636230e-01
4.008193969726562500e+00,-2.868409268558025360e-02,-1.074018120765686035e+00
4.783679485321044922e+00,-3.423374891281127930e-02,-1.104426026344299316e+00
5.865863800048828125e+00,-4.197825491428375244e-02,-1.140235900878906250e+00
7.574013233184814453e+00,-5.420239269733428955e-02,-1.199634671211242676e+00
1.067418861389160156e+01,-7.638837397098541260e-02,-1.310657143592834473e+00
1.298862361907958984e+01,-9.295131266117095947e-02,-1.136384725570678711e+00
1.300414466857910156e+01,-9.306239336729049683e-02,-6.815348267555236816e-01
1.302018547058105469e+01,-9.317717701196670532e-02,-2.272736579179763794e-01
1.303678798675537109e+01,-9.329599142074584961e-02,2.275634706020355225e-01
1.305187988281250000e+01,-9.340400248765945435e-02,6.840365529060363770e-01
1.306829357147216797e+01,-9.352146089076995850e-02,1.143355131149291992e+00
4.008216381072998047e+00,2.868425473570823669e-02,-1.074024200439453125e+00
4.783714771270751953e+00,3.423400223255157471e-02,-1.104434132575988770e+00
5.865915298461914062e+00,4.197862371802330017e-02,-1.140245914459228516e+00
7.574097633361816406e+00,5.420299619436264038e-02,-1.199648141860961914e+00
1.067435836791992188e+01,7.638958841562271118e-02,-1.310678005218505859e+00
1.202348995208740234e+01,8.604446798563003540e-02,-1.051944494247436523e+00
1.203784847259521484e+01,8.614721894264221191e-02,-6.308920979499816895e-01
1.205267620086669922e+01,8.625333756208419800e-02,-2.103853225708007812e-01
1.206802654266357422e+01,8.636318892240524292e-02,2.106532752513885498e-01
1.208198547363281250e+01,8.646307885646820068e-02,6.332052946090698242e-01
1.209716701507568359e+01,8.657173067331314087e-02,1.058390498161315918e+00
4.008153915405273438e+00,8.606316894292831421e-02,-1.074227452278137207e+00
4.743753910064697266e+00,1.018579974770545959e-01,-1.095432639122009277e+00
5.865872859954833984e+00,1.259521692991256714e-01,-1.140471339225769043e+00
7.574074268341064453e+00,1.626306921243667603e-01,-1.199890255928039551e+00
1.067438220977783203e+01,2.292005866765975952e-01,-1.310949444770812988e+00
1.127842235565185547e+01,2.421705573797225952e-01,-9.869601130485534668e-01
1.129188919067382812e+01,2.424597144126892090e-01,-5.919183492660522461e-01
1.130578899383544922e+01,2.427581697702407837e-01,-1.973884850740432739e-01
1.132016277313232422e+01,2.430668026208877563e-01,1.976394355297088623e-01
1.133323669433593750e+01,2.433475255966186523e-01,5.940858125686645508e-01
1.134745121002197266e+01,2.436527460813522339e-01,9.930006861686706543e-01
4.008199214935302734e+00,1.434794366359710693e-01,-1.074679851531982422e+00
4.743842124938964844e+00,1.698128730058670044e-01,-1.095902085304260254e+00
5.866023540496826172e+00,2.099830359220504761e-01,-1.140968084335327148e+00
7.574317932128906250e+00,2.711339592933654785e-01,-1.200420618057250977e+00
1.052988624572753906e+01,3.769329190254211426e-01,-1.293733716011047363e+00
1.054379463195800781e+01,3.774307966232299805e-01,-9.230519533157348633e-01
1.055638790130615234e+01,3.778815865516662598e-01,-5.535903573036193848e-01
1.056937503814697266e+01,3.783465027809143066e-01,-1.846070289611816406e-01
1.058279228210449219e+01,3.788267672061920166e-01,1.848413646221160889e-01
1.059497547149658203e+01,3.792628943920135498e-01,5.556139945983886719e-01
1.060822010040283203e+01,3.797370195388793945e-01,9.286921024322509766e-01
4.007971286773681641e+00,2.009421736001968384e-01,-1.075279831886291504e+00
4.743618488311767578e+00,2.378243058919906616e-01,-1.096524477005004883e+00
5.865796089172363281e+00,2.940854132175445557e-01,-1.141625642776489258e+00
7.574082851409912109e+00,3.797314465045928955e-01,-1.201121807098388672e+00
9.953022956848144531e+00,4.990011155605316162e-01,-1.223610639572143555e+00
9.966191291809082031e+00,4.996612966060638428e-01,-8.730226159095764160e-01
9.978102684020996094e+00,5.002585053443908691e-01,-5.235862135887145996e-01
9.990374565124511719e+00,5.008737444877624512e-01,-1.746014058589935303e-01
1.000303459167480469e+01,5.015084743499755859e-01,1.748226583003997803e-01
1.001451396942138672e+01,5.020840167999267578e-01,5.254968404769897461e-01
1.002698135375976562e+01,5.027090907096862793e-01,8.783476948738098145e-01
1.003921222686767578e+01,5.033223032951354980e-01,1.234206676483154297e+00
4.008029460906982422e+00,2.584993839263916016e-01,-1.076177954673767090e+00
4.743748188018798828e+00,3.059498369693756104e-01,-1.097454309463500977e+00
5.866029739379882812e+00,3.783318102359771729e-01,-1.142607927322387695e+00
7.574467182159423828e+00,4.885181188583374023e-01,-1.202168464660644531e+00
9.375989913940429688e+00,6.047080159187316895e-01,-1.153616905212402344e+00
9.388427734375000000e+00,6.055101752281188965e-01,-8.230863213539123535e-01
9.399663925170898438e+00,6.062348484992980957e-01,-4.936382472515106201e-01
9.411217689514160156e+00,6.069800853729248047e-01,-1.646144837141036987e-01
9.423119544982910156e+00,6.077476143836975098e-01,1.648226529359817505e-01
9.433889389038085938e+00,6.084422469139099121e-01,4.954356551170349121e-01
9.445558547973632812e+00,6.091948747634887695e-01,8.280950188636779785e-01
9.456995964050292969e+00,6.099325418472290039e-01,1.163583874702453613e+00
4.007623672485351562e+00,3.161280155181884766e-01,-1.077173590660095215e+00
4.743334293365478516e+00,3.741620481014251709e-01,-1.098484992980957031e+00
5.865595340728759766e+00,4.626879096031188965e-01,-1.143696188926696777e+00
7.573992729187011719e+00,5.974491238594055176e-01,-1.203327178955078125e+00
8.915578842163085938e+00,7.032756209373474121e-01,-1.098094344139099121e+00
8.927441596984863281e+00,7.042114138603210449e-01,-7.834749817848205566e-01
8.938144683837890625e+00,7.050557136535644531e-01,-4.698827266693115234e-01
8.949128150939941406e+00,7.059220671653747559e-01,-1.566926091909408569e-01
8.960418701171875000e+00,7.068126797676086426e-01,1.568903028964996338e-01
8.970615386962890625e+00,7.076169848442077637e-01,4.715897142887115479e-01
8.981644630432128906e+00,7.084870338439941406e-01,7.882318496704101562e-01
8.992425918579101562e+00,7.093374729156494141e-01,1.107559204101562500e+00
3.979992866516113281e+00,3.713351786136627197e-01,-1.071065783500671387e+00
4.743480682373046875e+00,4.425688982009887695e-01,-1.099873185157775879e+00
5.805326461791992188e+00,5.416396260261535645e-01,-1.133340239524841309e+00
7.574473857879638672e+00,7.067018747329711914e-01,-1.204887270927429199e+00
8.449916839599609375e+00,7.883811593055725098e-01,-1.042023777961730957e+00
8.461208343505859375e+00,7.894346117973327637e-01,-7.434737086296081543e-01
8.471375465393066406e+00,7.903832197189331055e-01,-4.458934664726257324e-01
8.481781005859375000e+00,7.913540601730346680e-01,-1.486928164958953857e-01
8.492451667785644531e+00,7.923496365547180176e-01,1.488798707723617554e-01
8.502059936523437500e+00,7.932460904121398926e-01,4.475085437297821045e-01
8.512430191040039062e+00,7.942135930061340332e-01,7.479744553565979004e-01
8.524753570556640625e+00,7.953634858131408691e-01,1.051252484321594238e+00
3.979377746582031250e+00,4.288090765476226807e-01,-1.072442173957824707e+00
4.742848396301269531e+00,5.110790133476257324e-01,-1.101310014724731445e+00
5.804652214050292969e+00,6.254966855049133301e-01,-1.134840250015258789e+00
7.472214698791503906e+00,8.051896095275878906e-01,-1.190332055091857910e+00
8.074982643127441406e+00,8.701425790786743164e-01,-9.972214698791503906e-01
8.084643363952636719e+00,8.711835741996765137e-01,-7.114083170890808105e-01
8.094383239746093750e+00,8.722331523895263672e-01,-4.266638159751892090e-01
8.104321479797363281e+00,8.733040690422058105e-01,-1.422801911830902100e-01
8.114487648010253906e+00,8.743995428085327148e-01,1.424586623907089233e-01
8.124803543090820312e+00,8.755112290382385254e-01,4.282673299312591553e-01
8.135097503662109375e+00,8.766204714775085449e-01,7.158480882644653320e-01
8.145103454589843750e+00,8.776986002922058105e-01,1.005881071090698242e+00
8.154459953308105469e+00,8.787068724632263184e-01,1.299014449119567871e+00
3.979377746582031250e+00,4.865181446075439453e-01,-1.074208855628967285e+00
4.742973804473876953e+00,5.798752903938293457e-01,-1.103153467178344727e+00
5.804932117462158203e+00,7.097101807594299316e-01,-1.136764526367187500e+00
7.472717285156250000e+00,9.136133790016174316e-01,-1.192373156547546387e+00
7.780747413635253906e+00,9.512730836868286133e-01,-9.624678492546081543e-01
7.790048599243164062e+00,9.524102210998535156e-01,-6.866146922111511230e-01
7.799390792846679688e+00,9.535524249076843262e-01,-4.117917120456695557e-01
7.808892726898193359e+00,9.547141194343566895e-01,-1.373194456100463867e-01
7.818578243255615234e+00,9.558982849121093750e-01,1.374897807836532593e-01
7.828376293182373047e+00,9.570961594581604004e-01,4.133220613002777100e-01
7.838120937347412109e+00,9.582875370979309082e-01,6.908517479896545410e-01
7.847555637359619141e+00,9.594410657882690430e-01,9.707319140434265137e-01
7.856335163116455078e+00,9.605144262313842773e-01,1.253584623336791992e+00
3.978530406951904297e+00,5.443136096000671387e-01,-1.075973033905029297e+00
4.702858448028564453e+00,6.434109210968017578e-01,-1.095852971076965332e+00
5.803966522216796875e+00,7.940565347671508789e-01,-1.138684511184692383e+00
7.471614360809326172e+00,1.022211909294128418e+00,-1.194409489631652832e+00
7.792915344238281250e+00,1.066170096397399902e+00,-9.657617807388305664e-01
7.802297115325927734e+00,1.067453622817993164e+00,-6.889703869819641113e-01
7.811687946319580078e+00,1.068738341331481934e+00,-4.132062792778015137e-01
7.821204185485839844e+00,1.070040345191955566e+00,-1.377911716699600220e-01
7.830871582031250000e+00,1.071362972259521484e+00,1.379614919424057007e-01
7.840618133544921875e+00,1.072696447372436523e+00,4.147365987300872803e-01
7.850280284881591797e+00,1.074018239974975586e+00,6.932074427604675293e-01
7.859600067138671875e+00,1.075293302536010742e+00,9.740258455276489258e-01
7.870705604553222656e+00,1.076812744140625000e+00,1.258208036422729492e+00
3.951174497604370117e+00,5.982975959777832031e-01,-1.070781111717224121e+00
4.702906608581542969e+00,7.121269106864929199e-01,-1.098126888275146484e+00
5.804186820983886719e+00,8.788857460021972656e-01,-1.141078948974609375e+00
7.472069740295410156e+00,1.131441116333007812e+00,-1.196948528289794922e+00
7.808437824249267578e+00,1.182374954223632812e+00,-9.696834683418273926e-01
7.817920207977294922e+00,1.183810710906982422e+00,-6.917753219604492188e-01
7.827370643615722656e+00,1.185241699218750000e+00,-4.148907065391540527e-01
7.836906909942626953e+00,1.186685800552368164e+00,-1.383528858423233032e-01
7.846552371978759766e+00,1.188146352767944336e+00,1.385231763124465942e-01
7.856236457824707031e+00,1.189612746238708496e+00,4.164207577705383301e-01
7.865794658660888672e+00,1.191060066223144531e+00,6.960115432739257812e-01
7.874972343444824219e+00,1.192449688911437988e+00,9.779459238052368164e-01
7.885892868041992188e+00,1.194103360176086426e+00,1.263238787651062012e+00
3.951073884963989258e+00,6.562582850456237793e-01,-1.073189496994018555e+00
4.702951431274414062e+00,7.811422348022460938e-01,-1.100635290145874023e+00
5.804418087005615234e+00,9.640915989875793457e-01,-1.143720149993896484e+00
7.472553730010986328e+00,1.241162538528442383e+00,-1.199748992919921875e+00
7.824061393737792969e+00,1.299546718597412109e+00,-9.738338589668273926e-01
7.833652496337890625e+00,1.301139712333679199e+00,-6.947442293167114258e-01
7.843167781829833984e+00,1.302720189094543457e+00,-4.166737198829650879e-01
7.852723121643066406e+00,1.304307222366333008e+00,-1.389474570751190186e-01
7.862342357635498047e+00,1.305904984474182129e+00,1.391176581382751465e-01
7.871955394744873047e+00,1.307501673698425293e+00,4.182030856609344482e-01
7.881398677825927734e+00,1.309070110321044922e+00,6.989786624908447266e-01
7.890418052673339844e+00,1.310568332672119141e+00,9.820930361747741699e-01
7.901133537292480469e+00,1.312348008155822754e+00,1.268559217453002930e+00
3.949829578399658203e+00,7.142854332923889160e-01,-1.075518369674682617e+00
4.701626777648925781e+00,8.502401113510131836e-01,-1.103060364723205566e+00
5.743668079376220703e+00,1.038682460784912109e+00,-1.134563088417053223e+00
7.470844268798828125e+00,1.351024270057678223e+00,-1.202456116676330566e+00
7.835765361785888672e+00,1.417016386985778809e+00,-9.777148962020874023e-01
7.845458030700683594e+00,1.418769240379333496e+00,-6.975207924842834473e-01
7.855030536651611328e+00,1.420500397682189941e+00,-4.183412790298461914e-01
7.864600658416748047e+00,1.422230958938598633e+00,-1.395035386085510254e-01
7.874190330505371094e+00,1.423965215682983398e+00,1.396736353635787964e-01
7.883730888366699219e+00,1.425690531730651855e+00,4.198697805404663086e-01
7.893059253692626953e+00,1.427377462387084961e+00,7.017529010772705078e-01
7.903951644897460938e+00,1.429347157478332520e+00,9.862229228019714355e-01
7.912435531616210938e+00,1.430881381034851074e+00,1.273531675338745117e+00
3.922683000564575195e+00,7.675101161003112793e-01,-1.071008205413818359e+00
4.662941932678222656e+00,9.123488068580627441e-01,-1.096935868263244629e+00
5.743710041046142578e+00,1.123811364173889160e+00,-1.137632250785827637e+00
7.372335910797119141e+00,1.442467451095581055e+00,-1.189802289009094238e+00
7.851304531097412109e+00,1.536182165145874023e+00,-9.822967648506164551e-01
7.861120700836181641e+00,1.538102746009826660e+00,-7.007988691329956055e-01
7.870764255523681641e+00,1.539989709854125977e+00,-4.203101098537445068e-01
7.880354404449462891e+00,1.541865944862365723e+00,-1.401600837707519531e-01
7.889910697937011719e+00,1.543735742568969727e+00,1.403300613164901733e-01
7.899364471435546875e+00,1.545585513114929199e+00,4.218373894691467285e-01
7.910144329071044922e+00,1.547694802284240723e+00,7.051692008972167969e-01
7.919253349304199219e+00,1.549476981163024902e+00,9.907980561256408691e-01
7.929963111877441406e+00,1.551572442054748535e+00,1.279796242713928223e+00
3.922353029251098633e+00,8.259009718894958496e-01,-1.074035644531250000e+00
4.662751674652099609e+00,9.818012714385986328e-01,-1.100084304809570312e+00
5.743690490722656250e+00,1.209406614303588867e+00,-1.140940189361572266e+00
7.372535705566406250e+00,1.552380561828613281e+00,-1.193298220634460449e+00
