4.443024992942810059e-01,-7.295066356658935547e+00,-6.394172906875610352e-01
4.448309540748596191e-01,-7.303743362426757812e+00,-3.834816515445709229e-01
4.453684985637664795e-01,-7.312569141387939453e+00,-1.278776973485946655e-01
4.459165036678314209e-01,-7.321567058563232422e+00,1.280350387096405029e-01
4.464708864688873291e-01,-7.330669879913330078e+00,3.848954141139984131e-01
4.470222294330596924e-01,-7.339722156524658203e+00,6.433313488960266113e-01
4.475554525852203369e-01,-7.348476886749267578e+00,9.039500355720520020e-01
4.480508863925933838e-01,-7.356611728668212891e+00,1.167330026626586914e+00
2.999170720577239990e-01,-3.983829975128173828e+00,-1.070483088493347168e+00
3.561690151691436768e-01,-4.731030464172363281e+00,-1.095333576202392578e+00
4.380750954151153564e-01,-5.818996906280517578e+00,-1.134297490119934082e+00
5.432839989662170410e-01,-7.216497898101806641e+00,-1.146213650703430176e+00
5.439777970314025879e-01,-7.225714206695556641e+00,-8.897154331207275391e-01
5.446477532386779785e-01,-7.234612941741943359e+00,-6.347367763519287109e-01
5.453082323074340820e-01,-7.243385791778564453e+00,-3.806834220886230469e-01
5.459672808647155762e-01,-7.252140522003173828e+00,-1.269446015357971191e-01
5.466265678405761719e-01,-7.260897636413574219e+00,1.270979046821594238e-01
5.472811460494995117e-01,-7.269592761993408203e+00,3.820607662200927734e-01
5.479199290275573730e-01,-7.278077125549316406e+00,6.385501623153686523e-01
5.486424565315246582e-01,-7.287674903869628906e+00,8.973447680473327637e-01
5.493578910827636719e-01,-7.297177791595458984e+00,1.159028291702270508e+00
3.580833673477172852e-01,-3.992290496826171875e+00,-1.074023723602294922e+00
4.248083829879760742e-01,-4.736210823059082031e+00,-1.097828388214111328e+00
5.216866731643676758e-01,-5.816312313079833984e+00,-1.135113477706909180e+00
6.420549750328063965e-01,-7.158304691314697266e+00,-1.138313770294189453e+00
6.428886055946350098e-01,-7.167598724365234375e+00,-8.836020827293395996e-01
6.436324119567871094e-01,-7.175891399383544922e+00,-6.303285360336303711e-01
6.444277167320251465e-01,-7.184758663177490234e+00,-3.780482709407806396e-01
6.452066898345947266e-01,-7.193443298339843750e+00,-1.260658949613571167e-01
6.459711194038391113e-01,-7.201966285705566406e+00,1.262152493000030518e-01
6.467925906181335449e-01,-7.211124897003173828e+00,3.794355988502502441e-01
6.475344300270080566e-01,-7.219395637512207031e+00,6.341499090194702148e-01
6.483585238456726074e-01,-7.228583335876464844e+00,8.911201357841491699e-01
6.491598486900329590e-01,-7.237517356872558594e+00,1.150910139083862305e+00
4.145808815956115723e-01,-3.980962038040161133e+00,-1.072462677955627441e+00
4.907874763011932373e-01,-4.712726593017578125e+00,-1.093901038169860840e+00
6.058855652809143066e-01,-5.817941665649414062e+00,-1.137007474899291992e+00
7.391686439514160156e-01,-7.097775936126708984e+00,-1.130255103111267090e+00
7.400606274604797363e-01,-7.106341361999511719e+00,-8.772664666175842285e-01
7.410079240798950195e-01,-7.115437507629394531e+00,-6.258857846260070801e-01
7.418889403343200684e-01,-7.123897552490234375e+00,-3.753661811351776123e-01
7.427858114242553711e-01,-7.132509708404541016e+00,-1.251715272665023804e-01
7.437002658843994141e-01,-7.141290664672851562e+00,1.253256201744079590e-01
7.445554733276367188e-01,-7.149502277374267578e+00,3.767153322696685791e-01
7.454770803451538086e-01,-7.158352375030517578e+00,6.296606659889221191e-01
7.463856935501098633e-01,-7.167077064514160156e+00,8.847641944885253906e-01
7.474411129951477051e-01,-7.177211284637451172e+00,1.142904520034790039e+00
4.709356725215911865e-01,-3.969746589660644531e+00,-1.071147441864013672e+00
5.600741505622863770e-01,-4.721138477325439453e+00,-1.097601890563964844e+00
6.903566122055053711e-01,-5.819352626800537109e+00,-1.139097690582275391e+00
8.350561261177062988e-01,-7.039095401763916016e+00,-1.122699141502380371e+00
8.360886573791503906e-01,-7.047799110412597656e+00,-8.714275956153869629e-01
8.371022343635559082e-01,-7.056342601776123047e+00,-6.216779947280883789e-01
8.381191492080688477e-01,-7.064915180206298828e+00,-3.728522360324859619e-01
8.391326069831848145e-01,-7.073457717895507812e+00,-1.243332475423812866e-01
8.401441574096679688e-01,-7.081984996795654297e+00,1.244831383228302002e-01
8.411667943000793457e-01,-7.090605258941650391e+00,3.742080330848693848e-01
8.421831727027893066e-01,-7.099172592163085938e+00,6.254513859748840332e-01
8.431635499000549316e-01,-7.107436656951904297e+00,8.788015246391296387e-01
8.442864418029785156e-01,-7.116902351379394531e+00,1.135108947753906250e+00
8.453654050827026367e-01,-7.125997543334960938e+00,1.394864320755004883e+00
5.275771617889404297e-01,-3.961659431457519531e+00,-1.070893168449401855e+00
6.261220574378967285e-01,-4.701648235321044922e+00,-1.095041990280151367e+00
7.693633437156677246e-01,-5.777269363403320312e+00,-1.132899761199951172e+00
9.293580651283264160e-01,-6.978694438934326172e+00,-1.115072965621948242e+00
9.305412769317626953e-01,-6.987579345703125000e+00,-8.655399084091186523e-01
9.316777586936950684e-01,-6.996113777160644531e+00,-6.174833178520202637e-01
9.327920079231262207e-01,-7.004480838775634766e+00,-3.703294992446899414e-01
9.339193105697631836e-01,-7.012945652008056641e+00,-1.234919205307960510e-01
9.350631833076477051e-01,-7.021535396575927734e+00,1.236431747674942017e-01
9.361932277679443359e-01,-7.030021190643310547e+00,3.716798126697540283e-01
9.372901916503906250e-01,-7.038258552551269531e+00,6.212030649185180664e-01
9.385158419609069824e-01,-7.047461986541748047e+00,8.729574680328369141e-01
9.397206306457519531e-01,-7.056508541107177734e+00,1.127506256103515625e+00
9.408502578735351562e-01,-7.064991474151611328e+00,1.385416865348815918e+00
5.837517976760864258e-01,-3.950518131256103516e+00,-1.070030570030212402e+00
6.959053277969360352e-01,-4.709513187408447266e+00,-1.099081158638000488e+00
8.538585901260375977e-01,-5.778455734252929688e+00,-1.135412693023681641e+00
1.023038983345031738e+00,-6.923377513885498047e+00,-1.108460426330566406e+00
1.024373888969421387e+00,-6.932411670684814453e+00,-8.604344725608825684e-01
1.025559186935424805e+00,-6.940433025360107422e+00,-6.138016581535339355e-01
1.026812553405761719e+00,-6.948915481567382812e+00,-3.681310713291168213e-01
1.028053641319274902e+00,-6.957314491271972656e+00,-1.227588430047035217e-01
1.029286265373229980e+00,-6.965655326843261719e+00,1.229060217738151550e-01
1.030595779418945312e+00,-6.974517822265625000e+00,3.694874048233032227e-01
1.031770825386047363e+00,-6.982470512390136719e+00,6.175193190574645996e-01
1.033059835433959961e+00,-6.991193294525146484e+00,8.677302598953247070e-01
1.034299492835998535e+00,-6.999582767486572266e+00,1.120661258697509766e+00
1.035732150077819824e+00,-7.009278297424316406e+00,1.377257823944091797e+00
6.403397917747497559e-01,-3.942423820495605469e+00,-1.070211052894592285e+00
7.617818117141723633e-01,-4.690114498138427734e+00,-1.096986293792724609e+00
9.394339323043823242e-01,-5.783876895904541016e+00,-1.139003396034240723e+00
1.115263581275939941e+00,-6.866419315338134766e+00,-1.101784229278564453e+00
1.116633534431457520e+00,-6.874854087829589844e+00,-8.551867008209228516e-01
1.118066430091857910e+00,-6.883676052093505859e+00,-6.101349592208862305e-01
1.119386792182922363e+00,-6.891805171966552734e+00,-3.659168779850006104e-01
1.120740056037902832e+00,-6.900136947631835938e+00,-1.220205202698707581e-01
1.122129321098327637e+00,-6.908690452575683594e+00,1.221717819571495056e-01
1.123416781425476074e+00,-6.916616439819335938e+00,3.672342300415039062e-01
1.124782919883728027e+00,-6.925027847290039062e+00,6.138001680374145508e-01
1.126113176345825195e+00,-6.933218002319335938e+00,8.624467849731445312e-01
1.127635002136230469e+00,-6.942587852478027344e+00,1.114006161689758301e+00
1.129105448722839355e+00,-6.951641082763671875e+00,1.368968009948730469e+00
6.969452500343322754e-01,-3.934250116348266602e+00,-1.070590615272521973e+00
8.274471163749694824e-01,-4.670932292938232422e+00,-1.095157742500305176e+00
1.017337679862976074e+00,-5.742863178253173828e+00,-1.133677959442138672e+00
1.206558108329772949e+00,-6.811010837554931641e+00,-1.095552206039428711e+00
1.208088159561157227e+00,-6.819648265838623047e+00,-8.503833413124084473e-01
1.209569096565246582e+00,-6.828007698059082031e+00,-6.066731810569763184e-01
1.211032509803771973e+00,-6.836268901824951172e+00,-3.638512790203094482e-01
1.212496757507324219e+00,-6.844534397125244141e+00,-1.213317289948463440e-01
1.213965177536010742e+00,-6.852823734283447266e+00,1.214786693453788757e-01
1.215427279472351074e+00,-6.861077308654785156e+00,3.651716709136962891e-01
1.216857194900512695e+00,-6.869149208068847656e+00,6.103286147117614746e-01
1.218457579612731934e+00,-6.878182888031005859e+00,8.576824069023132324e-01
1.220038414001464844e+00,-6.887106895446777344e+00,1.107792377471923828e+00
1.221529245376586914e+00,-6.895522594451904297e+00,1.361220479011535645e+00
7.541766166687011719e-01,-3.929060220718383789e+00,-1.072005987167358398e+00
8.936421275138854980e-01,-4.655638694763183594e+00,-1.094458937644958496e+00
1.104154109954833984e+00,-5.752350330352783203e+00,-1.138554096221923828e+00
1.296700477600097656e+00,-6.755465984344482422e+00,-1.089491724967956543e+00
1.298203468322753906e+00,-6.763296604156494141e+00,-8.455869555473327637e-01
1.299728870391845703e+00,-6.771243095397949219e+00,-6.032207608222961426e-01
1.301340818405151367e+00,-6.779641151428222656e+00,-3.617916703224182129e-01
1.302914500236511230e+00,-6.787839412689208984e+00,-1.206449493765830994e-01
1.304453372955322266e+00,-6.795856952667236328e+00,1.207874417304992676e-01
1.306090116500854492e+00,-6.804383754730224609e+00,3.631120622158050537e-01
1.307768225669860840e+00,-6.813126564025878906e+00,6.069519519805908203e-01
1.309184432029724121e+00,-6.820504188537597656e+00,8.527394533157348633e-01
1.311056137084960938e+00,-6.830255031585693359e+00,1.101553320884704590e+00
1.312533855438232422e+00,-6.837953567504882812e+00,1.353425979614257812e+00
8.115389943122863770e-01,-3.923699617385864258e+00,-1.073602795600891113e+00
9.657816290855407715e-01,-4.669445514678955078e+00,-1.100841522216796875e+00
1.182367920875549316e+00,-5.716615676879882812e+00,-1.134714722633361816e+00
1.385847330093383789e+00,-6.700415611267089844e+00,-1.083701491355895996e+00
1.387521386146545410e+00,-6.708509445190429688e+00,-8.411340713500976562e-01
1.389176011085510254e+00,-6.716509342193603516e+00,-6.000546813011169434e-01
1.390849232673645020e+00,-6.724598884582519531e+00,-3.598798811435699463e-01
1.392531275749206543e+00,-6.732731819152832031e+00,-1.200074553489685059e-01
1.394225478172302246e+00,-6.740922927856445312e+00,1.201534494757652283e-01
1.395950794219970703e+00,-6.749264717102050781e+00,3.611999154090881348e-01
1.397676706314086914e+00,-6.757609367370605469e+00,6.037265658378601074e-01
1.399356484413146973e+00,-6.765731334686279297e+00,8.483086824417114258e-01
1.400930047035217285e+00,-6.773338794708251953e+00,1.095495820045471191e+00
1.402707219123840332e+00,-6.781931877136230469e+00,1.346173644065856934e+00
8.645961880683898926e-01,-3.898086786270141602e+00,-1.069871068000793457e+00
1.032196521759033203e+00,-4.653723239898681641e+00,-1.100505352020263672e+00
1.260163187980651855e+00,-5.681525707244873047e+00,-1.131214022636413574e+00
1.474248409271240234e+00,-6.646742343902587891e+00,-1.078323006629943848e+00
1.476101517677307129e+00,-6.655097484588623047e+00,-8.370004296302795410e-01
1.477889060974121094e+00,-6.663156509399414062e+00,-5.971168279647827148e-01
1.479650139808654785e+00,-6.671096801757812500e+00,-3.581133484840393066e-01
1.481438875198364258e+00,-6.679161071777343750e+00,-1.194183081388473511e-01
1.483260631561279297e+00,-6.687374591827392578e+00,1.195651590824127197e-01
1.485069155693054199e+00,-6.695528507232666016e+00,3.594248890876770020e-01
1.486832737922668457e+00,-6.703479766845703125e+00,6.007304191589355469e-01
1.488789916038513184e+00,-6.712303638458251953e+00,8.441951870918273926e-01
1.490365028381347656e+00,-6.719405651092529297e+00,1.090111374855041504e+00
1.492516160011291504e+00,-6.729103565216064453e+00,1.339790821075439453e+00
9.227273464202880859e-01,-3.895573616027832031e+00,-1.072696328163146973e+00
1.092793583869934082e+00,-4.613560199737548828e+00,-1.094594359397888184e+00
1.348807454109191895e+00,-5.694400310516357422e+00,-1.137504696846008301e+00
1.561474442481994629e+00,-6.592238426208496094e+00,-1.072996735572814941e+00
1.563523173332214355e+00,-6.600887775421142578e+00,-8.329119086265563965e-01
1.565350770950317383e+00,-6.608603477478027344e+00,-5.941751003265380859e-01
1.567268252372741699e+00,-6.616698741912841797e+00,-3.563609421253204346e-01
1.569162964820861816e+00,-6.624698162078857422e+00,-1.188339516520500183e-01
1.571041226387023926e+00,-6.632627487182617188e+00,1.189761906862258911e-01
1.573022484779357910e+00,-6.640992164611816406e+00,3.576693236827850342e-01
1.574804067611694336e+00,-6.648513793945312500e+00,5.977633595466613770e-01
1.576736927032470703e+00,-6.656673431396484375e+00,8.399510383605957031e-01
1.578947186470031738e+00,-6.666005134582519531e+00,1.085003495216369629e+00
1.580681681632995605e+00,-6.673327922821044922e+00,1.333053827285766602e+00
9.762152433395385742e-01,-3.873354673385620117e+00,-1.070316076278686523e+00
1.159818291664123535e+00,-4.601841449737548828e+00,-1.095640540122985840e+00
1.427511334419250488e+00,-5.663973808288574219e+00,-1.135392069816589355e+00
1.648309826850891113e+00,-6.540041446685791016e+00,-1.068231463432312012e+00
1.650320172309875488e+00,-6.548018455505371094e+00,-8.291364908218383789e-01
1.652289152145385742e+00,-6.555830478668212891e+00,-5.914960503578186035e-01
1.654261231422424316e+00,-6.563655376434326172e+00,-3.547430634498596191e-01
1.656261563301086426e+00,-6.571592330932617188e+00,-1.182944700121879578e-01
1.658295154571533203e+00,-6.579660892486572266e+00,1.184397116303443909e-01
1.660346984863281250e+00,-6.587801933288574219e+00,3.560481071472167969e-01
1.662379980087280273e+00,-6.595868587493896484e+00,5.951084494590759277e-01
1.664340972900390625e+00,-6.603649139404296875e+00,8.361806869506835938e-01
1.666536331176757812e+00,-6.612359523773193359e+00,1.080043673515319824e+00
1.668625712394714355e+00,-6.620649814605712891e+00,1.327165961265563965e+00
1.030341506004333496e+00,-3.854462862014770508e+00,-1.069061517715454102e+00
1.227926731109619141e+00,-4.593620300292968750e+00,-1.097755432128906250e+00
1.507229089736938477e+00,-5.638478755950927734e+00,-1.134489774703979492e+00
1.733860611915588379e+00,-6.486297130584716797e+00,-1.063397765159606934e+00
1.736085057258605957e+00,-6.494618892669677734e+00,-8.254367709159851074e-01
1.738096594810485840e+00,-6.502143859863281250e+00,-5.888365507125854492e-01
1.740232348442077637e+00,-6.510133743286132812e+00,-3.531604409217834473e-01
1.742337107658386230e+00,-6.518007278442382812e+00,-1.177667528390884399e-01
1.744415640830993652e+00,-6.525783061981201172e+00,1.179072409868240356e-01
1.746634006500244141e+00,-6.534081935882568359e+00,3.544595837593078613e-01
1.748662114143371582e+00,-6.541668891906738281e+00,5.924159288406372070e-01
1.750879645347595215e+00,-6.549964427947998047e+00,8.324709534645080566e-01
1.753026247024536133e+00,-6.557995319366455078e+00,1.075152277946472168e+00
1.755462765693664551e+00,-6.567110061645507812e+00,1.321335077285766602e+00
1.089632272720336914e+00,-3.854288816452026367e+00,-1.073229074478149414e+00
1.296231627464294434e+00,-4.585079669952392578e+00,-1.100035548210144043e+00
1.586863517761230469e+00,-5.613114356994628906e+00,-1.133840203285217285e+00
1.819143533706665039e+00,-6.434743881225585938e+00,-1.059106111526489258e+00
1.821330785751342773e+00,-6.442480564117431641e+00,-8.220393657684326172e-01
1.823494911193847656e+00,-6.450135707855224609e+00,-5.864302515983581543e-01
1.825686097145080566e+00,-6.457886219024658203e+00,-3.517076969146728516e-01
1.827894330024719238e+00,-6.465697765350341797e+00,-1.172823309898376465e-01
1.830124020576477051e+00,-6.473584651947021484e+00,1.174253970384597778e-01
1.832397818565368652e+00,-6.481626987457275391e+00,3.530006706714630127e-01
1.834672570228576660e+00,-6.489673614501953125e+00,5.900249481201171875e-01
1.836891412734985352e+00,-6.497522354125976562e+00,8.290625214576721191e-01
1.838973402976989746e+00,-6.504886627197265625e+00,1.070651054382324219e+00
1.841291069984436035e+00,-6.513084888458251953e+00,1.315632939338684082e+00
1.144676327705383301e+00,-3.838275909423828125e+00,-1.073222517967224121e+00
1.357995271682739258e+00,-4.553567409515380859e+00,-1.097026228904724121e+00
1.667793989181518555e+00,-5.592370033264160156e+00,-1.134355902671813965e+00
1.903248786926269531e+00,-6.381886482238769531e+00,-1.054782032966613770e+00
1.905671238899230957e+00,-6.390009403228759766e+00,-8.187407255172729492e-01
1.908000349998474121e+00,-6.397819042205810547e+00,-5.840969085693359375e-01
1.910286664962768555e+00,-6.405485153198242188e+00,-3.503071069717407227e-01
1.912596464157104492e+00,-6.413230419158935547e+00,-1.168152317404747009e-01
1.914936661720275879e+00,-6.421077728271484375e+00,1.169581711292266846e-01
1.917250871658325195e+00,-6.428837776184082031e+00,3.515842258930206299e-01
1.919496655464172363e+00,-6.436367988586425781e+00,5.876162648200988770e-01
1.921959400177001953e+00,-6.444625854492187500e+00,8.257386684417724609e-01
1.924358963966369629e+00,-6.452672004699707031e+00,1.066481351852416992e+00
1.926586031913757324e+00,-6.460139751434326172e+00,1.310374140739440918e+00
1.199716806411743164e+00,-3.822215080261230469e+00,-1.073423266410827637e+00
1.427592039108276367e+00,-4.548209667205810547e+00,-1.100545525550842285e+00
1.748779535293579102e+00,-5.571491241455078125e+00,-1.135081768035888672e+00
1.987194418907165527e+00,-6.331064224243164062e+00,-1.050975799560546875e+00
1.989586591720581055e+00,-6.338685989379882812e+00,-8.157300353050231934e-01
1.991965889930725098e+00,-6.346265792846679688e+00,-5.819337368011474609e-01
1.994426488876342773e+00,-6.354105472564697266e+00,-3.490226566791534424e-01
1.996838331222534180e+00,-6.361789226531982422e+00,-1.163869351148605347e-01
1.999208450317382812e+00,-6.369340419769287109e+00,1.165250763297080994e-01
2.001676321029663086e+00,-6.377202987670898438e+00,3.502914011478424072e-01
2.004158735275268555e+00,-6.385111331939697266e+00,5.854957103729248047e-01
2.006591796875000000e+00,-6.392863273620605469e+00,8.227021694183349609e-01
2.008886814117431641e+00,-6.400175094604492188e+00,1.062448382377624512e+00
2.011435270309448242e+00,-6.408293724060058594e+00,1.305563926696777344e+00
1.249961137771606445e+00,-3.791499614715576172e+00,-1.069712281227111816e+00
1.490331649780273438e+00,-4.520614147186279297e+00,-1.098917365074157715e+00
1.831316232681274414e+00,-5.554921150207519531e+00,-1.136929750442504883e+00
2.070349216461181641e+00,-6.279978275299072266e+00,-1.047307372093200684e+00
2.072718381881713867e+00,-6.287164688110351562e+00,-8.128344416618347168e-01
2.075277090072631836e+00,-6.294925689697265625e+00,-5.798903703689575195e-01
2.077797651290893555e+00,-6.302571296691894531e+00,-3.477899432182312012e-01
2.080310583114624023e+00,-6.310194015502929688e+00,-1.159758865833282471e-01
2.082822322845458984e+00,-6.317812919616699219e+00,1.161159127950668335e-01
2.085313558578491211e+00,-6.325369834899902344e+00,3.490480184555053711e-01
2.088022947311401367e+00,-6.333588123321533203e+00,5.834519267082214355e-01
2.090397596359252930e+00,-6.340790748596191406e+00,8.197674751281738281e-01
2.092990875244140625e+00,-6.348657131195068359e+00,1.058760881423950195e+00
2.095916748046875000e+00,-6.357532501220703125e+00,1.301200866699218750e+00
1.305899858474731445e+00,-3.778438329696655273e+00,-1.071191072463989258e+00
1.552952170372009277e+00,-4.493249416351318359e+00,-1.097556352615356445e+00
1.914022564888000488e+00,-5.537956237792968750e+00,-1.138948082923889160e+00
2.152871131896972656e+00,-6.229031085968017578e+00,-1.043843030929565430e+00
2.155503988265991211e+00,-6.236648559570312500e+00,-8.102092742919921875e-01
2.158247947692871094e+00,-6.244587898254394531e+00,-5.780398249626159668e-01
2.160826683044433594e+00,-6.252049446105957031e+00,-3.466732501983642578e-01
2.163440704345703125e+00,-6.259613037109375000e+00,-1.156035363674163818e-01
2.166094541549682617e+00,-6.267291069030761719e+00,1.157453432679176331e-01
2.168602705001831055e+00,-6.274548053741455078e+00,3.479208052158355713e-01
2.171250820159912109e+00,-6.282210350036621094e+00,5.815223455429077148e-01
2.173845529556274414e+00,-6.289717674255371094e+00,8.171035647392272949e-01
2.176741123199462891e+00,-6.298095703125000000e+00,1.055416584014892578e+00
2.179521322250366211e+00,-6.306139945983886719e+00,1.296934485435485840e+00
1.362987399101257324e+00,-3.768053770065307617e+00,-1.073667883872985840e+00
1.616751194000244141e+00,-4.469597816467285156e+00,-1.097319245338439941e+00
1.985136389732360840e+00,-5.488019466400146484e+00,-1.134405493736267090e+00
2.234992980957031250e+00,-6.178761482238769531e+00,-1.040673255920410156e+00
2.237829446792602539e+00,-6.186602592468261719e+00,-8.077862262725830078e-01
2.240559816360473633e+00,-6.194151401519775391e+00,-5.762806534767150879e-01
2.243243694305419922e+00,-6.201570987701416016e+00,-3.456192612648010254e-01
2.245956182479858398e+00,-6.209070205688476562e+00,-1.152520030736923218e-01
2.248705863952636719e+00,-6.216671466827392578e+00,1.153931021690368652e-01
2.251427173614501953e+00,-6.224194526672363281e+00,3.468801081180572510e-01
2.254073619842529297e+00,-6.231510639190673828e+00,5.797564387321472168e-01
2.256953716278076172e+00,-6.239472866058349609e+00,8.146894574165344238e-01
2.259752511978149414e+00,-6.247210502624511719e+00,1.052201986312866211e+00
2.262341976165771484e+00,-6.254369258880615234e+00,1.292814493179321289e+00
1.415079355239868164e+00,-3.743671894073486328e+00,-1.072382092475891113e+00
1.681859731674194336e+00,-4.449454307556152344e+00,-1.098171472549438477e+00
2.071176528930664062e+00,-5.479413986206054688e+00,-1.138638019561767578e+00
2.316502809524536133e+00,-6.128437995910644531e+00,-1.037675738334655762e+00
2.319346427917480469e+00,-6.135961532592773438e+00,-8.054261207580566406e-01
2.322155475616455078e+00,-6.143392562866210938e+00,-5.745917558670043945e-01
2.325035810470581055e+00,-6.151012897491455078e+00,-3.446209728717803955e-01
2.327847719192504883e+00,-6.158451557159423828e+00,-1.149191334843635559e-01
2.330599546432495117e+00,-6.165731906890869141e+00,1.150549873709678650e-01
2.333440303802490234e+00,-6.173247337341308594e+00,3.458667099475860596e-01
2.336279392242431641e+00,-6.180757999420166016e+00,5.780865550041198730e-01
2.339041709899902344e+00,-6.188066005706787109e+00,8.122655153274536133e-01
2.342092514038085938e+00,-6.196136951446533203e+00,1.049138545989990234e+00
2.344995021820068359e+00,-6.203815937042236328e+00,1.289170980453491211e+00
1.467094898223876953e+00,-3.719438552856445312e+00,-1.071345806121826172e+00
1.747014284133911133e+00,-4.429101467132568359e+00,-1.099207282066345215e+00
2.143624305725097656e+00,-5.434603691101074219e+00,-1.135585904121398926e+00
2.397776603698730469e+00,-6.078940868377685547e+00,-1.034999847412109375e+00
2.400848150253295898e+00,-6.086727619171142578e+00,-8.033920526504516602e-01
2.403649330139160156e+00,-6.093829154968261719e+00,-5.731152296066284180e-01
2.406597614288330078e+00,-6.101304054260253906e+00,-3.437306880950927734e-01
2.409508705139160156e+00,-6.108684539794921875e+00,-1.146222800016403198e-01
2.412389516830444336e+00,-6.115988254547119141e+00,1.147593259811401367e-01
2.415436029434204102e+00,-6.123711585998535156e+00,3.449930846691131592e-01
2.418247222900390625e+00,-6.130838871002197266e+00,5.765959024429321289e-01
2.421271800994873047e+00,-6.138506889343261719e+00,8.102263808250427246e-01
2.424180984497070312e+00,-6.145882129669189453e+00,1.046397328376770020e+00
2.427397489547729492e+00,-6.154036521911621094e+00,1.285914897918701172e+00
1.521388173103332520e+00,-3.701006174087524414e+00,-1.072199225425720215e+00
1.805796027183532715e+00,-4.392871379852294922e+00,-1.096518158912658691e+00
2.219387292861938477e+00,-5.398994445800781250e+00,-1.134666919708251953e+00
2.478243350982666016e+00,-6.028701305389404297e+00,-1.032379865646362305e+00
2.481353998184204102e+00,-6.036268234252929688e+00,-8.013376593589782715e-01
2.484389305114746094e+00,-6.043652057647705078e+00,-5.716819763183593750e-01
2.487415075302124023e+00,-6.051012516021728516e+00,-3.428680896759033203e-01
2.490424394607543945e+00,-6.058333396911621094e+00,-1.143346577882766724e-01
2.493423223495483398e+00,-6.065628528594970703e+00,1.144723370671272278e-01
2.496432304382324219e+00,-6.072948455810546875e+00,3.441110253334045410e-01
2.499401092529296875e+00,-6.080170154571533203e+00,5.751363039016723633e-01
2.502648591995239258e+00,-6.088069915771484375e+00,8.082145452499389648e-01
2.505836963653564453e+00,-6.095826148986816406e+00,1.043874621391296387e+00
2.508822917938232422e+00,-6.103090286254882812e+00,1.282641649246215820e+00
1.575719356536865234e+00,-3.682401180267333984e+00,-1.073233366012573242e+00
1.873824596405029297e+00,-4.379062652587890625e+00,-1.099653601646423340e+00
2.295104503631591797e+00,-5.363579273223876953e+00,-1.134011864662170410e+00
2.558869838714599609e+00,-5.979990005493164062e+00,-1.030204892158508301e+00
2.561933994293212891e+00,-5.987150192260742188e+00,-7.996032834053039551e-01
2.564982652664184570e+00,-5.994275093078613281e+00,-5.704257488250732422e-01
2.568132400512695312e+00,-6.001635551452636719e+00,-3.421180844306945801e-01
2.571238279342651367e+00,-6.008894443511962891e+00,-1.140845119953155518e-01
2.574309825897216797e+00,-6.016072273254394531e+00,1.142207905650138855e-01
2.577500820159912109e+00,-6.023529529571533203e+00,3.433661162853240967e-01
2.580714702606201172e+00,-6.031040191650390625e+00,5.739243626594543457e-01
2.583866834640502930e+00,-6.038406848907470703e+00,8.064486980438232422e-01
2.586842536926269531e+00,-6.045360565185546875e+00,1.041466593742370605e+00
2.590071916580200195e+00,-6.052907943725585938e+00,1.279755353927612305e+00
1.624664306640625000e+00,-3.651390075683593750e+00,-1.070863008499145508e+00
1.933956503868103027e+00,-4.346516132354736328e+00,-1.098319411277770996e+00
2.372617483139038086e+00,-5.332395076751708984e+00,-1.134482622146606445e+00
2.638780593872070312e+00,-5.930589675903320312e+00,-1.028095960617065430e+00
2.642131567001342773e+00,-5.938120841979980469e+00,-7.980241775512695312e-01
2.645204305648803711e+00,-5.945026874542236328e+00,-5.692838430404663086e-01
2.648437261581420898e+00,-5.952292919158935547e+00,-3.414312899112701416e-01
2.651641368865966797e+00,-5.959493637084960938e+00,-1.138555258512496948e-01
2.654823303222656250e+00,-5.966645240783691406e+00,1.139921545982360840e-01
2.658185005187988281e+00,-5.974200248718261719e+00,3.426879346370697021e-01
2.661308050155639648e+00,-5.981219291687011719e+00,5.727496147155761719e-01
2.664653778076171875e+00,-5.988739013671875000e+00,8.048267364501953125e-01
2.667872667312622070e+00,-5.995973110198974609e+00,1.039430499076843262e+00
2.671396493911743164e+00,-6.003892898559570312e+00,1.277345776557922363e+00
1.681486010551452637e+00,-3.637996435165405273e+00,-1.073883533477783203e+00
1.995539426803588867e+00,-4.317470073699951172e+00,-1.098084807395935059e+00
2.452034950256347656e+00,-5.305125713348388672e+00,-1.136031627655029297e+00
2.718659877777099609e+00,-5.881984710693359375e+00,-1.026310801506042480e+00
2.721767425537109375e+00,-5.888707637786865234e+00,-7.965375185012817383e-01
2.725107192993164062e+00,-5.895933628082275391e+00,-5.682596564292907715e-01
2.728430032730102539e+00,-5.903122901916503906e+00,-3.408160507678985596e-01
2.731731176376342773e+00,-5.910264968872070312e+00,-1.136503890156745911e-01
2.735016584396362305e+00,-5.917373180389404297e+00,1.137870773673057556e-01
2.738305807113647461e+00,-5.924489498138427734e+00,3.420496881008148193e-01
2.741868257522583008e+00,-5.932197093963623047e+00,5.717548131942749023e-01
2.745059967041015625e+00,-5.939102649688720703e+00,8.033542037010192871e-01
2.748492956161499023e+00,-5.946530342102050781e+00,1.037572860717773438e+00
2.751688003540039062e+00,-5.953443050384521484e+00,1.274861335754394531e+00
1.732882976531982422e+00,-3.612520456314086914e+00,-1.073575139045715332e+00
2.058650016784667969e+00,-4.291643142700195312e+00,-1.098897933959960938e+00
2.533456325531005859e+00,-5.281466484069824219e+00,-1.138613820075988770e+00
2.797913789749145508e+00,-5.832777500152587891e+00,-1.024607658386230469e+00
2.801349401473999023e+00,-5.839939594268798828e+00,-7.952831983566284180e-01
2.804738998413085938e+00,-5.847005844116210938e+00,-5.673551559448242188e-01
2.808205127716064453e+00,-5.854231834411621094e+00,-3.402791619300842285e-01
2.811601877212524414e+00,-5.861312866210937500e+00,-1.134713068604469299e-01
2.814938068389892578e+00,-5.868267536163330078e+00,1.136059463024139404e-01
2.818370819091796875e+00,-5.875424385070800781e+00,3.415109813213348389e-01
2.821799516677856445e+00,-5.882572174072265625e+00,5.708062648773193359e-01
2.825131654739379883e+00,-5.889518737792968750e+00,8.020348548889160156e-01
2.828747034072875977e+00,-5.897055625915527344e+00,1.035898923873901367e+00
2.832158565521240234e+00,-5.904167175292968750e+00,1.272859811782836914e+00
1.778722047805786133e+00,-3.575918912887573242e+00,-1.070154309272766113e+00
2.113558292388916016e+00,-4.249069213867187500e+00,-1.095630645751953125e+00
2.601935863494873047e+00,-5.230896472930908203e+00,-1.135624408721923828e+00
2.877228260040283203e+00,-5.784340858459472656e+00,-1.023228645324707031e+00
2.880689144134521484e+00,-5.791298866271972656e+00,-7.941929697990417480e-01
2.884282827377319336e+00,-5.798523426055908203e+00,-5.665985941886901855e-01
2.887710094451904297e+00,-5.805413722991943359e+00,-3.398092687129974365e-01
2.891203403472900391e+00,-5.812436103820800781e+00,-1.133146286010742188e-01
2.894769430160522461e+00,-5.819605350494384766e+00,1.134543940424919128e-01
2.898192644119262695e+00,-5.826487064361572266e+00,3.410427868366241455e-01
2.901790618896484375e+00,-5.833720684051513672e+00,5.700379014015197754e-01
2.905327796936035156e+00,-5.840831756591796875e+00,8.009856939315795898e-01
2.909182548522949219e+00,-5.848581314086914062e+00,1.034592509269714355e+00
2.912858963012695312e+00,-5.855972290039062500e+00,1.271327972412109375e+00
1.832662105560302734e+00,-3.555806875228881836e+00,-1.071875929832458496e+00
2.179800748825073242e+00,-4.229339599609375000e+00,-1.098476052284240723e+00
2.672312974929809570e+00,-5.184932708740234375e+00,-1.133833527565002441e+00
2.956315279006958008e+00,-5.735965728759765625e+00,-1.022051930427551270e+00
2.959820747375488281e+00,-5.742766857147216797e+00,-7.932660579681396484e-01
2.963490724563598633e+00,-5.749887943267822266e+00,-5.659330487251281738e-01
2.967074871063232422e+00,-5.756841659545898438e+00,-3.394173085689544678e-01
2.970663547515869141e+00,-5.763804912567138672e+00,-1.131839007139205933e-01
2.974265336990356445e+00,-5.770792961120605469e+00,1.133211255073547363e-01
2.977804660797119141e+00,-5.777659893035888672e+00,3.406447172164916992e-01
2.981552124023437500e+00,-5.784931182861328125e+00,5.693822503089904785e-01
2.985267639160156250e+00,-5.792140007019042969e+00,8.000861406326293945e-01
2.988816976547241211e+00,-5.799026489257812500e+00,1.033288359642028809e+00
2.992631196975708008e+00,-5.806427001953125000e+00,1.269741058349609375e+00
1.882399797439575195e+00,-3.527405023574829102e+00,-1.071326613426208496e+00
2.239439725875854492e+00,-4.196457386016845703e+00,-1.098148465156555176e+00
2.746668577194213867e+00,-5.146946907043457031e+00,-1.134007930755615234e+00
3.035079717636108398e+00,-5.687397480010986328e+00,-1.021034002304077148e+00
3.038667678833007812e+00,-5.694120407104492188e+00,-7.924731373786926270e-01
3.042438030242919922e+00,-5.701185703277587891e+00,-5.653678774833679199e-01
3.046143531799316406e+00,-5.708129405975341797e+00,-3.390811979770660400e-01
3.049828529357910156e+00,-5.715034484863281250e+00,-1.130718439817428589e-01
3.053499937057495117e+00,-5.721914768218994141e+00,1.132079660892486572e-01
3.057130336761474609e+00,-5.728717327117919922e+00,3.403041958808898926e-01
3.060989141464233398e+00,-5.735948562622070312e+00,5.688151717185974121e-01
3.064833164215087891e+00,-5.743151664733886719e+00,7.992970347404479980e-01
3.068523883819580078e+00,-5.750067710876464844e+00,1.032284975051879883e+00
3.072489738464355469e+00,-5.757499217987060547e+00,1.268528699874877930e+00
1.933477401733398438e+00,-3.501526594161987305e+00,-1.071762442588806152e+00
2.300706863403320312e+00,-4.166578769683837891e+00,-1.098834633827209473e+00
2.823063611984252930e+00,-5.112566471099853516e+00,-1.135219693183898926e+00
3.113707065582275391e+00,-5.638921737670898438e+00,-1.020228028297424316e+00
3.117635250091552734e+00,-5.646035671234130859e+00,-7.919103503227233887e-01
3.121427297592163086e+00,-5.652903079986572266e+00,-5.649525523185729980e-01
3.125117778778076172e+00,-5.659586906433105469e+00,-3.388200700283050537e-01
3.128899335861206055e+00,-5.666434764862060547e+00,-1.129848062992095947e-01
3.132774591445922852e+00,-5.673453330993652344e+00,1.131247505545616150e-01
3.136576175689697266e+00,-5.680337905883789062e+00,3.400623798370361328e-01
3.140287637710571289e+00,-5.687059402465820312e+00,5.683661699295043945e-01
3.144231319427490234e+00,-5.694201469421386719e+00,7.986661195755004883e-01
3.148028373718261719e+00,-5.701077461242675781e+00,1.031473636627197266e+00
3.152103424072265625e+00,-5.708457469940185547e+00,1.267534255981445312e+00
1.985911607742309570e+00,-3.477906465530395508e+00,-1.073123216629028320e+00
2.353672027587890625e+00,-4.121961593627929688e+00,-1.095840334892272949e+00
2.901526212692260742e+00,-5.081412792205810547e+00,-1.137407302856445312e+00
3.192538738250732422e+00,-5.591060161590576172e+00,-1.019731760025024414e+00
3.196260929107666016e+00,-5.597579002380371094e+00,-7.914496064186096191e-01
3.200182676315307617e+00,-5.604446887969970703e+00,-5.646297931671142578e-01
3.204057216644287109e+00,-5.611232280731201172e+00,-3.386361300945281982e-01
3.207933187484741211e+00,-5.618020534515380859e+00,-1.129234284162521362e-01
3.211816549301147461e+00,-5.624821186065673828e+00,1.130601242184638977e-01
3.215680122375488281e+00,-5.631587505340576172e+00,3.398645520210266113e-01
3.219790935516357422e+00,-5.638786792755126953e+00,5.680894255638122559e-01
3.223473548889160156e+00,-5.645236015319824219e+00,7.981879115104675293e-01
3.227856159210205078e+00,-5.652911186218261719e+00,1.031012535095214844e+00
3.231482744216918945e+00,-5.659262180328369141e+00,1.266751289367675781e+00
2.034138202667236328e+00,-3.446847438812255859e+00,-1.072413802146911621e+00
2.414028882980346680e+00,-4.090572357177734375e+00,-1.096569180488586426e+00
2.966166734695434570e+00,-5.026170253753662109e+00,-1.134428977966308594e+00
3.270749092102050781e+00,-5.542284488677978516e+00,-1.019269943237304688e+00
3.274803876876831055e+00,-5.549155712127685547e+00,-7.911494374275207520e-01
3.278788328170776367e+00,-5.555907249450683594e+00,-5.644099116325378418e-01
3.282840013504028320e+00,-5.562772750854492188e+00,-3.385126888751983643e-01
3.286809921264648438e+00,-5.569499969482421875e+00,-1.128822192549705505e-01
3.290706634521484375e+00,-5.576103210449218750e+00,1.130160540342330933e-01
3.294697523117065430e+00,-5.582865715026855469e+00,3.397354185581207275e-01
3.298666715621948242e+00,-5.589591503143310547e+00,5.678318142890930176e-01
3.302944660186767578e+00,-5.596839904785156250e+00,7.979478836059570312e-01
3.307135343551635742e+00,-5.603941440582275391e+00,1.030609130859375000e+00
3.311049461364746094e+00,-5.610573768615722656e+00,1.266331553459167480e+00
2.080775499343872070e+00,-3.413304567337036133e+00,-1.071134209632873535e+00
2.479450702667236328e+00,-4.067291259765625000e+00,-1.099729299545288086e+00
3.048532009124755859e+00,-5.000812530517578125e+00,-1.138437747955322266e+00
3.349370956420898438e+00,-5.494308471679687500e+00,-1.019159078598022461e+00
3.353494882583618164e+00,-5.501073837280273438e+00,-7.910567522048950195e-01
3.357539653778076172e+00,-5.507708549499511719e+00,-5.643378496170043945e-01
3.361595392227172852e+00,-5.514361858367919922e+00,-3.384600579738616943e-01
3.365661621093750000e+00,-5.521031856536865234e+00,-1.128647103905677795e-01
3.369743347167968750e+00,-5.527727603912353516e+00,1.130015850067138672e-01
3.373865842819213867e+00,-5.534490108489990234e+00,3.396955132484436035e-01
3.377958536148071289e+00,-5.541203498840332031e+00,5.677698850631713867e-01
3.381912469863891602e+00,-5.547689914703369141e+00,7.977601885795593262e-01
3.386134862899780273e+00,-5.554615974426269531e+00,1.030345797538757324e+00
3.390727519989013672e+00,-5.562150001525878906e+00,1.266226530075073242e+00
2.130272865295410156e+00,-3.384539842605590820e+00,-1.071566343307495117e+00
2.538001537322998047e+00,-4.032331943511962891e+00,-1.099986553192138672e+00
3.119326591491699219e+00,-4.955931186676025391e+00,-1.138268113136291504e+00
3.427901029586791992e+00,-5.446188449859619141e+00,-1.019230008125305176e+00
3.432135105133056641e+00,-5.452916145324707031e+00,-7.911149263381958008e-01
3.436265945434570312e+00,-5.459478855133056641e+00,-5.643779039382934570e-01
3.440385580062866211e+00,-5.466024398803710938e+00,-3.384810388088226318e-01
3.444546937942504883e+00,-5.472635269165039062e+00,-1.128716841340065002e-01
3.448754549026489258e+00,-5.479320526123046875e+00,1.130095645785331726e-01
3.452982425689697266e+00,-5.486037731170654297e+00,3.397203683853149414e-01
3.457158088684082031e+00,-5.492671966552734375e+00,5.678092837333679199e-01
3.461169481277465820e+00,-5.499045372009277344e+00,7.978074550628662109e-01
3.465448141098022461e+00,-5.505843162536621094e+00,1.030394077301025391e+00
3.470104932785034180e+00,-5.513241767883300781e+00,1.266270041465759277e+00
2.181449890136718750e+00,-3.358255147933959961e+00,-1.073020339012145996e+00
2.586727380752563477e+00,-3.982163429260253906e+00,-1.096288919448852539e+00
3.192497730255126953e+00,-4.914722919464111328e+00,-1.139182090759277344e+00
3.506398439407348633e+00,-5.397960662841796875e+00,-1.019492506980895996e+00
3.510769128799438477e+00,-5.404688835144042969e+00,-7.913275957107543945e-01
3.514832019805908203e+00,-5.410943508148193359e+00,-5.645034909248352051e-01
3.519134759902954102e+00,-5.417567729949951172e+00,-3.385649025440216064e-01
3.523391723632812500e+00,-5.424120903015136719e+00,-1.128996759653091431e-01
3.527607202529907227e+00,-5.430610656738281250e+00,1.130347475409507751e-01
3.532093524932861328e+00,-5.437517166137695312e+00,3.398116230964660645e-01
3.536325216293334961e+00,-5.444031715393066406e+00,5.679554343223571777e-01
3.540357828140258789e+00,-5.450239658355712891e+00,7.979968786239624023e-01
3.545257091522216797e+00,-5.457782268524169922e+00,1.030790805816650391e+00
3.549313306808471680e+00,-5.464026451110839844e+00,1.266504883766174316e+00
2.225942373275756836e+00,-3.321694850921630859e+00,-1.071409106254577637e+00
2.649007081985473633e+00,-3.953019618988037109e+00,-1.098591446876525879e+00
3.249538898468017578e+00,-4.849172115325927734e+00,-1.134652853012084961e+00
3.584908485412597656e+00,-5.349631786346435547e+00,-1.019951581954956055e+00
3.589150905609130859e+00,-5.355962753295898438e+00,-7.916340827941894531e-01
3.593620777130126953e+00,-5.362633228302001953e+00,-5.647718310356140137e-01
3.598005533218383789e+00,-5.369176387786865234e+00,-3.387244641780853271e-01
3.602356672286987305e+00,-5.375669002532958984e+00,-1.129528433084487915e-01
3.606681585311889648e+00,-5.382123470306396484e+00,1.130884587764739990e-01
3.610952615737915039e+00,-5.388496875762939453e+00,3.399433493614196777e-01
3.615505456924438477e+00,-5.395290851593017578e+00,5.682111978530883789e-01
3.620043516159057617e+00,-5.402062892913818359e+00,7.984478473663330078e-01
3.624404191970825195e+00,-5.408570289611816406e+00,1.031188726425170898e+00
3.629130363464355469e+00,-5.415622711181640625e+00,1.267196059226989746e+00
2.271869659423828125e+00,-3.287493228912353516e+00,-1.070756435394287109e+00
2.701006650924682617e+00,-3.908473014831542969e+00,-1.096843361854553223e+00
3.327712774276733398e+00,-4.815343856811523438e+00,-1.137766003608703613e+00
3.663471937179565430e+00,-5.301201820373535156e+00,-1.020611047744750977e+00
3.668207406997680664e+00,-5.308053970336914062e+00,-7.922322154045104980e-01
3.672516107559204102e+00,-5.314289093017578125e+00,-5.651586055755615234e-01
3.676990509033203125e+00,-5.320763587951660156e+00,-3.389558494091033936e-01
3.681436061859130859e+00,-5.327196598052978516e+00,-1.130299642682075500e-01
3.685862779617309570e+00,-5.333601951599121094e+00,1.131658777594566345e-01
3.690486431121826172e+00,-5.340292930603027344e+00,3.401999175548553467e-01
3.694739103317260742e+00,-5.346446514129638672e+00,5.685784816741943359e-01
3.699235439300537109e+00,-5.352952957153320312e+00,7.989333868026733398e-01
3.704169988632202148e+00,-5.360093593597412109e+00,1.031949043273925781e+00
3.708897829055786133e+00,-5.366934776306152344e+00,1.268095493316650391e+00
2.319460153579711914e+00,-3.255726099014282227e+00,-1.071113228797912598e+00
2.754803419113159180e+00,-3.866798400878906250e+00,-1.096101403236389160e+00
3.388876199722290039e+00,-4.756819248199462891e+00,-1.135282635688781738e+00
3.742567777633666992e+00,-5.253280639648437500e+00,-1.021593689918518066e+00
3.747092008590698242e+00,-5.259631156921386719e+00,-7.929287552833557129e-01
3.751557111740112305e+00,-5.265898704528808594e+00,-5.656651258468627930e-01
3.756064653396606445e+00,-5.272225856781005859e+00,-3.392539024353027344e-01
3.760606765747070312e+00,-5.278601169586181641e+00,-1.131293848156929016e-01
3.765189886093139648e+00,-5.285034656524658203e+00,1.132672578096389771e-01
3.769850015640258789e+00,-5.291575908660888672e+00,3.404990136623382568e-01
3.774507284164428711e+00,-5.298112869262695312e+00,5.691255331039428711e-01
3.779037952423095703e+00,-5.304472446441650391e+00,7.996888756752014160e-01
3.783969402313232422e+00,-5.311394214630126953e+00,1.032894968986511230e+00
3.788634777069091797e+00,-5.317943096160888672e+00,1.269202828407287598e+00
2.370766878128051758e+00,-3.228935956954956055e+00,-1.073353528976440430e+00
2.812848806381225586e+00,-3.831042528152465820e+00,-1.097266197204589844e+00
3.454934120178222656e+00,-4.705549716949462891e+00,-1.134732604026794434e+00
3.821114778518676758e+00,-5.204280376434326172e+00,-1.022596120834350586e+00
3.825917482376098633e+00,-5.210821628570556641e+00,-7.937448024749755859e-01
3.830578327178955078e+00,-5.217169284820556641e+00,-5.662623047828674316e-01
3.835199356079101562e+00,-5.223463058471679688e+00,-3.396137356758117676e-01
3.839835405349731445e+00,-5.229777336120605469e+00,-1.132493168115615845e-01
3.844497919082641602e+00,-5.236127376556396484e+00,1.133868321776390076e-01
3.849154233932495117e+00,-5.242469310760498047e+00,3.408494591712951660e-01
3.853725910186767578e+00,-5.248695850372314453e+00,5.696841478347778320e-01
3.858682632446289062e+00,-5.255446910858154297e+00,8.005424141883850098e-01
3.863515615463256836e+00,-5.262029170989990234e+00,1.033943295478820801e+00
3.868004560470581055e+00,-5.268143177032470703e+00,1.270400762557983398e+00
2.412335634231567383e+00,-3.188857316970825195e+00,-1.071398973464965820e+00
2.871132135391235352e+00,-3.795338630676269531e+00,-1.098697900772094727e+00
3.520860195159912109e+00,-4.654211997985839844e+00,-1.134389281272888184e+00
3.900460004806518555e+00,-5.156003475189208984e+00,-1.023975133895874023e+00
3.905079603195190430e+00,-5.162109851837158203e+00,-7.947576045989990234e-01
3.909948348999023438e+00,-5.168546199798583984e+00,-5.670010447502136230e-01
3.914686679840087891e+00,-5.174809455871582031e+00,-3.400586545467376709e-01
3.919417619705200195e+00,-5.181063652038574219e+00,-1.133976578712463379e-01
3.924155712127685547e+00,-5.187326431274414062e+00,1.135347336530685425e-01
3.928797245025634766e+00,-5.193462371826171875e+00,3.412843942642211914e-01
3.933746337890625000e+00,-5.200004577636718750e+00,5.704520940780639648e-01
3.938664436340332031e+00,-5.206505775451660156e+00,8.015927672386169434e-01
3.943374395370483398e+00,-5.212731838226318359e+00,1.035241246223449707e+00
3.948534965515136719e+00,-5.219553470611572266e+00,1.272182226181030273e+00
2.455507993698120117e+00,-3.151156902313232422e+00,-1.070431351661682129e+00
2.917024612426757812e+00,-3.743422269821166992e+00,-1.095643401145935059e+00
3.589622974395751953e+00,-4.606568336486816406e+00,-1.135183691978454590e+00
3.979974031448364258e+00,-5.107506752014160156e+00,-1.025552272796630859e+00
3.984778642654418945e+00,-5.113672733306884766e+00,-7.959999442100524902e-01
3.989523410797119141e+00,-5.119761466979980469e+00,-5.678555369377136230e-01
3.994317770004272461e+00,-5.125914096832275391e+00,-3.405676782131195068e-01
3.999146223068237305e+00,-5.132110118865966797e+00,-1.135674342513084412e-01
4.004019260406494141e+00,-5.138364315032958984e+00,1.137058287858963013e-01
4.008978366851806641e+00,-5.144727706909179688e+00,3.418176770210266113e-01
4.013936996459960938e+00,-5.151091575622558594e+00,5.713304877281188965e-01
4.018764495849609375e+00,-5.157286643981933594e+00,8.027889728546142578e-01
4.024065971374511719e+00,-5.164089679718017578e+00,1.036913752555847168e+00
4.029102325439453125e+00,-5.170553207397460938e+00,1.274164915084838867e+00
2.500489950180053711e+00,-3.115858316421508789e+00,-1.070488929748535156e+00
2.980273723602294922e+00,-3.713716506958007812e+00,-1.099321722984313965e+00
3.661570787429809570e+00,-4.562680244445800781e+00,-1.137167096138000488e+00
4.059648036956787109e+00,-5.058723449707031250e+00,-1.027319312095642090e+00
4.064301013946533203e+00,-5.064522266387939453e+00,-7.973229289054870605e-01
4.069301128387451172e+00,-5.070752620697021484e+00,-5.688217878341674805e-01
4.074234962463378906e+00,-5.076900482177734375e+00,-3.411508202552795410e-01
4.079158306121826172e+00,-5.083035469055175781e+00,-1.137618497014045715e-01
4.084086418151855469e+00,-5.089176177978515625e+00,1.138992756605148315e-01
4.088984012603759766e+00,-5.095279216766357422e+00,3.423857986927032471e-01
4.094289779663085938e+00,-5.101890563964843750e+00,5.723147392272949219e-01
4.098970890045166016e+00,-5.107723712921142578e+00,8.041242957115173340e-01
4.104037284851074219e+00,-5.114037513732910156e+00,1.038552403450012207e+00
4.109684467315673828e+00,-5.121074199676513672e+00,1.276336908340454102e+00
2.547496080398559570e+00,-3.082981109619140625e+00,-1.071611166000366211e+00
3.030542612075805664e+00,-3.667564153671264648e+00,-1.098387956619262695e+00
3.712391853332519531e+00,-4.492738723754882812e+00,-1.132862925529479980e+00
4.139460086822509766e+00,-5.009576797485351562e+00,-1.029265642166137695e+00
4.144364356994628906e+00,-5.015511989593505859e+00,-7.988641858100891113e-01
4.149263858795166016e+00,-5.021441459655761719e+00,-5.698940753936767578e-01
4.154351234436035156e+00,-5.027598381042480469e+00,-3.417986035346984863e-01
4.159370899200439453e+00,-5.033672809600830078e+00,-1.139778271317481995e-01
4.164339065551757812e+00,-5.039685249328613281e+00,1.141139790415763855e-01
4.169531345367431641e+00,-5.045968532562255859e+00,3.430474996566772461e-01
4.174781799316406250e+00,-5.052322864532470703e+00,5.733988881111145020e-01
4.179951190948486328e+00,-5.058579444885253906e+00,8.057239651679992676e-01
4.184854030609130859e+00,-5.064512729644775391e+00,1.040552735328674316e+00
4.190243721008300781e+00,-5.071035385131835938e+00,1.278682827949523926e+00
2.594697475433349609e+00,-3.050130367279052734e+00,-1.072991847991943359e+00
3.080640077590942383e+00,-3.621367692947387695e+00,-1.097645998001098633e+00
3.787697792053222656e+00,-4.452531337738037109e+00,-1.136278629302978516e+00
4.219890117645263672e+00,-4.960584163665771484e+00,-1.031504034996032715e+00
4.224661350250244141e+00,-4.966192722320556641e+00,-8.005582094192504883e-01
