8.079288601875305176e-01,-4.209095478057861328e+00,-7.481115311384201050e-02
8.088797926902770996e-01,-4.214049816131591797e+00,7.489920407533645630e-02
8.098912835121154785e-01,-4.219319343566894531e+00,2.251615524291992188e-01
8.109301924705505371e-01,-4.224731445312500000e+00,3.763630688190460205e-01
8.118064403533935547e-01,-4.229296684265136719e+00,5.287714600563049316e-01
8.129650354385375977e-01,-4.235332489013671875e+00,6.830556988716125488e-01
8.138793110847473145e-01,-4.240095615386962891e+00,8.392358422279357910e-01
8.149152994155883789e-01,-4.245492935180664062e+00,9.980407953262329102e-01
8.116998672485351562e-01,-3.924477338790893555e+00,-1.073815464973449707e+00
8.573038578033447266e-01,-4.144967555999755859e+00,-9.771936535835266113e-01
8.584741353988647461e-01,-4.150625705718994141e+00,-8.238748908042907715e-01
8.595558404922485352e-01,-4.155855655670166016e+00,-6.721533536911010742e-01
8.605916500091552734e-01,-4.160863876342773438e+00,-5.217022299766540527e-01
8.616144061088562012e-01,-4.165808677673339844e+00,-3.721744120121002197e-01
8.626484870910644531e-01,-4.170808315277099609e+00,-2.232088446617126465e-01
8.636882901191711426e-01,-4.175835609436035156e+00,-7.443210482597351074e-02
8.647356629371643066e-01,-4.180899620056152344e+00,7.452236115932464600e-02
8.658021092414855957e-01,-4.186055660247802734e+00,2.240248471498489380e-01
8.668708205223083496e-01,-4.191222667694091797e+00,3.744449019432067871e-01
8.679105639457702637e-01,-4.196249961853027344e+00,5.261390209197998047e-01
8.688845634460449219e-01,-4.200959205627441406e+00,6.794482469558715820e-01
8.699846267700195312e-01,-4.206277370452880859e+00,8.349214196205139160e-01
8.712562918663024902e-01,-4.212426185607910156e+00,9.930972456932067871e-01
8.647531867027282715e-01,-3.898794412612915039e+00,-1.070065259933471680e+00
9.122259616851806641e-01,-4.112828731536865234e+00,-9.725953936576843262e-01
9.135323762893676758e-01,-4.118718624114990234e+00,-8.200529813766479492e-01
9.145784974098205566e-01,-4.123435020446777344e+00,-6.689585447311401367e-01
9.157254695892333984e-01,-4.128606319427490234e+00,-5.192478895187377930e-01
9.168306589126586914e-01,-4.133589267730712891e+00,-3.704303801059722900e-01
9.179194569587707520e-01,-4.138497829437255859e+00,-2.221600860357284546e-01
9.190251827239990234e-01,-4.143483638763427734e+00,-7.408232241868972778e-02
9.201516509056091309e-01,-4.148561954498291016e+00,7.417312264442443848e-02
9.212698340415954590e-01,-4.153603553771972656e+00,2.229709625244140625e-01
9.223621487617492676e-01,-4.158528327941894531e+00,3.726653158664703369e-01
9.235740900039672852e-01,-4.163992404937744141e+00,5.236983299255371094e-01
9.245490431785583496e-01,-4.168387889862060547e+00,6.762514114379882812e-01
9.258811473846435547e-01,-4.174393653869628906e+00,8.311380743980407715e-01
9.271491169929504395e-01,-4.180110454559326172e+00,9.885061383247375488e-01
9.228795766830444336e-01,-3.896216392517089844e+00,-1.072873353958129883e+00
9.666557908058166504e-01,-4.081030845642089844e+00,-9.682487249374389648e-01
9.677064418792724609e-01,-4.085466861724853516e+00,-8.161066174507141113e-01
9.689013361930847168e-01,-4.090511322021484375e+00,-6.657989025115966797e-01
9.701695442199707031e-01,-4.095865249633789062e+00,-5.168236494064331055e-01
9.712996482849121094e-01,-4.100636482238769531e+00,-3.686854541301727295e-01
9.724855422973632812e-01,-4.105642795562744141e+00,-2.211209535598754883e-01
9.736571907997131348e-01,-4.110589504241943359e+00,-7.373582571744918823e-02
9.748187065124511719e-01,-4.115493297576904297e+00,7.382378727197647095e-02
9.760439991950988770e-01,-4.120666027069091797e+00,2.219300717115402222e-01
9.771478772163391113e-01,-4.125326633453369141e+00,3.709053397178649902e-01
9.783447980880737305e-01,-4.130379676818847656e+00,5.211787223815917969e-01
9.797138571739196777e-01,-4.136159896850585938e+00,6.732289195060729980e-01
9.807877540588378906e-01,-4.140693187713623047e+00,8.271386027336120605e-01
9.819883704185485840e-01,-4.145761966705322266e+00,9.836065769195556641e-01
9.763602018356323242e-01,-3.873929977416992188e+00,-1.070475101470947266e+00
1.020492434501647949e+00,-4.049034118652343750e+00,-9.640241265296936035e-01
1.021686553955078125e+00,-4.053772449493408203e+00,-8.126134276390075684e-01
1.022997140884399414e+00,-4.058972358703613281e+00,-6.629807949066162109e-01
1.024241685867309570e+00,-4.063910484313964844e+00,-5.145887136459350586e-01
1.025459408760070801e+00,-4.068742275238037109e+00,-3.670999407768249512e-01
1.026679277420043945e+00,-4.073582172393798828e+00,-2.201631367206573486e-01
1.027916550636291504e+00,-4.078491210937500000e+00,-7.341644912958145142e-02
1.029174566268920898e+00,-4.083482742309570312e+00,7.350629568099975586e-02
1.030444979667663574e+00,-4.088522911071777344e+00,2.209706455469131470e-01
1.031703710556030273e+00,-4.093517780303955078e+00,3.693353235721588135e-01
1.032918453216552734e+00,-4.098337650299072266e+00,5.189480185508728027e-01
1.034278392791748047e+00,-4.103733539581298828e+00,6.702919602394104004e-01
1.035572528839111328e+00,-4.108868122100830078e+00,8.236578106880187988e-01
1.036729454994201660e+00,-4.113458633422851562e+00,9.793627858161926270e-01
1.030476927757263184e+00,-3.854969501495361328e+00,-1.069202065467834473e+00
1.073683500289916992e+00,-4.016603469848632812e+00,-9.598634243011474609e-01
1.075040459632873535e+00,-4.021679878234863281e+00,-8.091818690299987793e-01
1.076323866844177246e+00,-4.026481151580810547e+00,-6.601225137710571289e-01
1.077701210975646973e+00,-4.031633377075195312e+00,-5.124024152755737305e-01
1.078945279121398926e+00,-4.036287307739257812e+00,-3.655276596546173096e-01
1.080266833305358887e+00,-4.041231155395507812e+00,-2.192279100418090820e-01
1.081569075584411621e+00,-4.046103000640869141e+00,-7.310461252927780151e-02
1.082855105400085449e+00,-4.050913810729980469e+00,7.319153845310211182e-02
1.084228515625000000e+00,-4.056051731109619141e+00,2.200318872928619385e-01
1.085485100746154785e+00,-4.060752391815185547e+00,3.677432239055633545e-01
1.086858987808227539e+00,-4.065892696380615234e+00,5.167565941810607910e-01
1.088189005851745605e+00,-4.070867538452148438e+00,6.673995256423950195e-01
1.089698791503906250e+00,-4.076515674591064453e+00,8.202151060104370117e-01
1.091110348701477051e+00,-4.081796169281005859e+00,9.754427671432495117e-01
1.089757800102233887e+00,-3.854732990264892578e+00,-1.073352694511413574e+00
1.126556038856506348e+00,-3.984896898269653320e+00,-9.560418725013732910e-01
1.128084659576416016e+00,-3.990303993225097656e+00,-8.060351610183715820e-01
1.129498124122619629e+00,-3.995303869247436523e+00,-6.575943231582641602e-01
1.130852341651916504e+00,-4.000093936920166016e+00,-5.103988051414489746e-01
1.132191419601440430e+00,-4.004830837249755859e+00,-3.641092181205749512e-01
1.133547186851501465e+00,-4.009626388549804688e+00,-2.183712124824523926e-01
1.134913921356201172e+00,-4.014461040496826172e+00,-7.281894981861114502e-02
1.136293888092041016e+00,-4.019341945648193359e+00,7.290749251842498779e-02
1.137701869010925293e+00,-4.024322509765625000e+00,2.191715836524963379e-01
1.139111757278442383e+00,-4.029309272766113281e+00,3.663347363471984863e-01
1.140486836433410645e+00,-4.034173488616943359e+00,5.147472620010375977e-01
1.141776680946350098e+00,-4.038735866546630859e+00,6.647428870201110840e-01
1.143213033676147461e+00,-4.043816566467285156e+00,8.168445825576782227e-01
1.144846320152282715e+00,-4.049593925476074219e+00,9.715637564659118652e-01
1.144788980484008789e+00,-3.838653564453125000e+00,-1.073328137397766113e+00
1.179111957550048828e+00,-3.953743934631347656e+00,-9.525192975997924805e-01
1.180575609207153320e+00,-3.958652019500732422e+00,-8.029726147651672363e-01
1.181967854499816895e+00,-3.963320255279541016e+00,-6.550475358963012695e-01
1.183467984199523926e+00,-3.968350648880004883e+00,-5.084578394889831543e-01
1.184909701347351074e+00,-3.973184585571289062e+00,-3.627368509769439697e-01
1.186324954032897949e+00,-3.977930307388305664e+00,-2.175475060939788818e-01
1.187754511833190918e+00,-3.982723712921142578e+00,-7.254422456026077271e-02
1.189203143119812012e+00,-3.987581253051757812e+00,7.263270020484924316e-02
1.190636754035949707e+00,-3.992388486862182617e+00,2.183381915092468262e-01
1.192028641700744629e+00,-3.997055530548095703e+00,3.649161756038665771e-01
1.193555235862731934e+00,-4.002174377441406250e+00,5.127916336059570312e-01
1.195042729377746582e+00,-4.007162094116210938e+00,6.622936725616455078e-01
1.196422934532165527e+00,-4.011790275573730469e+00,8.137512207031250000e-01
1.197962045669555664e+00,-4.016951084136962891e+00,9.677469134330749512e-01
1.199815273284912109e+00,-3.822528839111328125e+00,-1.073511362075805664e+00
1.231153726577758789e+00,-3.922370910644531250e+00,-9.491092562675476074e-01
1.232811570167541504e+00,-3.927652597427368164e+00,-8.001820445060729980e-01
1.234350919723510742e+00,-3.932556867599487305e+00,-6.528162956237792969e-01
1.235831975936889648e+00,-3.937275171279907227e+00,-5.066908001899719238e-01
1.237304806709289551e+00,-3.941967964172363281e+00,-3.614667356014251709e-01
1.238828539848327637e+00,-3.946822166442871094e+00,-2.167937606573104858e-01
1.240321636199951172e+00,-3.951579332351684570e+00,-7.229290157556533813e-02
1.241789102554321289e+00,-3.956254482269287109e+00,7.237843424081802368e-02
1.243318438529968262e+00,-3.961126804351806641e+00,2.175794988870620728e-01
1.244857430458068848e+00,-3.966029882431030273e+00,3.636731505393981934e-01
1.246366024017333984e+00,-3.970836162567138672e+00,5.110097527503967285e-01
1.247788548469543457e+00,-3.975368499755859375e+00,6.599231362342834473e-01
1.249368548393249512e+00,-3.980401992797851562e+00,8.109287023544311523e-01
1.251156568527221680e+00,-3.986098527908325195e+00,9.645296335220336914e-01
1.250042915344238281e+00,-3.791747808456420898e+00,-1.069782257080078125e+00
1.282961845397949219e+00,-3.891600608825683594e+00,-9.460102319717407227e-01
1.284564852714538574e+00,-3.896462917327880859e+00,-7.974919676780700684e-01
1.286267995834350586e+00,-3.901629209518432617e+00,-6.506717801094055176e-01
1.287734508514404297e+00,-3.906077861785888672e+00,-5.049962401390075684e-01
1.289319276809692383e+00,-3.910884618759155273e+00,-3.602718412876129150e-01
1.290880203247070312e+00,-3.915619373321533203e+00,-2.160726189613342285e-01
1.292436361312866211e+00,-3.920339584350585938e+00,-7.205243408679962158e-02
1.293991804122924805e+00,-3.925057649612426758e+00,7.213915139436721802e-02
1.295536041259765625e+00,-3.929742097854614258e+00,2.168519347906112671e-01
1.297216296195983887e+00,-3.934838771820068359e+00,3.624784946441650391e-01
1.298688769340515137e+00,-3.939305067062377930e+00,5.092920660972595215e-01
1.300296902656555176e+00,-3.944183111190795898e+00,6.577684879302978516e-01
1.302111268043518066e+00,-3.949686527252197266e+00,8.083853125572204590e-01
1.303814172744750977e+00,-3.954851865768432617e+00,9.613860249519348145e-01
1.305964469909667969e+00,-3.778625249862670898e+00,-1.071244001388549805e+00
1.334563732147216797e+00,-3.861373186111450195e+00,-9.432092308998107910e-01
1.336108803749084473e+00,-3.865843772888183594e+00,-7.950578331947326660e-01
1.337802410125732422e+00,-3.870743989944458008e+00,-6.486480832099914551e-01
1.339433073997497559e+00,-3.875462055206298828e+00,-5.034651756286621094e-01
1.341133117675781250e+00,-3.880380868911743164e+00,-3.591933846473693848e-01
1.342730283737182617e+00,-3.885002136230468750e+00,-2.154215723276138306e-01
1.344349384307861328e+00,-3.889686584472656250e+00,-7.183536142110824585e-02
1.345993161201477051e+00,-3.894442796707153320e+00,7.192319631576538086e-02
1.347548365592956543e+00,-3.898942232131958008e+00,2.161945551633834839e-01
1.349190831184387207e+00,-3.903694629669189453e+00,3.613514602184295654e-01
1.350800037384033203e+00,-3.908350944519042969e+00,5.077377557754516602e-01
1.352596044540405273e+00,-3.913547277450561523e+00,6.558209061622619629e-01
1.354320406913757324e+00,-3.918536424636840820e+00,8.058947920799255371e-01
1.355878829956054688e+00,-3.923045396804809570e+00,9.582737088203430176e-01
1.363032460212707520e+00,-3.768178462982177734e+00,-1.073703408241271973e+00
1.385736227035522461e+00,-3.830944299697875977e+00,-9.405250549316406250e-01
1.387468814849853516e+00,-3.835734128952026367e+00,-7.928685545921325684e-01
1.389112353324890137e+00,-3.840277671813964844e+00,-6.468083262443542480e-01
1.390869736671447754e+00,-3.845136404037475586e+00,-5.020603537559509277e-01
1.392561435699462891e+00,-3.849812746047973633e+00,-3.581721782684326172e-01
1.394224047660827637e+00,-3.854409456253051758e+00,-2.148097902536392212e-01
1.395904421806335449e+00,-3.859054803848266602e+00,-7.163130491971969604e-02
1.397608041763305664e+00,-3.863764524459838867e+00,7.171872258186340332e-02
1.399295806884765625e+00,-3.868430614471435547e+00,2.155911922454833984e-01
1.400937557220458984e+00,-3.872969150543212891e+00,3.603265583515167236e-01
1.402724385261535645e+00,-3.877908945083618164e+00,5.063394904136657715e-01
1.404460668563842773e+00,-3.882709026336669922e+00,6.539549231529235840e-01
1.406066656112670898e+00,-3.887148857116699219e+00,8.034963011741638184e-01
1.408213853836059570e+00,-3.893084764480590820e+00,9.557809829711914062e-01
1.415102601051330566e+00,-3.743733406066894531e+00,-1.072399735450744629e+00
1.436519980430603027e+00,-3.800394296646118164e+00,-9.379767775535583496e-01
1.438223361968994141e+00,-3.804900884628295898e+00,-7.906693816184997559e-01
1.440064787864685059e+00,-3.809772253036499023e+00,-6.450759172439575195e-01
1.441826701164245605e+00,-3.814433574676513672e+00,-5.006948709487915039e-01
1.443567276000976562e+00,-3.819038152694702148e+00,-3.571948111057281494e-01
1.445352315902709961e+00,-3.823760509490966797e+00,-2.142327129840850830e-01
1.447094798088073730e+00,-3.828370571136474609e+00,-7.143890112638473511e-02
1.448800086975097656e+00,-3.832881927490234375e+00,7.152308523654937744e-02
1.450562596321105957e+00,-3.837544679641723633e+00,2.150049954652786255e-01
1.452324032783508301e+00,-3.842204809188842773e+00,3.593615591526031494e-01
1.454037904739379883e+00,-3.846739053726196289e+00,5.049353837966918945e-01
1.455931067466735840e+00,-3.851747274398803711e+00,6.521832346916198730e-01
1.457732081413269043e+00,-3.856512308120727539e+00,8.013944029808044434e-01
1.459730505943298340e+00,-3.861799240112304688e+00,9.531320929527282715e-01
1.467095613479614258e+00,-3.719440221786499023e+00,-1.071346402168273926e+00
1.487158298492431641e+00,-3.770303964614868164e+00,-9.357079863548278809e-01
1.489075183868408203e+00,-3.775163888931274414e+00,-7.888382077217102051e-01
1.490879178047180176e+00,-3.779737472534179688e+00,-6.435377597808837891e-01
1.492783188819885254e+00,-3.784564495086669922e+00,-4.995276927947998047e-01
1.494518756866455078e+00,-3.788964748382568359e+00,-3.563462793827056885e-01
1.496346473693847656e+00,-3.793598175048828125e+00,-2.137208878993988037e-01
1.498150706291198730e+00,-3.798172473907470703e+00,-7.126824557781219482e-02
1.499936103820800781e+00,-3.802698850631713867e+00,7.135317474603652954e-02
1.501826882362365723e+00,-3.807492256164550781e+00,2.145036607980728149e-01
1.503571510314941406e+00,-3.811915636062622070e+00,3.585047721862792969e-01
1.505448579788208008e+00,-3.816674470901489258e+00,5.037658810615539551e-01
1.507254242897033691e+00,-3.821251869201660156e+00,6.506060361862182617e-01
1.509250283241271973e+00,-3.826312541961669922e+00,7.995260357856750488e-01
1.511087059974670410e+00,-3.830969333648681641e+00,9.507638216018676758e-01
1.521362900733947754e+00,-3.700944900512695312e+00,-1.072181463241577148e+00
1.537566781044006348e+00,-3.740363121032714844e+00,-9.336435794830322266e-01
1.539436697959899902e+00,-3.744912147521972656e+00,-7.870406508445739746e-01
1.541226863861083984e+00,-3.749266862869262695e+00,-6.420400738716125488e-01
1.543155312538146973e+00,-3.753957986831665039e+00,-4.983522593975067139e-01
1.545036673545837402e+00,-3.758534908294677734e+00,-3.555278778076171875e-01
1.546912670135498047e+00,-3.763098716735839844e+00,-2.132281959056854248e-01
1.548778295516967773e+00,-3.767637014389038086e+00,-7.110396027565002441e-02
1.550637364387512207e+00,-3.772159337997436523e+00,7.118930667638778687e-02
1.552505254745483398e+00,-3.776703357696533203e+00,2.139990776777267456e-01
1.554348230361938477e+00,-3.781186580657958984e+00,3.576705157756805420e-01
1.556364059448242188e+00,-3.786090373992919922e+00,5.026179552078247070e-01
1.558343529701232910e+00,-3.790905714035034180e+00,6.491704583168029785e-01
1.560196876525878906e+00,-3.795414209365844727e+00,7.976542711257934570e-01
1.562220573425292969e+00,-3.800337314605712891e+00,9.486138820648193359e-01
1.575667381286621094e+00,-3.682279586791992188e+00,-1.073197960853576660e+00
1.587581992149353027e+00,-3.710123777389526367e+00,-9.316721558570861816e-01
1.589708209037780762e+00,-3.715092897415161133e+00,-7.854753732681274414e-01
1.591680765151977539e+00,-3.719702482223510742e+00,-6.408130526542663574e-01
1.593580365180969238e+00,-3.724141836166381836e+00,-4.973711669445037842e-01
1.595470786094665527e+00,-3.728559494018554688e+00,-3.548162579536437988e-01
1.597423911094665527e+00,-3.733124017715454102e+00,-2.128035277128219604e-01
1.599349617958068848e+00,-3.737624406814575195e+00,-7.096230983734130859e-02
1.601254105567932129e+00,-3.742074966430664062e+00,7.104681432247161865e-02
1.603235721588134766e+00,-3.746706008911132812e+00,2.135777473449707031e-01
1.605231046676635742e+00,-3.751368999481201172e+00,3.569868206977844238e-01
1.607188344001770020e+00,-3.755943059921264648e+00,5.016183257102966309e-01
1.609035372734069824e+00,-3.760259628295898438e+00,6.478000283241271973e-01
1.611040592193603516e+00,-3.764945745468139648e+00,7.960156202316284180e-01
1.613249182701110840e+00,-3.770107030868530273e+00,9.467349052429199219e-01
1.624584794044494629e+00,-3.651211261749267578e+00,-1.070810556411743164e+00
1.637633204460144043e+00,-3.680537462234497070e+00,-9.300334453582763672e-01
1.639733672142028809e+00,-3.685258150100708008e+00,-7.840494513511657715e-01
1.641709208488464355e+00,-3.689697980880737305e+00,-6.396267414093017578e-01
1.643787741661071777e+00,-3.694369554519653320e+00,-4.964864253997802734e-01
1.645692944526672363e+00,-3.698651313781738281e+00,-3.541754484176635742e-01
1.647698402404785156e+00,-3.703158378601074219e+00,-2.124180048704147339e-01
1.649685382843017578e+00,-3.707624197006225586e+00,-7.083378732204437256e-02
1.651658654212951660e+00,-3.712059020996093750e+00,7.091851532459259033e-02
1.653746843338012695e+00,-3.716752529144287109e+00,2.131977677345275879e-01
1.655686140060424805e+00,-3.721111059188842773e+00,3.563261330127716064e-01
1.657764077186584473e+00,-3.725780725479125977e+00,5.007077455520629883e-01
1.659762859344482422e+00,-3.730273246765136719e+00,6.466606259346008301e-01
1.661951303482055664e+00,-3.735191583633422852e+00,7.946729063987731934e-01
1.663958072662353516e+00,-3.739701747894287109e+00,9.449837207794189453e-01
1.681375741958618164e+00,-3.637757539749145508e+00,-1.073813080787658691e+00
1.687451243400573730e+00,-3.650902509689331055e+00,-9.285532236099243164e-01
1.689543843269348145e+00,-3.655430078506469727e+00,-7.827682495117187500e-01
1.691737413406372070e+00,-3.660175800323486328e+00,-6.386411786079406738e-01
1.693664431571960449e+00,-3.664345026016235352e+00,-4.956585466861724854e-01
1.695736050605773926e+00,-3.668827295303344727e+00,-3.536075353622436523e-01
1.697797298431396484e+00,-3.673286914825439453e+00,-2.120767682790756226e-01
1.699845314025878906e+00,-3.677717924118041992e+00,-7.072001695632934570e-02
1.701883435249328613e+00,-3.682127475738525391e+00,7.080481201410293579e-02
1.703926920890808105e+00,-3.686548471450805664e+00,2.128424346446990967e-01
1.706139802932739258e+00,-3.691336393356323242e+00,3.557769954204559326e-01
1.708122134208679199e+00,-3.695625305175781250e+00,4.998896718025207520e-01
1.710254430770874023e+00,-3.700238704681396484e+00,6.456314921379089355e-01
1.712238788604736328e+00,-3.704531669616699219e+00,7.932828068733215332e-01
1.714792966842651367e+00,-3.710057735443115234e+00,9.435985088348388672e-01
1.732740998268127441e+00,-3.612224578857421875e+00,-1.073487043380737305e+00
1.737062454223632812e+00,-3.621233463287353516e+00,-9.272360205650329590e-01
1.739165663719177246e+00,-3.625617980957031250e+00,-7.816349864006042480e-01
1.741393804550170898e+00,-3.630262851715087891e+00,-6.377056241035461426e-01
1.743525624275207520e+00,-3.634706974029541016e+00,-4.949745237827301025e-01
1.745628476142883301e+00,-3.639091014862060547e+00,-3.531135320663452148e-01
1.747779250144958496e+00,-3.643574714660644531e+00,-2.117839753627777100e-01
1.749886512756347656e+00,-3.647967576980590820e+00,-7.062233984470367432e-02
1.751956820487976074e+00,-3.652283430099487305e+00,7.070589810609817505e-02
1.754090070724487305e+00,-3.656730651855468750e+00,2.125486731529235840e-01
1.756220102310180664e+00,-3.661171197891235352e+00,3.552560806274414062e-01
1.758290052413940430e+00,-3.665486574172973633e+00,4.991660714149475098e-01
1.760536193847656250e+00,-3.670168876647949219e+00,6.447156667709350586e-01
1.762655258178710938e+00,-3.674586534500122070e+00,7.921919226646423340e-01
1.764946937561035156e+00,-3.679363965988159180e+00,9.421206116676330566e-01
1.778548359870910645e+00,-3.575569629669189453e+00,-1.070049762725830078e+00
1.786802530288696289e+00,-3.592163801193237305e+00,-9.262464046478271484e-01
1.788881778717041016e+00,-3.596343755722045898e+00,-7.807639837265014648e-01
1.791105270385742188e+00,-3.600813865661621094e+00,-6.369707584381103516e-01
1.793252706527709961e+00,-3.605131149291992188e+00,-4.943916499614715576e-01
1.795483350753784180e+00,-3.609615564346313477e+00,-3.527110219001770020e-01
1.797609567642211914e+00,-3.613890171051025391e+00,-2.115324586629867554e-01
1.799777746200561523e+00,-3.618248939514160156e+00,-7.053849846124649048e-02
1.801991343498229980e+00,-3.622699022293090820e+00,7.062525302171707153e-02
1.804118514060974121e+00,-3.626975774765014648e+00,2.122983932495117188e-01
1.806354641914367676e+00,-3.631471157073974609e+00,3.548466265201568604e-01
1.808552145957946777e+00,-3.635889053344726562e+00,4.986096322536468506e-01
1.810947656631469727e+00,-3.640704870223999023e+00,6.440272927284240723e-01
1.813232183456420898e+00,-3.645297527313232422e+00,7.913917899131774902e-01
1.815279841423034668e+00,-3.649414062500000000e+00,9.410085082054138184e-01
1.832453131675720215e+00,-3.555401563644409180e+00,-1.071753740310668945e+00
1.836065769195556641e+00,-3.562410831451416016e+00,-9.252561926841735840e-01
1.838456273078918457e+00,-3.567049026489257812e+00,-7.800371050834655762e-01
1.840691089630126953e+00,-3.571385145187377930e+00,-6.363603472709655762e-01
1.842866659164428711e+00,-3.575606346130371094e+00,-4.939095079898834229e-01
1.845144629478454590e+00,-3.580026149749755859e+00,-3.523643016815185547e-01
1.847369432449340820e+00,-3.584342956542968750e+00,-2.113290578126907349e-01
1.849596500396728516e+00,-3.588663816452026367e+00,-7.047063112258911133e-02
1.851833343505859375e+00,-3.593003988265991211e+00,7.055585831403732300e-02
1.854033231735229492e+00,-3.597272157669067383e+00,2.120913565158843994e-01
1.856362462043762207e+00,-3.601791381835937500e+00,3.545065522193908691e-01
1.858671545982360840e+00,-3.606271743774414062e+00,4.981454014778137207e-01
1.860877037048339844e+00,-3.610550880432128906e+00,6.433390378952026367e-01
1.863247632980346680e+00,-3.615150451660156250e+00,7.905558347702026367e-01
1.865817904472351074e+00,-3.620137453079223633e+00,9.402493834495544434e-01
1.882154345512390137e+00,-3.526945114135742188e+00,-1.071186900138854980e+00
1.885400772094726562e+00,-3.533028602600097656e+00,-9.245392680168151855e-01
1.887826681137084961e+00,-3.537574291229248047e+00,-7.794207930564880371e-01
1.890102982521057129e+00,-3.541839838027954102e+00,-6.358513236045837402e-01
1.892330169677734375e+00,-3.546013355255126953e+00,-4.935126006603240967e-01
1.894671320915222168e+00,-3.550400495529174805e+00,-3.520815372467041016e-01
1.896971702575683594e+00,-3.554711103439331055e+00,-2.111612409353256226e-01
1.899259209632873535e+00,-3.558997631072998047e+00,-7.041469216346740723e-02
1.901539921760559082e+00,-3.563271522521972656e+00,7.049925625324249268e-02
1.903796672821044922e+00,-3.567500352859497070e+00,2.119209617376327515e-01
1.906195402145385742e+00,-3.571995258331298828e+00,3.542230427265167236e-01
1.908585190773010254e+00,-3.576473474502563477e+00,4.977518618106842041e-01
1.910879015922546387e+00,-3.580771923065185547e+00,6.428406238555908203e-01
1.913344383239746094e+00,-3.585391521453857422e+00,7.899561524391174316e-01
1.915584564208984375e+00,-3.589589595794677734e+00,9.393404126167297363e-01
1.932247996330261230e+00,-3.499300003051757812e+00,-1.071080923080444336e+00
1.934625387191772461e+00,-3.503605604171752930e+00,-9.239914417266845703e-01
1.937107324600219727e+00,-3.508100509643554688e+00,-7.789559960365295410e-01
1.939443230628967285e+00,-3.512330770492553711e+00,-6.354722380638122559e-01
1.941882729530334473e+00,-3.516748666763305664e+00,-4.932575523853302002e-01
1.944237589836120605e+00,-3.521013259887695312e+00,-3.518909513950347900e-01
1.946528911590576172e+00,-3.525162935256958008e+00,-2.110394239425659180e-01
1.948876857757568359e+00,-3.529414892196655273e+00,-7.037410140037536621e-02
1.951285123825073242e+00,-3.533776283264160156e+00,7.046106457710266113e-02
1.953648805618286133e+00,-3.538057088851928711e+00,2.118113636970520020e-01
1.955956339836120605e+00,-3.542235851287841797e+00,3.540119528770446777e-01
1.958408236503601074e+00,-3.546676397323608398e+00,4.974552094936370850e-01
1.960768699645996094e+00,-3.550951004028320312e+00,6.424596309661865234e-01
1.963302493095397949e+00,-3.555539846420288086e+00,7.894896864891052246e-01
1.965608835220336914e+00,-3.559716701507568359e+00,9.387893676757812500e-01
1.981284737586975098e+00,-3.469803333282470703e+00,-1.070623040199279785e+00
1.984062433242797852e+00,-3.474668025970458984e+00,-9.237547516822814941e-01
1.986304998397827148e+00,-3.478595495223999023e+00,-7.786377668380737305e-01
1.988923907279968262e+00,-3.483181953430175781e+00,-6.352840065956115723e-01
1.991235017776489258e+00,-3.487229347229003906e+00,-4.930642843246459961e-01
1.993670582771301270e+00,-3.491494655609130859e+00,-3.517567515373229980e-01
1.996077060699462891e+00,-3.495709180831909180e+00,-2.109649628400802612e-01
1.998484253883361816e+00,-3.499924898147583008e+00,-7.034925371408462524e-02
2.000898361206054688e+00,-3.504152536392211914e+00,7.043422758579254150e-02
2.003300666809082031e+00,-3.508359909057617188e+00,2.117284238338470459e-01
2.005856990814208984e+00,-3.512836694717407227e+00,3.539068996906280518e-01
2.008147239685058594e+00,-3.516847372055053711e+00,4.972520470619201660e-01
2.010872602462768555e+00,-3.521620512008666992e+00,6.422947049140930176e-01
2.013127326965332031e+00,-3.525569200515747070e+00,7.891522049903869629e-01
2.015898227691650391e+00,-3.530421733856201172e+00,9.385771155357360840e-01
2.030471324920654297e+00,-3.440634250640869141e+00,-1.070480585098266602e+00
2.033195734024047852e+00,-3.445250272750854492e+00,-9.235762357711791992e-01
2.035679101943969727e+00,-3.449458360671997070e+00,-7.785581350326538086e-01
2.038050413131713867e+00,-3.453476667404174805e+00,-6.351216435432434082e-01
2.040569782257080078e+00,-3.457745790481567383e+00,-4.929747879505157471e-01
2.043045282363891602e+00,-3.461940526962280273e+00,-3.516893982887268066e-01
2.045562982559204102e+00,-3.466206550598144531e+00,-2.109298706054687500e-01
2.048029422760009766e+00,-3.470386028289794922e+00,-7.033753395080566406e-02
2.050452232360839844e+00,-3.474491596221923828e+00,7.042074203491210938e-02
2.052933931350708008e+00,-3.478697061538696289e+00,2.116899490356445312e-01
2.055402755737304688e+00,-3.482880115509033203e+00,3.538165986537933350e-01
2.058063507080078125e+00,-3.487388849258422852e+00,4.972010254859924316e-01
2.060669660568237305e+00,-3.491804838180541992e+00,6.421705484390258789e-01
2.063103675842285156e+00,-3.495929479598999023e+00,7.890468835830688477e-01
2.065668582916259766e+00,-3.500275611877441406e+00,9.383269548416137695e-01
2.079735755920410156e+00,-3.411598920822143555e+00,-1.070598959922790527e+00
2.082165718078613281e+00,-3.415585041046142578e+00,-9.235185384750366211e-01
2.084750652313232422e+00,-3.419825315475463867e+00,-7.785251140594482422e-01
2.087443828582763672e+00,-3.424243211746215820e+00,-6.351752281188964844e-01
2.090006828308105469e+00,-3.428447723388671875e+00,-4.930122494697570801e-01
2.092520236968994141e+00,-3.432570695877075195e+00,-3.517124056816101074e-01
2.095040559768676758e+00,-3.436704874038696289e+00,-2.109378129243850708e-01
2.097567319869995117e+00,-3.440849781036376953e+00,-7.034020125865936279e-02
2.100106000900268555e+00,-3.445014238357543945e+00,7.042533904314041138e-02
2.102670192718505859e+00,-3.449220418930053711e+00,2.117059975862503052e-01
2.105216026306152344e+00,-3.453396797180175781e+00,3.538463413715362549e-01
2.107675552368164062e+00,-3.457431077957153320e+00,4.971801042556762695e-01
2.110301733016967773e+00,-3.461739540100097656e+00,6.421305537223815918e-01
2.113159179687500000e+00,-3.466426610946655273e+00,7.891339063644409180e-01
2.115812301635742188e+00,-3.470778942108154297e+00,9.384420514106750488e-01
2.128826856613159180e+00,-3.382242679595947266e+00,-1.070839166641235352e+00
2.131340980529785156e+00,-3.386236906051635742e+00,-9.237372279167175293e-01
2.134013414382934570e+00,-3.390482664108276367e+00,-7.787190675735473633e-01
2.136791944503784180e+00,-3.394897460937500000e+00,-6.353399753570556641e-01
2.139423847198486328e+00,-3.399078845977783203e+00,-4.931420385837554932e-01
2.141991376876831055e+00,-3.403158187866210938e+00,-3.518041372299194336e-01
2.144551753997802734e+00,-3.407226324081420898e+00,-2.109909206628799438e-01
2.147137880325317383e+00,-3.411334753036499023e+00,-7.035789638757705688e-02
2.149755716323852539e+00,-3.415493965148925781e+00,7.044368237257003784e-02
2.152386188507080078e+00,-3.419673442840576172e+00,2.117616981267929077e-01
2.154983997344970703e+00,-3.423800706863403320e+00,3.539380729198455811e-01
2.157479524612426758e+00,-3.427765607833862305e+00,4.973039329051971436e-01
2.160141468048095703e+00,-3.431994676589965820e+00,6.422825455665588379e-01
2.163038969039916992e+00,-3.436598300933837891e+00,7.893108129501342773e-01
2.165720939636230469e+00,-3.440859079360961914e+00,9.386377334594726562e-01
2.177837133407592773e+00,-3.352693557739257812e+00,-1.071243286132812500e+00
2.180845499038696289e+00,-3.357324838638305664e+00,-9.242708683013916016e-01
2.183256626129150391e+00,-3.361036539077758789e+00,-7.790535688400268555e-01
2.186142921447753906e+00,-3.365479707717895508e+00,-6.356255412101745605e-01
2.188860177993774414e+00,-3.369663000106811523e+00,-4.933692514896392822e-01
2.191385746002197266e+00,-3.373550891876220703e+00,-3.519499301910400391e-01
2.194060564041137695e+00,-3.377668857574462891e+00,-2.110836803913116455e-01
2.196707248687744141e+00,-3.381743431091308594e+00,-7.038886100053787231e-02
2.199330329895019531e+00,-3.385781526565551758e+00,7.047291100025177002e-02
2.202121973037719727e+00,-3.390079259872436523e+00,2.118592411279678345e-01
2.204755306243896484e+00,-3.394132614135742188e+00,3.540971577167510986e-01
2.207264423370361328e+00,-3.397995710372924805e+00,4.975175559520721436e-01
2.210313558578491211e+00,-3.402689695358276367e+00,6.426532268524169922e-01
2.212837219238281250e+00,-3.406574726104736328e+00,7.896088957786560059e-01
2.215508937835693359e+00,-3.410687685012817383e+00,9.389616847038269043e-01
2.225440263748168945e+00,-3.320945739746093750e+00,-1.071167349815368652e+00
2.229964733123779297e+00,-3.327697277069091797e+00,-9.248068928718566895e-01
2.232831001281738281e+00,-3.331974506378173828e+00,-7.796453237533569336e-01
2.235525131225585938e+00,-3.335994958877563477e+00,-6.360350251197814941e-01
2.238162755966186523e+00,-3.339931011199951172e+00,-4.936559796333312988e-01
2.240942239761352539e+00,-3.344078779220581055e+00,-3.521854877471923828e-01
2.243668556213378906e+00,-3.348147392272949219e+00,-2.112240940332412720e-01
2.246374607086181641e+00,-3.352185249328613281e+00,-7.043566554784774780e-02
2.249066352844238281e+00,-3.356201887130737305e+00,7.052006572484970093e-02
2.251724243164062500e+00,-3.360168457031250000e+00,2.119824737310409546e-01
2.254558086395263672e+00,-3.364397048950195312e+00,3.543253242969512939e-01
2.257382869720458984e+00,-3.368612527847290039e+00,4.978952109813690186e-01
2.260096549987792969e+00,-3.372662305831909180e+00,6.430259346961975098e-01
2.263038396835327148e+00,-3.377052068710327148e+00,7.901929616928100586e-01
2.265722274780273438e+00,-3.381057262420654297e+00,9.396362304687500000e-01
2.271321535110473633e+00,-3.286700248718261719e+00,-1.070498108863830566e+00
2.279488325119018555e+00,-3.298517942428588867e+00,-9.256702661514282227e-01
2.282121896743774414e+00,-3.302328586578369141e+00,-7.802718281745910645e-01
2.284963130950927734e+00,-3.306439876556396484e+00,-6.365705728530883789e-01
2.287908792495727539e+00,-3.310702562332153320e+00,-4.941255748271942139e-01
2.290588140487670898e+00,-3.314579725265502930e+00,-3.524955511093139648e-01
2.293370962142944336e+00,-3.318606376647949219e+00,-2.114097028970718384e-01
2.296136140823364258e+00,-3.322607994079589844e+00,-7.049754261970520020e-02
2.298891544342041016e+00,-3.326595306396484375e+00,7.058213651180267334e-02
2.301770210266113281e+00,-3.330760717391967773e+00,2.121839672327041626e-01
2.304417371749877930e+00,-3.334591150283813477e+00,3.546237051486968994e-01
2.307216167449951172e+00,-3.338641166687011719e+00,4.982954263687133789e-01
2.310287952423095703e+00,-3.343086242675781250e+00,6.436258554458618164e-01
2.313231468200683594e+00,-3.347345590591430664e+00,7.909083962440490723e-01
2.315885543823242188e+00,-3.351186275482177734e+00,9.404507279396057129e-01
2.318863153457641602e+00,-3.254888057708740234e+00,-1.070837497711181641e+00
2.329054355621337891e+00,-3.269192934036254883e+00,-9.267011880874633789e-01
2.331812620162963867e+00,-3.273064613342285156e+00,-7.811635136604309082e-01
2.334755420684814453e+00,-3.277195215225219727e+00,-6.373087763786315918e-01
2.337569475173950195e+00,-3.281145334243774414e+00,-4.946571886539459229e-01
2.340346813201904297e+00,-3.285043716430664062e+00,-3.528808057308197021e-01
2.343150377273559570e+00,-3.288978815078735352e+00,-2.116371691226959229e-01
2.345976352691650391e+00,-3.292945861816406250e+00,-7.057341933250427246e-02
2.348830461502075195e+00,-3.296952009201049805e+00,7.065927237272262573e-02
2.351731777191162109e+00,-3.301024436950683594e+00,2.124122679233551025e-01
2.354631900787353516e+00,-3.305094957351684570e+00,3.550347387790679932e-01
2.357452392578125000e+00,-3.309054136276245117e+00,4.988646507263183594e-01
2.360522985458374023e+00,-3.313364028930664062e+00,6.443424820899963379e-01
2.363427877426147461e+00,-3.317441463470458984e+00,7.917546629905700684e-01
2.366585254669189453e+00,-3.321873426437377930e+00,9.416342973709106445e-01
2.370118618011474609e+00,-3.228053092956542969e+00,-1.073060035705566406e+00
2.378466129302978516e+00,-3.239422082901000977e+00,-9.278174638748168945e-01
2.381407737731933594e+00,-3.243428707122802734e+00,-7.821455001831054688e-01
2.384207010269165039e+00,-3.247241258621215820e+00,-6.380547881126403809e-01
2.387195348739624023e+00,-3.251311063766479492e+00,-4.952599704265594482e-01
2.390094995498657227e+00,-3.255260705947875977e+00,-3.533202111721038818e-01
2.392969846725463867e+00,-3.259175777435302734e+00,-2.119017243385314941e-01
2.395855426788330078e+00,-3.263106107711791992e+00,-7.066161930561065674e-02
2.398758649826049805e+00,-3.267060279846191406e+00,7.074724882841110229e-02
2.401658773422241211e+00,-3.271010160446166992e+00,2.126711606979370117e-01
2.404505729675292969e+00,-3.274887561798095703e+00,3.554504811763763428e-01
2.407592296600341797e+00,-3.279091596603393555e+00,4.994916617870330811e-01
2.410601854324340820e+00,-3.283190488815307617e+00,6.451185345649719238e-01
2.413397550582885742e+00,-3.286998033523559570e+00,7.926521301269531250e-01
2.416417837142944336e+00,-3.291111946105957031e+00,9.426221847534179688e-01
2.411639213562011719e+00,-3.187936782836914062e+00,-1.071089625358581543e+00
2.428107261657714844e+00,-3.209705829620361328e+00,-9.291653633117675781e-01
2.431248903274536133e+00,-3.213858842849731445e+00,-7.833263874053955078e-01
2.434194803237915039e+00,-3.217752933502197266e+00,-6.390412449836730957e-01
2.437069177627563477e+00,-3.221552610397338867e+00,-4.959897398948669434e-01
2.440099239349365234e+00,-3.225557804107666016e+00,-3.538509011268615723e-01
2.443047761917114258e+00,-3.229455709457397461e+00,-2.122212052345275879e-01
2.445993185043334961e+00,-3.233349084854125977e+00,-7.076813280582427979e-02
2.448944330215454102e+00,-3.237250089645385742e+00,7.085351645946502686e-02
2.451835155487060547e+00,-3.241071701049804688e+00,2.129845470190048218e-01
2.454918146133422852e+00,-3.245146989822387695e+00,3.559998869895935059e-01
2.457981348037719727e+00,-3.249196052551269531e+00,5.002457499504089355e-01
2.460914373397827148e+00,-3.253073453903198242e+00,6.460558772087097168e-01
2.464129209518432617e+00,-3.257323026657104492e+00,7.939200997352600098e-01
2.467066526412963867e+00,-3.261205911636352539e+00,9.440739154815673828e-01
2.454761266708374023e+00,-3.150198936462402344e+00,-1.070105910301208496e+00
2.478282690048217773e+00,-3.180383920669555664e+00,-9.308506250381469727e-01
2.481182336807250977e+00,-3.184104919433593750e+00,-7.846500277519226074e-01
2.484307050704956055e+00,-3.188115119934082031e+00,-6.401516199111938477e-01
2.487297296524047852e+00,-3.191952466964721680e+00,-4.968628585338592529e-01
2.490250349044799805e+00,-3.195742130279541016e+00,-3.544539809226989746e-01
2.493233919143676758e+00,-3.199570894241333008e+00,-2.125807106494903564e-01
2.496241092681884766e+00,-3.203429937362670898e+00,-7.088805735111236572e-02
2.499277114868164062e+00,-3.207325935363769531e+00,7.097426801919937134e-02
2.502366304397583008e+00,-3.211290359497070312e+00,2.133593559265136719e-01
2.505455970764160156e+00,-3.215255260467529297e+00,3.566182851791381836e-01
2.508462905883789062e+00,-3.219114303588867188e+00,5.010908842086791992e-01
2.511765956878662109e+00,-3.223352909088134766e+00,6.472271680831909180e-01
2.514903545379638672e+00,-3.227379560470581055e+00,7.953140735626220703e-01
2.517703294754028320e+00,-3.230972528457641602e+00,9.456571340560913086e-01
2.499691247940063477e+00,-3.114862918853759766e+00,-1.070146918296813965e+00
2.528029680252075195e+00,-3.150175571441650391e+00,-9.325042963027954102e-01
2.531198024749755859e+00,-3.154123783111572266e+00,-7.861093878746032715e-01
2.534536838531494141e+00,-3.158283948898315430e+00,-6.413804292678833008e-01
2.537432670593261719e+00,-3.161892652511596680e+00,-4.977862536907196045e-01
2.540545463562011719e+00,-3.165771484375000000e+00,-3.551267385482788086e-01
2.543616771697998047e+00,-3.169598340988159180e+00,-2.129864692687988281e-01
2.546683549880981445e+00,-3.173420190811157227e+00,-7.102333754301071167e-02
2.549754381179809570e+00,-3.177246809005737305e+00,7.110897451639175415e-02
2.552805900573730469e+00,-3.181049346923828125e+00,2.137559354305267334e-01
2.556112766265869141e+00,-3.185169696807861328e+00,3.573027551174163818e-01
2.559029102325439453e+00,-3.188803911209106445e+00,5.020229816436767578e-01
2.562185764312744141e+00,-3.192737340927124023e+00,6.483771800994873047e-01
2.565705060958862305e+00,-3.197122573852539062e+00,7.968261241912841797e-01
2.568986892700195312e+00,-3.201212167739868164e+00,9.476120471954345703e-01
2.546642780303955078e+00,-3.081948280334472656e+00,-1.071252226829528809e+00
2.578315258026123047e+00,-3.120278358459472656e+00,-9.344829320907592773e-01
2.581710100173950195e+00,-3.124387025833129883e+00,-7.878273129463195801e-01
2.584868669509887695e+00,-3.128209352493286133e+00,-6.427206397056579590e-01
2.587922096252441406e+00,-3.131904602050781250e+00,-4.988456964492797852e-01
2.590972185134887695e+00,-3.135596036911010742e+00,-3.558654487133026123e-01
2.594140052795410156e+00,-3.139429569244384766e+00,-2.134324610233306885e-01
2.597267389297485352e+00,-3.143214464187622070e+00,-7.117204368114471436e-02
2.600364208221435547e+00,-3.146962165832519531e+00,7.125689834356307983e-02
2.603599786758422852e+00,-3.150877714157104492e+00,2.142107486724853516e-01
2.606872320175170898e+00,-3.154838323593139648e+00,3.580493032932281494e-01
2.610094547271728516e+00,-3.158737659454345703e+00,5.031196475028991699e-01
2.613149404525756836e+00,-3.162434816360473633e+00,6.497526168823242188e-01
2.616508007049560547e+00,-3.166499376296997070e+00,7.984461188316345215e-01
2.619555711746215820e+00,-3.170187473297119141e+00,9.494300484657287598e-01
2.593785762786865234e+00,-3.049058675765991211e+00,-1.072614789009094238e+00
2.629019737243652344e+00,-3.090476989746093750e+00,-9.367316365242004395e-01
2.632212877273559570e+00,-3.094230651855468750e+00,-7.896425127983093262e-01
2.635626554489135742e+00,-3.098243474960327148e+00,-6.442488431930541992e-01
2.638597249984741211e+00,-3.101735591888427734e+00,-5.000047087669372559e-01
2.641831159591674805e+00,-3.105536937713623047e+00,-3.567090034484863281e-01
2.645048618316650391e+00,-3.109319210052490234e+00,-2.139373868703842163e-01
2.648238658905029297e+00,-3.113069295883178711e+00,-7.134044915437698364e-02
2.651407480239868164e+00,-3.116794347763061523e+00,7.142581790685653687e-02
2.654582977294921875e+00,-3.120527029037475586e+00,2.147085368633270264e-01
2.658062219619750977e+00,-3.124617099761962891e+00,3.589005768299102783e-01
2.661153078079223633e+00,-3.128250360488891602e+00,5.042789578437805176e-01
2.664537668228149414e+00,-3.132229328155517578e+00,6.513158679008483887e-01
2.667712211608886719e+00,-3.135960817337036133e+00,8.002920150756835938e-01
2.671224594116210938e+00,-3.140089750289916992e+00,9.517694115638732910e-01
2.633321046829223633e+00,-3.007241964340209961e+00,-1.071054100990295410e+00
2.679355859756469727e+00,-3.059813499450683594e+00,-9.389654994010925293e-01
2.682851791381835938e+00,-3.063806056976318359e+00,-7.915969491004943848e-01
2.686119318008422852e+00,-3.067537546157836914e+00,-6.457924842834472656e-01
2.689295053482055664e+00,-3.071163892745971680e+00,-5.012303590774536133e-01
2.692643642425537109e+00,-3.074988126754760742e+00,-3.575904071331024170e-01
2.695816755294799805e+00,-3.078611850738525391e+00,-2.144575417041778564e-01
2.699067831039428711e+00,-3.082324504852294922e+00,-7.151389867067337036e-02
2.702402114868164062e+00,-3.086132287979125977e+00,7.160224020481109619e-02
2.705587387084960938e+00,-3.089769840240478516e+00,2.152348011732101440e-01
2.708984613418579102e+00,-3.093649625778198242e+00,3.597605228424072266e-01
2.712347269058227539e+00,-3.097489595413208008e+00,5.055268406867980957e-01
2.715553283691406250e+00,-3.101150989532470703e+00,6.528689861297607422e-01
2.719114065170288086e+00,-3.105217218399047852e+00,8.022964000701904297e-01
2.722372531890869141e+00,-3.108938455581665039e+00,9.540405273437500000e-01
2.682885408401489258e+00,-2.976784467697143555e+00,-1.073773384094238281e+00
2.730610132217407227e+00,-3.029737472534179688e+00,-9.416335225105285645e-01
2.733927011489868164e+00,-3.033417701721191406e+00,-7.937747836112976074e-01
2.737497568130493164e+00,-3.037379503250122070e+00,-6.476261615753173828e-01
2.740877628326416016e+00,-3.041129827499389648e+00,-5.026798844337463379e-01
2.744172096252441406e+00,-3.044785022735595703e+00,-3.586090505123138428e-01
2.747454643249511719e+00,-3.048427343368530273e+00,-2.150722742080688477e-01
2.750767230987548828e+00,-3.052102565765380859e+00,-7.171886414289474487e-02
2.754117488861083984e+00,-3.055819749832153320e+00,7.180621474981307983e-02
2.757480621337890625e+00,-3.059551477432250977e+00,2.158571034669876099e-01
2.760799169540405273e+00,-3.063233613967895508e+00,3.607818782329559326e-01
2.763984441757202148e+00,-3.066767692565917969e+00,5.069177150726318359e-01
2.767499685287475586e+00,-3.070667982101440430e+00,6.547238826751708984e-01
2.770809173583984375e+00,-3.074340105056762695e+00,8.044832348823547363e-01
2.774507999420166016e+00,-3.078444242477416992e+00,9.567713737487792969e-01
2.724428415298461914e+00,-2.937234878540039062e+00,-1.073463797569274902e+00
2.781992435455322266e+00,-2.999295473098754883e+00,-9.444513916969299316e-01
2.785071134567260742e+00,-3.002614498138427734e+00,-7.960642576217651367e-01
2.788516283035278320e+00,-3.006328821182250977e+00,-6.494492888450622559e-01
2.792148590087890625e+00,-3.010244846343994141e+00,-5.041292309761047363e-01
2.795407295227050781e+00,-3.013758182525634766e+00,-3.596304357051849365e-01
2.798815727233886719e+00,-3.017432928085327148e+00,-2.156898230314254761e-01
2.802189350128173828e+00,-3.021070003509521484e+00,-7.192477583885192871e-02
2.805538654327392578e+00,-3.024680852890014648e+00,7.201074063777923584e-02
2.809061765670776367e+00,-3.028479099273681641e+00,2.164794206619262695e-01
2.812252759933471680e+00,-3.031919479370117188e+00,3.617976307868957520e-01
2.815689086914062500e+00,-3.035624265670776367e+00,5.083795189857482910e-01
2.819573163986206055e+00,-3.039811611175537109e+00,6.566824913024902344e-01
2.822636365890502930e+00,-3.043113946914672852e+00,8.068016171455383301e-01
2.826814174652099609e+00,-3.047618150711059570e+00,9.596677422523498535e-01
2.765892505645751953e+00,-2.897633552551269531e+00,-1.073349475860595703e+00
2.833300590515136719e+00,-2.968252420425415039e+00,-9.473493695259094238e-01
2.836750268936157227e+00,-2.971866130828857422e+00,-7.985953092575073242e-01
2.840465545654296875e+00,-2.975758552551269531e+00,-6.515615582466125488e-01
2.843676090240478516e+00,-2.979121923446655273e+00,-5.056818127632141113e-01
2.847185373306274414e+00,-2.982798576354980469e+00,-3.607621490955352783e-01
2.850666284561157227e+00,-2.986445188522338867e+00,-2.163692712783813477e-01
2.854104042053222656e+00,-2.990046739578247070e+00,-7.215139269828796387e-02
2.857505083084106445e+00,-2.993609666824340820e+00,7.223736494779586792e-02
2.860903024673461914e+00,-2.997169494628906250e+00,2.171462327241897583e-01
2.864641666412353516e+00,-3.001086235046386719e+00,3.629739880561828613e-01
2.867935180664062500e+00,-3.004536628723144531e+00,5.099956989288330078e-01
2.871574401855468750e+00,-3.008349180221557617e+00,6.586974859237670898e-01
2.874990463256835938e+00,-3.011927843093872070e+00,8.093606233596801758e-01
2.878825664520263672e+00,-3.015945672988891602e+00,9.625712037086486816e-01
2.807343006134033203e+00,-2.858018875122070312e+00,-1.073449969291687012e+00
2.885858535766601562e+00,-2.937951803207397461e+00,-9.507646560668945312e-01
2.889065027236938477e+00,-2.941216230392456055e+00,-8.013892173767089844e-01
2.892654657363891602e+00,-2.944870710372924805e+00,-6.537971496582031250e-01
2.896131277084350586e+00,-2.948409795761108398e+00,-5.074530839920043945e-01
2.899789094924926758e+00,-2.952133893966674805e+00,-3.620362877845764160e-01
2.903226137161254883e+00,-2.955632925033569336e+00,-2.171253412961959839e-01
2.906726360321044922e+00,-2.959196329116821289e+00,-7.240349799394607544e-02
2.910297155380249023e+00,-2.962831735610961914e+00,7.249244302511215210e-02
2.913674831390380859e+00,-2.966270208358764648e+00,2.179067879915237427e-01
2.917274951934814453e+00,-2.969935417175292969e+00,3.642193973064422607e-01
2.920823812484741211e+00,-2.973548412322998047e+00,5.117796659469604492e-01
2.924839019775390625e+00,-2.977635860443115234e+00,6.610714197158813477e-01
2.927970409393310547e+00,-2.980823993682861328e+00,8.121810555458068848e-01
2.932294130325317383e+00,-2.985225677490234375e+00,9.660632014274597168e-01
2.837091684341430664e+00,-2.806795835494995117e+00,-1.069353699684143066e+00
2.937765598297119141e+00,-2.906394958496093750e+00,-9.540625214576721191e-01
2.941411256790161133e+00,-2.910001516342163086e+00,-8.042732477188110352e-01
2.945323228836059570e+00,-2.913871765136718750e+00,-6.562073230743408203e-01
