-9.748898744583129883e-01,1.736059665679931641e+00,-1.741947829723358154e-01
-9.760442376136779785e-01,1.738115429878234863e+00,-1.044703498482704163e-01
-9.772369265556335449e-01,1.740239262580871582e+00,-3.483767062425613403e-02
-9.784705042839050293e-01,1.742436051368713379e+00,3.488164767622947693e-02
-9.795908927917480469e-01,1.744431138038635254e+00,1.048499643802642822e-01
-9.808098077774047852e-01,1.746601819992065430e+00,1.752525568008422852e-01
-9.820081591606140137e-01,1.748735785484313965e+00,2.462559044361114502e-01
-9.831410646438598633e-01,1.750753283500671387e+00,3.180212378501892090e-01
-9.845200777053833008e-01,1.753208875656127930e+00,3.908450603485107422e-01
-9.858186841011047363e-01,1.755521535873413086e+00,4.648244082927703857e-01
-1.001494526863098145e+00,1.725129842758178711e+00,-5.344932675361633301e-01
-1.002647042274475098e+00,1.727115154266357422e+00,-4.610557258129119873e-01
-1.004011869430541992e+00,1.729465961456298828e+00,-3.887159228324890137e-01
-1.005286335945129395e+00,1.731661319732666016e+00,-3.171345293521881104e-01
-1.006518721580505371e+00,1.733784198760986328e+00,-2.461539804935455322e-01
-1.007836580276489258e+00,1.736054301261901855e+00,-1.756237000226974487e-01
-1.009029984474182129e+00,1.738110065460205078e+00,-1.053273305296897888e-01
-1.010262370109558105e+00,1.740232944488525391e+00,-3.512343019247055054e-02
-1.011538147926330566e+00,1.742430448532104492e+00,3.516777977347373962e-02
-1.012696862220764160e+00,1.744426488876342773e+00,1.057101041078567505e-01
-1.013956904411315918e+00,1.746597051620483398e+00,1.766902357339859009e-01
-1.015197157859802246e+00,1.748733282089233398e+00,2.482763677835464478e-01
-1.016369819641113281e+00,1.750753283500671387e+00,3.206309974193572998e-01
-1.017796516418457031e+00,1.753211021423339844e+00,3.940528631210327148e-01
-1.019140124320983887e+00,1.755525350570678711e+00,4.686398804187774658e-01
-1.033814311027526855e+00,1.723510503768920898e+00,-5.385211110115051270e-01
-1.035006284713745117e+00,1.725497841835021973e+00,-4.645311534404754639e-01
-1.036416053771972656e+00,1.727848052978515625e+00,-3.916464149951934814e-01
-1.037732720375061035e+00,1.730043172836303711e+00,-3.195256888866424561e-01
-1.039005637168884277e+00,1.732165217399597168e+00,-2.480101287364959717e-01
-1.040366649627685547e+00,1.734434247016906738e+00,-1.769481301307678223e-01
-1.041599750518798828e+00,1.736490011215209961e+00,-1.061217486858367920e-01
-1.042871952056884766e+00,1.738610863685607910e+00,-3.538833931088447571e-02
-1.044187545776367188e+00,1.740804195404052734e+00,3.543298318982124329e-02
-1.045383691787719727e+00,1.742798209190368652e+00,1.065072640776634216e-01
-1.046684265136718750e+00,1.744966506958007812e+00,1.780226379632949829e-01
-1.047962903976440430e+00,1.747098207473754883e+00,2.501482367515563965e-01
-1.049171924591064453e+00,1.749113798141479492e+00,3.230479061603546143e-01
-1.050642728805541992e+00,1.751565814018249512e+00,3.970224559307098389e-01
-1.052027106285095215e+00,1.753873705863952637e+00,4.721703827381134033e-01
-1.067643284797668457e+00,1.723499417304992676e+00,-5.432367920875549316e-01
-1.069218993186950684e+00,1.726043224334716797e+00,-4.687500894069671631e-01
-1.070340394973754883e+00,1.727853417396545410e+00,-3.950797617435455322e-01
-1.071703791618347168e+00,1.730054259300231934e+00,-3.223278820514678955e-01
-1.073022603988647461e+00,1.732183218002319336e+00,-2.501861155033111572e-01
-1.074429512023925781e+00,1.734454393386840820e+00,-1.785008609294891357e-01
-1.075702905654907227e+00,1.736510157585144043e+00,-1.070529669523239136e-01
-1.077017068862915039e+00,1.738631606101989746e+00,-3.569888696074485779e-02
-1.078375458717346191e+00,1.740824460983276367e+00,3.574391081929206848e-02
-1.079608678817749023e+00,1.742815256118774414e+00,1.074416637420654297e-01
-1.080949187278747559e+00,1.744979143142700195e+00,1.795840114355087280e-01
-1.082264780998229980e+00,1.747102975845336914e+00,2.523410320281982422e-01
-1.083852767944335938e+00,1.749666571617126465e+00,3.259818553924560547e-01
-1.085023164749145508e+00,1.751555800437927246e+00,4.004994034767150879e-01
-1.086446046829223633e+00,1.753852844238281250e+00,4.763025045394897461e-01
-1.100966930389404297e+00,1.721752047538757324e+00,-5.475969910621643066e-01
-1.102598667144775391e+00,1.724303722381591797e+00,-4.725153148174285889e-01
-1.103762388229370117e+00,1.726123809814453125e+00,-3.982558846473693848e-01
-1.105174541473388672e+00,1.728332042694091797e+00,-3.249209523200988770e-01
-1.106537699699401855e+00,1.730463743209838867e+00,-2.521995306015014648e-01
-1.107991695404052734e+00,1.732737660408020020e+00,-1.799378842115402222e-01
-1.109306454658508301e+00,1.734793901443481445e+00,-1.079149618744850159e-01
-1.110661864280700684e+00,1.736913442611694336e+00,-3.598633781075477600e-02
-1.112060785293579102e+00,1.739101052284240723e+00,3.603166341781616211e-02
-1.113330006599426270e+00,1.741086125373840332e+00,1.083063781261444092e-01
-1.114708423614501953e+00,1.743241667747497559e+00,1.810286790132522583e-01
-1.116060853004455566e+00,1.745356678962707520e+00,2.543700337409973145e-01
-1.117690920829772949e+00,1.747905850410461426e+00,3.286007642745971680e-01
-1.118888616561889648e+00,1.749778866767883301e+00,4.037136435508728027e-01
-1.120347380638122559e+00,1.752060174942016602e+00,4.801214635372161865e-01
-1.135975003242492676e+00,1.721700906753540039e+00,-5.526954531669616699e-01
-1.137671589851379395e+00,1.724272370338439941e+00,-4.769201874732971191e-01
-1.138883233070373535e+00,1.726108789443969727e+00,-4.019723534584045410e-01
-1.140349030494689941e+00,1.728330254554748535e+00,-3.279555737972259521e-01
-1.141761302947998047e+00,1.730470776557922363e+00,-2.545562684535980225e-01
-1.143265485763549805e+00,1.732750535011291504e+00,-1.816199719905853271e-01
-1.144625067710876465e+00,1.734811067581176758e+00,-1.089240312576293945e-01
-1.146023988723754883e+00,1.736931443214416504e+00,-3.632285073399543762e-02
-1.147465705871582031e+00,1.739116311073303223e+00,3.636854141950607300e-02
-1.148770451545715332e+00,1.741093993186950684e+00,1.093185171484947205e-01
-1.150186061859130859e+00,1.743239402770996094e+00,1.827193647623062134e-01
-1.151572585105895996e+00,1.745340943336486816e+00,2.567436993122100830e-01
-1.153242230415344238e+00,1.747871518135070801e+00,3.316635787487030029e-01
-1.154466509819030762e+00,1.749727010726928711e+00,4.074724912643432617e-01
-1.155956029891967773e+00,1.751984596252441406e+00,4.845851659774780273e-01
-1.170385360717773438e+00,1.719792842864990234e+00,-5.574036240577697754e-01
-1.172147870063781738e+00,1.722382783889770508e+00,-4.809888005256652832e-01
-1.173408865928649902e+00,1.724235653877258301e+00,-4.054059386253356934e-01
-1.174929022789001465e+00,1.726469397544860840e+00,-3.307597339153289795e-01
-1.176391243934631348e+00,1.728618144989013672e+00,-2.567343711853027344e-01
-1.177946805953979492e+00,1.730903863906860352e+00,-1.831748932600021362e-01
-1.179350256919860840e+00,1.732966184616088867e+00,-1.098568290472030640e-01
-1.180791854858398438e+00,1.735084414482116699e+00,-3.663391247391700745e-02
-1.182274460792541504e+00,1.737263083457946777e+00,3.667991235852241516e-02
-1.183614015579223633e+00,1.739231348037719727e+00,1.102539971470832825e-01
-1.185064077377319336e+00,1.741362214088439941e+00,1.842816621065139771e-01
-1.186481356620788574e+00,1.743444800376892090e+00,2.589364349842071533e-01
-1.188190817832946777e+00,1.745956540107727051e+00,3.344931006431579590e-01
-1.189436912536621094e+00,1.747787714004516602e+00,4.109435379505157471e-01
-1.190953969955444336e+00,1.750016927719116211e+00,4.887058734893798828e-01
-1.207111597061157227e+00,1.720299124717712402e+00,-5.631099939346313477e-01
-1.208504319190979004e+00,1.722283959388732910e+00,-4.857420325279235840e-01
-1.210137367248535156e+00,1.724611282348632812e+00,-4.095248878002166748e-01
-1.211403727531433105e+00,1.726415991783142090e+00,-3.340371847152709961e-01
-1.212923407554626465e+00,1.728581786155700684e+00,-2.592808902263641357e-01
-1.214534878730773926e+00,1.730878233909606934e+00,-1.849929392337799072e-01
-1.215984821319580078e+00,1.732944607734680176e+00,-1.109474375844001770e-01
-1.217469453811645508e+00,1.735060453414916992e+00,-3.699754551053047180e-02
-1.218995332717895508e+00,1.737235069274902344e+00,3.704391792416572571e-02
-1.220370173454284668e+00,1.739194393157958984e+00,1.113475710153579712e-01
-1.221854329109191895e+00,1.741309404373168945e+00,1.861077994108200073e-01
-1.223621010780334473e+00,1.743827342987060547e+00,2.615676820278167725e-01
-1.225044369697570801e+00,1.745855808258056641e+00,3.377984762191772461e-01
-1.226761579513549805e+00,1.748302936553955078e+00,4.151507019996643066e-01
-1.228366255760192871e+00,1.750589966773986816e+00,4.937252700328826904e-01
-1.242705821990966797e+00,1.718189597129821777e+00,-5.681836605072021484e-01
-1.244161248207092285e+00,1.720201849937438965e+00,-4.901271164417266846e-01
-1.245861768722534180e+00,1.722553014755249023e+00,-4.132283329963684082e-01
-1.247436523437500000e+00,1.724730372428894043e+00,-3.371312022209167480e-01
-1.248940348625183105e+00,1.726809501647949219e+00,-2.616696953773498535e-01
-1.250424146652221680e+00,1.728861093521118164e+00,-1.866711080074310303e-01
-1.251920580863952637e+00,1.730930209159851074e+00,-1.119542419910430908e-01
-1.253450393676757812e+00,1.733045220375061035e+00,-3.733332082629203796e-02
-1.255017876625061035e+00,1.735212445259094238e+00,3.738000616431236267e-02
-1.256608247756958008e+00,1.737411379814147949e+00,1.123734340071678162e-01
-1.258197903633117676e+00,1.739609241485595703e+00,1.878316253423690796e-01
-1.259743452072143555e+00,1.741746068000793457e+00,2.639330923557281494e-01
-1.261191487312316895e+00,1.743748307228088379e+00,3.408486247062683105e-01
-1.262935042381286621e+00,1.746158838272094727e+00,4.188912212848663330e-01
-1.264559984207153320e+00,1.748405575752258301e+00,4.981630146503448486e-01
-1.280370593070983887e+00,1.717940926551818848e+00,-5.741029977798461914e-01
-1.281901478767395020e+00,1.719995021820068359e+00,-4.952453672885894775e-01
-1.283683896064758301e+00,1.722386598587036133e+00,-4.175534248352050781e-01
-1.285320043563842773e+00,1.724581837654113770e+00,-3.406634032726287842e-01
-1.286886692047119141e+00,1.726683974266052246e+00,-2.644148170948028564e-01
-1.288425445556640625e+00,1.728748559951782227e+00,-1.886308789253234863e-01
-1.289973497390747070e+00,1.730825543403625488e+00,-1.131301149725914001e-01
-1.291548848152160645e+00,1.732939362525939941e+00,-3.772541135549545288e-02
-1.293156623840332031e+00,1.735096573829650879e+00,3.777237236499786377e-02
-1.294787287712097168e+00,1.737284660339355469e+00,1.135522872209548950e-01
-1.296408534049987793e+00,1.739459991455078125e+00,1.897996366024017334e-01
-1.297981142997741699e+00,1.741569876670837402e+00,2.666943669319152832e-01
-1.299446582794189453e+00,1.743536233901977539e+00,3.444075286388397217e-01
-1.301214456558227539e+00,1.745908260345458984e+00,4.232557117938995361e-01
-1.302852988243103027e+00,1.748106718063354492e+00,5.033397078514099121e-01
-1.318801045417785645e+00,1.717640876770019531e+00,-5.802515149116516113e-01
-1.320414781570434570e+00,1.719742774963378906e+00,-5.005633234977722168e-01
-1.322279095649719238e+00,1.722170829772949219e+00,-4.220461547374725342e-01
-1.323987960815429688e+00,1.724396467208862305e+00,-3.443349599838256836e-01
-1.325620174407958984e+00,1.726522445678710938e+00,-2.672683000564575195e-01
-1.327217102050781250e+00,1.728602170944213867e+00,-1.906682252883911133e-01
-1.328818321228027344e+00,1.730687618255615234e+00,-1.143525689840316772e-01
-1.330441355705261230e+00,1.732801675796508789e+00,-3.813307359814643860e-02
-1.332092165946960449e+00,1.734951615333557129e+00,3.818038478493690491e-02
-1.333758354187011719e+00,1.737121701240539551e+00,1.147776916623115540e-01
-1.335411310195922852e+00,1.739274501800537109e+00,1.918454021215438843e-01
-1.337007522583007812e+00,1.741353511810302734e+00,2.695641815662384033e-01
-1.338488340377807617e+00,1.743282198905944824e+00,3.481061458587646484e-01
-1.340271592140197754e+00,1.745604753494262695e+00,4.277890324592590332e-01
-1.341918349266052246e+00,1.747749567031860352e+00,5.087152719497680664e-01
-1.356855630874633789e+00,1.715796709060668945e+00,-5.861293673515319824e-01
-1.358477473258972168e+00,1.717847585678100586e+00,-5.056195855140686035e-01
-1.360002160072326660e+00,1.719775557518005371e+00,-4.261860549449920654e-01
-1.361782908439636230e+00,1.722027420997619629e+00,-3.477184772491455078e-01
-1.363479495048522949e+00,1.724172830581665039e+00,-2.698980569839477539e-01
-1.365135312080383301e+00,1.726266741752624512e+00,-1.925461739301681519e-01
-1.366787552833557129e+00,1.728356003761291504e+00,-1.154793053865432739e-01
-1.368457317352294922e+00,1.730467438697814941e+00,-3.850881010293960571e-02
-1.370149612426757812e+00,1.732607483863830566e+00,3.855643421411514282e-02
-1.371848702430725098e+00,1.734756112098693848e+00,1.159069240093231201e-01
-1.373531341552734375e+00,1.736883878707885742e+00,1.937303990125656128e-01
-1.375148773193359375e+00,1.738929152488708496e+00,2.722079753875732422e-01
-1.377074360847473145e+00,1.741364002227783203e+00,3.516229987144470215e-01
-1.378946423530578613e+00,1.743731379508972168e+00,4.321226775646209717e-01
-1.380668878555297852e+00,1.745909452438354492e+00,5.138791799545288086e-01
-1.396826028823852539e+00,1.715300559997558594e+00,-5.927290320396423340e-01
-1.398540496826171875e+00,1.717405915260314941e+00,-5.113291740417480469e-01
-1.400148510932922363e+00,1.719380617141723633e+00,-4.310104846954345703e-01
-1.402013897895812988e+00,1.721671342849731445e+00,-3.516626954078674316e-01
-1.403781890869140625e+00,1.723842382431030273e+00,-2.729636728763580322e-01
-1.405502796173095703e+00,1.725955605506896973e+00,-1.947354227304458618e-01
-1.407212376594543457e+00,1.728055000305175781e+00,-1.167930141091346741e-01
-1.408931016921997070e+00,1.730165481567382812e+00,-3.894687816500663757e-02
-1.410665869712829590e+00,1.732295870780944824e+00,3.899483382701873779e-02
-1.412401080131530762e+00,1.734426736831665039e+00,1.172236576676368713e-01
-1.414109587669372559e+00,1.736524701118469238e+00,1.959279179573059082e-01
-1.415743947029113770e+00,1.738531827926635742e+00,2.752896845340728760e-01
-1.417685270309448242e+00,1.740915656089782715e+00,3.555934727191925049e-01
-1.419566035270690918e+00,1.743225216865539551e+00,4.369877874851226807e-01
-1.421288967132568359e+00,1.745341062545776367e+00,5.196464061737060547e-01
-1.437644839286804199e+00,1.714709043502807617e+00,-5.995739102363586426e-01
-1.439461708068847656e+00,1.716876029968261719e+00,-5.172528624534606934e-01
-1.441531777381896973e+00,1.719345092773437500e+00,-4.361292123794555664e-01
-1.443113684654235840e+00,1.721231937408447266e+00,-3.557555973529815674e-01
-1.444960474967956543e+00,1.723434567451477051e+00,-2.761457860469818115e-01
-1.446749329566955566e+00,1.725568294525146484e+00,-1.970079690217971802e-01
-1.448516964912414551e+00,1.727676510810852051e+00,-1.181566119194030762e-01
-1.450288057327270508e+00,1.729788899421691895e+00,-3.940165415406227112e-02
-1.452063441276550293e+00,1.731906414031982422e+00,3.944988548755645752e-02
-1.453832745552062988e+00,1.734016776084899902e+00,1.185902357101440430e-01
-1.455563783645629883e+00,1.736081361770629883e+00,1.982082575559616089e-01
-1.457587122917175293e+00,1.738494634628295898e+00,2.785588502883911133e-01
-1.459167122840881348e+00,1.740379214286804199e+00,3.597131073474884033e-01
-1.461051464080810547e+00,1.742626667022705078e+00,4.420348107814788818e-01
-1.462763905525207520e+00,1.744669079780578613e+00,5.256261825561523438e-01
-1.477929115295410156e+00,1.712369203567504883e+00,-6.060905456542968750e-01
-1.479769706726074219e+00,1.714501738548278809e+00,-5.228651762008666992e-01
-1.481475949287414551e+00,1.716478586196899414e+00,-4.407358169555664062e-01
-1.483137965202331543e+00,1.718404293060302734e+00,-3.595220744609832764e-01
-1.485062479972839355e+00,1.720634102821350098e+00,-2.790744006633758545e-01
-1.486916542053222656e+00,1.722782254219055176e+00,-1.990993618965148926e-01
-1.488742113113403320e+00,1.724897503852844238e+00,-1.194116622209548950e-01
-1.490561842918395996e+00,1.727005839347839355e+00,-3.982015699148178101e-02
-1.492378592491149902e+00,1.729110717773437500e+00,3.986869379878044128e-02
-1.494179725646972656e+00,1.731197595596313477e+00,1.198478117585182190e-01
-1.495934247970581055e+00,1.733230352401733398e+00,2.003068476915359497e-01
-1.497976779937744141e+00,1.735596895217895508e+00,2.815012633800506592e-01
-1.500026106834411621e+00,1.737971425056457520e+00,3.636158704757690430e-01
-1.501991748809814453e+00,1.740248918533325195e+00,4.468392729759216309e-01
-1.503769516944885254e+00,1.742308497428894043e+00,5.313453078269958496e-01
-1.520447969436645508e+00,1.711486577987670898e+00,-6.134182810783386230e-01
-1.522403478622436523e+00,1.713687777519226074e+00,-5.292082428932189941e-01
-1.524212479591369629e+00,1.715724110603332520e+00,-4.460982382297515869e-01
-1.526269912719726562e+00,1.718040108680725098e+00,-3.639792203903198242e-01
-1.527976512908935547e+00,1.719961047172546387e+00,-2.824835479259490967e-01
-1.529906153678894043e+00,1.722133159637451172e+00,-2.015344500541687012e-01
-1.531796932220458984e+00,1.724261522293090820e+00,-1.208731085062026978e-01
-1.533669114112854004e+00,1.726368904113769531e+00,-4.030749946832656860e-02
-1.535526633262634277e+00,1.728459835052490234e+00,4.035631939768791199e-02
-1.537357807159423828e+00,1.730521082878112793e+00,1.213119104504585266e-01
-1.539439320564270020e+00,1.732864141464233398e+00,2.027902603149414062e-01
-1.541189074516296387e+00,1.734833717346191406e+00,2.849262058734893799e-01
-1.543243288993835449e+00,1.737146139144897461e+00,3.680269718170166016e-01
-1.545201778411865234e+00,1.739350557327270508e+00,4.522412419319152832e-01
-1.546959042549133301e+00,1.741328716278076172e+00,5.377441048622131348e-01
-1.563901782035827637e+00,1.710456609725952148e+00,-6.210085153579711914e-01
-1.565981626510620117e+00,1.712731361389160156e+00,-5.357798933982849121e-01
-1.567902207374572754e+00,1.714831948280334473e+00,-4.516550898551940918e-01
-1.570065259933471680e+00,1.717197775840759277e+00,-3.685241043567657471e-01
-1.571856379508972168e+00,1.719156742095947266e+00,-2.860172986984252930e-01
-1.573866605758666992e+00,1.721355319023132324e+00,-2.040588259696960449e-01
-1.575821280479431152e+00,1.723493218421936035e+00,-1.223878785967826843e-01
-1.577747344970703125e+00,1.725599765777587891e+00,-4.081263393163681030e-02
-1.579647421836853027e+00,1.727677822113037109e+00,4.086178168654441833e-02
-1.581507325172424316e+00,1.729712128639221191e+00,1.228294968605041504e-01
-1.583611726760864258e+00,1.732013702392578125e+00,2.053223252296447754e-01
-1.585366487503051758e+00,1.733932852745056152e+00,2.884756326675415039e-01
-1.587420225143432617e+00,1.736178994178771973e+00,3.725976347923278809e-01
-1.589364767074584961e+00,1.738305807113647461e+00,4.578376710414886475e-01
-1.591749429702758789e+00,1.740913867950439453e+00,5.445960164070129395e-01
-1.608902335166931152e+00,1.709877610206604004e+00,-6.290948987007141113e-01
-1.611034274101257324e+00,1.712143301963806152e+00,-5.427538156509399414e-01
-1.612985968589782715e+00,1.714217543601989746e+00,-4.575271904468536377e-01
-1.614851951599121094e+00,1.716200590133666992e+00,-3.732323348522186279e-01
-1.616963267326354980e+00,1.718444347381591797e+00,-2.897196412086486816e-01
-1.618826389312744141e+00,1.720424413681030273e+00,-2.066741287708282471e-01
-1.620851397514343262e+00,1.722576498985290527e+00,-1.239575520157814026e-01
-1.622831106185913086e+00,1.724680542945861816e+00,-4.133603721857070923e-02
-1.624773621559143066e+00,1.726744890213012695e+00,4.138551652431488037e-02
-1.626893639564514160e+00,1.728997945785522461e+00,1.244196444749832153e-01
-1.628784298896789551e+00,1.731007218360900879e+00,2.079454362392425537e-01
-1.630952715873718262e+00,1.733311772346496582e+00,2.922262251377105713e-01
-1.633089661598205566e+00,1.735582828521728516e+00,3.774475157260894775e-01
-1.635099530220031738e+00,1.737718820571899414e+00,4.637997150421142578e-01
-1.636872529983520508e+00,1.739603161811828613e+00,5.514587163925170898e-01
-1.654337048530578613e+00,1.708495259284973145e+00,-6.372330784797668457e-01
-1.656610608100891113e+00,1.710843205451965332e+00,-5.498021245002746582e-01
-1.658686399459838867e+00,1.712986946105957031e+00,-4.634879231452941895e-01
-1.660664081573486328e+00,1.715029358863830566e+00,-3.781082630157470703e-01
-1.662876725196838379e+00,1.717314481735229492e+00,-2.935118675231933594e-01
-1.664819836616516113e+00,1.719321131706237793e+00,-2.093827575445175171e-01
-1.666917324066162109e+00,1.721487283706665039e+00,-1.255832463502883911e-01
-1.668954133987426758e+00,1.723590850830078125e+00,-4.187817499041557312e-02
-1.670936226844787598e+00,1.725637793540954590e+00,4.192791134119033813e-02
-1.673087477684020996e+00,1.727859377861022949e+00,1.260480880737304688e-01
-1.674992203712463379e+00,1.729826569557189941e+00,2.106621265411376953e-01
-1.677164435386657715e+00,1.732069849967956543e+00,2.960337996482849121e-01
-1.679289102554321289e+00,1.734264135360717773e+00,3.823489248752593994e-01
-1.681273937225341797e+00,1.736313939094543457e+00,4.697995483875274658e-01
-1.683692812919616699e+00,1.738811969757080078e+00,5.587902665138244629e-01
-1.701410531997680664e+00,1.707516193389892578e+00,-6.458849310874938965e-01
-1.703228354454040527e+00,1.709340453147888184e+00,-5.570966601371765137e-01
-1.705438733100891113e+00,1.711558699607849121e+00,-4.696582555770874023e-01
-1.707867980003356934e+00,1.713996767997741699e+00,-3.832308053970336914e-01
-1.709853291511535645e+00,1.715989112854003906e+00,-2.974378168582916260e-01
-1.712028264999389648e+00,1.718171954154968262e+00,-2.122053354978561401e-01
-1.714051008224487305e+00,1.720201969146728516e+00,-1.272661983966827393e-01
-1.716147065162658691e+00,1.722305536270141602e+00,-4.243943095207214355e-02
-1.718317627906799316e+00,1.724483847618103027e+00,4.249310865998268127e-02
-1.720351576805114746e+00,1.726525068283081055e+00,1.277340054512023926e-01
-1.722603678703308105e+00,1.728785276412963867e+00,2.135161459445953369e-01
-1.724437236785888672e+00,1.730625391006469727e+00,2.999747693538665771e-01
-1.726546406745910645e+00,1.732742190361022949e+00,3.874220550060272217e-01
-1.729116559028625488e+00,1.735321521759033203e+00,4.761788547039031982e-01
-1.731585025787353516e+00,1.737798810005187988e+00,5.663716197013854980e-01
-1.748951792716979980e+00,1.705692410469055176e+00,-6.545972228050231934e-01
-1.751452088356018066e+00,1.708130836486816406e+00,-5.648149847984313965e-01
-1.753710865974426270e+00,1.710333824157714844e+00,-4.761613607406616211e-01
-1.755831599235534668e+00,1.712402105331420898e+00,-3.884536921977996826e-01
-1.757922649383544922e+00,1.714441418647766113e+00,-3.015000522136688232e-01
-1.760190844535827637e+00,1.716653585433959961e+00,-2.151074409484863281e-01
-1.762290477752685547e+00,1.718701243400573730e+00,-1.290081441402435303e-01
-1.764445304870605469e+00,1.720802664756774902e+00,-4.302031174302101135e-02
-1.766658902168273926e+00,1.722961544990539551e+00,4.307428374886512756e-02
-1.768718004226684570e+00,1.724969744682312012e+00,1.294786781072616577e-01
-1.770984292030334473e+00,1.727179884910583496e+00,2.164264619350433350e-01
-1.773249745368957520e+00,1.729389429092407227e+00,3.041287958621978760e-01
-1.775429844856262207e+00,1.731515526771545410e+00,3.927895426750183105e-01
-1.777431130409240723e+00,1.733467340469360352e+00,4.826017916202545166e-01
-1.779856085777282715e+00,1.735832333564758301e+00,5.739748477935791016e-01
-1.798228144645690918e+00,1.704221129417419434e+00,-6.638424396514892578e-01
-1.800260782241821289e+00,1.706147551536560059e+00,-5.726210474967956543e-01
-1.802670359611511230e+00,1.708431124687194824e+00,-4.827656447887420654e-01
-1.804932236671447754e+00,1.710574746131896973e+00,-3.938593864440917969e-01
-1.807122588157653809e+00,1.712650537490844727e+00,-3.057026267051696777e-01
-1.809490442276000977e+00,1.714894652366638184e+00,-2.181101441383361816e-01
-1.811667084693908691e+00,1.716957449913024902e+00,-1.308103054761886597e-01
-1.813881158828735352e+00,1.719055771827697754e+00,-4.362124949693679810e-02
-1.816139698028564453e+00,1.721196413040161133e+00,4.367556422948837280e-02
-1.818220257759094238e+00,1.723168134689331055e+00,1.312834769487380981e-01
-1.820496559143066406e+00,1.725325465202331543e+00,2.194367945194244385e-01
-1.822752594947814941e+00,1.727463483810424805e+00,3.083466887474060059e-01
-1.824909448623657227e+00,1.729507684707641602e+00,3.982186913490295410e-01
-1.827510476112365723e+00,1.731972694396972656e+00,4.894179999828338623e-01
-1.829970598220825195e+00,1.734304189682006836e+00,5.820710062980651855e-01
-1.848661184310913086e+00,1.702462673187255859e+00,-6.733956933021545410e-01
-1.850768089294433594e+00,1.704403042793273926e+00,-5.808669924736022949e-01
-1.853242158889770508e+00,1.706681489944458008e+00,-4.897168278694152832e-01
-1.855541467666625977e+00,1.708798885345458984e+00,-3.995248079299926758e-01
-1.857749342918395996e+00,1.710832118988037109e+00,-3.100926578044891357e-01
-1.859960079193115234e+00,1.712868094444274902e+00,-2.212157249450683594e-01
-1.862214922904968262e+00,1.714944601058959961e+00,-1.326740980148315430e-01
-1.864492416381835938e+00,1.717041969299316406e+00,-4.424281045794487000e-02
-1.866793036460876465e+00,1.719160676002502441e+00,4.429740086197853088e-02
-1.869158506393432617e+00,1.721338987350463867e+00,1.331688016653060913e-01
-1.871543645858764648e+00,1.723535537719726562e+00,2.225934416055679321e-01
-1.873889088630676270e+00,1.725695490837097168e+00,3.127866685390472412e-01
-1.876108765602111816e+00,1.727739572525024414e+00,4.039532542228698730e-01
-1.878767848014831543e+00,1.730188369750976562e+00,4.964619278907775879e-01
-1.881260395050048828e+00,1.732483863830566406e+00,5.904370546340942383e-01
-1.902649044990539551e+00,1.702505946159362793e+00,-6.841147541999816895e-01
-1.905524730682373047e+00,1.705079197883605957e+00,-5.903322696685791016e-01
-1.907607913017272949e+00,1.706943154335021973e+00,-4.975757300853729248e-01
-1.910064578056335449e+00,1.709141373634338379e+00,-4.059554636478424072e-01
-1.912405371665954590e+00,1.711236000061035156e+00,-3.150950074195861816e-01
-1.914728999137878418e+00,1.713315248489379883e+00,-2.247899770736694336e-01
-1.917074680328369141e+00,1.715414047241210938e+00,-1.348194628953933716e-01
-1.919416666030883789e+00,1.717509746551513672e+00,-4.495816305279731750e-02
-1.921764254570007324e+00,1.719610452651977539e+00,4.501315206289291382e-02
-1.924149990081787109e+00,1.721745133399963379e+00,1.353170424699783325e-01
-1.926537036895751953e+00,1.723881125450134277e+00,2.261762320995330811e-01
-1.928861141204833984e+00,1.725960731506347656e+00,3.178063333034515381e-01
-1.931617498397827148e+00,1.728427171707153320e+00,4.105362296104431152e-01
-1.933634161949157715e+00,1.730231761932373047e+00,5.043643712997436523e-01
-1.936043739318847656e+00,1.732387781143188477e+00,5.997870564460754395e-01
-1.955627799034118652e+00,1.700144886970520020e+00,-6.943427324295043945e-01
-1.958024382591247559e+00,1.702228307723999023e+00,-5.989870429039001465e-01
-1.960757136344909668e+00,1.704604029655456543e+00,-5.050231814384460449e-01
-1.962885618209838867e+00,1.706454515457153320e+00,-4.119483530521392822e-01
-1.965357422828674316e+00,1.708603382110595703e+00,-3.197573721408843994e-01
-1.967788100242614746e+00,1.710716485977172852e+00,-2.281210571527481079e-01
-1.970221638679504395e+00,1.712832093238830566e+00,-1.368189007043838501e-01
-1.972629427909851074e+00,1.714925408363342285e+00,-4.562493413686752319e-02
-1.975018143653869629e+00,1.717002034187316895e+00,4.568018391728401184e-02
-1.977425336837768555e+00,1.719094753265380859e+00,1.373191624879837036e-01
-1.979814291000366211e+00,1.721171617507934570e+00,2.295152395963668823e-01
-1.982604503631591797e+00,1.723597288131713867e+00,3.225634098052978516e-01
-1.984836101531982422e+00,1.725537300109863281e+00,4.165550768375396729e-01
-1.987477302551269531e+00,1.727833628654479980e+00,5.119054317474365234e-01
-1.989904284477233887e+00,1.729943513870239258e+00,6.087396144866943359e-01
-2.013203620910644531e+00,1.700226187705993652e+00,-7.060721516609191895e-01
-2.015719175338745117e+00,1.702350735664367676e+00,-6.091202497482299805e-01
-2.018058776855468750e+00,1.704326629638671875e+00,-5.134462714195251465e-01
-2.020740985870361328e+00,1.706591725349426270e+00,-4.189209640026092529e-01
-2.023253917694091797e+00,1.708714127540588379e+00,-3.251644670963287354e-01
-2.025529861450195312e+00,1.710636258125305176e+00,-2.319526821374893188e-01
-2.028058052062988281e+00,1.712771296501159668e+00,-1.391185671091079712e-01
-2.030537605285644531e+00,1.714865326881408691e+00,-4.639182239770889282e-02
-2.032970905303955078e+00,1.716920375823974609e+00,4.644741863012313843e-02
-2.035680770874023438e+00,1.719208955764770508e+00,1.396414637565612793e-01
-2.038169145584106445e+00,1.721310496330261230e+00,2.334000468254089355e-01
-2.040543556213378906e+00,1.723315834999084473e+00,3.279431462287902832e-01
-2.043321132659912109e+00,1.725661516189575195e+00,4.236020445823669434e-01
-2.045991897583007812e+00,1.727917194366455078e+00,5.205531716346740723e-01
-2.048412561416625977e+00,1.729961395263671875e+00,6.189996600151062012e-01
-2.068186283111572266e+00,1.696549892425537109e+00,-7.167655229568481445e-01
-2.070916175842285156e+00,1.698789238929748535e+00,-6.183888316154479980e-01
-2.073949098587036133e+00,1.701277136802673340e+00,-5.214172005653381348e-01
-2.076295852661132812e+00,1.703202366828918457e+00,-4.253405630588531494e-01
-2.078951835632324219e+00,1.705381035804748535e+00,-3.301590681076049805e-01
-2.081512451171875000e+00,1.707481503486633301e+00,-2.355406284332275391e-01
-2.084024429321289062e+00,1.709542155265808105e+00,-1.412646919488906860e-01
-2.086570978164672852e+00,1.711630940437316895e+00,-4.710745438933372498e-02
-2.089162349700927734e+00,1.713756799697875977e+00,4.716596379876136780e-02
-2.091720819473266602e+00,1.715855598449707031e+00,1.417863816022872925e-01
-2.094203948974609375e+00,1.717892289161682129e+00,2.369767725467681885e-01
-2.097058773040771484e+00,1.720234274864196777e+00,3.330346345901489258e-01
-2.099275588989257812e+00,1.722052693367004395e+00,4.300480484962463379e-01
-2.101870775222778320e+00,1.724181532859802246e+00,5.284370779991149902e-01
-2.105022192001342773e+00,1.726766705513000488e+00,6.285731196403503418e-01
-2.128860473632812500e+00,1.695937275886535645e+00,-7.293056845664978027e-01
-2.131732463836669922e+00,1.698225259780883789e+00,-6.292261481285095215e-01
-2.134370565414428711e+00,1.700326800346374512e+00,-5.304348468780517578e-01
-2.137310981750488281e+00,1.702669382095336914e+00,-4.328029453754425049e-01
-2.139723777770996094e+00,1.704591512680053711e+00,-3.359011113643646240e-01
-2.142418861389160156e+00,1.706738471984863281e+00,-2.396437823772430420e-01
-2.145031213760375977e+00,1.708819627761840820e+00,-1.437273323535919189e-01
-2.147655248641967773e+00,1.710909962654113770e+00,-4.792873933911323547e-02
-2.150290727615356445e+00,1.713009476661682129e+00,4.798755422234535217e-02
-2.152865886688232422e+00,1.715060949325561523e+00,1.442522853612899780e-01
-2.155745267868041992e+00,1.717354893684387207e+00,2.411344200372695923e-01
-2.158152818679809570e+00,1.719272851943969727e+00,3.387941718101501465e-01
-2.160929203033447266e+00,1.721484541893005371e+00,4.375855922698974609e-01
-2.163536071777343750e+00,1.723561406135559082e+00,5.376831293106079102e-01
-2.166682481765747070e+00,1.726067900657653809e+00,6.395424008369445801e-01
-2.191254138946533203e+00,1.694951295852661133e+00,-7.422932982444763184e-01
-2.194283246994018555e+00,1.697294235229492188e+00,-6.404527425765991211e-01
-2.197036266326904297e+00,1.699423670768737793e+00,-5.399081110954284668e-01
-2.199653863906860352e+00,1.701448440551757812e+00,-4.404505789279937744e-01
-2.202233076095581055e+00,1.703443527221679688e+00,-3.418514430522918701e-01
-2.205068588256835938e+00,1.705636739730834961e+00,-2.438957393169403076e-01
-2.207789897918701172e+00,1.707741737365722656e+00,-1.462796330451965332e-01
-2.210488080978393555e+00,1.709828853607177734e+00,-4.877980053424835205e-02
-2.213171958923339844e+00,1.711904764175415039e+00,4.883902519941329956e-02
-2.215759754180908203e+00,1.713906526565551758e+00,1.468076854944229126e-01
-2.218628168106079102e+00,1.716125130653381348e+00,2.453955262899398804e-01
-2.221520423889160156e+00,1.718362450599670410e+00,3.448453843593597412e-01
-2.224334478378295898e+00,1.720539093017578125e+00,4.453925788402557373e-01
-2.226947784423828125e+00,1.722560644149780273e+00,5.472586750984191895e-01
-2.230076074600219727e+00,1.724980354309082031e+00,6.508997678756713867e-01
-2.255419254302978516e+00,1.693550348281860352e+00,-7.557404041290283203e-01
-2.258617877960205078e+00,1.695952057838439941e+00,-6.520783305168151855e-01
-2.260957479476928711e+00,1.697708845138549805e+00,-5.495884418487548828e-01
-2.263781547546386719e+00,1.699829459190368652e+00,-4.483735561370849609e-01
-2.266840696334838867e+00,1.702126502990722656e+00,-3.480628728866577148e-01
-2.269518852233886719e+00,1.704137325286865234e+00,-2.483010292053222656e-01
-2.272352457046508789e+00,1.706265211105346680e+00,-1.489239037036895752e-01
-2.275130510330200195e+00,1.708351135253906250e+00,-4.966160282492637634e-02
-2.277858734130859375e+00,1.710399627685546875e+00,4.972115531563758850e-02
-2.280766248703002930e+00,1.712582945823669434e+00,1.494753211736679077e-01
-2.283307552337646484e+00,1.714491128921508789e+00,2.498096227645874023e-01
-2.286152362823486328e+00,1.716627240180969238e+00,3.510280847549438477e-01
-2.289553642272949219e+00,1.719181060791015625e+00,4.534780383110046387e-01
-2.292160749435424805e+00,1.721138834953308105e+00,5.571733117103576660e-01
-2.295266628265380859e+00,1.723470926284790039e+00,6.626591086387634277e-01
-2.321418285369873047e+00,1.691698312759399414e+00,-7.696627974510192871e-01
-2.324124097824096680e+00,1.693670034408569336e+00,-6.639235019683837891e-01
-2.327258348464965820e+00,1.695954084396362305e+00,-5.597466826438903809e-01
-2.330183744430541992e+00,1.698086023330688477e+00,-4.566645920276641846e-01
-2.333002328872680664e+00,1.700139999389648438e+00,-3.544488847255706787e-01
-2.335828304290771484e+00,1.702199339866638184e+00,-2.528642117977142334e-01
-2.338779926300048828e+00,1.704350352287292480e+00,-1.516630500555038452e-01
-2.341641902923583984e+00,1.706435918807983398e+00,-5.057508498430252075e-02
-2.344413042068481445e+00,1.708455443382263184e+00,5.063493549823760986e-02
-2.347334623336791992e+00,1.710584521293640137e+00,1.522178053855895996e-01
-2.350287437438964844e+00,1.712736248970031738e+00,2.544294893741607666e-01
-2.353197336196899414e+00,1.714856743812561035e+00,3.575170636177062988e-01
-2.355957269668579102e+00,1.716868042945861816e+00,4.617156386375427246e-01
-2.359235286712646484e+00,1.719256877899169922e+00,5.674377083778381348e-01
-2.362303018569946289e+00,1.721492528915405273e+00,6.748299598693847656e-01
-2.389307498931884766e+00,1.689351201057434082e+00,-7.840740680694580078e-01
-2.392190456390380859e+00,1.691389560699462891e+00,-6.763826608657836914e-01
-2.395477533340454102e+00,1.693713665008544922e+00,-5.702653527259826660e-01
-2.398067235946655273e+00,1.695544719696044922e+00,-4.651643931865692139e-01
-2.401076793670654297e+00,1.697672605514526367e+00,-3.610625565052032471e-01
-2.404254198074340820e+00,1.699919223785400391e+00,-2.576112151145935059e-01
-2.407135009765625000e+00,1.701955914497375488e+00,-1.545001119375228882e-01
-2.410079479217529297e+00,1.704037904739379883e+00,-5.152114108204841614e-02
-2.413090229034423828e+00,1.706166625022888184e+00,5.158549919724464417e-02
-2.415827274322509766e+00,1.708101868629455566e+00,1.550580263137817383e-01
-2.418756246566772461e+00,1.710172772407531738e+00,2.591651082038879395e-01
-2.422176361083984375e+00,1.712590932846069336e+00,3.642353713512420654e-01
-2.424957990646362305e+00,1.714557766914367676e+00,4.703805446624755859e-01
-2.428231716156005859e+00,1.716872334480285645e+00,5.780627131462097168e-01
-2.431253433227539062e+00,1.719008922576904297e+00,6.874275207519531250e-01
-2.459147214889526367e+00,1.686464667320251465e+00,-7.989892959594726562e-01
-2.462221622467041016e+00,1.688573002815246582e+00,-6.892792582511901855e-01
-2.465090036392211914e+00,1.690540194511413574e+00,-5.810173153877258301e-01
-2.468366622924804688e+00,1.692787289619445801e+00,-4.740522205829620361e-01
-2.471466541290283203e+00,1.694913148880004883e+00,-3.679615855216979980e-01
-2.474471569061279297e+00,1.696973919868469238e+00,-2.625054121017456055e-01
-2.477475643157958984e+00,1.699034094810485840e+00,-1.574378460645675659e-01
-2.480505228042602539e+00,1.701111793518066406e+00,-5.250076204538345337e-02
-2.483567953109741211e+00,1.703212261199951172e+00,5.256558954715728760e-02
-2.486634969711303711e+00,1.705315470695495605e+00,1.580199003219604492e-01
-2.489661931991577148e+00,1.707391500473022461e+00,2.641168832778930664e-01
-2.492566585540771484e+00,1.709383487701416016e+00,3.711030483245849609e-01
-2.495949983596801758e+00,1.711703658103942871e+00,4.793496131896972656e-01
-2.499210357666015625e+00,1.713939666748046875e+00,5.890593528747558594e-01
-2.502171993255615234e+00,1.715970754623413086e+00,7.004630565643310547e-01
-2.535802841186523438e+00,1.686186790466308594e+00,-8.159698843955993652e-01
-2.539115190505981445e+00,1.688389301300048828e+00,-7.039676904678344727e-01
-2.542171716690063477e+00,1.690421700477600098e+00,-5.934215784072875977e-01
-2.545597791671752930e+00,1.692699909210205078e+00,-4.841818511486053467e-01
-2.548464536666870117e+00,1.694606065750122070e+00,-3.757756054401397705e-01
-2.551651239395141602e+00,1.696725130081176758e+00,-2.680892050266265869e-01
-2.554797649383544922e+00,1.698817372322082520e+00,-1.607898026704788208e-01
-2.557921886444091797e+00,1.700894713401794434e+00,-5.361853539943695068e-02
-2.561032295227050781e+00,1.702962994575500488e+00,5.368373543024063110e-02
-2.564108848571777344e+00,1.705008745193481445e+00,1.613758057355880737e-01
-2.567563533782958984e+00,1.707306027412414551e+00,2.697610259056091309e-01
-2.570509433746337891e+00,1.709264993667602539e+00,3.790261745452880859e-01
-2.573900938034057617e+00,1.711520075798034668e+00,4.895652234554290771e-01
-2.577120304107666016e+00,1.713660836219787598e+00,6.015796661376953125e-01
-2.579988718032836914e+00,1.715568065643310547e+00,7.152997851371765137e-01
-2.609952926635742188e+00,1.682125329971313477e+00,-8.319970965385437012e-01
-2.613489389419555664e+00,1.684404730796813965e+00,-7.178299427032470703e-01
-2.616719245910644531e+00,1.686486244201660156e+00,-6.051263809204101562e-01
-2.619803428649902344e+00,1.688474178314208984e+00,-4.936486482620239258e-01
-2.623229742050170898e+00,1.690682291984558105e+00,-3.831923305988311768e-01
-2.626255750656127930e+00,1.692632555961608887e+00,-2.733540534973144531e-01
-2.629533767700195312e+00,1.694745302200317383e+00,-1.639499366283416748e-01
-2.632748842239379883e+00,1.696817398071289062e+00,-5.467233434319496155e-02
-2.635908365249633789e+00,1.698853850364685059e+00,5.473795160651206970e-02
-2.639330387115478516e+00,1.701059341430664062e+00,1.645607501268386841e-01
-2.642412185668945312e+00,1.703045487403869629e+00,2.750357091426849365e-01
-2.645889282226562500e+00,1.705286502838134766e+00,3.865023553371429443e-01
-2.649295330047607422e+00,1.707481622695922852e+00,4.992057681083679199e-01
-2.652480602264404297e+00,1.709534645080566406e+00,6.133963465690612793e-01
-2.656262397766113281e+00,1.711972117424011230e+00,7.295781373977661133e-01
-2.691522836685180664e+00,1.680668115615844727e+00,-8.502441644668579102e-01
-2.695329666137695312e+00,1.683045268058776855e+00,-7.336165904998779297e-01
-2.698772907257080078e+00,1.685195326805114746e+00,-6.184602379798889160e-01
-2.702022075653076172e+00,1.687224268913269043e+00,-5.045388340950012207e-01
-2.705209732055664062e+00,1.689214706420898438e+00,-3.915956616401672363e-01
-2.708645820617675781e+00,1.691360235214233398e+00,-2.793811857700347900e-01
-2.711869955062866211e+00,1.693373560905456543e+00,-1.675551533699035645e-01
-2.715185403823852539e+00,1.695443868637084961e+00,-5.587456375360488892e-02
-2.718605041503906250e+00,1.697579145431518555e+00,5.594493448734283447e-02
-2.721818447113037109e+00,1.699585676193237305e+00,1.681698262691497803e-01
-2.725340366363525391e+00,1.701784968376159668e+00,2.811031639575958252e-01
-2.728860855102539062e+00,1.703983306884765625e+00,3.950193226337432861e-01
-2.732258796691894531e+00,1.706104993820190430e+00,5.101848244667053223e-01
-2.735379457473754883e+00,1.708053588867187500e+00,6.268491148948669434e-01
-2.739062070846557617e+00,1.710353136062622070e+00,7.455196976661682129e-01
-2.775800704956054688e+00,1.678560018539428711e+00,-8.691885471343994141e-01
-2.779900074005126953e+00,1.681038975715637207e+00,-7.500091195106506348e-01
-2.782939195632934570e+00,1.682876706123352051e+00,-6.321632862091064453e-01
-2.786495685577392578e+00,1.685027360916137695e+00,-5.157558917999267578e-01
-2.790305614471435547e+00,1.687331199645996094e+00,-4.003767073154449463e-01
-2.793591022491455078e+00,1.689317941665649414e+00,-2.856195271015167236e-01
-2.796965837478637695e+00,1.691358804702758789e+00,-1.712995469570159912e-01
-2.800386190414428711e+00,1.693427205085754395e+00,-5.712322145700454712e-02
-2.803860902786254883e+00,1.695528388023376465e+00,5.719410255551338196e-02
-2.807434320449829102e+00,1.697689175605773926e+00,1.719406843185424805e-01
-2.810544252395629883e+00,1.699569821357727051e+00,2.873528301715850830e-01
-2.813964366912841797e+00,1.701637983322143555e+00,4.037714898586273193e-01
-2.817990303039550781e+00,1.704072594642639160e+00,5.215852260589599609e-01
-2.821035146713256836e+00,1.705913782119750977e+00,6.408170461654663086e-01
-2.824601411819458008e+00,1.708070397377014160e+00,7.620694637298583984e-01
-2.863817930221557617e+00,1.676284790039062500e+00,-8.891453146934509277e-01
-2.867304086685180664e+00,1.678325295448303223e+00,-7.670306563377380371e-01
-2.870574712753295898e+00,1.680239796638488770e+00,-6.465408802032470703e-01
-2.874319076538085938e+00,1.682431459426879883e+00,-5.274999141693115234e-01
-2.877898454666137695e+00,1.684526681900024414e+00,-4.094436466693878174e-01
-2.881402254104614258e+00,1.686577439308166504e+00,-2.920993566513061523e-01
-2.884942054748535156e+00,1.688649415969848633e+00,-1.751893609762191772e-01
-2.888469696044921875e+00,1.690714359283447266e+00,-5.842035636305809021e-02
-2.891995906829833984e+00,1.692778348922729492e+00,5.849167332053184509e-02
-2.895571231842041016e+00,1.694871068000793457e+00,1.758348345756530762e-01
-2.899128675460815430e+00,1.696953296661376953e+00,2.938963472843170166e-01
-2.902580022811889648e+00,1.698973417282104492e+00,4.129551053047180176e-01
-2.906594753265380859e+00,1.701323390007019043e+00,5.334231853485107422e-01
-2.910488367080688477e+00,1.703602552413940430e+00,6.555306911468505859e-01
-2.914057016372680664e+00,1.705691337585449219e+00,7.795375585556030273e-01
-2.953854322433471680e+00,1.672692179679870605e+00,-9.095728397369384766e-01
-2.957650184631347656e+00,1.674841523170471191e+00,-7.847057580947875977e-01
-2.961168766021728516e+00,1.676833987236022949e+00,-6.614718437194824219e-01
-2.965117692947387695e+00,1.679070234298706055e+00,-5.396974682807922363e-01
-2.968834161758422852e+00,1.681174755096435547e+00,-4.189147651195526123e-01
-2.972190856933593750e+00,1.683075547218322754e+00,-2.988301515579223633e-01
-2.975897312164306641e+00,1.685174465179443359e+00,-1.792295724153518677e-01
-2.979539155960083008e+00,1.687236785888671875e+00,-5.976770073175430298e-02
-2.983117103576660156e+00,1.689262866973876953e+00,5.983947217464447021e-02
-2.987067461013793945e+00,1.691499829292297363e+00,1.799023151397705078e-01
-2.990710973739624023e+00,1.693563103675842285e+00,3.006922304630279541e-01
-2.994188308715820312e+00,1.695532321929931641e+00,4.224923551082611084e-01
-2.998184204101562500e+00,1.697794914245605469e+00,5.457161068916320801e-01
-3.001993894577026367e+00,1.699952363967895508e+00,6.705914735794067383e-01
-3.005416870117187500e+00,1.701890707015991211e+00,7.973789572715759277e-01
-3.053277730941772461e+00,1.671740055084228516e+00,-9.327242374420166016e-01
-3.057448148727416992e+00,1.674023389816284180e+00,-8.047439455986022949e-01
-3.061268806457519531e+00,1.676115393638610840e+00,-6.784037947654724121e-01
-3.065461635589599609e+00,1.678411006927490234e+00,-5.535322427749633789e-01
-3.068966865539550781e+00,1.680330276489257812e+00,-4.296061694622039795e-01
-3.072803497314453125e+00,1.682430744171142578e+00,-3.064933717250823975e-01
-3.076549530029296875e+00,1.684481859207153320e+00,-1.838206052780151367e-01
-3.080312252044677734e+00,1.686542034149169922e+00,-6.129862368106842041e-02
-3.084100961685180664e+00,1.688616394996643066e+00,6.137402355670928955e-02
-3.087814807891845703e+00,1.690649867057800293e+00,1.844936907291412354e-01
-3.091926097869873047e+00,1.692900896072387695e+00,3.084007501602172852e-01
-3.095406293869018555e+00,1.694806337356567383e+00,4.333072304725646973e-01
-3.099353075027465820e+00,1.696967363357543945e+00,5.596520304679870605e-01
-3.103045463562011719e+00,1.698989033699035645e+00,6.876618266105651855e-01
-3.107392072677612305e+00,1.701368808746337891e+00,8.178895711898803711e-01
-3.157467365264892578e+00,1.670500278472900391e+00,-9.571500420570373535e-01
-3.161044836044311523e+00,1.672392964363098145e+00,-8.256261944770812988e-01
-3.165186405181884766e+00,1.674584269523620605e+00,-6.960497498512268066e-01
-3.169096469879150391e+00,1.676652908325195312e+00,-5.678539872169494629e-01
-3.173326492309570312e+00,1.678890824317932129e+00,-4.408057332038879395e-01
-3.177034616470336914e+00,1.680852651596069336e+00,-3.144578635692596436e-01
-3.180978298187255859e+00,1.682939171791076660e+00,-1.886015236377716064e-01
-3.184869289398193359e+00,1.684997677803039551e+00,-6.289292871952056885e-02
-3.188716888427734375e+00,1.687033295631408691e+00,6.296890974044799805e-02
-3.192814111709594727e+00,1.689200997352600098e+00,1.893032640218734741e-01
-3.196456432342529297e+00,1.691128015518188477e+00,3.163802027702331543e-01
-3.200489044189453125e+00,1.693261504173278809e+00,4.445788860321044922e-01
-3.204373598098754883e+00,1.695316791534423828e+00,5.741751790046691895e-01
-3.208933115005493164e+00,1.697728991508483887e+00,7.056699991226196289e-01
-3.213236570358276367e+00,1.700005769729614258e+00,8.392580747604370117e-01
-3.264625787734985352e+00,1.667835712432861328e+00,-9.822965860366821289e-01
-3.269479036331176758e+00,1.670315265655517578e+00,-8.476166129112243652e-01
-3.273094654083251953e+00,1.672162413597106934e+00,-7.144430875778198242e-01
-3.277271032333374023e+00,1.674296021461486816e+00,-5.828834176063537598e-01
-3.281297206878662109e+00,1.676352858543395996e+00,-4.524245262145996094e-01
-3.285282850265502930e+00,1.678389191627502441e+00,-3.227612376213073730e-01
-3.289434194564819336e+00,1.680509924888610840e+00,-1.935859322547912598e-01
-3.293457984924316406e+00,1.682565689086914062e+00,-6.455507874488830566e-02
-3.297365188598632812e+00,1.684561729431152344e+00,6.463166326284408569e-02
-3.301451206207275391e+00,1.686649203300476074e+00,1.942931413650512695e-01
-3.305567502975463867e+00,1.688752055168151855e+00,3.247540891170501709e-01
-3.309605598449707031e+00,1.690815091133117676e+00,4.563276767730712891e-01
-3.314296007156372070e+00,1.693211436271667480e+00,5.894685387611389160e-01
-3.317843914031982422e+00,1.695023894309997559e+00,7.242108583450317383e-01
-3.321938037872314453e+00,1.697115540504455566e+00,8.612166643142700195e-01
-3.376942634582519531e+00,1.664707422256469727e+00,-1.008818864822387695e+00
-3.381209135055541992e+00,1.666810631752014160e+00,-8.703084588050842285e-01
