4.607399940490722656e+00,-2.971559762954711914e-01,7.312554717063903809e-01
4.611250400543212891e+00,-2.974043190479278564e-01,8.981971740722656250e-01
4.616108417510986328e+00,-2.977176308631896973e-01,1.067925095558166504e+00
3.989333391189575195e+00,-2.000077515840530396e-01,-1.070279598236083984e+00
4.717843532562255859e+00,-2.365320771932601929e-01,-1.090566396713256836e+00
4.978102684020996094e+00,-2.495803385972976685e-01,-9.688590764999389648e-01
4.983271598815917969e+00,-2.498394697904586792e-01,-7.902628183364868164e-01
4.988214015960693359e+00,-2.500872611999511719e-01,-6.132439970970153809e-01
4.993611335754394531e+00,-2.503578662872314453e-01,-4.374324381351470947e-01
4.998331069946289062e+00,-2.505944967269897461e-01,-2.622800469398498535e-01
5.003232002258300781e+00,-2.508402168750762939e-01,-8.744129538536071777e-02
5.008323669433593750e+00,-2.510954737663269043e-01,8.753028512001037598e-02
5.012885570526123047e+00,-2.513241767883300781e-01,2.630437612533569336e-01
5.017870426177978516e+00,-2.515741288661956787e-01,4.395575225353240967e-01
5.022736072540283203e+00,-2.518180310726165771e-01,6.174880862236022949e-01
5.028786182403564453e+00,-2.521213889122009277e-01,7.974807024002075195e-01
5.032955169677734375e+00,-2.523303925991058350e-01,9.795346856117248535e-01
5.038221836090087891e+00,-2.525944411754608154e-01,1.164624333381652832e+00
3.989819049835205078e+00,-1.428214907646179199e-01,-1.069751858711242676e+00
4.718409061431884766e+00,-1.689024716615676880e-01,-1.090026617050170898e+00
5.420142173767089844e+00,-1.940220445394515991e-01,-1.054242134094238281e+00
5.425623416900634766e+00,-1.942182481288909912e-01,-8.598834276199340820e-01
5.430865287780761719e+00,-1.944058835506439209e-01,-6.672524809837341309e-01
5.436609745025634766e+00,-1.946115195751190186e-01,-4.759456813335418701e-01
5.441627502441406250e+00,-1.947911381721496582e-01,-2.853658497333526611e-01
5.446846485137939453e+00,-1.949779540300369263e-01,-9.513580799102783203e-02
5.452284336090087891e+00,-1.951726078987121582e-01,9.523078799247741699e-02
5.457152366638183594e+00,-1.953468769788742065e-01,2.861799895763397217e-01
5.462489128112792969e+00,-1.955379098653793335e-01,4.782112538814544678e-01
5.467701435089111328e+00,-1.957244873046875000e-01,6.717782616615295410e-01
5.474208831787109375e+00,-1.959574371576309204e-01,8.675835132598876953e-01
5.478668212890625000e+00,-1.961170583963394165e-01,1.065625667572021484e+00
5.484337806701660156e+00,-1.963200271129608154e-01,1.266968131065368652e+00
3.990062713623046875e+00,-8.567472547292709351e-02,-1.069378852844238281e+00
4.718737602233886719e+00,-1.013208404183387756e-01,-1.089655876159667969e+00
5.828126430511474609e+00,-1.251416653394699097e-01,-1.133132338523864746e+00
6.027091026306152344e+00,-1.294138431549072266e-01,-9.548160433769226074e-01
6.032717227935791016e+00,-1.295346468687057495e-01,-7.408941388130187988e-01
6.038938999176025391e+00,-1.296682357788085938e-01,-5.284597277641296387e-01
6.044306755065917969e+00,-1.297834962606430054e-01,-3.168412446975708008e-01
6.049932479858398438e+00,-1.299042999744415283e-01,-1.056261509656906128e-01
6.055803298950195312e+00,-1.300303488969802856e-01,1.057286486029624939e-01
6.061056137084960938e+00,-1.301431357860565186e-01,3.177192509174346924e-01
6.066825866699218750e+00,-1.302670240402221680e-01,5.309000611305236816e-01
6.072463035583496094e+00,-1.303880661725997925e-01,7.457754611968994141e-01
6.079542160034179688e+00,-1.305400729179382324e-01,9.631254076957702637e-01
6.084359169006347656e+00,-1.306435018777847290e-01,1.182950377464294434e+00
6.090514183044433594e+00,-1.307756602764129639e-01,1.406427979469299316e+00
3.990346908569335938e+00,-2.855637483298778534e-02,-1.069235920906066895e+00
4.758648395538330078e+00,-3.405461832880973816e-02,-1.098646998405456543e+00
5.828700542449951172e+00,-4.171230271458625793e-02,-1.133011937141418457e+00
6.686159610748291016e+00,-4.784858971834182739e-02,-1.059009194374084473e+00
6.692180156707763672e+00,-4.789167642593383789e-02,-8.217162489891052246e-01
6.698873043060302734e+00,-4.793957248330116272e-02,-5.860895514488220215e-01
6.704603672027587891e+00,-4.798058047890663147e-02,-3.513818681240081787e-01
6.710629463195800781e+00,-4.802370443940162659e-02,-1.171372979879379272e-01
6.716935634613037109e+00,-4.806883633136749268e-02,1.172473803162574768e-01
6.722564220428466797e+00,-4.810911417007446289e-02,3.523231446743011475e-01
6.728763580322265625e+00,-4.815347865223884583e-02,5.887047052383422852e-01
6.734818935394287109e+00,-4.819681122899055481e-02,8.269516825675964355e-01
6.740427494049072266e+00,-4.823694750666618347e-02,1.067604541778564453e+00
6.747607231140136719e+00,-4.828833043575286865e-02,1.311633586883544922e+00
3.990673542022705078e+00,2.855871059000492096e-02,-1.069323420524597168e+00
4.759023666381835938e+00,3.405730426311492920e-02,-1.098733663558959961e+00
5.829282760620117188e+00,4.171646758913993835e-02,-1.133125066757202148e+00
7.513957977294921875e+00,5.377261340618133545e-02,-1.190122723579406738e+00
7.630447387695312500e+00,5.460625514388084412e-02,-9.369236826896667480e-01
7.637747287750244141e+00,5.465849861502647400e-02,-6.682324409484863281e-01
7.643965721130371094e+00,5.470299720764160156e-02,-4.006129205226898193e-01
7.650453567504882812e+00,5.474942922592163086e-02,-1.335423886775970459e-01
7.657299518585205078e+00,5.479841679334640503e-02,1.336618810892105103e-01
7.663389205932617188e+00,5.484199896454811096e-02,4.016308784484863281e-01
7.670117378234863281e+00,5.489014834165573120e-02,6.710644960403442383e-01
7.676675796508789062e+00,5.493708327412605286e-02,9.426000118255615234e-01
7.682722568511962891e+00,5.498035624623298645e-02,1.216853022575378418e+00
3.990826368331909180e+00,8.569111675024032593e-02,-1.069583535194396973e+00
4.719819068908691406e+00,1.013440638780593872e-01,-1.089905500411987305e+00
5.829692840576171875e+00,1.251752972602844238e-01,-1.133437037467956543e+00
7.514683246612548828e+00,1.613554656505584717e-01,-1.190481424331665039e+00
8.716673851013183594e+00,1.871646195650100708e-01,-1.070518016815185547e+00
8.724589347839355469e+00,1.873345822095870972e-01,-7.634774446487426758e-01
8.731235504150390625e+00,1.874772757291793823e-01,-4.576894342899322510e-01
8.738185882568359375e+00,1.876265257596969604e-01,-1.525605320930480957e-01
8.745541572570800781e+00,1.877844780683517456e-01,1.526889503002166748e-01
8.752058029174804688e+00,1.879243850708007812e-01,4.587809443473815918e-01
8.759277343750000000e+00,1.880794018507003784e-01,7.665129303932189941e-01
8.766291618347167969e+00,1.882300227880477905e-01,1.076611757278442383e+00
3.991121053695678711e+00,1.428681164979934692e-01,-1.070101022720336914e+00
4.720243453979492188e+00,1.689681261777877808e-01,-1.090450286865234375e+00
5.830450534820556641e+00,2.087096422910690308e-01,-1.134048938751220703e+00
7.515791893005371094e+00,2.690389454364776611e-01,-1.191145181655883789e+00
1.037927246093750000e+01,3.715414702892303467e-01,-1.275228738784790039e+00
1.038792514801025391e+01,3.718512058258056641e-01,-9.094064235687255859e-01
1.039501762390136719e+01,3.721050918102264404e-01,-5.451278686523437500e-01
1.040249443054199219e+01,3.723727464675903320e-01,-1.816922426223754883e-01
1.041035938262939453e+01,3.726542592048645020e-01,1.818296015262603760e-01
1.041731739044189453e+01,3.729033470153808594e-01,5.462973117828369141e-01
1.042504310607910156e+01,3.731798827648162842e-01,9.126558899879455566e-01
1.043252182006835938e+01,3.734476268291473389e-01,1.281771183013916016e+00
3.991103887557983398e+00,2.000965178012847900e-01,-1.070754528045654297e+00
4.720316886901855469e+00,2.366560846567153931e-01,-1.091138124465942383e+00
5.830673217773437500e+00,2.923244833946228027e-01,-1.134789824485778809e+00
7.516286849975585938e+00,3.768338263034820557e-01,-1.191956400871276855e+00
1.056177520751953125e+01,5.295212864875793457e-01,-1.298449754714965820e+00
1.250667762756347656e+01,6.270301938056945801e-01,-1.095565199851989746e+00
1.251395797729492188e+01,6.273952126502990723e-01,-6.566514968872070312e-01
1.252168178558349609e+01,6.277824640274047852e-01,-2.188409715890884399e-01
1.252983856201171875e+01,6.281914114952087402e-01,2.189835160970687866e-01
1.253697299957275391e+01,6.285490989685058594e-01,6.578592061996459961e-01
1.254495239257812500e+01,6.289491057395935059e-01,1.098917961120605469e+00
3.991405963897705078e+00,2.574272155761718750e-01,-1.071714401245117188e+00
4.720783233642578125e+00,3.044687211513519287e-01,-1.092141509056091309e+00
5.831418037414550781e+00,3.760994970798492432e-01,-1.135866165161132812e+00
7.517694950103759766e+00,4.848565757274627686e-01,-1.193158030509948730e+00
1.056412315368652344e+01,6.813371181488037109e-01,-1.299804210662841797e+00
1.623280334472656250e+01,1.046940803527832031e+00,-1.423134803771972656e+00
1.623937606811523438e+01,1.047364711761474609e+00,-8.528366088867187500e-01
1.624648475646972656e+01,1.047823071479797363e+00,-2.841722071170806885e-01
1.625418472290039062e+01,1.048319697380065918e+00,2.843068838119506836e-01
1.626053619384765625e+01,1.048729419708251953e+00,8.539478182792663574e-01
3.991213798522949219e+00,3.148335516452789307e-01,-1.072762846946716309e+00
4.720672130584716797e+00,3.723744451999664307e-01,-1.093236804008483887e+00
5.831440925598144531e+00,4.599937200546264648e-01,-1.137036681175231934e+00
7.517977714538574219e+00,5.930305719375610352e-01,-1.194427728652954102e+00
1.056536865234375000e+01,8.334137797355651855e-01,-1.301291942596435547e+00
1.718397712707519531e+01,1.355500578880310059e+00,-1.508070945739746094e+00
2.207996559143066406e+01,1.741704344749450684e+00,-1.160754799842834473e+00
2.208342552185058594e+01,1.741977095603942871e+00,-3.866644203662872314e-01
2.208764266967773438e+01,1.742309927940368652e+00,3.867383003234863281e-01
3.964047431945800781e+00,3.698474466800689697e-01,-1.066774725914001465e+00
4.721155166625976562e+00,4.404859244823455811e-01,-1.094696640968322754e+00
5.772360801696777344e+00,5.385639071464538574e-01,-1.126904606819152832e+00
7.519316673278808594e+00,7.015557289123535156e-01,-1.196113348007202148e+00
1.056787204742431641e+01,9.859873652458190918e-01,-1.303205013275146484e+00
1.719084358215332031e+01,1.603913545608520508e+00,-1.510533571243286133e+00
3.724344635009765625e+01,3.474830389022827148e+00,-1.960320353507995605e+00
3.728783798217773438e+01,3.478972434997558594e+00,-6.536874175071716309e-01
3.963650226593017578e+00,4.271143376827239990e-01,-1.068203568458557129e+00
4.720830440521240234e+00,5.087063908576965332e-01,-1.096197366714477539e+00
5.772140502929687500e+00,6.219933032989501953e-01,-1.128484010696411133e+00
7.419237136840820312e+00,7.994808554649353027e-01,-1.181892752647399902e+00
1.037061786651611328e+01,1.117515206336975098e+00,-1.280721426010131836e+00
1.719357490539550781e+01,1.852742195129394531e+00,-1.512948870658874512e+00
5.003311157226562500e+01,5.391459465026855469e+00,-2.637300014495849609e+00
5.789514541625976562e+01,6.238655090332031250e+00,-1.016412258148193359e+00
3.963890552520751953e+00,4.846246838569641113e-01,-1.070028185844421387e+00
4.721289157867431641e+00,5.772241353988647461e-01,-1.098109841346740723e+00
5.772926330566406250e+00,7.057971954345703125e-01,-1.130496978759765625e+00
7.420560359954833984e+00,9.072366356849670410e-01,-1.184050798416137695e+00
1.037310791015625000e+01,1.268214702606201172e+00,-1.283139348030090332e+00
1.719979095458984375e+01,2.102843999862670898e+00,-1.515989184379577637e+00
5.007400512695312500e+01,6.122040748596191406e+00,-2.643803834915161133e+00
3.963252067565917969e+00,5.422233939170837402e-01,-1.071841120719909668e+00
4.681823730468750000e+00,6.405331492424011230e-01,-1.090951442718505859e+00
5.772412776947021484e+00,7.897396087646484375e-01,-1.132493972778320312e+00
7.420207977294921875e+00,1.015178918838500977e+00,-1.186191678047180176e+00
1.037318801879882812e+01,1.419184207916259766e+00,-1.285530209541320801e+00
1.720178413391113281e+01,2.353423118591308594e+00,-1.518978238105773926e+00
5.010299301147460938e+01,6.854727745056152344e+00,-2.650243043899536133e+00
3.936334848403930664e+00,5.960505604743957520e-01,-1.066759586334228516e+00
4.682202816009521484e+00,7.089918851852416992e-01,-1.093292474746704102e+00
5.773135662078857422e+00,8.741838932037353516e-01,-1.134974479675292969e+00
7.421490669250488281e+00,1.123782277107238770e+00,-1.188846349716186523e+00
1.037564373016357422e+01,1.571108102798461914e+00,-1.288489460945129395e+00
1.720737838745117188e+01,2.605587959289550781e+00,-1.522609472274780273e+00
5.015000915527343750e+01,7.593850612640380859e+00,-2.658207178115844727e+00
6.194387435913085938e+01,9.379710197448730469e+00,-1.093558192253112793e+00
3.936471939086914062e+00,6.538329720497131348e-01,-1.069223403930664062e+00
4.682577610015869141e+00,7.777582406997680664e-01,-1.095867156982421875e+00
5.773868560791015625e+00,9.590174555778503418e-01,-1.137700676918029785e+00
7.422793388366699219e+00,1.232897639274597168e+00,-1.191759824752807617e+00
1.037810420989990234e+01,1.723763465881347656e+00,-1.291726708412170410e+00
1.721344184875488281e+01,2.859086751937866211e+00,-1.526610851287841797e+00
4.472479629516601562e+01,7.428617477416992188e+00,-2.376035690307617188e+00
4.477895736694335938e+01,7.437613487243652344e+00,-7.923267483711242676e-01
3.935437440872192383e+00,7.116827964782714844e-01,-1.071599483489990234e+00
4.681554794311523438e+00,8.466103076934814453e-01,-1.098351240158081055e+00
5.714169025421142578e+00,1.033347845077514648e+00,-1.128736138343811035e+00
7.421828269958496094e+00,1.342160224914550781e+00,-1.194566845893859863e+00
1.037718868255615234e+01,1.876606225967407227e+00,-1.294823408126831055e+00
1.721414375305175781e+01,3.112998247146606445e+00,-1.530467987060546875e+00
3.609596633911132812e+01,6.527579307556152344e+00,-1.922389984130859375e+00
3.616170501708984375e+01,6.539466857910156250e+00,-6.414420008659362793e-01
3.908716678619384766e+00,7.647774815559387207e-01,-1.067194938659667969e+00
4.643513679504394531e+00,9.085474610328674316e-01,-1.092365384101867676e+00
5.714700222015380859e+00,1.118135213851928711e+00,-1.131886482238769531e+00
7.325355529785156250e+00,1.433275222778320312e+00,-1.182220220565795898e+00
1.037937450408935547e+01,2.030822992324829102e+00,-1.298590064048767090e+00
1.722060585021972656e+01,3.369374752044677734e+00,-1.535173177719116211e+00
2.915040016174316406e+01,5.703552246093750000e+00,-1.556673169136047363e+00
2.920009613037109375e+01,5.713275432586669922e+00,-5.193532705307006836e-01
2.924973678588867188e+01,5.722988128662109375e+00,5.202361941337585449e-01
3.908615350723266602e+00,8.230083584785461426e-01,-1.070273995399475098e+00
4.643647193908691406e+00,9.777785539627075195e-01,-1.095577001571655273e+00
5.715171813964843750e+00,1.203401684761047363e+00,-1.135275244712829590e+00
7.326260566711425781e+00,1.542636752128601074e+00,-1.185808300971984863e+00
1.038156032562255859e+01,2.185968637466430664e+00,-1.302644729614257812e+00
1.722678565979003906e+01,3.627317428588867188e+00,-1.540194749832153320e+00
2.444694519042968750e+01,5.147613048553466797e+00,-1.309302330017089844e+00
2.448654937744140625e+01,5.155952453613281250e+00,-4.367859661579132080e-01
2.452608108520507812e+01,5.164276599884033203e+00,4.374911189079284668e-01
3.908435821533203125e+00,8.815706968307495117e-01,-1.073570013046264648e+00
4.643702030181884766e+00,1.047414302825927734e+00,-1.099014520645141602e+00
5.658016204833984375e+00,1.276198863983154297e+00,-1.127434730529785156e+00
7.327142715454101562e+00,1.652680277824401855e+00,-1.189658045768737793e+00
1.019258403778076172e+01,2.298997402191162109e+00,-1.282930254936218262e+00
1.723175239562988281e+01,3.886723518371582031e+00,-1.545454502105712891e+00
2.105038642883300781e+01,4.748038768768310547e+00,-1.130917191505432129e+00
2.108336257934570312e+01,4.755476474761962891e+00,-3.772561252117156982e-01
2.111604499816894531e+01,4.762848377227783203e+00,3.778409659862518311e-01
3.881826162338256836e+00,9.341470003128051758e-01,-1.069823980331420898e+00
4.606020927429199219e+00,1.108421683311462402e+00,-1.093739271163940430e+00
5.658200740814208984e+00,1.361624836921691895e+00,-1.131239175796508789e+00
7.327908515930175781e+00,1.763433814048767090e+00,-1.193758249282836914e+00
1.019449615478515625e+01,2.453267574310302734e+00,-1.287458896636962891e+00
1.723705101013183594e+01,4.148032188415527344e+00,-1.551095724105834961e+00
1.848242378234863281e+01,4.447726249694824219e+00,-9.962733387947082520e-01
1.851067161560058594e+01,4.454524040222167969e+00,-3.323284387588500977e-01
1.853837966918945312e+01,4.461192131042480469e+00,3.328258693218231201e-01
3.881427764892578125e+00,9.930282831192016602e-01,-1.073521494865417480e+00
4.605806350708007812e+00,1.178353905677795410e+00,-1.097581028938293457e+00
5.658303260803222656e+00,1.447625875473022461e+00,-1.135286092758178711e+00
7.328497409820556641e+00,1.874929904937744141e+00,-1.198103308677673340e+00
1.019625377655029297e+01,2.608619451522827148e+00,-1.292263865470886230e+00
1.644724082946777344e+01,4.207878112792968750e+00,-1.485291361808776855e+00
1.647263526916503906e+01,4.214375019073486328e+00,-8.910983800888061523e-01
1.649723815917968750e+01,4.220669269561767578e+00,-2.972347140312194824e-01
1.652129173278808594e+01,4.226823329925537109e+00,2.976680994033813477e-01
1.654717636108398438e+01,4.233445644378662109e+00,8.951306939125061035e-01
3.854909658432006836e+00,1.045248627662658691e+00,-1.070215463638305664e+00
4.568411827087402344e+00,1.238712906837463379e+00,-1.092782974243164062e+00
5.601853847503662109e+00,1.518927931785583496e+00,-1.128206610679626465e+00
7.233754158020019531e+00,1.961413502693176270e+00,-1.187082409858703613e+00
1.019753074645996094e+01,2.765033721923828125e+00,-1.297308921813964844e+00
1.483514499664306641e+01,4.022510528564453125e+00,-1.344770550727844238e+00
1.485668373107910156e+01,4.028350830078125000e+00,-8.067189455032348633e-01
1.487846183776855469e+01,4.034255981445312500e+00,-2.690816819667816162e-01
1.490110015869140625e+01,4.040394306182861328e+00,2.694911062717437744e-01
1.492230796813964844e+01,4.046144485473632812e+00,8.102822899818420410e-01
3.828580856323242188e+00,1.097168087959289551e+00,-1.067156553268432617e+00
4.567873001098632812e+00,1.309029221534729004e+00,-1.097023606300354004e+00
5.601554870605468750e+00,1.605254650115966797e+00,-1.132657885551452637e+00
7.233863353729248047e+00,2.073030233383178711e+00,-1.191847562789916992e+00
1.019822311401367188e+01,2.922535657882690430e+00,-1.302585244178771973e+00
1.350953769683837891e+01,3.871469259262084961e+00,-1.229504585266113281e+00
1.352896213531494141e+01,3.877035856246948242e+00,-7.375613451004028320e-01
1.354848670959472656e+01,3.882630825042724609e+00,-2.460085153579711914e-01
1.356867980957031250e+01,3.888417720794677734e+00,2.463751882314682007e-01
1.358743381500244141e+01,3.893792152404785156e+00,7.407490015029907227e-01
3.827654123306274414e+00,1.156432986259460449e+00,-1.071402311325073242e+00
4.530723571777343750e+00,1.368848443031311035e+00,-1.092695355415344238e+00
5.601007938385009766e+00,1.692208766937255859e+00,-1.137328386306762695e+00
7.233738422393798828e+00,2.185498714447021484e+00,-1.196858286857604980e+00
1.001433277130126953e+01,3.025588035583496094e+00,-1.284497380256652832e+00
1.240077209472656250e+01,3.746592760086059570e+00,-1.133360147476196289e+00
1.241847991943359375e+01,3.751942873001098633e+00,-6.798790693283081055e-01
1.243616294860839844e+01,3.757285356521606445e+00,-2.267646342515945435e-01
1.245436668395996094e+01,3.762785196304321289e+00,2.270965725183486938e-01
1.247297000885009766e+01,3.768405914306640625e+00,6.828622221946716309e-01
1.248925685882568359e+01,3.773326158523559570e+00,1.141447186470031738e+00
3.801290273666381836e+00,1.208101749420166016e+00,-1.068753600120544434e+00
4.529739379882812500e+00,1.439612746238708496e+00,-1.097315192222595215e+00
5.544929027557373047e+00,1.762253880500793457e+00,-1.130947232246398926e+00
7.140515804290771484e+00,2.269352912902832031e+00,-1.186686992645263672e+00
1.001429653167724609e+01,3.182679653167724609e+00,-1.290203690528869629e+00
1.145948791503906250e+01,3.641981363296508789e+00,-1.051988720893859863e+00
1.147578144073486328e+01,3.647159337997436523e+00,-6.310620903968811035e-01
1.149204730987548828e+01,3.652329206466674805e+00,-2.104810476303100586e-01
1.150843620300292969e+01,3.657537460327148438e+00,2.107812017202377319e-01
1.152521800994873047e+01,3.662871122360229492e+00,6.337806582450866699e-01
1.154208564758300781e+01,3.668231964111328125e+00,1.059571266174316406e+00
3.801809787750244141e+00,1.268454194068908691e+00,-1.073894262313842773e+00
4.494913101196289062e+00,1.499704480171203613e+00,-1.093966722488403320e+00
5.546576976776123047e+00,1.850586652755737305e+00,-1.136569499969482422e+00
7.143197059631347656e+00,2.383290529251098633e+00,-1.192679643630981445e+00
1.001893806457519531e+01,3.342767000198364258e+00,-1.296833395957946777e+00
1.057287025451660156e+01,3.527583599090576172e+00,-9.751319885253906250e-01
1.058786296844482422e+01,3.532585620880126953e+00,-5.849554538726806641e-01
1.060271358489990234e+01,3.537540435791015625e+00,-1.950999647378921509e-01
1.061752986907958984e+01,3.542483806610107422e+00,1.953726112842559814e-01
1.063260650634765625e+01,3.547513961791992188e+00,5.874273777008056641e-01
1.064761638641357422e+01,3.552522182464599609e+00,9.820258021354675293e-01
3.775362014770507812e+00,1.319972157478332520e+00,-1.071650624275207520e+00
4.493439674377441406e+00,1.571032285690307617e+00,-1.098968386650085449e+00
5.491044521331787109e+00,1.919822692871093750e+00,-1.130705237388610840e+00
7.141807556152343750e+00,2.496975660324096680e+00,-1.198292493820190430e+00
9.865816116333007812e+00,3.449365139007568359e+00,-1.283272624015808105e+00
9.879833221435546875e+00,3.454265832901000977e+00,-9.156796336174011230e-01
9.893825531005859375e+00,3.459157943725585938e+00,-5.492905974388122559e-01
9.907585144042968750e+00,3.463968992233276367e+00,-1.832025349140167236e-01
9.921196937561035156e+00,3.468727827072143555e+00,1.834542155265808105e-01
9.934974670410156250e+00,3.473544836044311523e+00,5.515751242637634277e-01
9.948528289794921875e+00,3.478283882141113281e+00,9.220464825630187988e-01
3.750953197479248047e+00,1.371993303298950195e+00,-1.070186734199523926e+00
4.458790302276611328e+00,1.630900144577026367e+00,-1.096090912818908691e+00
5.492273807525634766e+00,2.008919477462768555e+00,-1.136762976646423340e+00
7.053501129150390625e+00,2.579972505569458008e+00,-1.189550161361694336e+00
9.201416015625000000e+00,3.365619182586669922e+00,-1.202995181083679199e+00
9.214115142822265625e+00,3.370264291763305664e+00,-8.583627939224243164e-01
9.226475715637207031e+00,3.374785423278808594e+00,-5.148693919181823730e-01
9.239202499389648438e+00,3.379440546035766602e+00,-1.717202216386795044e-01
9.252502441406250000e+00,3.384305477142333984e+00,1.719674170017242432e-01
9.265503883361816406e+00,3.389060974121093750e+00,5.170473456382751465e-01
9.278196334838867188e+00,3.393703222274780273e+00,8.643324375152587891e-01
9.290330886840820312e+00,3.398141860961914062e+00,1.214619994163513184e+00
3.724650621414184570e+00,1.423135876655578613e+00,-1.068384647369384766e+00
4.422033786773681641e+00,1.689596056938171387e+00,-1.092888355255126953e+00
5.437026023864746094e+00,2.077409982681274414e+00,-1.131366491317749023e+00
7.051271438598632812e+00,2.694190263748168945e+00,-1.195555090904235840e+00
8.669858932495117188e+00,3.312629461288452148e+00,-1.139581680297851562e+00
8.681951522827148438e+00,3.317249774932861328e+00,-8.131278157234191895e-01
8.693799018859863281e+00,3.321776628494262695e+00,-4.877474606037139893e-01
8.705832481384277344e+00,3.326374530792236328e+00,-1.626752316951751709e-01
8.717868804931640625e+00,3.330973386764526367e+00,1.629001498222351074e-01
8.729824066162109375e+00,3.335541248321533203e+00,4.897685647010803223e-01
8.741395950317382812e+00,3.339962720870971680e+00,8.186951875686645508e-01
8.754533767700195312e+00,3.344982385635375977e+00,1.150711417198181152e+00
3.700429677963256836e+00,1.474913597106933594e+00,-1.067383289337158203e+00
4.422092437744140625e+00,1.762553334236145020e+00,-1.099025368690490723e+00
5.437560081481933594e+00,2.167297363281250000e+00,-1.137816309928894043e+00
6.964436531066894531e+00,2.775878429412841797e+00,-1.187447190284729004e+00
8.150879859924316406e+00,3.248769998550415039e+00,-1.077368021011352539e+00
8.162395477294921875e+00,3.253359794616699219e+00,-7.687502503395080566e-01
8.173571586608886719e+00,3.257814168930053711e+00,-4.611300826072692871e-01
8.184807777404785156e+00,3.262292623519897461e+00,-1.537962555885314941e-01
8.195931434631347656e+00,3.266726255416870117e+00,1.540052741765975952e-01
8.206865310668945312e+00,3.271084547042846680e+00,4.630084335803985596e-01
8.218982696533203125e+00,3.275913953781127930e+00,7.740796804428100586e-01
8.229160308837890625e+00,3.279970645904541016e+00,1.087714910507202148e+00
3.699868679046630859e+00,1.536413311958312988e+00,-1.073454856872558594e+00
4.387751579284667969e+00,1.822064638137817383e+00,-1.096859931945800781e+00
5.385631561279296875e+00,2.236445665359497070e+00,-1.133532404899597168e+00
6.965268135070800781e+00,2.892408370971679688e+00,-1.194525480270385742e+00
7.691143512725830078e+00,3.193836450576782227e+00,-1.022538661956787109e+00
7.701168537139892578e+00,3.197999238967895508e+00,-7.295473217964172363e-01
7.711760520935058594e+00,3.202397823333740234e+00,-4.376171827316284180e-01
7.722288608551025391e+00,3.206769704818725586e+00,-1.459528356790542603e-01
7.732612609863281250e+00,3.211056947708129883e+00,1.461479812860488892e-01
7.743748664855957031e+00,3.215681076049804688e+00,4.394323825836181641e-01
7.753672122955322266e+00,3.219802141189575195e+00,7.345211505889892578e-01
7.764711856842041016e+00,3.224386453628540039e+00,1.032319545745849609e+00
7.775460720062255859e+00,3.228850126266479492e+00,1.333471417427062988e+00
3.675426244735717773e+00,1.588312029838562012e+00,-1.072849392890930176e+00
4.353602409362792969e+00,1.881381511688232422e+00,-1.094942927360534668e+00
5.334290027618408203e+00,2.305179357528686523e+00,-1.129555344581604004e+00
6.879647254943847656e+00,2.972995758056640625e+00,-1.187018036842346191e+00
7.279181480407714844e+00,3.145651817321777344e+00,-9.736546277999877930e-01
7.288832187652587891e+00,3.149822235107421875e+00,-6.946856975555419922e-01
7.298903942108154297e+00,3.154174804687500000e+00,-4.167082011699676514e-01
7.308815479278564453e+00,3.158457994461059570e+00,-1.389783322811126709e-01
7.318494796752929688e+00,3.162640810012817383e+00,1.391623914241790771e-01
7.328684806823730469e+00,3.167044401168823242e+00,4.184084236621856689e-01
7.339131355285644531e+00,3.171558856964111328e+00,6.994796395301818848e-01
7.349486351013183594e+00,3.176033496856689453e+00,9.830585122108459473e-01
7.359445095062255859e+00,3.180337190628051758e+00,1.269802570343017578e+00
3.650984764099121094e+00,1.640153169631958008e+00,-1.072457790374755859e+00
4.319601058959960938e+00,1.940519452095031738e+00,-1.093265056610107422e+00
5.333643436431884766e+00,2.396063804626464844e+00,-1.136564373970031738e+00
6.879421234130859375e+00,3.090482473373413086e+00,-1.194489121437072754e+00
6.908536434173583984e+00,3.103561878204345703e+00,-9.299242496490478516e-01
6.917859077453613281e+00,3.107749938964843750e+00,-6.635004878044128418e-01
6.927478790283203125e+00,3.112071514129638672e+00,-3.980051875114440918e-01
6.936833381652832031e+00,3.116274118423461914e+00,-1.327396035194396973e-01
6.945871829986572266e+00,3.120334386825561523e+00,1.329125612974166870e-01
6.955284118652343750e+00,3.124562740325927734e+00,3.996026813983917236e-01
6.964831352233886719e+00,3.128851652145385742e+00,6.680057048797607422e-01
6.974197387695312500e+00,3.133059024810791016e+00,9.387625455856323242e-01
6.985145092010498047e+00,3.137977361679077148e+00,1.212846159934997559e+00
3.626527547836303711e+00,1.691953659057617188e+00,-1.072277665138244629e+00
4.318269252777099609e+00,2.014685153961181641e+00,-1.100113868713378906e+00
5.282395362854003906e+00,2.464497566223144531e+00,-1.133044600486755371e+00
6.565172195434570312e+00,3.062976121902465820e+00,-1.147420167922973633e+00
6.573994636535644531e+00,3.067092180252075195e+00,-8.907112479209899902e-01
6.582675457000732422e+00,3.071142435073852539e+00,-6.355037093162536621e-01
6.591397762298583984e+00,3.075211763381958008e+00,-3.811861574649810791e-01
6.600259304046630859e+00,3.079345941543579102e+00,-1.271294951438903809e-01
6.609280586242675781e+00,3.083554744720458984e+00,1.273032575845718384e-01
6.618342399597167969e+00,3.087782621383666992e+00,3.827443718910217285e-01
6.627425193786621094e+00,3.092020034790039062e+00,6.398238539695739746e-01
6.636250019073486328e+00,3.096137523651123047e+00,8.991462588310241699e-01
6.644486904144287109e+00,3.099980354309082031e+00,1.161282300949096680e+00
3.604294538497924805e+00,1.744822621345520020e+00,-1.072978258132934570e+00
4.286714553833007812e+00,2.075178861618041992e+00,-1.099529385566711426e+00
5.235009193420410156e+00,2.534244298934936523e+00,-1.130545258522033691e+00
6.235543727874755859e+00,3.018598318099975586e+00,-1.097248673439025879e+00
6.244207859039306641e+00,3.022792816162109375e+00,-8.518033623695373535e-01
6.252637386322021484e+00,3.026873350143432617e+00,-6.077616214752197266e-01
6.260993957519531250e+00,3.030918836593627930e+00,-3.645501434803009033e-01
6.269370555877685547e+00,3.034973859786987305e+00,-1.215804219245910645e-01
6.277789115905761719e+00,3.039049386978149414e+00,1.217436864972114563e-01
6.286136150360107422e+00,3.043090105056762695e+00,3.660140633583068848e-01
6.294393062591552734e+00,3.047087192535400391e+00,6.118203401565551758e-01
6.303819656372070312e+00,3.051650524139404297e+00,8.599352836608886719e-01
6.311389923095703125e+00,3.055315256118774414e+00,1.110595107078552246e+00
6.320132732391357422e+00,3.059547424316406250e+00,1.364886879920959473e+00
3.579677104949951172e+00,1.796591758728027344e+00,-1.073195219039916992e+00
4.252420425415039062e+00,2.134232521057128906e+00,-1.098456144332885742e+00
5.232837200164794922e+00,2.626290559768676758e+00,-1.138077735900878906e+00
5.960261344909667969e+00,2.991374969482421875e+00,-1.056234359741210938e+00
5.967739582061767578e+00,2.995128154754638672e+00,-8.198531866073608398e-01
5.975955009460449219e+00,2.999251365661621094e+00,-5.849807262420654297e-01
5.984007358551025391e+00,3.003292798995971680e+00,-3.508894741535186768e-01
5.991985321044921875e+00,3.007296800613403320e+00,-1.170239299535751343e-01
5.999902248382568359e+00,3.011270284652709961e+00,1.171785518527030945e-01
6.007655620574951172e+00,3.015161275863647461e+00,3.522761464118957520e-01
6.016354084014892578e+00,3.019526958465576172e+00,5.889353156089782715e-01
6.023802280426025391e+00,3.023265123367309570e+00,8.275550603866577148e-01
6.032278060913085938e+00,3.027518987655639648e+00,1.068996548652648926e+00
6.040320873260498047e+00,3.031555652618408203e+00,1.313695549964904785e+00
3.557273387908935547e+00,1.849551200866699219e+00,-1.074305295944213867e+00
4.220996856689453125e+00,2.194644451141357422e+00,-1.098340988159179688e+00
5.185330390930175781e+00,2.696035146713256836e+00,-1.136022090911865234e+00
5.686398506164550781e+00,2.956557989120483398e+00,-1.015097737312316895e+00
5.694530487060546875e+00,2.960786104202270508e+00,-7.880608439445495605e-01
5.701831817626953125e+00,2.964582443237304688e+00,-5.622432827949523926e-01
5.709589004516601562e+00,2.968615531921386719e+00,-3.372552096843719482e-01
5.717168331146240234e+00,2.972556352615356445e+00,-1.124761700630187988e-01
5.724589824676513672e+00,2.976414918899536133e+00,1.126221716403961182e-01
5.732523441314697266e+00,2.980540037155151367e+00,3.386099040508270264e-01
5.739698886871337891e+00,2.984270811080932617e+00,5.659772157669067383e-01
5.747727394104003906e+00,2.988445043563842773e+00,7.954227328300476074e-01
5.755566596984863281e+00,2.992520809173583984e+00,1.027445077896118164e+00
5.762861728668212891e+00,2.996314048767089844e+00,1.262549757957458496e+00
3.513215303421020508e+00,1.891003131866455078e+00,-1.069064378738403320e+00
4.189586162567138672e+00,2.255062580108642578e+00,-1.098453998565673828e+00
5.138142585754394531e+00,2.765627145767211914e+00,-1.134240269660949707e+00
5.437029361724853516e+00,2.926504135131835938e+00,-9.779594540596008301e-01
5.444122314453125000e+00,2.930322170257568359e+00,-7.591337561607360840e-01
5.451682567596435547e+00,2.934391260147094727e+00,-5.416628122329711914e-01
5.458773612976074219e+00,2.938208103179931641e+00,-3.248908519744873047e-01
5.465995311737060547e+00,2.942095279693603516e+00,-1.083521246910095215e-01
5.473413944244384766e+00,2.946088314056396484e+00,1.084991768002510071e-01
5.480312347412109375e+00,2.949801445007324219e+00,3.261727988719940186e-01
5.487862586975097656e+00,2.953865289688110352e+00,5.452575087547302246e-01
5.495375633239746094e+00,2.957909345626831055e+00,7.662805914878845215e-01
5.502610206604003906e+00,2.961803197860717773e+00,9.897554516792297363e-01
5.511052131652832031e+00,2.966347217559814453e+00,1.216559767723083496e+00
3.490812778472900391e+00,1.943886637687683105e+00,-1.070604443550109863e+00
4.158127307891845703e+00,2.315486192703247070e+00,-1.098783016204833984e+00
5.091199398040771484e+00,2.835074663162231445e+00,-1.132719635963439941e+00
5.208068370819091797e+00,2.900154113769531250e+00,-9.441461563110351562e-01
5.214873790740966797e+00,2.903943538665771484e+00,-7.328879833221435547e-01
5.221637725830078125e+00,2.907710075378417969e+00,-5.228878259658813477e-01
5.228509902954101562e+00,2.911536931991577148e+00,-3.136344254016876221e-01
5.235404014587402344e+00,2.915376186370849609e+00,-1.045975983142852783e-01
5.242383480072021484e+00,2.919262647628784180e+00,1.047370359301567078e-01
5.249470710754394531e+00,2.923209190368652344e+00,3.148917555809020996e-01
5.256643772125244141e+00,2.927203655242919922e+00,5.263932943344116211e-01
5.263681888580322266e+00,2.931122779846191406e+00,7.397473454475402832e-01
5.270349979400634766e+00,2.934835910797119141e+00,9.554368853569030762e-01
5.278073310852050781e+00,2.939136743545532227e+00,1.174296259880065918e+00
5.285272598266601562e+00,2.943145751953125000e+00,1.396630525588989258e+00
3.468191385269165039e+00,1.996847629547119141e+00,-1.072322607040405273e+00
4.126568317413330078e+00,2.375915050506591797e+00,-1.099317431449890137e+00
4.990095615386962891e+00,2.873100042343139648e+00,-1.119260311126708984e+00
4.996108055114746094e+00,2.876561641693115234e+00,-9.130914807319641113e-01
5.002905845642089844e+00,2.880475759506225586e+00,-7.088201642036437988e-01
5.009569644927978516e+00,2.884312391281127930e+00,-5.057340264320373535e-01
5.016238689422607422e+00,2.888152122497558594e+00,-3.033499419689178467e-01
5.022831916809082031e+00,2.891948223114013672e+00,-1.011672765016555786e-01
5.029408931732177734e+00,2.895735025405883789e+00,1.012997552752494812e-01
5.036033153533935547e+00,2.899549007415771484e+00,3.045469820499420166e-01
5.042558670043945312e+00,2.903306007385253906e+00,5.090643763542175293e-01
5.050067901611328125e+00,2.907629728317260742e+00,7.155021429061889648e-01
5.056212425231933594e+00,2.911167383193969727e+00,9.240761995315551758e-01
5.063264846801757812e+00,2.915227890014648438e+00,1.135671854019165039e+00
5.069720268249511719e+00,2.918944835662841797e+00,1.350572943687438965e+00
3.445344686508178711e+00,2.049901723861694336e+00,-1.074220538139343262e+00
4.094875812530517578e+00,2.436357736587524414e+00,-1.100051879882812500e+00
4.794869899749755859e+00,2.852838277816772461e+00,-1.084519624710083008e+00
4.800771713256835938e+00,2.856349945068359375e+00,-8.847731351852416992e-01
4.807326316833496094e+00,2.860249757766723633e+00,-6.868402361869812012e-01
4.813661098480224609e+00,2.864018917083740234e+00,-4.900446534156799316e-01
4.819900035858154297e+00,2.867730617523193359e+00,-2.939287722110748291e-01
4.826254844665527344e+00,2.871511936187744141e+00,-9.802573174238204956e-02
4.832706451416015625e+00,2.875350475311279297e+00,9.815676510334014893e-02
4.839108467102050781e+00,2.879159450531005859e+00,2.951001822948455811e-01
4.845314502716064453e+00,2.882851839065551758e+00,4.932670593261718750e-01
4.852365970611572266e+00,2.887047529220581055e+00,6.932752132415771484e-01
4.858019828796386719e+00,2.890411376953125000e+00,8.953238725662231445e-01
4.864456176757812500e+00,2.894240617752075195e+00,1.100258827209472656e+00
4.871995925903320312e+00,2.898726701736450195e+00,1.308818340301513672e+00
3.404467821121215820e+00,2.092127561569213867e+00,-1.070702672004699707e+00
4.065966129302978516e+00,2.498634099960327148e+00,-1.101780414581298828e+00
4.600252151489257812e+00,2.826965808868408203e+00,-1.049545168876647949e+00
4.607082843780517578e+00,2.831163406372070312e+00,-8.564573526382446289e-01
4.612865924835205078e+00,2.834717273712158203e+00,-6.647858619689941406e-01
4.619128227233886719e+00,2.838565587997436523e+00,-4.743282794952392578e-01
4.625197887420654297e+00,2.842295646667480469e+00,-2.845072150230407715e-01
4.631278038024902344e+00,2.846031904220581055e+00,-9.488324820995330811e-02
4.637349128723144531e+00,2.849762916564941406e+00,9.500762820243835449e-02
4.643272876739501953e+00,2.853403091430664062e+00,2.856190502643585205e-01
4.649738788604736328e+00,2.857376575469970703e+00,4.774715900421142578e-01
4.655250072479248047e+00,2.860763311386108398e+00,6.708941459655761719e-01
4.661445140838623047e+00,2.864570379257202148e+00,8.665633201599121094e-01
4.668713569641113281e+00,2.869037151336669922e+00,1.065164566040039062e+00
4.675660133361816406e+00,2.873305797576904297e+00,1.266992926597595215e+00
3.383798599243164062e+00,2.146742343902587891e+00,-1.073755860328674316e+00
4.008407115936279297e+00,2.543005228042602539e+00,-1.095934391021728516e+00
4.421156406402587891e+00,2.804860591888427734e+00,-1.017739772796630859e+00
4.427876949310302734e+00,2.809124231338500977e+00,-8.305325508117675781e-01
4.433497905731201172e+00,2.812690258026123047e+00,-6.446720957756042480e-01
4.439158439636230469e+00,2.816281557083129883e+00,-4.599398672580718994e-01
4.445074081420898438e+00,2.820034265518188477e+00,-2.758820056915283203e-01
4.450902938842773438e+00,2.823732137680053711e+00,-9.200643748044967651e-02
4.456621170043945312e+00,2.827359914779663086e+00,9.212464094161987305e-02
4.462672233581542969e+00,2.831198930740356445e+00,2.769742310047149658e-01
4.468792915344238281e+00,2.835082054138183594e+00,4.630102813243865967e-01
4.473902702331542969e+00,2.838323831558227539e+00,6.505473256111145020e-01
4.480775833129882812e+00,2.842684268951416016e+00,8.404547572135925293e-01
4.486150741577148438e+00,2.846094131469726562e+00,1.032701253890991211e+00
4.492336273193359375e+00,2.850018501281738281e+00,1.228244900703430176e+00
3.343295574188232422e+00,2.188776254653930664e+00,-1.070735096931457520e+00
3.979452848434448242e+00,2.605253458023071289e+00,-1.098101019859313965e+00
4.254830837249755859e+00,2.785536766052246094e+00,-9.885289669036865234e-01
4.260735988616943359e+00,2.789402723312377930e+00,-8.065883517265319824e-01
4.266418457031250000e+00,2.793123006820678711e+00,-6.261264681816101074e-01
4.272345066070556641e+00,2.797002792358398438e+00,-4.467585980892181396e-01
4.277816772460937500e+00,2.800585269927978516e+00,-2.679617404937744141e-01
4.283411502838134766e+00,2.804247617721557617e+00,-8.936471492052078247e-02
4.289142131805419922e+00,2.807999610900878906e+00,8.948427438735961914e-02
4.294420719146728516e+00,2.811455249786376953e+00,2.690017819404602051e-01
4.300006866455078125e+00,2.815112590789794922e+00,4.496512115001678467e-01
4.305492877960205078e+00,2.818703889846801758e+00,6.318608522415161133e-01
4.311810493469238281e+00,2.822839975357055664e+00,8.162571191787719727e-01
4.317958354949951172e+00,2.826864957809448242e+00,1.003195405006408691e+00
4.323624134063720703e+00,2.830574274063110352e+00,1.193072557449340820e+00
3.322172641754150391e+00,2.243522644042968750e+00,-1.074144601821899414e+00
3.950186252593994141e+00,2.667631626129150391e+00,-1.100448727607727051e+00
4.100696563720703125e+00,2.769273757934570312e+00,-9.618293046951293945e-01
4.105670928955078125e+00,2.772633075714111328e+00,-7.846658825874328613e-01
4.111216545104980469e+00,2.776378154754638672e+00,-6.091191172599792480e-01
4.116610050201416016e+00,2.780020713806152344e+00,-4.345899522304534912e-01
4.121966838836669922e+00,2.783638238906860352e+00,-2.606684267520904541e-01
4.127342700958251953e+00,2.787268638610839844e+00,-8.693209290504455566e-02
4.132752895355224609e+00,2.790922164916992188e+00,8.704604953527450562e-02
4.138162136077880859e+00,2.794574975967407227e+00,2.616925835609436035e-01
4.143449783325195312e+00,2.798146009445190430e+00,4.374233782291412354e-01
4.149462699890136719e+00,2.802206516265869141e+00,6.147857308387756348e-01
4.154346942901611328e+00,2.805505037307739258e+00,7.939687371253967285e-01
4.159891128540039062e+00,2.809248924255371094e+00,9.757136106491088867e-01
4.166362285614013672e+00,2.813618898391723633e+00,1.160671234130859375e+00
3.281842708587646484e+00,2.285352230072021484e+00,-1.071571588516235352e+00
3.893697500228881836e+00,2.711424827575683594e+00,-1.095411419868469238e+00
3.955719947814941406e+00,2.754615068435668945e+00,-9.369766712188720703e-01
3.960686683654785156e+00,2.758073568344116211e+00,-7.644234299659729004e-01
3.966106176376342773e+00,2.761847496032714844e+00,-5.934157371520996094e-01
3.971013545989990234e+00,2.765264987945556641e+00,-4.233544468879699707e-01
3.976259708404541016e+00,2.768918275833129883e+00,-2.539343833923339844e-01
3.981434822082519531e+00,2.772521972656250000e+00,-8.468608558177947998e-02
3.986551046371459961e+00,2.776084661483764648e+00,8.479491621255874634e-02
3.992069005966186523e+00,2.779927253723144531e+00,2.549439966678619385e-01
3.997077465057373047e+00,2.783414840698242188e+00,4.261331856250762939e-01
4.002680301666259766e+00,2.787316322326660156e+00,5.988880395889282227e-01
4.008172988891601562e+00,2.791141510009765625e+00,7.735884189605712891e-01
4.013328552246093750e+00,2.794731378555297852e+00,9.506222009658813477e-01
4.019279479980468750e+00,2.798875570297241211e+00,1.130741357803344727e+00
3.244232654571533203e+00,2.328810214996337891e+00,-1.070065617561340332e+00
3.806697607040405273e+00,2.732564926147460938e+00,-1.081828474998474121e+00
3.811983108520507812e+00,2.736359119415283203e+00,-9.121140837669372559e-01
3.816965579986572266e+00,2.739935636520385742e+00,-7.441778182983398438e-01
3.821836948394775391e+00,2.743432521820068359e+00,-5.776461362838745117e-01
3.827011823654174805e+00,2.747147083282470703e+00,-4.121521413326263428e-01
3.831888437271118164e+00,2.750647544860839844e+00,-2.472034692764282227e-01
3.836863040924072266e+00,2.754218816757202148e+00,-8.244109153747558594e-02
3.841976642608642578e+00,2.757889509201049805e+00,8.255096524953842163e-02
3.846795082092285156e+00,2.761348247528076172e+00,2.481651455163955688e-01
3.851976871490478516e+00,2.765067815780639648e+00,4.148407578468322754e-01
3.857158184051513672e+00,2.768787145614624023e+00,5.829846858978271484e-01
3.862135410308837891e+00,2.772360086441040039e+00,7.529844045639038086e-01
3.867875337600708008e+00,2.776480197906494141e+00,9.254877567291259766e-01
3.873264312744140625e+00,2.780348539352416992e+00,1.100746154785156250e+00
3.224734783172607422e+00,2.385481119155883789e+00,-1.074786424636840820e+00
3.673142194747924805e+00,2.717188358306884766e+00,-1.054818153381347656e+00
3.677597999572753906e+00,2.720484495162963867e+00,-8.891852498054504395e-01
3.682595968246459961e+00,2.724181652069091797e+00,-7.255082130432128906e-01
3.687392950057983398e+00,2.727730274200439453e+00,-5.631692409515380859e-01
3.692135810852050781e+00,2.731238842010498047e+00,-4.017956256866455078e-01
3.696925401687622070e+00,2.734781980514526367e+00,-2.409973144531250000e-01
3.701715946197509766e+00,2.738325595855712891e+00,-8.037117868661880493e-02
3.706540584564208984e+00,2.741894483566284180e+00,8.047592639923095703e-02
3.711444854736328125e+00,2.745522499084472656e+00,2.419438064098358154e-01
3.716349124908447266e+00,2.749150514602661133e+00,4.044306278228759766e-01
3.721106767654418945e+00,2.752669811248779297e+00,5.683183073997497559e-01
3.726567983627319336e+00,2.756709814071655273e+00,7.341711521148681641e-01
3.730734109878540039e+00,2.759791612625122070e+00,9.020327329635620117e-01
3.736719369888305664e+00,2.764219045639038086e+00,1.073075532913208008e+00
3.186990261077880859e+00,2.428894758224487305e+00,-1.073683738708496094e+00
3.546960353851318359e+00,2.703238010406494141e+00,-1.029588341712951660e+00
3.551548004150390625e+00,2.706734180450439453e+00,-8.679867982864379883e-01
3.556561231613159180e+00,2.710554838180541992e+00,-7.082490324974060059e-01
3.561293125152587891e+00,2.714161396026611328e+00,-5.497872829437255859e-01
3.565643548965454102e+00,2.717477083206176758e+00,-3.922228813171386719e-01
3.570350885391235352e+00,2.721064567565917969e+00,-2.352609485387802124e-01
3.574965715408325195e+00,2.724581718444824219e+00,-7.845787703990936279e-02
3.579526424407958984e+00,2.728057384490966797e+00,7.855796813964843750e-02
3.584497213363647461e+00,2.731845855712890625e+00,2.361930906772613525e-01
3.589114189147949219e+00,2.735364437103271484e+00,3.948046565055847168e-01
3.593500375747680664e+00,2.738707304000854492e+00,5.547593832015991211e-01
3.598464012145996094e+00,2.742490291595458984e+00,7.165935039520263672e-01
3.603178024291992188e+00,2.746082782745361328e+00,8.806050419807434082e-01
3.608619928359985352e+00,2.750230312347412109e+00,1.047486424446105957e+00
3.151786088943481445e+00,2.474167346954345703e+00,-1.073644280433654785e+00
3.423133373260498047e+00,2.687176227569580078e+00,-1.004706501960754395e+00
3.427719354629516602e+00,2.690776348114013672e+00,-8.470494747161865234e-01
3.432072639465332031e+00,2.694193840026855469e+00,-6.910671591758728027e-01
3.436372041702270508e+00,2.697568655014038086e+00,-5.364079475402832031e-01
3.440981388092041016e+00,2.701187133789062500e+00,-3.827237188816070557e-01
3.445448398590087891e+00,2.704693794250488281e+00,-2.295581996440887451e-01
3.449916362762451172e+00,2.708201169967651367e+00,-7.655636966228485107e-02
3.454371213912963867e+00,2.711698293685913086e+00,7.665523141622543335e-02
3.458714962005615234e+00,2.715108156204223633e+00,2.304421067237854004e-01
3.463442802429199219e+00,2.718819379806518555e+00,3.852219879627227783e-01
3.468166828155517578e+00,2.722527980804443359e+00,5.413710474967956543e-01
3.472774028778076172e+00,2.726144552230834961e+00,6.992626190185546875e-01
3.477046966552734375e+00,2.729498863220214844e+00,8.592392802238464355e-01
3.481917858123779297e+00,2.733322381973266602e+00,1.021960020065307617e+00
3.114104986190795898e+00,2.517447710037231445e+00,-1.072973251342773438e+00
3.311551332473754883e+00,2.677063703536987305e+00,-9.831024408340454102e-01
3.316258192062377930e+00,2.680868625640869141e+00,-8.289031386375427246e-01
3.320657491683959961e+00,2.684425115585327148e+00,-6.763006448745727539e-01
3.324918985366821289e+00,2.687869787216186523e+00,-5.249621868133544922e-01
3.329171657562255859e+00,2.691307783126831055e+00,-3.745339214801788330e-01
3.333571910858154297e+00,2.694864988327026367e+00,-2.246512174606323242e-01
3.337885618209838867e+00,2.698352098464965820e+00,-7.491970807313919067e-02
3.342101812362670898e+00,2.701760530471801758e+00,7.501434534788131714e-02
3.346516847610473633e+00,2.705329656600952148e+00,2.255235910415649414e-01
3.350972652435302734e+00,2.708931684494018555e+00,3.769865334033966064e-01
3.355336666107177734e+00,2.712459802627563477e+00,5.297647714614868164e-01
3.359505414962768555e+00,2.715829610824584961e+00,6.842125654220581055e-01
3.364246368408203125e+00,2.719662189483642578e+00,8.408978581428527832e-01
3.368633985519409180e+00,2.723209142684936523e+00,1.000048518180847168e+00
3.081278800964355469e+00,2.564690589904785156e+00,-1.074201226234436035e+00
