-2.889724969863891602e+00,4.519109249114990234e+00,-6.586195230484008789e-01
-2.894339799880981445e+00,4.526325702667236328e+00,-4.700408875942230225e-01
-2.898633480072021484e+00,4.533041000366210938e+00,-2.819833159446716309e-01
-2.903035402297973633e+00,4.539924621582031250e+00,-9.406068921089172363e-02
-2.907555818557739258e+00,4.546994209289550781e+00,9.420715272426605225e-02
-2.911695480346679688e+00,4.553468227386474609e+00,2.832540273666381836e-01
-2.916164398193359375e+00,4.560456275939941406e+00,4.735851883888244629e-01
-2.920562744140625000e+00,4.567335128784179688e+00,6.656480431556701660e-01
-2.925731658935546875e+00,4.575418472290039062e+00,8.601641654968261719e-01
-2.929732322692871094e+00,4.581675052642822266e+00,1.057096242904663086e+00
-2.934457063674926758e+00,4.589063644409179688e+00,1.257552742958068848e+00
-2.231823205947875977e+00,3.382585287094116211e+00,-1.085867762565612793e+00
-2.646928548812866211e+00,4.011725425720214844e+00,-1.109611749649047852e+00
-2.836766719818115234e+00,4.299446582794189453e+00,-1.001245498657226562e+00
-2.841226339340209961e+00,4.306205749511718750e+00,-8.171147108078002930e-01
-2.845556974411010742e+00,4.312769412994384766e+00,-6.344183683395385742e-01
-2.850081682205200195e+00,4.319626808166503906e+00,-4.527660012245178223e-01
-2.854283332824707031e+00,4.325994968414306641e+00,-2.716173827648162842e-01
-2.858586072921752930e+00,4.332516193389892578e+00,-9.060192853212356567e-02
-2.862998962402343750e+00,4.339204788208007812e+00,9.074179828166961670e-02
-2.867034196853637695e+00,4.345320701599121094e+00,2.728307843208312988e-01
-2.871385812759399414e+00,4.351915836334228516e+00,4.561503827571868896e-01
-2.875665426254272461e+00,4.358402252197265625e+00,6.411311030387878418e-01
-2.880692958831787109e+00,4.366022109985351562e+00,8.284650444984436035e-01
-2.884568452835083008e+00,4.371895790100097656e+00,1.018117308616638184e+00
-2.889148950576782227e+00,4.378837585449218750e+00,1.211152195930480957e+00
-2.282286882400512695e+00,3.353648185729980469e+00,-1.086953997611999512e+00
-2.706884622573852539e+00,3.977562665939331055e+00,-1.110765337944030762e+00
-2.807026386260986328e+00,4.124713420867919922e+00,-9.698113203048706055e-01
-2.811438083648681641e+00,4.131196022033691406e+00,-7.914609909057617188e-01
-2.815715551376342773e+00,4.137481212615966797e+00,-6.144987344741821289e-01
-2.820179939270019531e+00,4.144041538238525391e+00,-4.385479390621185303e-01
-2.824317693710327148e+00,4.150121212005615234e+00,-2.630860209465026855e-01
-2.828548908233642578e+00,4.156339168548583984e+00,-8.775535970926284790e-02
-2.832882881164550781e+00,4.162707328796386719e+00,8.788982033729553223e-02
-2.836838722229003906e+00,4.168520450592041016e+00,2.642523646354675293e-01
-2.841099262237548828e+00,4.174780845642089844e+00,4.418009817600250244e-01
-2.845284700393676758e+00,4.180930614471435547e+00,6.209518909454345703e-01
-2.850200414657592773e+00,4.188154220581054688e+00,8.023731708526611328e-01
-2.853972911834716797e+00,4.193697929382324219e+00,9.860310554504394531e-01
-2.858435630798339844e+00,4.200254917144775391e+00,1.172953963279724121e+00
-2.316843509674072266e+00,3.301818847656250000e+00,-1.080793023109436035e+00
-2.764968395233154297e+00,3.940458059310913086e+00,-1.111341714859008789e+00
-2.769453525543212891e+00,3.946850061416625977e+00,-9.372160434722900391e-01
-2.773124694824218750e+00,3.952081918716430664e+00,-7.646721601486206055e-01
-2.777341842651367188e+00,3.958091974258422852e+00,-5.936992168426513672e-01
-2.781734943389892578e+00,3.964352607727050781e+00,-4.237023890018463135e-01
-2.785797834396362305e+00,3.970143079757690430e+00,-2.541784644126892090e-01
-2.789944171905517578e+00,3.976052045822143555e+00,-8.478330820798873901e-02
-2.794183254241943359e+00,3.982093095779418945e+00,8.491212874650955200e-02
-2.798043251037597656e+00,3.987594127655029297e+00,2.552957236766815186e-01
-2.802193403244018555e+00,3.993508815765380859e+00,4.268185198307037354e-01
-2.807027816772460938e+00,4.000398635864257812e+00,6.000450253486633301e-01
-2.811041355133056641e+00,4.006118297576904297e+00,7.751274704933166504e-01
-2.815762281417846680e+00,4.012845993041992188e+00,9.528874158859252930e-01
-2.820225954055786133e+00,4.019207954406738281e+00,1.133551836013793945e+00
-2.367079496383666992e+00,3.272770643234252930e+00,-1.082264065742492676e+00
-2.739351749420166016e+00,3.787481784820556641e+00,-1.079145193099975586e+00
-2.743814468383789062e+00,3.793652057647705078e+00,-9.100704193115234375e-01
-2.747989177703857422e+00,3.799423933029174805e+00,-7.426693439483642578e-01
-2.752012968063354492e+00,3.804987430572509766e+00,-5.765835046768188477e-01
-2.755992650985717773e+00,3.810489892959594727e+00,-4.114317893981933594e-01
-2.760004520416259766e+00,3.816036701202392578e+00,-2.468161284923553467e-01
-2.764089822769165039e+00,3.821685314178466797e+00,-8.232687413692474365e-02
-2.768258333206176758e+00,3.827448606491088867e+00,8.245103061199188232e-02
-2.772483825683593750e+00,3.833290815353393555e+00,2.479321062564849854e-01
-2.776707410812377930e+00,3.839130401611328125e+00,4.145241975784301758e-01
-2.780838251113891602e+00,3.844841718673706055e+00,5.826227664947509766e-01
-2.784751653671264648e+00,3.850252628326416016e+00,7.526047825813293457e-01
-2.789353370666503906e+00,3.856615066528320312e+00,9.251747727394104004e-01
-2.793692588806152344e+00,3.862614631652832031e+00,1.100552320480346680e+00
-2.417861223220825195e+00,3.244172334671020508e+00,-1.084140300750732422e+00
-2.705893278121948242e+00,3.630640268325805664e+00,-1.045385479927062988e+00
-2.710331201553344727e+00,3.636594533920288086e+00,-8.816095590591430664e-01
-2.714474678039550781e+00,3.642154216766357422e+00,-7.194489240646362305e-01
-2.718458652496337891e+00,3.647499799728393555e+00,-5.585578680038452148e-01
-2.722389459609985352e+00,3.652773857116699219e+00,-3.985691964626312256e-01
-2.726340055465698242e+00,3.658074378967285156e+00,-2.390988320112228394e-01
-2.730352640151977539e+00,3.663458347320556641e+00,-7.975205779075622559e-02
-2.734434843063354492e+00,3.668936014175415039e+00,7.987130433320999146e-02
-2.738563537597656250e+00,3.674475431442260742e+00,2.401708364486694336e-01
-2.742678642272949219e+00,3.679996967315673828e+00,4.015396237373352051e-01
-2.746691226959228516e+00,3.685380935668945312e+00,5.643587708473205566e-01
-2.750480413436889648e+00,3.690465211868286133e+00,7.289920449256896973e-01
-2.754937648773193359e+00,3.696445465087890625e+00,8.961191177368164062e-01
-2.759124279022216797e+00,3.702062845230102539e+00,1.065950512886047363e+00
-2.468837022781372070e+00,3.215477943420410156e+00,-1.086249113082885742e+00
-2.674765825271606445e+00,3.483684778213500977e+00,-1.013991713523864746e+00
-2.679189920425415039e+00,3.489447116851806641e+00,-8.551461100578308105e-01
-2.683312177658081055e+00,3.494816064834594727e+00,-6.978600025177001953e-01
-2.687266349792480469e+00,3.499965906143188477e+00,-5.418000221252441406e-01
-2.691154479980468750e+00,3.505029916763305664e+00,-3.866117000579833984e-01
-2.695050716400146484e+00,3.510104656219482422e+00,-2.319248467683792114e-01
-2.698995590209960938e+00,3.515242338180541992e+00,-7.735852897167205811e-02
-2.702997207641601562e+00,3.520454168319702148e+00,7.747322320938110352e-02
-2.707031488418579102e+00,3.525708675384521484e+00,2.329558730125427246e-01
-2.711040735244750977e+00,3.530930280685424805e+00,3.894685506820678711e-01
-2.714936256408691406e+00,3.536004066467285156e+00,5.473788380622863770e-01
-2.718600511550903320e+00,3.540776252746582031e+00,7.070375084877014160e-01
-2.722912311553955078e+00,3.546392202377319336e+00,8.691014647483825684e-01
-2.726944208145141602e+00,3.551643371582031250e+00,1.033772349357604980e+00
-2.501904249191284180e+00,3.163755416870117188e+00,-1.080763101577758789e+00
-2.655033588409423828e+00,3.357393264770507812e+00,-9.881923794746398926e-01
-2.658661842346191406e+00,3.361981391906738281e+00,-8.331491351127624512e-01
-2.662781715393066406e+00,3.367191076278686523e+00,-6.799163222312927246e-01
-2.666723966598510742e+00,3.372175931930541992e+00,-5.278726816177368164e-01
-2.670588731765747070e+00,3.377063274383544922e+00,-3.766744732856750488e-01
-2.674449682235717773e+00,3.381945610046386719e+00,-2.259631305932998657e-01
-2.678346395492553711e+00,3.386873245239257812e+00,-7.536949962377548218e-02
-2.682286977767944336e+00,3.391856193542480469e+00,7.548038661479949951e-02
-2.686247587203979492e+00,3.396864652633666992e+00,2.269599437713623047e-01
-2.690171718597412109e+00,3.401826858520507812e+00,3.794365823268890381e-01
-2.693972587585449219e+00,3.406632900238037109e+00,5.332664847373962402e-01
-2.698407173156738281e+00,3.412240743637084961e+00,6.890129446983337402e-01
-2.702742576599121094e+00,3.417723178863525391e+00,8.469628095626831055e-01
-2.706783533096313477e+00,3.422833204269409180e+00,1.007453441619873047e+00
-2.552877664566040039e+00,3.134930610656738281e+00,-1.083287954330444336e+00
-2.627563476562500000e+00,3.226644515991210938e+00,-9.606800079345703125e-01
-2.631208181381225586e+00,3.231120109558105469e+00,-8.099699616432189941e-01
-2.635324239730834961e+00,3.236174583435058594e+00,-6.610099673271179199e-01
-2.639249801635742188e+00,3.240995407104492188e+00,-5.131989121437072754e-01
-2.643086194992065430e+00,3.245706558227539062e+00,-3.662052452564239502e-01
-2.646902799606323242e+00,3.250393390655517578e+00,-2.196823805570602417e-01
-2.650740623474121094e+00,3.255106210708618164e+00,-7.327404618263244629e-02
-2.654607295989990234e+00,3.259854555130004883e+00,7.338093221187591553e-02
-2.658478498458862305e+00,3.264608144760131836e+00,2.206431031227111816e-01
-2.662298917770385742e+00,3.269299745559692383e+00,3.688672482967376709e-01
-2.665983438491821289e+00,3.273824214935302734e+00,5.183972120285034180e-01
-2.670277357101440430e+00,3.279097318649291992e+00,6.697771549224853516e-01
-2.674459695816040039e+00,3.284233093261718750e+00,8.232842087745666504e-01
-2.678341150283813477e+00,3.288999557495117188e+00,9.792451858520507812e-01
-2.598035335540771484e+00,3.098731040954589844e+00,-1.083518147468566895e+00
-2.601918697357177734e+00,3.103362798690795898e+00,-9.349674582481384277e-01
-2.606230974197387695e+00,3.108506202697753906e+00,-7.885039448738098145e-01
-2.609708547592163086e+00,3.112653970718383789e+00,-6.433439254760742188e-01
-2.613625526428222656e+00,3.117325782775878906e+00,-4.994888901710510254e-01
-2.617439270019531250e+00,3.121874570846557617e+00,-3.564241230487823486e-01
-2.621217489242553711e+00,3.126380920410156250e+00,-2.138146758079528809e-01
-2.625000476837158203e+00,3.130892992019653320e+00,-7.131642848253250122e-02
-2.628795862197875977e+00,3.135419607162475586e+00,7.141953706741333008e-02
-2.632579803466796875e+00,3.139932870864868164e+00,2.147415131330490112e-01
-2.636297702789306641e+00,3.144367456436157227e+00,3.589921295642852783e-01
-2.640572786331176758e+00,3.149466276168823242e+00,5.046387314796447754e-01
-2.644019365310668945e+00,3.153577089309692383e+00,6.518021821975708008e-01
-2.648046970367431641e+00,3.158380985260009766e+00,8.011552095413208008e-01
-2.651765108108520508e+00,3.162815809249877930e+00,9.528791904449462891e-01
-2.582288026809692383e+00,2.991909742355346680e+00,-1.058982133865356445e+00
-2.586083650588989258e+00,2.996307373046875000e+00,-9.137726426124572754e-01
-2.589648008346557617e+00,3.000437021255493164e+00,-7.704145312309265137e-01
-2.593149662017822266e+00,3.004494190216064453e+00,-6.285959482192993164e-01
-2.597071886062622070e+00,3.009038686752319336e+00,-4.880442917346954346e-01
-2.600876569747924805e+00,3.013446807861328125e+00,-3.482595384120941162e-01
-2.604631900787353516e+00,3.017797946929931641e+00,-2.089169174432754517e-01
-2.608376026153564453e+00,3.022135972976684570e+00,-6.968241184949874878e-02
-2.612117528915405273e+00,3.026470899581909180e+00,6.978236138820648193e-02
-2.615832090377807617e+00,3.030774593353271484e+00,2.098152786493301392e-01
-2.619466781616210938e+00,3.034986019134521484e+00,3.507487773895263672e-01
-2.623636960983276367e+00,3.039817810058593750e+00,4.930364489555358887e-01
-2.627818107604980469e+00,3.044662237167358398e+00,6.369998455047607422e-01
-2.631855726242065430e+00,3.049340009689331055e+00,7.829712629318237305e-01
-2.635566234588623047e+00,3.053639173507690430e+00,9.312569499015808105e-01
-2.559466838836669922e+00,2.881054401397705078e+00,-1.032606124877929688e+00
-2.563318729400634766e+00,2.885390281677246094e+00,-8.910445570945739746e-01
-2.566925764083862305e+00,2.889450311660766602e+00,-7.512738704681396484e-01
-2.570942640304565430e+00,2.893971920013427734e+00,-6.131089329719543457e-01
-2.574379920959472656e+00,2.897841215133666992e+00,-4.759366214275360107e-01
-2.578171730041503906e+00,2.902109384536743164e+00,-3.396224379539489746e-01
-2.581896543502807617e+00,2.906302213668823242e+00,-2.037357836961746216e-01
-2.585592746734619141e+00,2.910462617874145508e+00,-6.795388460159301758e-02
-2.589267492294311523e+00,2.914599180221557617e+00,6.805046647787094116e-02
-2.592898130416870117e+00,2.918686151504516602e+00,2.046039104461669922e-01
-2.596977472305297852e+00,2.923278093338012695e+00,3.420996963977813721e-01
-2.600474596023559570e+00,2.927214384078979492e+00,4.807608425617218018e-01
-2.604511022567749023e+00,2.931757926940917969e+00,6.211141347885131836e-01
-2.608388185501098633e+00,2.936122655868530273e+00,7.634088993072509766e-01
-2.611927270889282227e+00,2.940106153488159180e+00,9.079415202140808105e-01
-2.538094997406005859e+00,2.775942564010620117e+00,-1.007850170135498047e+00
-2.542011260986328125e+00,2.780225753784179688e+00,-8.697155714035034180e-01
-2.545668601989746094e+00,2.784225940704345703e+00,-7.333137392997741699e-01
-2.549711704254150391e+00,2.788647890090942383e+00,-5.984657406806945801e-01
-2.553164720535278320e+00,2.792424440383911133e+00,-4.645776152610778809e-01
-2.556948661804199219e+00,2.796562910079956055e+00,-3.315197825431823730e-01
-2.560647726058959961e+00,2.800608634948730469e+00,-1.988754868507385254e-01
-2.564298629760742188e+00,2.804601669311523438e+00,-6.633240729570388794e-02
-2.567909479141235352e+00,2.808551073074340820e+00,6.642581522464752197e-02
-2.571457386016845703e+00,2.812431335449218750e+00,1.997150331735610962e-01
-2.575428009033203125e+00,2.816774129867553711e+00,3.339157402515411377e-01
-2.578806161880493164e+00,2.820468902587890625e+00,4.692433774471282959e-01
-2.582696676254272461e+00,2.824723958969116211e+00,6.062079071998596191e-01
-2.586412906646728516e+00,2.828788518905639648e+00,7.450506687164306641e-01
-2.590871095657348633e+00,2.833664417266845703e+00,8.864322900772094727e-01
-2.518949031829833984e+00,2.677038908004760742e+00,-9.849310517311096191e-01
-2.522807359695434570e+00,2.681139707565307617e+00,-8.499282002449035645e-01
-2.526385307312011719e+00,2.684942007064819336e+00,-7.166150212287902832e-01
-2.529844284057617188e+00,2.688618183135986328e+00,-5.847097635269165039e-01
-2.533655166625976562e+00,2.692668199539184570e+00,-4.539680778980255127e-01
-2.537098884582519531e+00,2.696327924728393555e+00,-3.239091336727142334e-01
-2.540775537490844727e+00,2.700235366821289062e+00,-1.943104118108749390e-01
-2.544384717941284180e+00,2.704071044921875000e+00,-6.480944156646728516e-02
-2.547933340072631836e+00,2.707842350006103516e+00,6.489983201026916504e-02
-2.551788091659545898e+00,2.711939096450805664e+00,1.951526403427124023e-01
-2.555262565612792969e+00,2.715631723403930664e+00,3.262281119823455811e-01
-2.559195518493652344e+00,2.719811439514160156e+00,4.585442841053009033e-01
-2.563079833984375000e+00,2.723939418792724609e+00,5.923913121223449707e-01
-2.566767454147338867e+00,2.727858543395996094e+00,7.280694842338562012e-01
-2.570083856582641602e+00,2.731383085250854492e+00,8.658554553985595703e-01
-2.500152826309204102e+00,2.582000494003295898e+00,-9.630323052406311035e-01
-2.504092216491699219e+00,2.586068868637084961e+00,-8.310675024986267090e-01
-2.507735729217529297e+00,2.589831829071044922e+00,-7.007383704185485840e-01
-2.511241674423217773e+00,2.593452453613281250e+00,-5.717720389366149902e-01
-2.515074253082275391e+00,2.597410440444946289e+00,-4.439319968223571777e-01
-2.518522977828979492e+00,2.600972175598144531e+00,-3.167521655559539795e-01
-2.522180795669555664e+00,2.604749679565429688e+00,-1.900176107883453369e-01
-2.525750398635864258e+00,2.608436107635498047e+00,-6.337730586528778076e-02
-2.529239177703857422e+00,2.612039089202880859e+00,6.346485018730163574e-02
-2.533007860183715820e+00,2.615931034088134766e+00,1.908333003520965576e-01
-2.536380529403686523e+00,2.619414329528808594e+00,3.189980983734130859e-01
-2.540184259414672852e+00,2.623342275619506836e+00,4.483641088008880615e-01
-2.543919324874877930e+00,2.627199888229370117e+00,5.792122483253479004e-01
-2.547440290451049805e+00,2.630836009979248047e+00,7.118330597877502441e-01
-2.551643610000610352e+00,2.635176897048950195e+00,8.468489646911621094e-01
-2.483378887176513672e+00,2.492290735244750977e+00,-9.427336454391479492e-01
-2.486540794372558594e+00,2.495463848114013672e+00,-8.133046627044677734e-01
-2.490255594253540039e+00,2.499191999435424805e+00,-6.857878565788269043e-01
-2.494283437728881836e+00,2.503234386444091797e+00,-5.596956610679626465e-01
-2.497672557830810547e+00,2.506635427474975586e+00,-4.344830513000488281e-01
-2.501321315765380859e+00,2.510297298431396484e+00,-3.100379407405853271e-01
-2.504773139953613281e+00,2.513761520385742188e+00,-1.859763562679290771e-01
-2.508306026458740234e+00,2.517307043075561523e+00,-6.202911213040351868e-02
-2.511973381042480469e+00,2.520987749099731445e+00,6.211980804800987244e-02
-2.515419960021972656e+00,2.524446725845336914e+00,1.867668777704238892e-01
-2.519211769104003906e+00,2.528252124786376953e+00,3.122554719448089600e-01
-2.522365331649780273e+00,2.531416893005371094e+00,4.387784898281097412e-01
-2.525950193405151367e+00,2.535014629364013672e+00,5.668013691902160645e-01
-2.530230522155761719e+00,2.539310216903686523e+00,6.967964172363281250e-01
-2.534366130828857422e+00,2.543460845947265625e+00,8.289474844932556152e-01
-2.466803550720214844e+00,2.405788660049438477e+00,-9.232746362686157227e-01
-2.470800638198852539e+00,2.409686803817749023e+00,-7.967932820320129395e-01
-2.474462270736694336e+00,2.413257837295532227e+00,-6.718572378158569336e-01
-2.477941989898681641e+00,2.416651487350463867e+00,-5.482107400894165039e-01
-2.481367826461791992e+00,2.419992685317993164e+00,-4.255776405334472656e-01
-2.485027313232421875e+00,2.423561334609985352e+00,-3.036874234676361084e-01
-2.488468647003173828e+00,2.426917791366577148e+00,-1.821678876876831055e-01
-2.491967201232910156e+00,2.430329799652099609e+00,-6.075859069824218750e-02
-2.495574474334716797e+00,2.433847665786743164e+00,6.084654107689857483e-02
-2.498940944671630859e+00,2.437130928039550781e+00,1.829345077276229858e-01
-2.502624034881591797e+00,2.440722942352294922e+00,3.058378994464874268e-01
-2.506306171417236328e+00,2.444314002990722656e+00,4.298547804355621338e-01
-2.509874105453491211e+00,2.447793722152709961e+00,5.552752614021301270e-01
-2.513185977935791016e+00,2.451023817062377930e+00,6.823713779449462891e-01
-2.517118692398071289e+00,2.454859256744384766e+00,8.117301464080810547e-01
-2.452077865600585938e+00,2.323889255523681641e+00,-9.052206873893737793e-01
-2.455328941345214844e+00,2.326970100402832031e+00,-7.809829115867614746e-01
-2.459074497222900391e+00,2.330520153045654297e+00,-6.585545539855957031e-01
-2.462617874145507812e+00,2.333878278732299805e+00,-5.373748540878295898e-01
-2.466084480285644531e+00,2.337163686752319336e+00,-4.171762168407440186e-01
-2.469758033752441406e+00,2.340645074844360352e+00,-2.976966798305511475e-01
-2.473191738128662109e+00,2.343899250030517578e+00,-1.785752773284912109e-01
-2.476657867431640625e+00,2.347184181213378906e+00,-5.956008285284042358e-02
-2.480206727981567383e+00,2.350547552108764648e+00,5.964542552828788757e-02
-2.483493566513061523e+00,2.353662490844726562e+00,1.793191283941268921e-01
-2.487068653106689453e+00,2.357050657272338867e+00,2.997832298278808594e-01
-2.490618705749511719e+00,2.360415220260620117e+00,4.213265180587768555e-01
-2.494032621383666992e+00,2.363650560379028320e+00,5.442299246788024902e-01
-2.498078584671020508e+00,2.367485046386718750e+00,6.690000295639038086e-01
-2.501933813095092773e+00,2.371138811111450195e+00,7.958068847656250000e-01
-2.438267946243286133e+00,2.245441198348999023e+00,-8.881666064262390137e-01
-2.441510915756225586e+00,2.248427867889404297e+00,-7.662726640701293945e-01
-2.445218801498413086e+00,2.251842498779296875e+00,-6.461458802223205566e-01
-2.448698759078979492e+00,2.255047321319580078e+00,-5.272401571273803711e-01
-2.452074766159057617e+00,2.258156061172485352e+00,-4.092965126037597656e-01
-2.455443382263183594e+00,2.261258363723754883e+00,-2.920399606227874756e-01
-2.458872079849243164e+00,2.264415979385375977e+00,-1.751831322908401489e-01
-2.462307691574096680e+00,2.267580032348632812e+00,-5.842845141887664795e-02
-2.465799093246459961e+00,2.270795345306396484e+00,5.851130187511444092e-02
-2.469373226165771484e+00,2.274086713790893555e+00,1.759313046932220459e-01
-2.472978115081787109e+00,2.277406692504882812e+00,2.941254973411560059e-01
-2.476530551910400391e+00,2.280678033828735352e+00,4.133786559104919434e-01
-2.479920148849487305e+00,2.283799648284912109e+00,5.339625477790832520e-01
-2.483909606933593750e+00,2.287473678588867188e+00,6.563698649406433105e-01
-2.487682580947875977e+00,2.290948152542114258e+00,7.807637453079223633e-01
-2.419552564620971680e+00,2.165035486221313477e+00,-8.699720501899719238e-01
-2.423640012741088867e+00,2.168692827224731445e+00,-7.508445382118225098e-01
-2.426739215850830078e+00,2.171466112136840820e+00,-6.329846978187561035e-01
-2.430296182632446289e+00,2.174649000167846680e+00,-5.165228843688964844e-01
-2.433722972869873047e+00,2.177715063095092773e+00,-4.009892344474792480e-01
-2.437113761901855469e+00,2.180749416351318359e+00,-2.861181795597076416e-01
-2.440535068511962891e+00,2.183810710906982422e+00,-1.716321408748626709e-01
-2.443934202194213867e+00,2.186852216720581055e+00,-5.724384635686874390e-02
-2.447358846664428711e+00,2.189916610717773438e+00,5.732405930757522583e-02
-2.450835704803466797e+00,2.193027973175048828e+00,1.723565459251403809e-01
-2.454313755035400391e+00,2.196140050888061523e+00,2.881374359130859375e-01
-2.457711935043334961e+00,2.199180841445922852e+00,4.049417674541473389e-01
-2.461683273315429688e+00,2.202734470367431641e+00,5.231937170028686523e-01
-2.464694738388061523e+00,2.205428838729858398e+00,6.428848505020141602e-01
-2.468227148056030273e+00,2.208589792251586914e+00,7.646576762199401855e-01
-2.407595157623291016e+00,2.093067169189453125e+00,-8.548130989074707031e-01
-2.410980701446533203e+00,2.096010684967041016e+00,-7.375527620315551758e-01
-2.414766550064086914e+00,2.099301815032958984e+00,-6.219602823257446289e-01
-2.417824268341064453e+00,2.101960182189941406e+00,-5.074257850646972656e-01
-2.421304464340209961e+00,2.104985475540161133e+00,-3.939385116100311279e-01
-2.424722433090209961e+00,2.107957124710083008e+00,-2.810923755168914795e-01
-2.428143739700317383e+00,2.110931396484375000e+00,-1.686185896396636963e-01
-2.431516408920288086e+00,2.113863468170166016e+00,-5.623852834105491638e-02
-2.434886455535888672e+00,2.116793394088745117e+00,5.631647631525993347e-02
-2.438281536102294922e+00,2.119744777679443359e+00,1.693225800991058350e-01
-2.441650629043579102e+00,2.122673749923706055e+00,2.830548286437988281e-01
-2.445538282394409180e+00,2.126053571701049805e+00,3.978812694549560547e-01
-2.448717355728149414e+00,2.128817319869995117e+00,5.139092803001403809e-01
-2.452425718307495117e+00,2.132040977478027344e+00,6.316599845886230469e-01
-2.455867052078247070e+00,2.135032892227172852e+00,7.512840628623962402e-01
-2.391862154006958008e+00,2.020017623901367188e+00,-8.388754725456237793e-01
-2.395273923873901367e+00,2.022899150848388672e+00,-7.238160967826843262e-01
-2.398478031158447266e+00,2.025604963302612305e+00,-6.102347373962402344e-01
-2.402072906494140625e+00,2.028640985488891602e+00,-4.979751408100128174e-01
-2.405482292175292969e+00,2.031520128250122070e+00,-3.865937590599060059e-01
-2.408615589141845703e+00,2.034166574478149414e+00,-2.758215665817260742e-01
-2.412034749984741211e+00,2.037054061889648438e+00,-1.654581874608993530e-01
-2.415375232696533203e+00,2.039875268936157227e+00,-5.518423393368721008e-02
-2.418681859970092773e+00,2.042667865753173828e+00,5.525978282094001770e-02
-2.422335624694824219e+00,2.045753479003906250e+00,1.661647856235504150e-01
-2.425710678100585938e+00,2.048604011535644531e+00,2.777791917324066162e-01
-2.428949117660522461e+00,2.051338911056518555e+00,3.903652131557464600e-01
-2.432688951492309570e+00,2.054497480392456055e+00,5.043221712112426758e-01
-2.436302185058593750e+00,2.057548761367797852e+00,6.198582053184509277e-01
-2.439618825912475586e+00,2.060349941253662109e+00,7.372164130210876465e-01
-2.380683422088623047e+00,1.952893733978271484e+00,-8.250667452812194824e-01
-2.384238004684448242e+00,1.955809593200683594e+00,-7.119486927986145020e-01
-2.388125896453857422e+00,1.958999037742614746e+00,-6.004052758216857910e-01
-2.391242027282714844e+00,1.961555004119873047e+00,-4.898589551448822021e-01
-2.394711971282958984e+00,1.964401602745056152e+00,-3.803050518035888672e-01
-2.398061513900756836e+00,1.967149257659912109e+00,-2.713608145713806152e-01
-2.401353120803833008e+00,1.969849348068237305e+00,-1.627746671438217163e-01
-2.404707670211791992e+00,1.972601056098937988e+00,-5.428986623883247375e-02
-2.408094882965087891e+00,1.975379705429077148e+00,5.436634272336959839e-02
-2.411445856094360352e+00,1.978128552436828613e+00,1.634588092565536499e-01
-2.414710998535156250e+00,1.980806827545166016e+00,2.732448279857635498e-01
-2.418423175811767578e+00,1.983852028846740723e+00,3.840706050395965576e-01
-2.421382188796997070e+00,1.986279487609863281e+00,4.960333704948425293e-01
-2.424798965454101562e+00,1.989082217216491699e+00,6.096253991127014160e-01
-2.428875923156738281e+00,1.992426395416259766e+00,7.252779006958007812e-01
-2.366813421249389648e+00,1.885500431060791016e+00,-8.108236789703369141e-01
-2.370408535003662109e+00,1.888364315032958984e+00,-6.996764540672302246e-01
-2.373740196228027344e+00,1.891018390655517578e+00,-5.899230837821960449e-01
-2.377394199371337891e+00,1.893929481506347656e+00,-4.814195036888122559e-01
-2.380496263504028320e+00,1.896400570869445801e+00,-3.736983835697174072e-01
-2.383881807327270508e+00,1.899097681045532227e+00,-2.666530013084411621e-01
-2.387177944183349609e+00,1.901723504066467285e+00,-1.599523127079010010e-01
-2.390502929687500000e+00,1.904372453689575195e+00,-5.334831774234771729e-02
-2.393827438354492188e+00,1.907020807266235352e+00,5.342250689864158630e-02
-2.397083759307861328e+00,1.909615039825439453e+00,1.606160551309585571e-01
-2.400698184967041016e+00,1.912494421005249023e+00,2.685340344905853271e-01
-2.403769731521606445e+00,1.914941191673278809e+00,3.773519396781921387e-01
-2.407269716262817383e+00,1.917729616165161133e+00,4.874692857265472412e-01
-2.410585165023803711e+00,1.920370697975158691e+00,5.990798473358154297e-01
-2.414518594741821289e+00,1.923504233360290527e+00,7.126964330673217773e-01
-2.353868246078491211e+00,1.820734381675720215e+00,-7.973792552947998047e-01
-2.357511758804321289e+00,1.823552727699279785e+00,-6.880948543548583984e-01
-2.360859632492065430e+00,1.826142311096191406e+00,-5.801666975021362305e-01
-2.364061117172241211e+00,1.828618645668029785e+00,-4.733708798885345459e-01
-2.367239475250244141e+00,1.831077098846435547e+00,-3.674652576446533203e-01
-2.370663404464721680e+00,1.833725690841674805e+00,-2.622116804122924805e-01
-2.373966217041015625e+00,1.836280345916748047e+00,-1.572898328304290771e-01
-2.377263307571411133e+00,1.838830709457397461e+00,-5.246010050177574158e-02
-2.380527019500732422e+00,1.841355204582214355e+00,5.253212153911590576e-02
-2.383689880371093750e+00,1.843801736831665039e+00,1.579340845346450806e-01
-2.387171268463134766e+00,1.846494555473327637e+00,2.640375494956970215e-01
-2.390680551528930664e+00,1.849208950996398926e+00,3.711040318012237549e-01
-2.394108057022094727e+00,1.851860165596008301e+00,4.793874025344848633e-01
-2.397317409515380859e+00,1.854342818260192871e+00,5.891259908676147461e-01
-2.401103734970092773e+00,1.857271552085876465e+00,7.008182406425476074e-01
-2.341781139373779297e+00,1.758397817611694336e+00,-7.846783995628356934e-01
-2.345479488372802734e+00,1.761174798011779785e+00,-6.771559119224548340e-01
-2.348302602767944336e+00,1.763294696807861328e+00,-5.708201527595520020e-01
-2.351615667343139648e+00,1.765782237052917480e+00,-4.657702744007110596e-01
-2.355172395706176758e+00,1.768453001976013184e+00,-3.616257905960083008e-01
-2.358337402343750000e+00,1.770829558372497559e+00,-2.580184042453765869e-01
-2.361649036407470703e+00,1.773316264152526855e+00,-1.547761559486389160e-01
-2.364920377731323242e+00,1.775772690773010254e+00,-5.162154138088226318e-02
-2.368124485015869141e+00,1.778178453445434570e+00,5.169147625565528870e-02
-2.371531009674072266e+00,1.780736446380615234e+00,1.554238051176071167e-01
-2.374544382095336914e+00,1.782999157905578613e+00,2.597915530204772949e-01
-2.377887487411499023e+00,1.785509347915649414e+00,3.651135861873626709e-01
-2.381828308105468750e+00,1.788468360900878906e+00,4.717543423175811768e-01
-2.384928226470947266e+00,1.790796041488647461e+00,5.797230005264282227e-01
-2.388563394546508789e+00,1.793525576591491699e+00,6.895945072174072266e-01
-2.330489397048950195e+00,1.698308825492858887e+00,-7.726703286170959473e-01
-2.333589553833007812e+00,1.700567960739135742e+00,-6.666274666786193848e-01
-2.337107419967651367e+00,1.703131437301635742e+00,-5.621155500411987305e-01
-2.340413570404052734e+00,1.705540895462036133e+00,-4.586694240570068359e-01
-2.343627214431762695e+00,1.707882761955261230e+00,-3.560630977153778076e-01
-2.346840143203735352e+00,1.710224151611328125e+00,-2.540563046932220459e-01
-2.350162267684936523e+00,1.712645053863525391e+00,-1.524011641740798950e-01
-2.353409528732299805e+00,1.715011358261108398e+00,-5.082924291491508484e-02
-2.356555223464965820e+00,1.717303872108459473e+00,5.089718475937843323e-02
-2.359864711761474609e+00,1.719715595245361328e+00,1.530303359031677246e-01
-2.363209247589111328e+00,1.722152829170227051e+00,2.558283209800720215e-01
-2.366510391235351562e+00,1.724558472633361816e+00,3.595396876335144043e-01
-2.369662523269653320e+00,1.726855516433715820e+00,4.644015729427337646e-01
-2.373353481292724609e+00,1.729545354843139648e+00,5.708333849906921387e-01
-2.376833915710449219e+00,1.732081651687622070e+00,6.789809465408325195e-01
-2.319935798645019531e+00,1.640302062034606934e+00,-7.613090872764587402e-01
-2.323110342025756836e+00,1.642546772956848145e+00,-6.568505167961120605e-01
-2.326662302017211914e+00,1.645058155059814453e+00,-5.538832545280456543e-01
-2.329551219940185547e+00,1.647100567817687988e+00,-4.518740177154541016e-01
-2.332849502563476562e+00,1.649432659149169922e+00,-3.508028388023376465e-01
-2.336282730102539062e+00,1.651860237121582031e+00,-2.503282129764556885e-01
-2.339446067810058594e+00,1.654096722602844238e+00,-1.501555591821670532e-01
-2.342670440673828125e+00,1.656376481056213379e+00,-5.008010938763618469e-02
-2.345963001251220703e+00,1.658704638481140137e+00,5.015049874782562256e-02
-2.348973035812377930e+00,1.660832881927490234e+00,1.507670432329177856e-01
-2.352185726165771484e+00,1.663104414939880371e+00,2.520321905612945557e-01
-2.355895280838012695e+00,1.665727138519287109e+00,3.542683422565460205e-01
-2.358966588973999023e+00,1.667898654937744141e+00,4.575798511505126953e-01
-2.362534046173095703e+00,1.670421123504638672e+00,5.624228119850158691e-01
-2.365856647491455078e+00,1.672770261764526367e+00,6.689368486404418945e-01
-2.310065984725952148e+00,1.584225773811340332e+00,-7.505519986152648926e-01
-2.313320875167846680e+00,1.586457967758178711e+00,-6.475957036018371582e-01
-2.316380977630615234e+00,1.588556766510009766e+00,-5.459668636322021484e-01
-2.319808721542358398e+00,1.590907454490661621e+00,-4.455215334892272949e-01
-2.323073863983154297e+00,1.593146562576293945e+00,-3.458683192729949951e-01
-2.326265096664428711e+00,1.595335006713867188e+00,-2.467828541994094849e-01
-2.329444408416748047e+00,1.597515463829040527e+00,-1.480308175086975098e-01
-2.332647323608398438e+00,1.599712014198303223e+00,-4.937129840254783630e-02
-2.335880994796752930e+00,1.601929664611816406e+00,4.943974316120147705e-02
-2.339124202728271484e+00,1.604153752326965332e+00,1.486459374427795410e-01
-2.342327833175659180e+00,1.606350779533386230e+00,2.484868764877319336e-01
-2.345416307449340820e+00,1.608468890190124512e+00,3.491947650909423828e-01
-2.348973274230957031e+00,1.610908150672912598e+00,4.511225819587707520e-01
-2.352414608001708984e+00,1.613268256187438965e+00,5.544599294662475586e-01
-2.355575799942016602e+00,1.615436196327209473e+00,6.594246625900268555e-01
-2.297679185867309570e+00,1.527845859527587891e+00,-7.393465042114257812e-01
-2.301036596298217773e+00,1.530078411102294922e+00,-6.379604935646057129e-01
-2.304160118103027344e+00,1.532155513763427734e+00,-5.378623604774475098e-01
-2.307605743408203125e+00,1.534446716308593750e+00,-4.389149248600006104e-01
-2.310559272766113281e+00,1.536410570144653320e+00,-3.406960368156433105e-01
-2.313807249069213867e+00,1.538570284843444824e+00,-2.431001216173171997e-01
-2.317003250122070312e+00,1.540695548057556152e+00,-1.458238661289215088e-01
-2.320181369781494141e+00,1.542808771133422852e+00,-4.863507673144340515e-02
-2.323348283767700195e+00,1.544914603233337402e+00,4.870146140456199646e-02
-2.326483011245727539e+00,1.546999096870422363e+00,1.464204937219619751e-01
-2.329981088638305664e+00,1.549325108528137207e+00,2.447994202375411987e-01
-2.333000898361206055e+00,1.551333069801330566e+00,3.440050780773162842e-01
-2.336441755294799805e+00,1.553621172904968262e+00,4.443996250629425049e-01
-2.339726209640502930e+00,1.555805206298828125e+00,5.461645722389221191e-01
-2.342693567276000977e+00,1.557778239250183105e+00,6.495099067687988281e-01
-2.289160013198852539e+00,1.475373029708862305e+00,-7.297351956367492676e-01
-2.292608261108398438e+00,1.477595448493957520e+00,-6.296955943107604980e-01
-2.295787096023559570e+00,1.479644179344177246e+00,-5.309095978736877441e-01
-2.298841953277587891e+00,1.481613159179687500e+00,-4.331699907779693604e-01
-2.302178382873535156e+00,1.483763456344604492e+00,-3.362942636013031006e-01
-2.305197238922119141e+00,1.485709190368652344e+00,-2.399366647005081177e-01
-2.308412075042724609e+00,1.487781167030334473e+00,-1.439281851053237915e-01
-2.311571359634399414e+00,1.489817142486572266e+00,-4.800267890095710754e-02
-2.314681529998779297e+00,1.491821885108947754e+00,4.806727170944213867e-02
-2.318039894104003906e+00,1.493986248970031738e+00,1.445284634828567505e-01
-2.321083068847656250e+00,1.495947599411010742e+00,2.415901273488998413e-01
-2.324490070343017578e+00,1.498143315315246582e+00,3.395534753799438477e-01
-2.327836513519287109e+00,1.500300168991088867e+00,4.386334121227264404e-01
-2.330989122390747070e+00,1.502332091331481934e+00,5.390502214431762695e-01
-2.334682941436767578e+00,1.504712820053100586e+00,6.412519812583923340e-01
-2.278298139572143555e+00,1.422638297080993652e+00,-7.197077274322509766e-01
-2.281859397888183594e+00,1.424862027168273926e+00,-6.210780143737792969e-01
-2.285112142562866211e+00,1.426893115043640137e+00,-5.236642956733703613e-01
-2.288198947906494141e+00,1.428820610046386719e+00,-4.272671341896057129e-01
-2.291238307952880859e+00,1.430718541145324707e+00,-3.316707909107208252e-01
-2.294486522674560547e+00,1.432746767997741699e+00,-2.366630584001541138e-01
-2.297556638717651367e+00,1.434663772583007812e+00,-1.419564634561538696e-01
-2.300693750381469727e+00,1.436622619628906250e+00,-4.734492674469947815e-02
-2.303934335708618164e+00,1.438646197319030762e+00,4.741161316633224487e-02
-2.306987524032592773e+00,1.440552830696105957e+00,1.425391584634780884e-01
-2.310314893722534180e+00,1.442630410194396973e+00,2.382956594228744507e-01
-2.313644170761108398e+00,1.444709300994873047e+00,3.349141478538513184e-01
-2.316869497299194336e+00,1.446723222732543945e+00,4.326206445693969727e-01
-2.319860458374023438e+00,1.448590993881225586e+00,5.316273570060729980e-01
-2.323343276977539062e+00,1.450765728950500488e+00,6.323691010475158691e-01
-2.268180608749389648e+00,1.371596097946166992e+00,-7.102370858192443848e-01
-2.271859169006347656e+00,1.373820543289184570e+00,-6.129411458969116211e-01
-2.274683713912963867e+00,1.375528573989868164e+00,-5.167096257209777832e-01
-2.277920722961425781e+00,1.377485990524291992e+00,-4.216231107711791992e-01
-2.281348466873168945e+00,1.379558801651000977e+00,-3.273472487926483154e-01
-2.284380197525024414e+00,1.381392121315002441e+00,-2.335573136806488037e-01
-2.287473917007446289e+00,1.383262872695922852e+00,-1.400958299636840820e-01
-2.290590524673461914e+00,1.385147571563720703e+00,-4.672423750162124634e-02
-2.293765068054199219e+00,1.387067198753356934e+00,4.678899049758911133e-02
-2.297022819519042969e+00,1.389037251472473145e+00,1.406806558370590210e-01
-2.299887418746948242e+00,1.390769600868225098e+00,2.351427823305130005e-01
-2.303021192550659180e+00,1.392664432525634766e+00,3.304570019245147705e-01
-2.306665420532226562e+00,1.394868254661560059e+00,4.269435107707977295e-01
-2.309493541717529297e+00,1.396578431129455566e+00,5.246168971061706543e-01
-2.312763690948486328e+00,1.398555874824523926e+00,6.239770650863647461e-01
-2.259463310241699219e+00,1.322536587715148926e+00,-7.015079855918884277e-01
-2.262549400329589844e+00,1.324342966079711914e+00,-6.052531599998474121e-01
-2.265462875366210938e+00,1.326048254966735840e+00,-5.102512836456298828e-01
-2.268739461898803711e+00,1.327966213226318359e+00,-4.163629114627838135e-01
-2.271884918212890625e+00,1.329807281494140625e+00,-3.232250213623046875e-01
-2.274985551834106445e+00,1.331622362136840820e+00,-2.306244522333145142e-01
-2.278104066848754883e+00,1.333447694778442383e+00,-1.383388638496398926e-01
-2.281201124191284180e+00,1.335260391235351562e+00,-4.613812267780303955e-02
-2.284311532974243164e+00,1.337081074714660645e+00,4.620103538036346436e-02
-2.287459850311279297e+00,1.338923811912536621e+00,1.389070004224777222e-01
-2.290598154067993164e+00,1.340760707855224609e+00,2.322071343660354614e-01
-2.293651580810546875e+00,1.342548012733459473e+00,3.263218104839324951e-01
-2.297165155410766602e+00,1.344604611396789551e+00,4.215796291828155518e-01
-2.300582885742187500e+00,1.346605181694030762e+00,5.181613564491271973e-01
-2.303743839263916016e+00,1.348455309867858887e+00,6.162729859352111816e-01
-2.308480024337768555e+00,1.307233095169067383e+00,-7.108443379402160645e-01
-2.311608076095581055e+00,1.309004545211791992e+00,-6.133018136024475098e-01
-2.314514875411987305e+00,1.310650587081909180e+00,-5.170210003852844238e-01
-2.317751884460449219e+00,1.312483668327331543e+00,-4.218668937683105469e-01
-2.320808649063110352e+00,1.314214587211608887e+00,-3.274756968021392822e-01
-2.323603153228759766e+00,1.315796971321105957e+00,-2.336198389530181885e-01
-2.326656579971313477e+00,1.317526102066040039e+00,-1.401277035474777222e-01
-2.329650402069091797e+00,1.319221377372741699e+00,-4.673133417963981628e-02
-2.332603931427001953e+00,1.320893883705139160e+00,4.679058119654655457e-02
-2.335852622985839844e+00,1.322733640670776367e+00,1.406815648078918457e-01
-2.338859319686889648e+00,1.324436187744140625e+00,2.351537197828292847e-01
-2.341732978820800781e+00,1.326063513755798340e+00,3.304282128810882568e-01
-2.345019578933715820e+00,1.327924609184265137e+00,4.268300235271453857e-01
-2.348162412643432617e+00,1.329704284667968750e+00,5.245372653007507324e-01
-2.351000070571899414e+00,1.331311225891113281e+00,6.237530708312988281e-01
-2.379494190216064453e+00,1.302827954292297363e+00,-7.268948554992675781e-01
-2.382911920547485352e+00,1.304699182510375977e+00,-6.272007822990417480e-01
-2.386052846908569336e+00,1.306419014930725098e+00,-5.287700295448303223e-01
-2.389479875564575195e+00,1.308295369148254395e+00,-4.314697980880737305e-01
-2.392375469207763672e+00,1.309880852699279785e+00,-3.348942101001739502e-01
-2.395538091659545898e+00,1.311612486839294434e+00,-2.389403134584426880e-01
-2.398619413375854492e+00,1.313299536705017090e+00,-1.433150023221969604e-01
-2.401721954345703125e+00,1.314998269081115723e+00,-4.779459163546562195e-02
-2.404838562011718750e+00,1.316704630851745605e+00,4.785661026835441589e-02
-2.407894849777221680e+00,1.318377971649169922e+00,1.438691914081573486e-01
-2.411270856857299805e+00,1.320226430892944336e+00,2.405095398426055908e-01
-2.414147377014160156e+00,1.321801424026489258e+00,3.379419147968292236e-01
-2.417393684387207031e+00,1.323578834533691406e+00,4.365102052688598633e-01
-2.420441865921020508e+00,1.325247764587402344e+00,5.363909602165222168e-01
-2.424009799957275391e+00,1.327201247215270996e+00,6.380180716514587402e-01
-2.453575372695922852e+00,1.298096895217895508e+00,-7.437732815742492676e-01
-2.456539630889892578e+00,1.299665212631225586e+00,-6.416180729866027832e-01
-2.459930658340454102e+00,1.301459193229675293e+00,-5.409583449363708496e-01
-2.463138818740844727e+00,1.303156614303588867e+00,-4.413571357727050781e-01
-2.466590642929077148e+00,1.304982781410217285e+00,-3.426333069801330566e-01
-2.469661474227905273e+00,1.306607484817504883e+00,-2.444432079792022705e-01
-2.472895145416259766e+00,1.308318257331848145e+00,-1.466189771890640259e-01
-2.476095914840698242e+00,1.310011744499206543e+00,-4.889649152755737305e-02
-2.479256868362426758e+00,1.311684012413024902e+00,4.895890876650810242e-02
-2.482618570327758789e+00,1.313462495803833008e+00,1.471954882144927979e-01
-2.485618829727172852e+00,1.315049886703491211e+00,2.460226267576217651e-01
-2.488931655883789062e+00,1.316802620887756348e+00,3.457367122173309326e-01
-2.492128849029541016e+00,1.318494081497192383e+00,4.465516805648803711e-01
-2.495860099792480469e+00,1.320468187332153320e+00,5.488595962524414062e-01
-2.499390125274658203e+00,1.322335720062255859e+00,6.528100967407226562e-01
-2.529291868209838867e+00,1.292167544364929199e+00,-7.610412240028381348e-01
-2.533234834671020508e+00,1.294181942939758301e+00,-6.567443609237670898e-01
-2.536225795745849609e+00,1.295709967613220215e+00,-5.536011457443237305e-01
-2.539639711380004883e+00,1.297453999519348145e+00,-4.516910016536712646e-01
-2.542938947677612305e+00,1.299139618873596191e+00,-3.506198525428771973e-01
-2.546223163604736328e+00,1.300817370414733887e+00,-2.501526176929473877e-01
-2.549615383148193359e+00,1.302550435066223145e+00,-1.500469893217086792e-01
-2.552918434143066406e+00,1.304237961769104004e+00,-5.003976449370384216e-02
-2.556123733520507812e+00,1.305875420570373535e+00,5.010259151458740234e-02
-2.559476137161254883e+00,1.307588100433349609e+00,1.506272852420806885e-01
-2.562851428985595703e+00,1.309312462806701660e+00,2.517862617969512939e-01
-2.566165685653686523e+00,1.311005711555480957e+00,3.538223803043365479e-01
-2.569995403289794922e+00,1.312962174415588379e+00,4.570899307727813721e-01
-2.572931766510009766e+00,1.314462304115295410e+00,5.616132616996765137e-01
-2.576297760009765625e+00,1.316182017326354980e+00,6.679084897041320801e-01
-2.608266830444335938e+00,1.285778880119323730e+00,-7.791867256164550781e-01
-2.611760616302490234e+00,1.287501096725463867e+00,-6.722557544708251953e-01
-2.615020513534545898e+00,1.289108157157897949e+00,-5.667147040367126465e-01
-2.618653297424316406e+00,1.290898919105529785e+00,-4.624103903770446777e-01
-2.622109413146972656e+00,1.292602658271789551e+00,-3.589480817317962646e-01
-2.625488996505737305e+00,1.294268608093261719e+00,-2.560938000679016113e-01
-2.628863573074340820e+00,1.295932173728942871e+00,-1.536034196615219116e-01
-2.632271766662597656e+00,1.297612428665161133e+00,-5.122586339712142944e-02
-2.635722398757934570e+00,1.299313426017761230e+00,5.129301548004150391e-02
-2.639191389083862305e+00,1.301023483276367188e+00,1.542068719863891602e-01
-2.642623186111450195e+00,1.302715182304382324e+00,2.577650845050811768e-01
-2.645932435989379883e+00,1.304346561431884766e+00,3.622092902660369873e-01
-2.649708032608032227e+00,1.306207776069641113e+00,4.678941667079925537e-01
-2.653338909149169922e+00,1.307997703552246094e+00,5.750188231468200684e-01
-2.656640529632568359e+00,1.309625267982482910e+00,6.838076710700988770e-01
-2.689010381698608398e+00,1.278075218200683594e+00,-7.977610826492309570e-01
-2.692854881286621094e+00,1.279902577400207520e+00,-6.883431673049926758e-01
-2.696401357650756836e+00,1.281588077545166016e+00,-5.803162455558776855e-01
-2.700266361236572266e+00,1.283425092697143555e+00,-4.735295176506042480e-01
-2.703569650650024414e+00,1.284995198249816895e+00,-3.675439357757568359e-01
-2.707181215286254883e+00,1.286711692810058594e+00,-2.622388601303100586e-01
-2.710725545883178711e+00,1.288396358489990234e+00,-1.572929620742797852e-01
-2.714243412017822266e+00,1.290068387985229492e+00,-5.245636776089668274e-02
-2.717742204666137695e+00,1.291731357574462891e+00,5.252398550510406494e-02
-2.721197366714477539e+00,1.293373584747314453e+00,1.579005867242813110e-01
-2.725021123886108398e+00,1.295190930366516113e+00,2.639669775962829590e-01
-2.728318929672241211e+00,1.296758413314819336e+00,3.709085583686828613e-01
-2.732031583786010742e+00,1.298522949218750000e+00,4.790999889373779297e-01
-2.735534429550170898e+00,1.300187945365905762e+00,5.887384414672851562e-01
-2.739602804183959961e+00,1.302121639251708984e+00,7.002927660942077637e-01
-2.778706550598144531e+00,1.272279024124145508e+00,-8.188851475715637207e-01
-2.782843351364135742e+00,1.274173140525817871e+00,-7.066115140914916992e-01
-2.786017417907714844e+00,1.275626540184020996e+00,-5.956127047538757324e-01
-2.790158271789550781e+00,1.277522325515747070e+00,-4.860368669033050537e-01
-2.793654441833496094e+00,1.279123187065124512e+00,-3.772630691528320312e-01
-2.797396183013916016e+00,1.280836343765258789e+00,-2.691743075847625732e-01
-2.800938606262207031e+00,1.282458424568176270e+00,-1.614459753036499023e-01
-2.804576873779296875e+00,1.284124255180358887e+00,-5.384144186973571777e-02
-2.808336734771728516e+00,1.285845756530761719e+00,5.391362309455871582e-02
-2.811904430389404297e+00,1.287479281425476074e+00,1.620780527591705322e-01
-2.815779447555541992e+00,1.289253473281860352e+00,2.709432244300842285e-01
-2.819045305252075195e+00,1.290748953819274902e+00,3.806919753551483154e-01
-2.823403358459472656e+00,1.292744278907775879e+00,4.918280541896820068e-01
-2.826864480972290039e+00,1.294329047203063965e+00,6.043452620506286621e-01
-2.830833196640014648e+00,1.296146154403686523e+00,7.187969684600830078e-01
-2.865923881530761719e+00,1.262915015220642090e+00,-8.391749262809753418e-01
-2.869605779647827148e+00,1.264537572860717773e+00,-7.239719629287719727e-01
-2.873686075210571289e+00,1.266335487365722656e+00,-6.104175448417663574e-01
-2.877491950988769531e+00,1.268012762069702148e+00,-4.980375170707702637e-01
-2.881169319152832031e+00,1.269633173942565918e+00,-3.865876197814941406e-01
-2.884831428527832031e+00,1.271246910095214844e+00,-2.758084833621978760e-01
-2.888557195663452148e+00,1.272888779640197754e+00,-1.654291898012161255e-01
-2.892312526702880859e+00,1.274543523788452148e+00,-5.516988784074783325e-02
-2.896124124526977539e+00,1.276223301887512207e+00,5.524259805679321289e-02
-2.900026798248291016e+00,1.277943015098571777e+00,1.660860627889633179e-01
-2.903958320617675781e+00,1.279675483703613281e+00,2.776371538639068604e-01
-2.907821655273437500e+00,1.281377911567687988e+00,3.901637792587280273e-01
-2.911488056182861328e+00,1.282993555068969727e+00,5.039215683937072754e-01
-2.915676832199096680e+00,1.284839391708374023e+00,6.193370223045349121e-01
-2.919559717178344727e+00,1.286550521850585938e+00,7.365748286247253418e-01
-2.968034744262695312e+00,1.257497310638427734e+00,-8.637153506278991699e-01
