-5.105072632431983948e-02,2.037891626358032227e+00,1.068347170948982239e-01
-5.110853537917137146e-02,2.040199279785156250e+00,1.785500347614288330e-01
-5.116574838757514954e-02,2.042483091354370117e+00,2.508637011051177979e-01
-5.122007802128791809e-02,2.044651985168457031e+00,3.239421546459197998e-01
-5.128508433699607849e-02,2.047246932983398438e+00,3.980687260627746582e-01
-5.134565383195877075e-02,2.049664735794067383e+00,4.733501374721527100e-01
-7.770701497793197632e-02,1.973344326019287109e+00,-5.291649699211120605e-01
-7.778207212686538696e-02,1.975250363349914551e+00,-4.563752114772796631e-01
-7.787302136421203613e-02,1.977559924125671387e+00,-3.846960365772247314e-01
-7.797340303659439087e-02,1.980108976364135742e+00,-3.138610422611236572e-01
-7.805415987968444824e-02,1.982159972190856934e+00,-2.435669004917144775e-01
-7.814342528581619263e-02,1.984426736831665039e+00,-1.737491488456726074e-01
-7.822619378566741943e-02,1.986528635025024414e+00,-1.041900888085365295e-01
-7.831262797117233276e-02,1.988723516464233398e+00,-3.474014997482299805e-02
-7.840219140052795410e-02,1.990998029708862305e+00,3.477988392114639282e-02
-7.848672568798065186e-02,1.993144750595092773e+00,1.045370921492576599e-01
-7.858020067214965820e-02,1.995518445968627930e+00,1.747202873229980469e-01
-7.865636050701141357e-02,1.997452616691589355e+00,2.454460561275482178e-01
-7.874340564012527466e-02,1.999662995338439941e+00,3.169604837894439697e-01
-7.884848862886428833e-02,2.002331733703613281e+00,3.895148932933807373e-01
-7.894817739725112915e-02,2.004863262176513672e+00,4.632171392440795898e-01
-1.038932502269744873e-01,1.933902382850646973e+00,-5.189340114593505859e-01
-1.039890572428703308e-01,1.935685634613037109e+00,-4.475319683551788330e-01
-1.041326448321342468e-01,1.938358426094055176e+00,-3.773214519023895264e-01
-1.042406111955642700e-01,1.940368294715881348e+00,-3.077668547630310059e-01
-1.043630391359329224e-01,1.942647099494934082e+00,-2.388706654310226440e-01
-1.044702529907226562e-01,1.944642901420593262e+00,-1.703792810440063477e-01
-1.045880466699600220e-01,1.946835517883300781e+00,-1.021763011813163757e-01
-1.047037616372108459e-01,1.948989391326904297e+00,-3.406874462962150574e-02
-1.048177033662796021e-01,1.951110363006591797e+00,3.410581871867179871e-02
-1.049421578645706177e-01,1.953427076339721680e+00,1.025222465395927429e-01
-1.050539463758468628e-01,1.955507993698120117e+00,1.713312268257141113e-01
-1.051815152168273926e-01,1.957882523536682129e+00,2.407440394163131714e-01
-1.052775308489799500e-01,1.959669709205627441e+00,3.108282983303070068e-01
-1.054236143827438354e-01,1.962388992309570312e+00,3.819992542266845703e-01
-1.055249050259590149e-01,1.964274525642395020e+00,4.541417360305786133e-01
-1.288102865219116211e-01,1.891823649406433105e+00,-5.080854892730712891e-01
-1.289589256048202515e-01,1.894006609916687012e+00,-4.382776021957397461e-01
-1.290950775146484375e-01,1.896006345748901367e+00,-3.693990409374237061e-01
-1.292271763086318970e-01,1.897946476936340332e+00,-3.013007342815399170e-01
-1.293796002864837646e-01,1.900185108184814453e+00,-2.338532358407974243e-01
-1.295264214277267456e-01,1.902341485023498535e+00,-1.668184101581573486e-01
-1.296710222959518433e-01,1.904465079307556152e+00,-1.000397279858589172e-01
-1.298146694898605347e-01,1.906574964523315430e+00,-3.335639461874961853e-02
-1.299584805965423584e-01,1.908687114715576172e+00,3.339334577322006226e-02
-1.301012486219406128e-01,1.910784006118774414e+00,1.003716513514518738e-01
-1.302403360605239868e-01,1.912826657295227051e+00,1.677378714084625244e-01
-1.304014623165130615e-01,1.915193080902099609e+00,2.357002496719360352e-01
-1.305621564388275146e-01,1.917553067207336426e+00,3.044132888317108154e-01
-1.307147294282913208e-01,1.919793963432312012e+00,3.740336000919342041e-01
-1.308501958847045898e-01,1.921783447265625000e+00,4.447052478790283203e-01
-1.529489159584045410e-01,1.854336738586425781e+00,-4.985545575618743896e-01
-1.531186252832412720e-01,1.856394290924072266e+00,-4.300371408462524414e-01
-1.532759815454483032e-01,1.858301997184753418e+00,-3.624434173107147217e-01
-1.534600555896759033e-01,1.860533714294433594e+00,-2.956798374652862549e-01
-1.536339372396469116e-01,1.862641930580139160e+00,-2.294799685478210449e-01
-1.538035571575164795e-01,1.864698290824890137e+00,-1.636937111616134644e-01
-1.539730280637741089e-01,1.866752982139587402e+00,-9.816445410251617432e-02
-1.541446894407272339e-01,1.868834137916564941e+00,-3.273134678602218628e-02
-1.543190181255340576e-01,1.870947718620300293e+00,3.276836499571800232e-02
-1.544946134090423584e-01,1.873076558113098145e+00,9.849698841571807861e-02
-1.546679884195327759e-01,1.875178575515747070e+00,1.646137386560440063e-01
-1.548337340354919434e-01,1.877187967300415039e+00,2.312720715999603271e-01
-1.550293117761611938e-01,1.879559159278869629e+00,2.987034022808074951e-01
-1.552177965641021729e-01,1.881844401359558105e+00,3.670351207256317139e-01
-1.553882807493209839e-01,1.883911371231079102e+00,4.364115297794342041e-01
-1.758373975753784180e-01,1.814447522163391113e+00,-4.884566366672515869e-01
-1.760234981775283813e-01,1.816367864608764648e+00,-4.213054478168487549e-01
-1.761984378099441528e-01,1.818173050880432129e+00,-3.550721704959869385e-01
-1.764073818922042847e-01,1.820329189300537109e+00,-2.896620631217956543e-01
-1.766076683998107910e-01,1.822395801544189453e+00,-2.248100042343139648e-01
-1.768212169408798218e-01,1.824599385261535645e+00,-1.603793650865554810e-01
-1.770131736993789673e-01,1.826580286026000977e+00,-9.617532789707183838e-02
-1.772107779979705811e-01,1.828619241714477539e+00,-3.206815198063850403e-02
-1.774145662784576416e-01,1.830722093582153320e+00,3.210502862930297852e-02
-1.775998622179031372e-01,1.832634210586547852e+00,9.649408608675003052e-02
-1.777995377779006958e-01,1.834694504737854004e+00,1.612667143344879150e-01
-1.779942363500595093e-01,1.836703777313232422e+00,2.265750169754028320e-01
-1.782266497611999512e-01,1.839102029800415039e+00,2.926492989063262939e-01
-1.784540265798568726e-01,1.841448307037353516e+00,3.596176207065582275e-01
-1.786635369062423706e-01,1.843610167503356934e+00,4.276242554187774658e-01
-1.981233805418014526e-01,1.778844594955444336e+00,-4.795864820480346680e-01
-1.983251869678497314e-01,1.780656576156616211e+00,-4.136382937431335449e-01
-1.985659301280975342e-01,1.782818078994750977e+00,-3.486869931221008301e-01
-1.987896263599395752e-01,1.784826397895812988e+00,-2.844362854957580566e-01
-1.990064382553100586e-01,1.786773085594177246e+00,-2.207443863153457642e-01
-1.992242783308029175e-01,1.788728952407836914e+00,-1.574609279632568359e-01
-1.994547694921493530e-01,1.790798425674438477e+00,-9.443195164203643799e-02
-1.996776759624481201e-01,1.792799830436706543e+00,-3.148688748478889465e-02
-1.998953223228454590e-01,1.794753909111022949e+00,3.152120858430862427e-02
-2.001257091760635376e-01,1.796822428703308105e+00,9.474960714578628540e-02
-2.003601491451263428e-01,1.798927307128906250e+00,1.583586931228637695e-01
-2.005919218063354492e-01,1.801008343696594238e+00,2.225030511617660522e-01
-2.008120119571685791e-01,1.802984476089477539e+00,2.873300015926361084e-01
-2.010767161846160889e-01,1.805361032485961914e+00,3.530960083007812500e-01
-2.013243883848190308e-01,1.807584881782531738e+00,4.198935925960540771e-01
-2.195669263601303101e-01,1.744093418121337891e+00,-4.710164368152618408e-01
-2.197824269533157349e-01,1.745805263519287109e+00,-4.062316417694091797e-01
-2.200446426868438721e-01,1.747888088226318359e+00,-3.424362540245056152e-01
-2.202913016080856323e-01,1.749847412109375000e+00,-2.793357670307159424e-01
-2.205645292997360229e-01,1.752017736434936523e+00,-2.168183922767639160e-01
-2.207995355129241943e-01,1.753884553909301758e+00,-1.546559482812881470e-01
-2.210520207881927490e-01,1.755890130996704102e+00,-9.274851530790328979e-02
-2.212993204593658447e-01,1.757854461669921875e+00,-3.092560917139053345e-02
-2.215440273284912109e-01,1.759798288345336914e+00,3.095980547368526459e-02
-2.218063622713088989e-01,1.761881947517395020e+00,9.306501597166061401e-02
-2.220354676246643066e-01,1.763701915740966797e+00,1.555216461420059204e-01
-2.222941368818283081e-01,1.765756607055664062e+00,2.185186296701431274e-01
-2.225432097911834717e-01,1.767735123634338379e+00,2.821912765502929688e-01
-2.228453606367111206e-01,1.770135164260864258e+00,3.467947840690612793e-01
-2.230459600687026978e-01,1.771728515625000000e+00,4.122637510299682617e-01
-2.402083426713943481e-01,1.710175871849060059e+00,-4.627376496791839600e-01
-2.405075728893280029e-01,1.712306141853332520e+00,-3.991968631744384766e-01
-2.407776415348052979e-01,1.714228987693786621e+00,-3.364826738834381104e-01
-2.410338521003723145e-01,1.716053009033203125e+00,-2.744636535644531250e-01
-2.412888705730438232e-01,1.717868685722351074e+00,-2.129979133605957031e-01
-2.415731102228164673e-01,1.719892263412475586e+00,-1.519478857517242432e-01
-2.418461292982101440e-01,1.721836090087890625e+00,-9.112325310707092285e-02
-2.421170026063919067e-01,1.723764538764953613e+00,-3.038372844457626343e-02
-2.423885017633438110e-01,1.725697517395019531e+00,3.041779808700084686e-02
-2.426509112119674683e-01,1.727565765380859375e+00,9.142647683620452881e-02
-2.429442554712295532e-01,1.729654192924499512e+00,1.528103351593017578e-01
-2.432416379451751709e-01,1.731771469116210938e+00,2.147217243909835815e-01
-2.435318380594253540e-01,1.733837485313415527e+00,2.773080766201019287e-01
-2.438008636236190796e-01,1.735752940177917480e+00,3.407075703144073486e-01
-2.440323084592819214e-01,1.737400650978088379e+00,4.050472676753997803e-01
-2.605276405811309814e-01,1.679918289184570312e+00,-4.555129408836364746e-01
-2.608462274074554443e-01,1.681972503662109375e+00,-3.929552733898162842e-01
-2.611365914344787598e-01,1.683844685554504395e+00,-3.312183618545532227e-01
-2.614154219627380371e-01,1.685642719268798828e+00,-2.701706588268280029e-01
-2.617332339286804199e-01,1.687691926956176758e+00,-2.096993476152420044e-01
-2.620352506637573242e-01,1.689639568328857422e+00,-1.495911777019500732e-01
-2.623283565044403076e-01,1.691529393196105957e+00,-8.970887959003448486e-02
-2.626223862171173096e-01,1.693425536155700684e+00,-2.991215512156486511e-02
-2.629204988479614258e-01,1.695347785949707031e+00,2.994610741734504700e-02
-2.632119953632354736e-01,1.697227358818054199e+00,9.001106768846511841e-02
-2.634914815425872803e-01,1.699029564857482910e+00,1.504225134849548340e-01
-2.638136148452758789e-01,1.701106667518615723e+00,2.113661468029022217e-01
-2.641314864158630371e-01,1.703156352043151855e+00,2.729776799678802490e-01
-2.644298672676086426e-01,1.705080270767211914e+00,3.353954851627349854e-01
-2.646906375885009766e-01,1.706761837005615234e+00,3.987467288970947266e-01
-2.797039747238159180e-01,1.647509217262268066e+00,-4.477648437023162842e-01
-2.800381779670715332e-01,1.649477720260620117e+00,-3.862604498863220215e-01
-2.803459167480468750e-01,1.651290416717529297e+00,-3.255707919597625732e-01
-2.807001173496246338e-01,1.653376698493957520e+00,-2.656158804893493652e-01
-2.810304164886474609e-01,1.655322074890136719e+00,-2.061560153961181641e-01
-2.813473641872406006e-01,1.657189011573791504e+00,-1.470596641302108765e-01
-2.816584408283233643e-01,1.659021496772766113e+00,-8.818962424993515015e-02
-2.819745242595672607e-01,1.660883188247680664e+00,-2.940561622381210327e-02
-2.822988033294677734e-01,1.662793278694152832e+00,2.943943254649639130e-02
-2.826197147369384766e-01,1.664683580398559570e+00,8.849060535430908203e-02
-2.829315066337585449e-01,1.666519999504089355e+00,1.478876918554306030e-01
-2.832251191139221191e-01,1.668249368667602539e+00,2.077659815549850464e-01
-2.835710048675537109e-01,1.670286774635314941e+00,2.683324813842773438e-01
-2.838999629020690918e-01,1.672224402427673340e+00,3.296981453895568848e-01
-2.843037545680999756e-01,1.674602866172790527e+00,3.921440541744232178e-01
-3.051118552684783936e-01,1.653402566909790039e+00,-4.505073428153991699e-01
-3.055703639984130859e-01,1.655887126922607422e+00,-3.887457549571990967e-01
-3.058958053588867188e-01,1.657650828361511230e+00,-3.276545107364654541e-01
-3.062759935855865479e-01,1.659711003303527832e+00,-2.673103809356689453e-01
-3.065902888774871826e-01,1.661414146423339844e+00,-2.074400037527084351e-01
-3.069542348384857178e-01,1.663386464118957520e+00,-1.479843407869338989e-01
-3.073160052299499512e-01,1.665346860885620117e+00,-8.875060081481933594e-02
-3.076724410057067871e-01,1.667278409004211426e+00,-2.959378063678741455e-02
-3.080227375030517578e-01,1.669176578521728516e+00,2.962747216224670410e-02
-3.083735704421997070e-01,1.671077728271484375e+00,8.905601501464843750e-02
-3.087772727012634277e-01,1.673265457153320312e+00,1.488632410764694214e-01
-3.091229498386383057e-01,1.675138711929321289e+00,2.091536223888397217e-01
-3.095307648181915283e-01,1.677348613739013672e+00,2.701510787010192871e-01
-3.098161220550537109e-01,1.678894996643066406e+00,3.318536877632141113e-01
-3.102799355983734131e-01,1.681408286094665527e+00,3.947372436523437500e-01
-3.330607712268829346e-01,1.670517325401306152e+00,-4.564228653907775879e-01
-3.334378004074096680e-01,1.672408342361450195e+00,-3.937045037746429443e-01
-3.337912261486053467e-01,1.674181103706359863e+00,-3.318322896957397461e-01
-3.342083990573883057e-01,1.676273465156555176e+00,-2.707206308841705322e-01
-3.346051275730133057e-01,1.678263425827026367e+00,-2.101202160120010376e-01
-3.349942862987518311e-01,1.680215358734130859e+00,-1.498927772045135498e-01
-3.353849351406097412e-01,1.682174563407897949e+00,-8.989401906728744507e-02
-3.357736468315124512e-01,1.684124231338500977e+00,-2.997502498328685760e-02
-3.361593186855316162e-01,1.686058640480041504e+00,3.000945411622524261e-02
-3.365494906902313232e-01,1.688015699386596680e+00,9.020616114139556885e-02
-3.369371294975280762e-01,1.689959764480590820e+00,1.507620811462402344e-01
-3.373111784458160400e-01,1.691835999488830566e+00,2.118195146322250366e-01
-3.377571702003479004e-01,1.694072961807250977e+00,2.735952734947204590e-01
-3.381910026073455811e-01,1.696248769760131836e+00,3.362062573432922363e-01
-3.385888338088989258e-01,1.698244214057922363e+00,3.997865617275238037e-01
-3.616632223129272461e-01,1.687642455101013184e+00,-4.624688327312469482e-01
-3.620672523975372314e-01,1.689527988433837891e+00,-3.989138007164001465e-01
-3.625409007072448730e-01,1.691738128662109375e+00,-3.363062739372253418e-01
-3.629778623580932617e-01,1.693777203559875488e+00,-2.743584811687469482e-01
-3.633963167667388916e-01,1.695729732513427734e+00,-2.129364460706710815e-01
-3.638104796409606934e-01,1.697662353515625000e+00,-1.518982201814651489e-01
-3.642303347587585449e-01,1.699621558189392090e+00,-9.109563380479812622e-02
-3.646519780158996582e-01,1.701589107513427734e+00,-3.037566132843494415e-02
-3.650744557380676270e-01,1.703560590744018555e+00,3.041085600852966309e-02
-3.655059337615966797e-01,1.705573916435241699e+00,9.141466766595840454e-02
-3.659385442733764648e-01,1.707592606544494629e+00,1.527867317199707031e-01
-3.663603067398071289e-01,1.709560751914978027e+00,2.146732360124588013e-01
-3.667550086975097656e-01,1.711402654647827148e+00,2.772134542465209961e-01
-3.672306239604949951e-01,1.713621973991394043e+00,3.406566381454467773e-01
-3.676713705062866211e-01,1.715678572654724121e+00,4.050882160663604736e-01
-3.916994929313659668e-01,1.708108425140380859e+00,-4.695654511451721191e-01
-3.922494649887084961e-01,1.710506677627563477e+00,-4.051511883735656738e-01
-3.927396237850189209e-01,1.712644100189208984e+00,-3.415447771549224854e-01
-3.931159079074859619e-01,1.714285016059875488e+00,-2.785632312297821045e-01
-3.936328291893005371e-01,1.716539144515991211e+00,-2.162348777055740356e-01
-3.940715193748474121e-01,1.718452215194702148e+00,-1.542472839355468750e-01
-3.945210278034210205e-01,1.720412492752075195e+00,-9.250316768884658813e-02
-3.949772715568542480e-01,1.722401976585388184e+00,-3.084496408700942993e-02
-3.954390585422515869e-01,1.724415779113769531e+00,3.088102675974369049e-02
-3.959153294563293457e-01,1.726492643356323242e+00,9.283009171485900879e-02
-3.963211476802825928e-01,1.728262305259704590e+00,1.551278233528137207e-01
-3.968724310398101807e-01,1.730666279792785645e+00,2.180144935846328735e-01
-3.973221778869628906e-01,1.732627511024475098e+00,2.815438210964202881e-01
-3.977248072624206543e-01,1.734383225440979004e+00,3.458801209926605225e-01
-3.982134163379669189e-01,1.736513972282409668e+00,4.113112986087799072e-01
-4.222075939178466797e-01,1.727290391921997070e+00,-4.764511585235595703e-01
-4.226451516151428223e-01,1.729080438613891602e+00,-4.109413921833038330e-01
-4.231740832328796387e-01,1.731244444847106934e+00,-3.464266061782836914e-01
-4.236691594123840332e-01,1.733269810676574707e+00,-2.826046347618103027e-01
-4.241521060466766357e-01,1.735245466232299805e+00,-2.193336635828018188e-01
-4.246767461299896240e-01,1.737391829490661621e+00,-1.564768701791763306e-01
-4.251562058925628662e-01,1.739353418350219727e+00,-9.383917599916458130e-02
-4.256473779678344727e-01,1.741362810134887695e+00,-3.129041567444801331e-02
-4.261488914489746094e-01,1.743414640426635742e+00,3.132728487253189087e-02
-4.266115427017211914e-01,1.745307326316833496e+00,9.416039288043975830e-02
-4.271198213100433350e-01,1.747386693954467773e+00,1.573770493268966675e-01
-4.276250004768371582e-01,1.749453425407409668e+00,2.211295366287231445e-01
-4.281077682971954346e-01,1.751428604125976562e+00,2.855653762817382812e-01
-4.286952614784240723e-01,1.753831982612609863e+00,3.509464561939239502e-01
-4.292509555816650391e-01,1.756105422973632812e+00,4.173642694950103760e-01
-4.535114169120788574e-01,1.746589541435241699e+00,-4.835156202316284180e-01
-4.541183710098266602e-01,1.748927116394042969e+00,-4.171603322029113770e-01
-4.546644687652587891e-01,1.751030325889587402e+00,-3.516520261764526367e-01
-4.551781713962554932e-01,1.753008723258972168e+00,-2.868559062480926514e-01
-4.556830227375030518e-01,1.754953026771545410e+00,-2.226262986660003662e-01
-4.562374651432037354e-01,1.757088303565979004e+00,-1.588227003812789917e-01
-4.567474424839019775e-01,1.759052395820617676e+00,-9.524489939212799072e-02
-4.572745263576507568e-01,1.761082410812377930e+00,-3.175911307334899902e-02
-4.578172862529754639e-01,1.763172745704650879e+00,3.179680928587913513e-02
-4.583224058151245117e-01,1.765118002891540527e+00,9.557332843542098999e-02
-4.588814079761505127e-01,1.767270922660827637e+00,1.597431004047393799e-01
-4.594413340091705322e-01,1.769427299499511719e+00,2.244624495506286621e-01
-4.599812924861907959e-01,1.771506786346435547e+00,2.898828685283660889e-01
-4.604752957820892334e-01,1.773409366607666016e+00,3.561463057994842529e-01
-4.610787630081176758e-01,1.775733470916748047e+00,4.235542714595794678e-01
-4.859930276870727539e-01,1.767306089401245117e+00,-4.911260604858398438e-01
-4.864657819271087646e-01,1.769025206565856934e+00,-4.235716462135314941e-01
-4.870540201663970947e-01,1.771164298057556152e+00,-3.570589125156402588e-01
-4.877106249332427979e-01,1.773552060127258301e+00,-2.913300096988677979e-01
-4.882371127605438232e-01,1.775466561317443848e+00,-2.260919213294982910e-01
-4.888216853141784668e-01,1.777592301368713379e+00,-1.612919718027114868e-01
-4.893626570701599121e-01,1.779559612274169922e+00,-9.672462940216064453e-02
-4.899267852306365967e-01,1.781611084938049316e+00,-3.225248306989669800e-02
-4.905124008655548096e-01,1.783740639686584473e+00,3.229103609919548035e-02
-4.910618364810943604e-01,1.785738706588745117e+00,9.706048667430877686e-02
-4.916740059852600098e-01,1.787964820861816406e+00,1.622331291437149048e-01
-4.921684861183166504e-01,1.789762973785400391e+00,2.279124557971954346e-01
-4.927422702312469482e-01,1.791849493980407715e+00,2.943356335163116455e-01
-4.934471249580383301e-01,1.794412732124328613e+00,3.617456853389739990e-01
-4.939236640930175781e-01,1.796145677566528320e+00,4.300653040409088135e-01
-5.193843841552734375e-01,1.788221001625061035e+00,-4.989530146121978760e-01
-5.200506448745727539e-01,1.790514707565307617e+00,-4.304552674293518066e-01
-5.206561088562011719e-01,1.792599439620971680e+00,-3.628453612327575684e-01
-5.212341547012329102e-01,1.794589519500732422e+00,-2.959809005260467529e-01
-5.218876600265502930e-01,1.796839475631713867e+00,-2.297413200139999390e-01
-5.224559903144836426e-01,1.798796176910400391e+00,-1.638776808977127075e-01
-5.230754017829895020e-01,1.800928950309753418e+00,-9.828299283981323242e-02
-5.236777067184448242e-01,1.803002595901489258e+00,-3.277206793427467346e-02
-5.242642760276794434e-01,1.805022239685058594e+00,3.280878067016601562e-02
-5.249035358428955078e-01,1.807223081588745117e+00,9.862649440765380859e-02
-5.254682898521423340e-01,1.809167623519897461e+00,1.648225486278533936e-01
-5.261170268058776855e-01,1.811401009559631348e+00,2.316031306982040405e-01
-5.267525315284729004e-01,1.813588976860046387e+00,2.991144955158233643e-01
-5.273446440696716309e-01,1.815627694129943848e+00,3.675065636634826660e-01
-5.280725955963134766e-01,1.818134069442749023e+00,4.370951950550079346e-01
-5.541288852691650391e-01,1.810681700706481934e+00,-5.073811411857604980e-01
-5.546387434005737305e-01,1.812347650527954102e+00,-4.375678300857543945e-01
-5.554341673851013184e-01,1.814946889877319336e+00,-3.689402043819427490e-01
-5.560312271118164062e-01,1.816897869110107422e+00,-3.009420037269592285e-01
-5.567140579223632812e-01,1.819128990173339844e+00,-2.335861325263977051e-01
-5.573098659515380859e-01,1.821076035499572754e+00,-1.666171401739120483e-01
-5.579652786254882812e-01,1.823217630386352539e+00,-9.992498159408569336e-02
-5.586069822311401367e-01,1.825314402580261230e+00,-3.331953659653663635e-02
-5.592364668846130371e-01,1.827371478080749512e+00,3.335708379745483398e-02
-5.599272251129150391e-01,1.829628467559814453e+00,1.002763360738754272e-01
-5.605426430702209473e-01,1.831639289855957031e+00,1.675836145877838135e-01
-5.612526535987854004e-01,1.833959460258483887e+00,2.354904413223266602e-01
-5.617812871932983398e-01,1.835686922073364258e+00,3.040541410446166992e-01
-5.626111626625061035e-01,1.838398456573486328e+00,3.737074136734008789e-01
-5.631886124610900879e-01,1.840285539627075195e+00,4.443130493164062500e-01
-5.899195075035095215e-01,1.833436489105224609e+00,-5.160706043243408203e-01
-5.906496644020080566e-01,1.835705876350402832e+00,-4.452029168605804443e-01
-5.913204550743103027e-01,1.837790489196777344e+00,-3.752658963203430176e-01
-5.920898914337158203e-01,1.840181946754455566e+00,-3.061710298061370850e-01
-5.927151441574096680e-01,1.842125177383422852e+00,-2.376039922237396240e-01
-5.934262871742248535e-01,1.844335317611694336e+00,-1.695050001144409180e-01
-5.941187143325805664e-01,1.846487283706665039e+00,-1.016559824347496033e-01
-5.948010683059692383e-01,1.848608136177062988e+00,-3.389668092131614685e-02
-5.954751372337341309e-01,1.850703120231628418e+00,3.393509611487388611e-02
-5.961357355117797852e-01,1.852756261825561523e+00,1.020011082291603088e-01
-5.968877077102661133e-01,1.855093359947204590e+00,1.704937219619750977e-01
-5.975109934806823730e-01,1.857030391693115234e+00,2.395265251398086548e-01
-5.982463955879211426e-01,1.859315872192382812e+00,3.093545734882354736e-01
-5.989421606063842773e-01,1.861478447914123535e+00,3.801028430461883545e-01
-5.998031497001647949e-01,1.864154338836669922e+00,4.521023631095886230e-01
-6.272667050361633301e-01,1.857882380485534668e+00,-5.254249572753906250e-01
-6.280151009559631348e-01,1.860099077224731445e+00,-4.532525241374969482e-01
-6.287041902542114258e-01,1.862140059471130371e+00,-3.820363283157348633e-01
-6.295033693313598633e-01,1.864507198333740234e+00,-3.116855323314666748e-01
-6.301527619361877441e-01,1.866430521011352539e+00,-2.418776005506515503e-01
-6.308987140655517578e-01,1.868639945983886719e+00,-1.725509911775588989e-01
-6.316292881965637207e-01,1.870803833007812500e+00,-1.034818291664123535e-01
-6.323538422584533691e-01,1.872949838638305664e+00,-3.450544923543930054e-02
-6.330741643905639648e-01,1.875083327293395996e+00,3.454475477337837219e-02
-6.337847113609313965e-01,1.877187848091125488e+00,1.038349494338035583e-01
-6.345975995063781738e-01,1.879595637321472168e+00,1.735626459121704102e-01
-6.352773904800415039e-01,1.881609082221984863e+00,2.438446432352066040e-01
-6.360815763473510742e-01,1.883991003036499023e+00,3.149425983428955078e-01
-6.368478536605834961e-01,1.886260628700256348e+00,3.869848847389221191e-01
-6.375319957733154297e-01,1.888286828994750977e+00,4.601210653781890869e-01
-6.658237576484680176e-01,1.882735252380371094e+00,-5.350940227508544922e-01
-6.666255593299865723e-01,1.885002493858337402e+00,-4.615985155105590820e-01
-6.675434112548828125e-01,1.887597918510437012e+00,-3.891796767711639404e-01
-6.682360172271728516e-01,1.889556407928466797e+00,-3.174393475055694580e-01
-6.690471768379211426e-01,1.891850113868713379e+00,-2.463876157999038696e-01
-6.698290109634399414e-01,1.894060850143432617e+00,-1.757656931877136230e-01
-6.705990433692932129e-01,1.896238327026367188e+00,-1.054088473320007324e-01
-6.713671684265136719e-01,1.898410201072692871e+00,-3.514794632792472839e-02
-6.721354722976684570e-01,1.900582790374755859e+00,3.518816828727722168e-02
-6.728980541229248047e-01,1.902739167213439941e+00,1.057702228426933289e-01
-6.736408472061157227e-01,1.904839515686035156e+00,1.767659336328506470e-01
-6.745131015777587891e-01,1.907306075096130371e+00,2.484005391597747803e-01
-6.751809120178222656e-01,1.909194469451904297e+00,3.207384645938873291e-01
-6.759844422340393066e-01,1.911466360092163086e+00,3.941008150577545166e-01
-6.769852638244628906e-01,1.914296507835388184e+00,4.687720239162445068e-01
-7.046412825584411621e-01,1.905298113822937012e+00,-5.443173646926879883e-01
-7.054651379585266113e-01,1.907525897026062012e+00,-4.695386588573455811e-01
-7.064163684844970703e-01,1.910097956657409668e+00,-3.958628177642822266e-01
-7.071317434310913086e-01,1.912032246589660645e+00,-3.228825330734252930e-01
-7.079774141311645508e-01,1.914318799972534180e+00,-2.506079375743865967e-01
-7.087955474853515625e-01,1.916531085968017578e+00,-1.787740439176559448e-01
-7.096052765846252441e-01,1.918720483779907227e+00,-1.072122231125831604e-01
-7.104170322418212891e-01,1.920915484428405762e+00,-3.574921935796737671e-02
-7.112331986427307129e-01,1.923122167587280273e+00,3.579028695821762085e-02
-7.120470404624938965e-01,1.925322890281677246e+00,1.075811386108398438e-01
-7.128440737724304199e-01,1.927477955818176270e+00,1.797951757907867432e-01
-7.137825489044189453e-01,1.930015444755554199e+00,2.526628375053405762e-01
-7.145075798034667969e-01,1.931975841522216797e+00,3.262503743171691895e-01
-7.153807282447814941e-01,1.934336781501770020e+00,4.008862674236297607e-01
-7.161706686019897461e-01,1.936472773551940918e+00,4.766639173030853271e-01
-7.465265989303588867e-01,1.933053612709045410e+00,-5.552424788475036621e-01
-7.473722100257873535e-01,1.935243129730224609e+00,-4.789454042911529541e-01
-7.481611967086791992e-01,1.937286138534545898e+00,-4.036755263805389404e-01
-7.490958571434020996e-01,1.939706325531005859e+00,-3.293327093124389648e-01
-7.499772310256958008e-01,1.941988587379455566e+00,-2.556093931198120117e-01
-7.508338689804077148e-01,1.944206714630126953e+00,-1.823394298553466797e-01
-7.516857385635375977e-01,1.946412563323974609e+00,-1.093495637178421021e-01
-7.525444626808166504e-01,1.948636174201965332e+00,-3.646184131503105164e-02
-7.534121870994567871e-01,1.950883030891418457e+00,3.650388494133949280e-02
-7.542818784713745117e-01,1.953135013580322266e+00,1.097272336483001709e-01
-7.551381587982177734e-01,1.955352187156677246e+00,1.833847314119338989e-01
-7.559564113616943359e-01,1.957471013069152832e+00,2.576472163200378418e-01
-7.569374442100524902e-01,1.960011363029479980e+00,3.327802121639251709e-01
-7.578874826431274414e-01,1.962471246719360352e+00,4.089233875274658203e-01
-7.587529420852661133e-01,1.964712381362915039e+00,4.862385988235473633e-01
-7.899196147918701172e-01,1.961412549018859863e+00,-5.665777921676635742e-01
-7.910813689231872559e-01,1.964297175407409668e+00,-4.888881146907806396e-01
-7.918934822082519531e-01,1.966313719749450684e+00,-4.120436608791351318e-01
-7.928647994995117188e-01,1.968725562095642090e+00,-3.361521363258361816e-01
-7.937835454940795898e-01,1.971006751060485840e+00,-2.608976066112518311e-01
-7.946800589561462402e-01,1.973232865333557129e+00,-1.861094087362289429e-01
-7.955760955810546875e-01,1.975457787513732910e+00,-1.116096377372741699e-01
-7.964835166931152344e-01,1.977710962295532227e+00,-3.721538186073303223e-02
-7.974047660827636719e-01,1.979998469352722168e+00,3.725842759013175964e-02
-7.983325719833374023e-01,1.982302308082580566e+00,1.119963377714157104e-01
-7.992502450942993164e-01,1.984580874443054199e+00,1.871797144412994385e-01
-8.001315593719482422e-01,1.986769318580627441e+00,2.629840373992919922e-01
-8.011901974678039551e-01,1.989398002624511719e+00,3.396818637847900391e-01
-8.019281029701232910e-01,1.991230249404907227e+00,4.172649681568145752e-01
-8.031633496284484863e-01,1.994297385215759277e+00,4.963547587394714355e-01
-8.335226774215698242e-01,1.987125992774963379e+00,-5.773925781250000000e-01
-8.344610333442687988e-01,1.989363074302673340e+00,-4.980483651161193848e-01
-8.355638384819030762e-01,1.991992235183715820e+00,-4.198878109455108643e-01
-8.365732431411743164e-01,1.994398593902587891e+00,-3.425451815128326416e-01
-8.375301361083984375e-01,1.996679782867431641e+00,-2.658554613590240479e-01
-8.384674787521362305e-01,1.998914480209350586e+00,-1.896441280841827393e-01
-8.394078016281127930e-01,2.001156091690063477e+00,-1.137287169694900513e-01
-8.403638601303100586e-01,2.003435373306274414e+00,-3.792190924286842346e-02
-8.413380384445190430e-01,2.005757808685302734e+00,3.796587139368057251e-02
-8.423230051994323730e-01,2.008105993270874023e+00,1.141236871480941772e-01
-8.433007597923278809e-01,2.010437011718750000e+00,1.907373070716857910e-01
-8.442437648773193359e-01,2.012685298919677734e+00,2.679865658283233643e-01
-8.451151847839355469e-01,2.014762639999389648e+00,3.460427820682525635e-01
-8.461756706237792969e-01,2.017290830612182617e+00,4.252204895019531250e-01
-8.471507430076599121e-01,2.019615411758422852e+00,5.056222081184387207e-01
-8.810387849807739258e-01,2.018902301788330078e+00,-5.902295708656311035e-01
-8.820059895515441895e-01,2.021118640899658203e+00,-5.091070532798767090e-01
-8.831514120101928711e-01,2.023743391036987305e+00,-4.292011857032775879e-01
-8.842011690139770508e-01,2.026148796081542969e+00,-3.501362502574920654e-01
-8.851993680000305176e-01,2.028436422348022461e+00,-2.717429995536804199e-01
-8.861804008483886719e-01,2.030684471130371094e+00,-1.938418000936508179e-01
-8.871684670448303223e-01,2.032948493957519531e+00,-1.162452846765518188e-01
-8.881772756576538086e-01,2.035260200500488281e+00,-3.876096755266189575e-02
-8.892091512680053711e-01,2.037624835968017578e+00,3.880600258708000183e-02
-8.902563452720642090e-01,2.040024518966674805e+00,1.166498884558677673e-01
-8.912997245788574219e-01,2.042415142059326172e+00,1.949615776538848877e-01
-8.923100233078002930e-01,2.044730186462402344e+00,2.739258408546447754e-01
-8.932480216026306152e-01,2.046879768371582031e+00,3.537187278270721436e-01
-8.943902850151062012e-01,2.049497365951538086e+00,4.346631467342376709e-01
-8.954454660415649414e-01,2.051915168762207031e+00,5.168644785881042480e-01
-9.284142255783081055e-01,2.047033071517944336e+00,-6.022769212722778320e-01
-9.294126629829406738e-01,2.049234628677368164e+00,-5.194870233535766602e-01
-9.306026101112365723e-01,2.051858186721801758e+00,-4.379439651966094971e-01
-9.315009117126464844e-01,2.053838729858398438e+00,-3.571887612342834473e-01
-9.327349066734313965e-01,2.056559562683105469e+00,-2.772707343101501465e-01
-9.337604641914367676e-01,2.058820724487304688e+00,-1.977831423282623291e-01
-9.347965121269226074e-01,2.061105251312255859e+00,-1.186082363128662109e-01
-9.358577132225036621e-01,2.063445091247558594e+00,-3.954879939556121826e-02
-9.369468092918395996e-01,2.065846443176269531e+00,3.959482535719871521e-02
-9.380549788475036621e-01,2.068289756774902344e+00,1.190216764807701111e-01
-9.389747977256774902e-01,2.070317745208740234e+00,1.988876163959503174e-01
-9.402379989624023438e-01,2.073102951049804688e+00,2.795011401176452637e-01
-9.412403702735900879e-01,2.075313091278076172e+00,3.609234094619750977e-01
-9.424613714218139648e-01,2.078005313873291016e+00,4.435247182846069336e-01
-9.435933828353881836e-01,2.080501079559326172e+00,5.274131894111633301e-01
-9.803887009620666504e-01,2.081894159317016602e+00,-6.165993213653564453e-01
-9.814212918281555176e-01,2.084086894989013672e+00,-5.318288207054138184e-01
-9.826598167419433594e-01,2.086716890335083008e+00,-4.483402669429779053e-01
-9.835924506187438965e-01,2.088697433471679688e+00,-3.656621277332305908e-01
-9.847357273101806641e-01,2.091125249862670898e+00,-2.838021814823150635e-01
-9.859580993652343750e-01,2.093720912933349609e+00,-2.024708688259124756e-01
-9.870467782020568848e-01,2.096032857894897461e+00,-1.214187592267990112e-01
-9.881650805473327637e-01,2.098407745361328125e+00,-4.048585146665573120e-02
-9.893162846565246582e-01,2.100852251052856445e+00,4.053301736712455750e-02
-9.903499484062194824e-01,2.103047132492065430e+00,1.218250915408134460e-01
-9.914698004722595215e-01,2.105425357818603516e+00,2.036027163267135620e-01
-9.928151965141296387e-01,2.108282327651977539e+00,2.861306965351104736e-01
-9.938874244689941406e-01,2.110559225082397461e+00,3.694894313812255859e-01
-9.951944351196289062e-01,2.113334655761718750e+00,4.540592133998870850e-01
-9.964100718498229980e-01,2.115916252136230469e+00,5.399511456489562988e-01
-1.034592866897583008e+00,2.117818593978881836e+00,-6.315603256225585938e-01
-1.036050796508789062e+00,2.120803117752075195e+00,-5.449267029762268066e-01
-1.037066578865051270e+00,2.122882366180419922e+00,-4.592528343200683594e-01
-1.038311958312988281e+00,2.125431776046752930e+00,-3.746565580368041992e-01
-1.039507865905761719e+00,2.127879619598388672e+00,-2.907799482345581055e-01
-1.040790438652038574e+00,2.130505084991455078e+00,-2.074474096298217773e-01
-1.041934251785278320e+00,2.132846593856811523e+00,-1.244024783372879028e-01
-1.043112516403198242e+00,2.135258436203002930e+00,-4.148065298795700073e-02
-1.044328331947326660e+00,2.137747049331665039e+00,4.152899980545043945e-02
-1.045422792434692383e+00,2.139987707138061523e+00,1.248189955949783325e-01
-1.046611309051513672e+00,2.142420530319213867e+00,2.086076140403747559e-01
-1.047772049903869629e+00,2.144796609878540039e+00,2.930917143821716309e-01
-1.049185156822204590e+00,2.147689104080200195e+00,3.785799145698547363e-01
-1.050195217132568359e+00,2.149756908416748047e+00,4.650667309761047363e-01
-1.051440834999084473e+00,2.152306795120239258e+00,5.530213117599487305e-01
-1.088897228240966797e+00,2.150388479232788086e+00,-6.458548307418823242e-01
-1.090416789054870605e+00,2.153389453887939453e+00,-5.572527050971984863e-01
-1.091472387313842773e+00,2.155473947525024414e+00,-4.696351587772369385e-01
-1.092772126197814941e+00,2.158040761947631836e+00,-3.831225335597991943e-01
-1.094021916389465332e+00,2.160508632659912109e+00,-2.973482012748718262e-01
-1.095365285873413086e+00,2.163161754608154297e+00,-2.121320664882659912e-01
-1.096564412117004395e+00,2.165529727935791016e+00,-1.272112429141998291e-01
-1.097802162170410156e+00,2.167973995208740234e+00,-4.241711273789405823e-02
-1.099081635475158691e+00,2.170500993728637695e+00,4.246655479073524475e-02
-1.100235700607299805e+00,2.172779798507690430e+00,1.276371330022811890e-01
-1.101490855216979980e+00,2.175258636474609375e+00,2.133183777332305908e-01
-1.102718949317932129e+00,2.177684068679809570e+00,2.997120320796966553e-01
-1.104215025901794434e+00,2.180638313293457031e+00,3.871343731880187988e-01
-1.105288505554199219e+00,2.182758569717407227e+00,4.755799174308776855e-01
-1.106612205505371094e+00,2.185372352600097656e+00,5.655292868614196777e-01
-1.149101853370666504e+00,2.190905332565307617e+00,-6.628957986831665039e-01
-1.150691390037536621e+00,2.193935871124267578e+00,-5.719489455223083496e-01
-1.151792049407958984e+00,2.196034193038940430e+00,-4.820150732994079590e-01
-1.153152942657470703e+00,2.198629140853881836e+00,-3.932183086872100830e-01
-1.154462575912475586e+00,2.201126098632812500e+00,-3.051812946796417236e-01
-1.155873656272888184e+00,2.203816413879394531e+00,-2.177190631628036499e-01
-1.157134175300598145e+00,2.206219673156738281e+00,-1.305610984563827515e-01
-1.158437371253967285e+00,2.208704471588134766e+00,-4.353397712111473083e-02
-1.159786939620971680e+00,2.211277484893798828e+00,4.358468949794769287e-02
-1.161005735397338867e+00,2.213601350784301758e+00,1.309979259967803955e-01
-1.162333607673645020e+00,2.216133117675781250e+00,2.189358472824096680e-01
-1.163634538650512695e+00,2.218613624572753906e+00,3.076058924198150635e-01
-1.165220618247985840e+00,2.221637487411499023e+00,3.973332941532135010e-01
-1.166362285614013672e+00,2.223814249038696289e+00,4.881125986576080322e-01
-1.167769670486450195e+00,2.226497650146484375e+00,5.804376602172851562e-01
-1.208948731422424316e+00,2.226932525634765625e+00,-6.789625883102416992e-01
-1.210610747337341309e+00,2.229994058609008789e+00,-5.858064889907836914e-01
-1.211758971214294434e+00,2.232109069824218750e+00,-4.936896860599517822e-01
-1.213182806968688965e+00,2.234731912612915039e+00,-4.027395844459533691e-01
-1.214553952217102051e+00,2.237257719039916992e+00,-3.125691711902618408e-01
-1.216033220291137695e+00,2.239982366561889648e+00,-2.229886651039123535e-01
-1.217355132102966309e+00,2.242417573928833008e+00,-1.337206959724426270e-01
-1.218723416328430176e+00,2.244937896728515625e+00,-4.458740353584289551e-02
-1.220141649246215820e+00,2.247550249099731445e+00,4.463928937911987305e-02
-1.221423864364624023e+00,2.249912261962890625e+00,1.341676265001296997e-01
-1.222821831703186035e+00,2.252487421035766602e+00,2.242335230112075806e-01
-1.224192976951599121e+00,2.255012989044189453e+00,3.150497674942016602e-01
-1.225865364074707031e+00,2.258093595504760742e+00,4.069497883319854736e-01
-1.227071166038513184e+00,2.260314702987670898e+00,4.999280869960784912e-01
-1.228557825088500977e+00,2.263053417205810547e+00,5.944909453392028809e-01
-1.271762371063232422e+00,2.264722824096679688e+00,-6.959630846977233887e-01
-1.273093461990356445e+00,2.267093181610107422e+00,-6.002776026725769043e-01
-1.274703741073608398e+00,2.269960641860961914e+00,-5.060451626777648926e-01
-1.276194930076599121e+00,2.272616386413574219e+00,-4.128167629241943359e-01
-1.277631878852844238e+00,2.275175094604492188e+00,-3.203887641429901123e-01
-1.279183387756347656e+00,2.277938127517700195e+00,-2.285664081573486328e-01
-1.280570149421691895e+00,2.280407428741455078e+00,-1.370651125907897949e-01
-1.282006144523620605e+00,2.282964706420898438e+00,-4.570243880152702332e-02
-1.283495783805847168e+00,2.285617589950561523e+00,4.575554281473159790e-02
-1.284843206405639648e+00,2.288017034530639648e+00,1.375224888324737549e-01
-1.286313176155090332e+00,2.290634632110595703e+00,2.298403531312942505e-01
-1.287755608558654785e+00,2.293203115463256836e+00,3.229274749755859375e-01
-1.289113044738769531e+00,2.295620441436767578e+00,4.169954359531402588e-01
-1.290785670280456543e+00,2.298599004745483398e+00,5.124295949935913086e-01
-1.292351841926574707e+00,2.301388025283813477e+00,6.093581914901733398e-01
-1.342142462730407715e+00,2.311914682388305664e+00,-7.162955999374389648e-01
-1.343541383743286133e+00,2.314324378967285156e+00,-6.178120374679565430e-01
-1.345235586166381836e+00,2.317242860794067383e+00,-5.208250284194946289e-01
-1.346804618835449219e+00,2.319945573806762695e+00,-4.248722195625305176e-01
-1.348316431045532227e+00,2.322549819946289062e+00,-3.297439515590667725e-01
-1.349949598312377930e+00,2.325362920761108398e+00,-2.352396845817565918e-01
-1.351408839225769043e+00,2.327876567840576172e+00,-1.410664469003677368e-01
-1.352920532226562500e+00,2.330480575561523438e+00,-4.703649878501892090e-02
-1.354488968849182129e+00,2.333182334899902344e+00,4.709102958440780640e-02
-1.355907678604125977e+00,2.335626125335693359e+00,1.415360718965530396e-01
-1.357455611228942871e+00,2.338292598724365234e+00,2.365476638078689575e-01
-1.358974933624267578e+00,2.340909481048583984e+00,3.323505818843841553e-01
-1.360404729843139648e+00,2.343372583389282227e+00,4.291626214981079102e-01
-1.362167358398437500e+00,2.346408605575561523e+00,5.273803472518920898e-01
-1.363817811012268066e+00,2.349251747131347656e+00,6.271359324455261230e-01
-1.412020564079284668e+00,2.354032278060913086e+00,-7.355313897132873535e-01
-1.413491010665893555e+00,2.356483697891235352e+00,-6.344025135040283203e-01
-1.415271639823913574e+00,2.359452247619628906e+00,-5.348103642463684082e-01
-1.416920304298400879e+00,2.362200975418090820e+00,-4.362803995609283447e-01
-1.418508052825927734e+00,2.364847898483276367e+00,-3.385971784591674805e-01
-1.420223593711853027e+00,2.367707967758178711e+00,-2.415551245212554932e-01
-1.421755313873291016e+00,2.370261430740356445e+00,-1.448532938957214355e-01
-1.423341751098632812e+00,2.372906208038330078e+00,-4.829902946949005127e-02
-1.424987554550170898e+00,2.375650167465209961e+00,4.835487902164459229e-02
-1.426475644111633301e+00,2.378130912780761719e+00,1.453342139720916748e-01
-1.428099155426025391e+00,2.380837678909301758e+00,2.428946346044540405e-01
-1.429691791534423828e+00,2.383492708206176758e+00,3.412667214870452881e-01
-1.431190133094787598e+00,2.385990858078002930e+00,4.406741857528686523e-01
-1.433037519454956055e+00,2.389070510864257812e+00,5.415238142013549805e-01
-1.434767007827758789e+00,2.391953706741333008e+00,6.439515948295593262e-01
-1.490897417068481445e+00,2.406759738922119141e+00,-7.585964202880859375e-01
-1.492933273315429688e+00,2.410046100616455078e+00,-6.545081734657287598e-01
-1.494334459304809570e+00,2.412308216094970703e+00,-5.515827536582946777e-01
-1.496075510978698730e+00,2.415118694305419922e+00,-4.499627947807312012e-01
-1.497751116752624512e+00,2.417823791503906250e+00,-3.492159247398376465e-01
-1.499560356140136719e+00,2.420744180679321289e+00,-2.491301596164703369e-01
-1.501174092292785645e+00,2.423349380493164062e+00,-1.493954658508300781e-01
-1.502844691276550293e+00,2.426046133041381836e+00,-4.981339722871780396e-02
-1.504575967788696289e+00,2.428840875625610352e+00,4.987078160047531128e-02
-1.506139874458312988e+00,2.431365728378295898e+00,1.498896628618240356e-01
-1.507845282554626465e+00,2.434118747711181641e+00,2.505066096782684326e-01
-1.509516835212707520e+00,2.436817169189453125e+00,3.519591987133026123e-01
-1.511558651924133301e+00,2.440113067626953125e+00,4.546195268630981445e-01
-1.513025164604187012e+00,2.442480564117431641e+00,5.584818124771118164e-01
-1.514837026596069336e+00,2.445405483245849609e+00,6.641108989715576172e-01
-1.569182872772216797e+00,2.453973531723022461e+00,-7.804774045944213867e-01
-1.571331977844238281e+00,2.457334518432617188e+00,-6.733895540237426758e-01
-1.572811841964721680e+00,2.459648847579956055e+00,-5.674967169761657715e-01
-1.574647068977355957e+00,2.462518692016601562e+00,-4.629457294940948486e-01
-1.576411843299865723e+00,2.465278625488281250e+00,-3.592922091484069824e-01
-1.578315496444702148e+00,2.468255519866943359e+00,-2.563184797763824463e-01
-1.580011129379272461e+00,2.470907449722290039e+00,-1.537058055400848389e-01
-1.581764340400695801e+00,2.473649263381958008e+00,-5.125043913722038269e-02
-1.583580017089843750e+00,2.476488590240478516e+00,5.130926892161369324e-02
-1.585217714309692383e+00,2.479049682617187500e+00,1.542122960090637207e-01
-1.587001800537109375e+00,2.481839656829833984e+00,2.577291429042816162e-01
-1.588748574256896973e+00,2.484571456909179688e+00,3.621039688587188721e-01
-1.590882062911987305e+00,2.487907886505126953e+00,4.677188098430633545e-01
-1.592409729957580566e+00,2.490296840667724609e+00,5.745679736137390137e-01
-1.594298005104064941e+00,2.493249893188476562e+00,6.832315325736999512e-01
-1.658228039741516113e+00,2.513235569000244141e+00,-8.067916035652160645e-01
-1.660511374473571777e+00,2.516696214675903320e+00,-6.960983872413635254e-01
-1.662085056304931641e+00,2.519081354141235352e+00,-5.866380333900451660e-01
-1.664031267166137695e+00,2.522031068801879883e+00,-4.785625338554382324e-01
-1.665899872779846191e+00,2.524863243103027344e+00,-3.714132308959960938e-01
-1.667911767959594727e+00,2.527912378311157227e+00,-2.649656236171722412e-01
-1.669700980186462402e+00,2.530624151229858398e+00,-1.588909476995468140e-01
-1.671547770500183105e+00,2.533423185348510742e+00,-5.297914892435073853e-02
-1.673457026481628418e+00,2.536316871643066406e+00,5.303966253995895386e-02
-1.675175666809082031e+00,2.538921594619750977e+00,1.594119369983673096e-01
-1.677045464515686035e+00,2.541755437850952148e+00,2.664166390895843506e-01
-1.678872108459472656e+00,2.544523954391479492e+00,3.743053972721099854e-01
-1.681104063987731934e+00,2.547906875610351562e+00,4.834725558757781982e-01
-1.682693719863891602e+00,2.550316095352172852e+00,5.939118862152099609e-01
-1.684660553932189941e+00,2.553297281265258789e+00,7.062219381332397461e-01
-1.746608138084411621e+00,2.566508769989013672e+00,-8.318334817886352539e-01
-1.749028921127319336e+00,2.570065975189208984e+00,-7.177109122276306152e-01
-1.750699996948242188e+00,2.572521209716796875e+00,-6.048566102981567383e-01
-1.752758741378784180e+00,2.575546741485595703e+00,-4.934272766113281250e-01
-1.754732489585876465e+00,2.578446865081787109e+00,-3.829509317874908447e-01
-1.756853342056274414e+00,2.581563234329223633e+00,-2.731969058513641357e-01
-1.758736014366149902e+00,2.584329605102539062e+00,-1.638267785310745239e-01
-1.760675072669982910e+00,2.587178945541381836e+00,-5.462471395730972290e-02
-1.762676119804382324e+00,2.590119361877441406e+00,5.468679592013359070e-02
-1.764473080635070801e+00,2.592759847640991211e+00,1.643611937761306763e-01
-1.766424894332885742e+00,2.595628023147583008e+00,2.746853232383728027e-01
-1.768327832221984863e+00,2.598424196243286133e+00,3.859179913997650146e-01
-1.770652770996093750e+00,2.601840496063232422e+00,4.984646737575531006e-01
-1.772298812866210938e+00,2.604259252548217773e+00,6.123189330101013184e-01
-1.774338006973266602e+00,2.607255697250366211e+00,7.280964851379394531e-01
-1.848631262779235840e+00,2.634552240371704102e+00,-8.623748421669006348e-01
-1.850522994995117188e+00,2.637248277664184570e+00,-7.437927722930908203e-01
-1.852803826332092285e+00,2.640498876571655273e+00,-6.270108819007873535e-01
-1.854503273963928223e+00,2.642920732498168945e+00,-5.113679170608520508e-01
-1.856600403785705566e+00,2.645909309387207031e+00,-3.968766629695892334e-01
-1.858847856521606445e+00,2.649112224578857422e+00,-2.831320166587829590e-01
-1.860837697982788086e+00,2.651948213577270508e+00,-1.697843372821807861e-01
-1.862881660461425781e+00,2.654861211776733398e+00,-5.661090835928916931e-02
-1.864985346794128418e+00,2.657859086990356445e+00,5.667483806610107422e-02
-1.866868972778320312e+00,2.660543441772460938e+00,1.703346371650695801e-01
-1.868909478187561035e+00,2.663451671600341797e+00,2.846645712852478027e-01
-1.871369719505310059e+00,2.666957855224609375e+00,4.000338613986968994e-01
-1.873316764831542969e+00,2.669732570648193359e+00,5.165556073188781738e-01
-1.875700592994689941e+00,2.673129796981811523e+00,6.347593665122985840e-01
-1.877910494804382324e+00,2.676279306411743164e+00,7.548007965087890625e-01
-1.949294924736022949e+00,2.695133686065673828e+00,-8.912467956542968750e-01
-1.951317667961120605e+00,2.697930335998535156e+00,-7.687056064605712891e-01
-1.953744411468505859e+00,2.701285600662231445e+00,-6.480193734169006348e-01
-1.955963730812072754e+00,2.704354047775268555e+00,-5.286172032356262207e-01
-1.958073139190673828e+00,2.707270622253417969e+00,-4.102425277233123779e-01
-1.960149765014648438e+00,2.710141658782958984e+00,-2.926233708858489990e-01
