6.134346485137939453e+00,2.861974716186523438e+00,-1.072123050689697266e+00
6.141895771026611328e+00,2.865496873855590820e+00,-8.321661353111267090e-01
6.149316310882568359e+00,2.868958950042724609e+00,-5.936663746833801270e-01
6.156770229339599609e+00,2.872436523437500000e+00,-3.560512661933898926e-01
6.164351463317871094e+00,2.875973463058471680e+00,-1.187333464622497559e-01
6.172085762023925781e+00,2.879581928253173828e+00,1.188823208212852478e-01
6.179910182952880859e+00,2.883232355117797852e+00,3.573894500732421875e-01
6.187693595886230469e+00,2.886863708496093750e+00,5.973713994026184082e-01
6.195236682891845703e+00,2.890383005142211914e+00,8.393933176994323730e-01
6.202264308929443359e+00,2.893661499023437500e+00,1.083993315696716309e+00
6.210524082183837891e+00,2.897515296936035156e+00,1.332123041152954102e+00
3.614902496337890625e+00,1.749957799911499023e+00,-1.076136231422424316e+00
4.301481723785400391e+00,2.082327604293823242e+00,-1.103317141532897949e+00
5.256691455841064453e+00,2.544740438461303711e+00,-1.135227680206298828e+00
6.163299083709716797e+00,2.983625173568725586e+00,-1.084536075592041016e+00
6.171206951141357422e+00,2.987453222274780273e+00,-8.418449163436889648e-01
6.178878784179687500e+00,2.991167306900024414e+00,-6.005922555923461914e-01
6.186479091644287109e+00,2.994846343994140625e+00,-3.602114915847778320e-01
6.194097995758056641e+00,2.998534679412841797e+00,-1.201206818222999573e-01
6.201760768890380859e+00,3.002244234085083008e+00,1.202692762017250061e-01
6.209403991699218750e+00,3.005944252014160156e+00,3.615462779998779297e-01
6.216901302337646484e+00,3.009573698043823242e+00,6.042880415916442871e-01
6.225519657135009766e+00,3.013745784759521484e+00,8.492540121078491211e-01
6.232362747192382812e+00,3.017058372497558594e+00,1.096688866615295410e+00
6.240326404571533203e+00,3.020913839340209961e+00,1.347652196884155273e+00
3.589883565902709961e+00,1.801714181900024414e+00,-1.076255202293395996e+00
4.266632080078125000e+00,2.141365051269531250e+00,-1.102127194404602051e+00
5.253936767578125000e+00,2.636880159378051758e+00,-1.142666697502136230e+00
6.186504364013671875e+00,3.104923248291015625e+00,-1.096327424049377441e+00
6.193614482879638672e+00,3.108491659164428711e+00,-8.508840203285217285e-01
6.201513767242431641e+00,3.112456321716308594e+00,-6.070604920387268066e-01
6.209244251251220703e+00,3.116336107254028320e+00,-3.640968799591064453e-01
6.216892242431640625e+00,3.120174407958984375e+00,-1.214163750410079956e-01
6.224481105804443359e+00,3.123983144760131836e+00,1.215645894408226013e-01
6.231949806213378906e+00,3.127731800079345703e+00,3.654282987117767334e-01
6.240316390991210938e+00,3.131930589675903320e+00,6.108587980270385742e-01
6.247412681579589844e+00,3.135492324829101562e+00,8.582749366760253906e-01
6.255565166473388672e+00,3.139583826065063477e+00,1.108565807342529297e+00
6.263266563415527344e+00,3.143449306488037109e+00,1.362183451652526855e+00
3.567074298858642578e+00,1.854646921157836914e+00,-1.077265143394470215e+00
4.234597206115722656e+00,2.201715469360351562e+00,-1.101879835128784180e+00
5.205439567565917969e+00,2.706490516662597656e+00,-1.140427589416503906e+00
6.214754581451416016e+00,3.231268882751464844e+00,-1.109416246414184570e+00
6.223047256469726562e+00,3.235580444335937500e+00,-8.612017631530761719e-01
6.230403900146484375e+00,3.239405393600463867e+00,-6.143643856048583984e-01
6.238283634185791016e+00,3.243502378463745117e+00,-3.684842288494110107e-01
6.245967388153076172e+00,3.247497558593750000e+00,-1.228794455528259277e-01
6.253477096557617188e+00,3.251402139663696289e+00,1.230271831154823303e-01
6.261573314666748047e+00,3.255611419677734375e+00,3.698599338531494141e-01
6.268814563751220703e+00,3.259376525878906250e+00,6.181519627571105957e-01
6.276953697204589844e+00,3.263608217239379883e+00,8.686618208885192871e-01
6.284886837005615234e+00,3.267733097076416016e+00,1.121935844421386719e+00
6.292259693145751953e+00,3.271566390991210938e+00,1.378532290458679199e+00
3.522501468658447266e+00,1.896001338958740234e+00,-1.071890115737915039e+00
4.202584266662597656e+00,2.262058734893798828e+00,-1.101861953735351562e+00
5.157289981842041016e+00,2.775933265686035156e+00,-1.138467073440551758e+00
6.243719100952148438e+00,3.360708236694335938e+00,-1.123058915138244629e+00
6.251272678375244141e+00,3.364773988723754883e+00,-8.716835379600524902e-01
6.259382247924804688e+00,3.369139194488525391e+00,-6.219134330749511719e-01
6.266929626464843750e+00,3.373201608657836914e+00,-3.729900717735290527e-01
6.274649620056152344e+00,3.377356767654418945e+00,-1.243820264935493469e-01
6.282570838928222656e+00,3.381620645523071289e+00,1.245390474796295166e-01
6.289975643157958984e+00,3.385606050491333008e+00,3.743616938591003418e-01
6.298041343688964844e+00,3.389947652816772461e+00,6.257544755935668945e-01
6.306068420410156250e+00,3.394268274307250977e+00,8.793243765830993652e-01
6.313769340515136719e+00,3.398413181304931641e+00,1.135658860206604004e+00
3.499705791473388672e+00,1.948838829994201660e+00,-1.073331832885742188e+00
4.170544624328613281e+00,2.322400808334350586e+00,-1.102064251899719238e+00
5.109413623809814453e+00,2.845217227935791016e+00,-1.136771917343139648e+00
6.272192001342773438e+00,3.492719650268554688e+00,-1.137056112289428711e+00
6.279818058013916016e+00,3.496966361999511719e+00,-8.825531601905822754e-01
6.287397861480712891e+00,3.501187086105346680e+00,-6.296116709709167480e-01
6.295101165771484375e+00,3.505476951599121094e+00,-3.776143789291381836e-01
6.302855491638183594e+00,3.509794950485229492e+00,-1.259241104125976562e-01
6.310691833496093750e+00,3.514158725738525391e+00,1.260806620121002197e-01
6.318707466125488281e+00,3.518622159957885742e+00,3.790303766727447510e-01
6.326769351959228516e+00,3.523111581802368164e+00,6.335542798042297363e-01
6.334668636322021484e+00,3.527510166168212891e+00,8.902617096900939941e-01
6.342122554779052734e+00,3.531661272048950195e+00,1.149733543395996094e+00
3.476727724075317383e+00,2.001762390136718750e+00,-1.074961900711059570e+00
4.138424873352050781e+00,2.382741451263427734e+00,-1.102475881576538086e+00
5.061739921569824219e+00,2.914350032806396484e+00,-1.135329842567443848e+00
6.298963546752929688e+00,3.626694440841674805e+00,-1.151202082633972168e+00
6.306989669799804688e+00,3.631315469741821289e+00,-8.935849666595458984e-01
6.314848899841308594e+00,3.635840415954589844e+00,-6.375066041946411133e-01
6.322708606719970703e+00,3.640365839004516602e+00,-3.823568522930145264e-01
6.330498218536376953e+00,3.644850969314575195e+00,-1.275056302547454834e-01
6.338243961334228516e+00,3.649310350418090820e+00,1.276616305112838745e-01
6.346047401428222656e+00,3.653803586959838867e+00,3.837682604789733887e-01
6.353777885437011719e+00,3.658254384994506836e+00,6.414366364479064941e-01
6.362668991088867188e+00,3.663373470306396484e+00,9.014737010002136230e-01
6.369863510131835938e+00,3.667515754699707031e+00,1.164159774780273438e+00
3.453516244888305664e+00,2.054763555526733398e+00,-1.076768279075622559e+00
4.106170177459716797e+00,2.443077802658081055e+00,-1.103085994720458984e+00
5.014197826385498047e+00,2.983333587646484375e+00,-1.134127974510192871e+00
6.326181411743164062e+00,3.763934135437011719e+00,-1.165903210639953613e+00
6.334298610687255859e+00,3.768763542175292969e+00,-9.050043225288391113e-01
6.342122554779052734e+00,3.773418664932250977e+00,-6.456464529037475586e-01
6.349819183349609375e+00,3.777997970581054688e+00,-3.872268497943878174e-01
6.357649326324462891e+00,3.782656669616699219e+00,-1.291297823190689087e-01
6.365628719329833984e+00,3.787404298782348633e+00,1.292918473482131958e-01
6.373535156250000000e+00,3.792108535766601562e+00,3.886731266975402832e-01
6.381240367889404297e+00,3.796692848205566406e+00,6.496287584304809570e-01
6.389980792999267578e+00,3.801893234252929688e+00,9.129598140716552734e-01
6.396901130676269531e+00,3.806010484695434570e+00,1.178936719894409180e+00
3.412170171737670898e+00,2.096860885620117188e+00,-1.073125004768371582e+00
4.076702594757080078e+00,2.505232095718383789e+00,-1.104689717292785645e+00
5.014688014984130859e+00,3.081646680831909180e+00,-1.144098401069641113e+00
6.359993934631347656e+00,3.908369541168212891e+00,-1.182323813438415527e+00
6.367459297180175781e+00,3.912957191467285156e+00,-9.176501035690307617e-01
6.375602245330810547e+00,3.917961120605468750e+00,-6.546967625617980957e-01
6.383481502532958984e+00,3.922803163528442383e+00,-3.926635384559631348e-01
6.391352176666259766e+00,3.927639722824096680e+00,-1.309427320957183838e-01
6.399231910705566406e+00,3.932482242584228516e+00,1.311041712760925293e-01
6.406903266906738281e+00,3.937196493148803711e+00,3.941042721271514893e-01
6.415358543395996094e+00,3.942392349243164062e+00,6.587792634963989258e-01
6.422462463378906250e+00,3.946758031845092773e+00,9.255769848823547363e-01
6.430481433868408203e+00,3.951685667037963867e+00,1.195427298545837402e+00
3.391125917434692383e+00,2.151391029357910156e+00,-1.076081037521362305e+00
4.018449306488037109e+00,2.549376010894775391e+00,-1.098679900169372559e+00
4.970112323760986328e+00,3.153127908706665039e+00,-1.144108176231384277e+00
6.359732627868652344e+00,4.034728050231933594e+00,-1.192888975143432617e+00
6.400798320770263672e+00,4.060781002044677734e+00,-9.307360053062438965e-01
6.408471584320068359e+00,4.065649032592773438e+00,-6.639798283576965332e-01
6.416532039642333984e+00,4.070762634277343750e+00,-3.982398808002471924e-01
6.424444675445556641e+00,4.075782775878906250e+00,-1.328023374080657959e-01
6.432225704193115234e+00,4.080718994140625000e+00,1.329631656408309937e-01
6.440455913543701172e+00,4.085940361022949219e+00,3.997247219085693359e-01
6.448841571807861328e+00,4.091260433197021484e+00,6.681625247001647949e-01
6.455734729766845703e+00,4.095633506774902344e+00,9.387242794036865234e-01
6.465130805969238281e+00,4.101594448089599609e+00,1.212658286094665527e+00
3.350186586380004883e+00,2.193287611007690430e+00,-1.072942018508911133e+00
3.988966941833496094e+00,2.611481904983520508e+00,-1.100726246833801270e+00
4.925513744354248047e+00,3.224617004394531250e+00,-1.144349336624145508e+00
6.358885765075683594e+00,4.163011550903320312e+00,-1.203783512115478516e+00
6.432621002197265625e+00,4.211284160614013672e+00,-9.440316557884216309e-01
6.441097736358642578e+00,4.216834068298339844e+00,-6.735448241233825684e-01
6.448869705200195312e+00,4.221921920776367188e+00,-4.039561152458190918e-01
6.456823348999023438e+00,4.227128982543945312e+00,-1.347085684537887573e-01
6.464980602264404297e+00,4.232469558715820312e+00,1.348787546157836914e-01
6.472479820251464844e+00,4.237379074096679688e+00,4.054350554943084717e-01
6.480469703674316406e+00,4.242609977722167969e+00,6.776619553565979004e-01
6.488255977630615234e+00,4.247707366943359375e+00,9.521964788436889648e-01
6.497275829315185547e+00,4.253612041473388672e+00,1.229981660842895508e+00
3.328709363937377930e+00,2.247937202453613281e+00,-1.076258063316345215e+00
3.959180116653442383e+00,2.673705339431762695e+00,-1.102954149246215820e+00
4.838828086853027344e+00,3.267747402191162109e+00,-1.134960055351257324e+00
6.285243511199951172e+00,4.244537830352783203e+00,-1.201220631599426270e+00
6.464400768280029297e+00,4.365525722503662109e+00,-9.577676057815551758e-01
6.472422122955322266e+00,4.370942592620849609e+00,-6.832926869392395020e-01
6.480381488800048828e+00,4.376317977905273438e+00,-4.098118245601654053e-01
6.488373279571533203e+00,4.381714820861816406e+00,-1.366612613201141357e-01
6.496421813964843750e+00,4.387149810791015625e+00,1.368307918310165405e-01
6.504463672637939453e+00,4.392580986022949219e+00,4.113347232341766357e-01
6.512364387512207031e+00,4.397916316986083984e+00,6.875093579292297363e-01
6.521331787109375000e+00,4.403972148895263672e+00,9.662025570869445801e-01
6.528546333312988281e+00,4.408843994140625000e+00,1.247720003128051758e+00
3.287966012954711914e+00,2.289616346359252930e+00,-1.073570847511291504e+00
3.902044057846069336e+00,2.717237234115600586e+00,-1.097759604454040527e+00
4.794714450836181641e+00,3.338859558105468750e+00,-1.135706186294555664e+00
6.212051391601562500e+00,4.325839519500732422e+00,-1.198943018913269043e+00
6.495233535766601562e+00,4.523036956787109375e+00,-9.718282222747802734e-01
6.502811431884765625e+00,4.528314113616943359e+00,-6.932724714279174805e-01
6.510956764221191406e+00,4.533986091613769531e+00,-4.158067703247070312e-01
6.518987655639648438e+00,4.539578437805175781e+00,-1.386604607105255127e-01
6.526925086975097656e+00,4.545105934143066406e+00,1.388292908668518066e-01
6.535498619079589844e+00,4.551076412200927734e+00,4.173740744590759277e-01
6.543300628662109375e+00,4.556509017944335938e+00,6.975890398025512695e-01
6.552014827728271484e+00,4.562577724456787109e+00,9.803239703178405762e-01
6.560544490814208984e+00,4.568517208099365234e+00,1.266203165054321289e+00
3.249945640563964844e+00,2.332911252975463867e+00,-1.071949839591979980e+00
3.874879837036132812e+00,2.781508207321166992e+00,-1.101205229759216309e+00
4.754071712493896484e+00,3.412619352340698242e+00,-1.137532830238342285e+00
6.144041061401367188e+00,4.410382270812988281e+00,-1.197878003120422363e+00
6.532196044921875000e+00,4.689011573791503906e+00,-9.872995018959045410e-01
6.540617465972900391e+00,4.695056915283203125e+00,-7.043954133987426758e-01
6.548508167266845703e+00,4.700721263885498047e+00,-4.224585294723510742e-01
6.556586742401123047e+00,4.706520080566406250e+00,-1.408786773681640625e-01
6.564881324768066406e+00,4.712474346160888672e+00,1.410568952560424805e-01
6.572693347930908203e+00,4.718081951141357422e+00,4.240187704563140869e-01
6.581150531768798828e+00,4.724152565002441406e+00,7.087605595588684082e-01
6.589558601379394531e+00,4.730188369750976562e+00,9.959695339202880859e-01
6.597620010375976562e+00,4.735974788665771484e+00,1.286310315132141113e+00
3.230104207992553711e+00,2.389453172683715820e+00,-1.076575994491577148e+00
3.821436643600463867e+00,2.826888322830200195e+00,-1.097403883934020996e+00
4.713124752044677734e+00,3.486510276794433594e+00,-1.139559388160705566e+00
6.076251506805419922e+00,4.494876384735107422e+00,-1.197082281112670898e+00
6.568974494934082031e+00,4.859365463256835938e+00,-1.003268241882324219e+00
6.577000617980957031e+00,4.865302562713623047e+00,-7.157402038574218750e-01
6.585104942321777344e+00,4.871297836303710938e+00,-4.292736351490020752e-01
6.593228816986083984e+00,4.877307891845703125e+00,-1.431513279676437378e-01
6.601399421691894531e+00,4.883351325988769531e+00,1.433287113904953003e-01
6.609708309173583984e+00,4.889498233795166016e+00,4.308774769306182861e-01
6.618019104003906250e+00,4.895646095275878906e+00,7.202040553092956543e-01
6.626110553741455078e+00,4.901631355285644531e+00,1.011994600296020508e+00
6.635386943817138672e+00,4.908493995666503906e+00,1.307237505912780762e+00
3.191974878311157227e+00,2.432693481445312500e+00,-1.075363039970397949e+00
3.793717622756958008e+00,2.891298532485961914e+00,-1.101215481758117676e+00
4.671807765960693359e+00,3.560515880584716797e+00,-1.141774773597717285e+00
6.008572578430175781e+00,4.579301834106445312e+00,-1.196539402008056641e+00
6.604660987854003906e+00,5.033597469329833984e+00,-1.019618034362792969e+00
6.612298488616943359e+00,5.039418220520019531e+00,-7.273566722869873047e-01
6.620616912841796875e+00,5.045757770538330078e+00,-4.362519979476928711e-01
6.628785133361816406e+00,5.051982879638671875e+00,-1.454784274101257324e-01
6.636831283569335938e+00,5.058115005493164062e+00,1.456550210714340210e-01
6.645624637603759766e+00,5.064816951751708984e+00,4.378998279571533203e-01
6.653775691986083984e+00,5.071029186248779297e+00,7.319191694259643555e-01
6.661542415618896484e+00,5.076948165893554688e+00,1.028399229049682617e+00
6.670316219329833984e+00,5.083634853363037109e+00,1.328318119049072266e+00
3.156382799148559570e+00,2.477775812149047852e+00,-1.075210213661193848e+00
3.743620157241821289e+00,2.938760042190551758e+00,-1.098770856857299805e+00
4.595894813537597656e+00,3.607799768447875977e+00,-1.135726213455200195e+00
5.945703029632568359e+00,4.667405605316162109e+00,-1.197200775146484375e+00
6.646639347076416016e+00,5.217644214630126953e+00,-1.037521600723266602e+00
6.655161380767822266e+00,5.224334239959716797e+00,-7.402214407920837402e-01
6.663410186767578125e+00,5.230809688568115234e+00,-4.439597725868225098e-01
6.671636581420898438e+00,5.237267494201660156e+00,-1.480488926172256470e-01
6.679861068725585938e+00,5.243723392486572266e+00,1.482313871383666992e-01
6.687866687774658203e+00,5.250008106231689453e+00,4.455892145633697510e-01
6.696600914001464844e+00,5.256864547729492188e+00,7.448306083679199219e-01
6.705370903015136719e+00,5.263748645782470703e+00,1.046689510345458984e+00
3.118345975875854492e+00,2.520875930786132812e+00,-1.074434399604797363e+00
3.715109586715698242e+00,3.003300666809082031e+00,-1.102906942367553711e+00
4.554271221160888672e+00,3.681680440902709961e+00,-1.138346195220947266e+00
5.877918720245361328e+00,4.751718997955322266e+00,-1.197124361991882324e+00
6.679836750030517578e+00,5.399991035461425781e+00,-1.054660797119140625e+00
6.687986373901367188e+00,5.406579494476318359e+00,-7.524027228355407715e-01
6.696448802947998047e+00,5.413420200347900391e+00,-4.512773156166076660e-01
6.704717636108398438e+00,5.420104503631591797e+00,-1.504891365766525269e-01
6.712808132171630859e+00,5.426645278930664062e+00,1.506707370281219482e-01
6.721280574798583984e+00,5.433494091033935547e+00,4.529507458209991455e-01
6.729837417602539062e+00,5.440411567687988281e+00,7.571109533309936523e-01
6.738252639770507812e+00,5.447214603424072266e+00,1.063883900642395020e+00
3.085145950317382812e+00,2.567909479141235352e+00,-1.075549364089965820e+00
3.668041706085205078e+00,3.053080558776855469e+00,-1.101794362068176270e+00
4.519389152526855469e+00,3.761696100234985352e+00,-1.142968297004699707e+00
5.819458961486816406e+00,4.843804359436035156e+00,-1.199215769767761230e+00
6.728510379791259766e+00,5.600450038909912109e+00,-1.074892163276672363e+00
6.736823081970214844e+00,5.607369422912597656e+00,-7.668477296829223633e-01
6.745092391967773438e+00,5.614251613616943359e+00,-4.599237740039825439e-01
6.753421783447265625e+00,5.621184825897216797e+00,-1.533725261688232422e-01
6.761836051940917969e+00,5.628188610076904297e+00,1.535636037588119507e-01
6.770266532897949219e+00,5.635205745697021484e+00,4.616403281688690186e-01
6.778575897216796875e+00,5.642121791839599609e+00,7.716004252433776855e-01
6.786541938781738281e+00,5.648752689361572266e+00,1.084162831306457520e+00
3.049391984939575195e+00,2.612926959991455078e+00,-1.076012969017028809e+00
3.618267059326171875e+00,3.100377798080444336e+00,-1.100060462951660156e+00
4.444753170013427734e+00,3.808567762374877930e+00,-1.137762904167175293e+00
5.755878448486328125e+00,4.932029247283935547e+00,-1.200538158416748047e+00
6.767331600189208984e+00,5.798710823059082031e+00,-1.094241142272949219e+00
6.775323390960693359e+00,5.805559158325195312e+00,-7.806091904640197754e-01
6.783832550048828125e+00,5.812850475311279297e+00,-4.681906402111053467e-01
6.792212009429931641e+00,5.820030212402343750e+00,-1.561293452978134155e-01
6.800480365753173828e+00,5.827115058898925781e+00,1.563194096088409424e-01
6.809340953826904297e+00,5.834707736968994141e+00,4.699511229991912842e-01
6.817423820495605469e+00,5.841633319854736328e+00,7.854596972465515137e-01
6.826334476470947266e+00,5.849268436431884766e+00,1.103781580924987793e+00
3.000185966491699219e+00,2.646161556243896484e+00,-1.071905136108398438e+00
3.571552753448486328e+00,3.150106430053710938e+00,-1.099453568458557129e+00
4.408999443054199219e+00,3.888733625411987305e+00,-1.142741680145263672e+00
5.696567535400390625e+00,5.024367809295654297e+00,-1.203044056892395020e+00
6.813228130340576172e+00,6.009261131286621094e+00,-1.115455985069274902e+00
6.821393966674804688e+00,6.016463279724121094e+00,-7.957573533058166504e-01
6.829720020294189453e+00,6.023807048797607422e+00,-4.772593379020690918e-01
6.838158607482910156e+00,6.031250000000000000e+00,-1.591535806655883789e-01
6.846734046936035156e+00,6.038813591003417969e+00,1.593531668186187744e-01
6.855534553527832031e+00,6.046575546264648438e+00,4.790632426738739014e-01
6.863353252410888672e+00,6.053471565246582031e+00,8.006522059440612793e-01
6.871786117553710938e+00,6.060909271240234375e+00,1.125043034553527832e+00
2.966767072677612305e+00,2.693150281906127930e+00,-1.073627829551696777e+00
3.524897575378417969e+00,3.199805974960327148e+00,-1.099077820777893066e+00
4.338669300079345703e+00,3.938525438308715820e+00,-1.139007687568664551e+00
5.580241680145263672e+00,5.065590858459472656e+00,-1.193667531013488770e+00
6.856795787811279297e+00,6.224411964416503906e+00,-1.137058615684509277e+00
6.865437030792236328e+00,6.232256412506103516e+00,-8.112185001373291016e-01
6.874031543731689453e+00,6.240058422088623047e+00,-4.865474104881286621e-01
6.882521629333496094e+00,6.247765541076660156e+00,-1.622508317232131958e-01
6.890941143035888672e+00,6.255408287048339844e+00,1.624493151903152466e-01
6.899375438690185547e+00,6.263064861297607422e+00,4.883412718772888184e-01
6.908728599548339844e+00,6.271555423736572266e+00,8.163338303565979004e-01
6.916967391967773438e+00,6.279034137725830078e+00,1.147036790847778320e+00
2.935397386550903320e+00,2.742321252822875977e+00,-1.076370000839233398e+00
3.481042385101318359e+00,3.252076625823974609e+00,-1.099804997444152832e+00
4.272571563720703125e+00,3.991542816162109375e+00,-1.136537790298461914e+00
5.525404930114746094e+00,5.161971092224121094e+00,-1.197619676589965820e+00
6.908234596252441406e+00,6.453845024108886719e+00,-1.160788655281066895e+00
6.917095184326171875e+00,6.462122917175292969e+00,-8.281668424606323242e-01
6.925679683685302734e+00,6.470142841339111328e+00,-4.967072010040283203e-01
6.934244155883789062e+00,6.478143692016601562e+00,-1.656391173601150513e-01
6.942802906036376953e+00,6.486139297485351562e+00,1.658435463905334473e-01
6.951146602630615234e+00,6.493934154510498047e+00,4.985336661338806152e-01
6.960176467895507812e+00,6.502370357513427734e+00,8.333247900009155273e-01
6.969210147857666016e+00,6.510809898376464844e+00,1.171034336090087891e+00
2.889082431793212891e+00,2.777546882629394531e+00,-1.073855161666870117e+00
3.437039613723754883e+00,3.304349899291992188e+00,-1.100732922554016113e+00
4.238646507263183594e+00,4.075010299682617188e+00,-1.142912030220031738e+00
5.469705581665039062e+00,5.258543014526367188e+00,-1.201737999916076660e+00
6.957921028137207031e+00,6.689304351806640625e+00,-1.185104370117187500e+00
6.967004776000976562e+00,6.698037624359130859e+00,-8.455342650413513184e-01
6.975438117980957031e+00,6.706145286560058594e+00,-5.071081519126892090e-01
6.984064579010009766e+00,6.714438438415527344e+00,-1.691075712442398071e-01
6.992908477783203125e+00,6.722940921783447266e+00,1.693217158317565918e-01
7.001154899597167969e+00,6.730869293212890625e+00,5.089777112007141113e-01
7.009854316711425781e+00,6.739233016967773438e+00,8.507346510887145996e-01
7.018330574035644531e+00,6.747382164001464844e+00,1.195393562316894531e+00
2.843096733093261719e+00,2.812736749649047852e+00,-1.071617126464843750e+00
3.392820596694946289e+00,3.356590509414672852e+00,-1.101845145225524902e+00
4.172432422637939453e+00,4.127877235412597656e+00,-1.140872597694396973e+00
5.360974311828613281e+00,5.303727149963378906e+00,-1.194405555725097656e+00
7.005666732788085938e+00,6.930856704711914062e+00,-1.210009574890136719e+00
7.014534473419189453e+00,6.939630031585693359e+00,-8.632692098617553711e-01
7.023260116577148438e+00,6.948262691497802734e+00,-5.177619457244873047e-01
7.031946659088134766e+00,6.956856250762939453e+00,-1.726603507995605469e-01
7.040616989135742188e+00,6.965434074401855469e+00,1.728732436895370483e-01
7.049206733703613281e+00,6.973931789398193359e+00,5.196747183799743652e-01
7.058601856231689453e+00,6.983226776123046875e+00,8.686924576759338379e-01
7.066798210144042969e+00,6.991335391998291016e+00,1.220568180084228516e+00
2.813279151916503906e+00,2.864062309265136719e+00,-1.075719833374023438e+00
3.331411600112915039e+00,3.391547679901123047e+00,-1.097555041313171387e+00
4.109955310821533203e+00,4.184144973754882812e+00,-1.140048384666442871e+00
5.308727264404296875e+00,5.404556274414062500e+00,-1.199877262115478516e+00
7.060435771942138672e+00,7.187885284423828125e+00,-1.237112522125244141e+00
7.069572925567626953e+00,7.197187423706054688e+00,-8.826303482055664062e-01
7.078179359436035156e+00,7.205948829650878906e+00,-5.293601155281066895e-01
7.086935043334960938e+00,7.214862823486328125e+00,-1.765280961990356445e-01
7.095872879028320312e+00,7.223961830139160156e+00,1.767507195472717285e-01
7.104331493377685547e+00,7.232573509216308594e+00,5.313159823417663574e-01
7.113340377807617188e+00,7.241744995117187500e+00,8.880947232246398926e-01
7.122226715087890625e+00,7.250791549682617188e+00,1.247939229011535645e+00
2.771711826324462891e+00,2.903729915618896484e+00,-1.075607776641845703e+00
3.292383909225463867e+00,3.449202060699462891e+00,-1.100849509239196777e+00
4.050920486450195312e+00,4.243867874145507812e+00,-1.140405654907226562e+00
5.210471630096435547e+00,5.458649158477783203e+00,-1.195206522941589355e+00
7.122307300567626953e+00,7.461546897888183594e+00,-1.266537070274353027e+00
7.131323814392089844e+00,7.470993041992187500e+00,-9.035982489585876465e-01
7.140271663665771484e+00,7.480367183685302734e+00,-5.419558882713317871e-01
7.149105548858642578e+00,7.489621639251708984e+00,-1.807284802198410034e-01
7.157855510711669922e+00,7.498788356781005859e+00,1.809496730566024780e-01
7.166599273681640625e+00,7.507948398590087891e+00,5.439541935920715332e-01
7.176206588745117188e+00,7.518013477325439453e+00,9.092852473258972168e-01
7.184689998626708984e+00,7.526900768280029297e+00,1.277630329132080078e+00
2.730132102966308594e+00,2.943384170532226562e+00,-1.075711131095886230e+00
3.234311819076538086e+00,3.486945629119873047e+00,-1.098008155822753906e+00
3.991785049438476562e+00,4.303585529327392578e+00,-1.140982389450073242e+00
5.160876274108886719e+00,5.563994884490966797e+00,-1.201975226402282715e+00
7.182689189910888672e+00,7.743732929229736328e+00,-1.296851992607116699e+00
7.191307067871093750e+00,7.753023624420166016e+00,-9.251649975776672363e-01
7.200305938720703125e+00,7.762725830078125000e+00,-5.548892021179199219e-01
7.209222793579101562e+00,7.772338867187500000e+00,-1.850416511297225952e-01
7.218072414398193359e+00,7.781880378723144531e+00,1.852688044309616089e-01
7.227379798889160156e+00,7.791914463043212891e+00,5.569756627082824707e-01
7.235823631286621094e+00,7.801017761230468750e+00,9.308920502662658691e-01
2.688475608825683594e+00,2.982987165451049805e+00,-1.076010823249816895e+00
3.194566965103149414e+00,3.544518947601318359e+00,-1.101626038551330566e+00
3.932467460632324219e+00,4.363253593444824219e+00,-1.141761779785156250e+00
5.063352584838867188e+00,5.618022441864013672e+00,-1.197867512702941895e+00
7.099107742309570312e+00,7.876786708831787109e+00,-1.301984071731567383e+00
7.248855590820312500e+00,8.042938232421875000e+00,-9.472820758819580078e-01
7.257766723632812500e+00,8.052825927734375000e+00,-5.681419968605041504e-01
7.266756057739257812e+00,8.062799453735351562e+00,-1.894611418247222900e-01
7.275848865509033203e+00,8.072888374328613281e+00,1.896982192993164062e-01
7.284976005554199219e+00,8.083015441894531250e+00,5.702719688415527344e-01
7.293986797332763672e+00,8.093013763427734375e+00,9.531798958778381348e-01
2.638764381408691406e+00,3.013458013534545898e+00,-1.073268055915832520e+00
3.094767570495605469e+00,3.534212112426757812e+00,-1.084544301033020020e+00
3.098737001419067383e+00,3.538745164871215820e+00,-9.143071770668029785e-01
3.102445363998413086e+00,3.542980194091796875e+00,-7.458849549293518066e-01
3.106048107147216797e+00,3.547094345092773438e+00,-5.789047479629516602e-01
3.109852075576782227e+00,3.551438570022583008e+00,-4.129968285560607910e-01
3.113451719284057617e+00,3.555549383163452148e+00,-2.476812154054641724e-01
3.117142915725708008e+00,3.559764623641967773e+00,-8.259112387895584106e-02
3.120928049087524414e+00,3.564087152481079102e+00,8.269140869379043579e-02
3.124543190002441406e+00,3.568215608596801758e+00,2.485635578632354736e-01
3.128400564193725586e+00,3.572620868682861328e+00,4.154601097106933594e-01
3.132218360900878906e+00,3.576980590820312500e+00,5.837823748588562012e-01
3.135854482650756836e+00,3.581133365631103516e+00,7.539170980453491211e-01
3.139898538589477539e+00,3.585751533508300781e+00,9.264522790908813477e-01
3.143593311309814453e+00,3.589970827102661133e+00,1.101655006408691406e+00
2.599125385284423828e+00,3.055335521697998047e+00,-1.074822902679443359e+00
2.889496326446533203e+00,3.396673440933227539e+00,-1.029540657997131348e+00
2.892950773239135742e+00,3.400734424591064453e+00,-8.678618073463439941e-01
2.896642684936523438e+00,3.405074357986450195e+00,-7.080512642860412598e-01
2.899850368499755859e+00,3.408845186233520508e+00,-5.495113134384155273e-01
2.903349876403808594e+00,3.412958860397338867e+00,-3.920201957225799561e-01
2.906830549240112305e+00,3.417050361633300781e+00,-2.351108938455581665e-01
2.910283088684082031e+00,3.421108961105346680e+00,-7.839962095022201538e-02
2.913710355758666992e+00,3.425137758255004883e+00,7.849194854497909546e-02
2.917145013809204102e+00,3.429175138473510742e+00,2.359451353549957275e-01
2.920911073684692383e+00,3.433602333068847656e+00,3.943913280963897705e-01
2.924252271652221680e+00,3.437530040740966797e+00,5.541353821754455566e-01
2.927914857864379883e+00,3.441835641860961914e+00,7.156953811645507812e-01
2.931345939636230469e+00,3.445868730545043945e+00,8.793799877166748047e-01
2.935146093368530273e+00,3.450335979461669922e+00,1.045805811882019043e+00
2.551847696304321289e+00,3.088247299194335938e+00,-1.073441624641418457e+00
2.694858074188232422e+00,3.261318683624267578e+00,-9.767226576805114746e-01
2.698359251022338867e+00,3.265555858612060547e+00,-8.234236240386962891e-01
2.701614618301391602e+00,3.269495248794555664e+00,-6.717492341995239258e-01
2.704754114151000977e+00,3.273294925689697266e+00,-5.213661193847656250e-01
2.707894563674926758e+00,3.277095317840576172e+00,-3.719245195388793945e-01
2.711159229278564453e+00,3.281046390533447266e+00,-2.230601906776428223e-01
2.714380025863647461e+00,3.284944295883178711e+00,-7.438123971223831177e-02
2.717570304870605469e+00,3.288805007934570312e+00,7.446866482496261597e-02
2.720904588699340820e+00,3.292840242385864258e+00,2.238619923591613770e-01
2.724277019500732422e+00,3.296921491622924805e+00,3.741746246814727783e-01
2.727596044540405273e+00,3.300938367843627930e+00,5.257691740989685059e-01
2.730741024017333984e+00,3.304744243621826172e+00,6.789914369583129883e-01
2.734201908111572266e+00,3.308932542800903320e+00,8.343612551689147949e-01
2.737337112426757812e+00,3.312726736068725586e+00,9.921187162399291992e-01
2.504764556884765625e+00,3.121184825897216797e+00,-1.072318911552429199e+00
2.523377180099487305e+00,3.144378185272216797e+00,-9.307881593704223633e-01
2.526498794555664062e+00,3.148267745971679688e+00,-7.846499085426330566e-01
2.529791593551635742e+00,3.152370929718017578e+00,-6.401796340942382812e-01
2.532637834548950195e+00,3.155917882919311523e+00,-4.968456029891967773e-01
2.535704851150512695e+00,3.159739494323730469e+00,-3.544500768184661865e-01
2.538730144500732422e+00,3.163509130477905273e+00,-2.125772982835769653e-01
2.541751384735107422e+00,3.167273998260498047e+00,-7.088578492403030396e-02
2.544775962829589844e+00,3.171043157577514648e+00,7.097013294696807861e-02
2.547781705856323242e+00,3.174788475036621094e+00,2.133352309465408325e-01
2.551040410995483398e+00,3.178848981857299805e+00,3.565937280654907227e-01
2.553910732269287109e+00,3.182425737380981445e+00,5.010188221931457520e-01
2.557019472122192383e+00,3.186299800872802734e+00,6.470698118209838867e-01
2.560489177703857422e+00,3.190623044967651367e+00,7.952062487602233887e-01
2.563721656799316406e+00,3.194651365280151367e+00,9.456698894500732422e-01
2.363492488861083984e+00,3.033073425292968750e+00,-1.030319094657897949e+00
2.366462945938110352e+00,3.036885499954223633e+00,-8.888508081436157227e-01
2.369195938110351562e+00,3.040392637252807617e+00,-7.492353916168212891e-01
2.372144937515258789e+00,3.044177293777465820e+00,-6.112499237060546875e-01
2.374966859817504883e+00,3.047798395156860352e+00,-4.744236767292022705e-01
2.377748012542724609e+00,3.051367521286010742e+00,-3.384407758712768555e-01
2.380561828613281250e+00,3.054978609085083008e+00,-2.029739469289779663e-01
2.383399486541748047e+00,3.058620214462280273e+00,-6.768359243869781494e-02
2.386263370513916016e+00,3.062295436859130859e+00,6.776491552591323853e-02
2.389178037643432617e+00,3.066035985946655273e+00,2.037085890769958496e-01
2.392093181610107422e+00,3.069776773452758789e+00,3.404825925827026367e-01
2.394929647445678711e+00,3.073416709899902344e+00,4.784114658832550049e-01
2.398046731948852539e+00,3.077416896820068359e+00,6.179242134094238281e-01
2.401006221771240234e+00,3.081214904785156250e+00,7.592951059341430664e-01
2.403643131256103516e+00,3.084598779678344727e+00,9.028157591819763184e-01
2.219167947769165039e+00,2.933509588241577148e+00,-9.856066703796386719e-01
2.221832036972045898e+00,2.937031507492065430e+00,-8.502299189567565918e-01
2.224676847457885742e+00,2.940791845321655273e+00,-7.167707085609436035e-01
2.227342128753662109e+00,2.944315195083618164e+00,-5.847368836402893066e-01
2.229942083358764648e+00,2.947751998901367188e+00,-4.538354575634002686e-01
2.232686281204223633e+00,2.951379537582397461e+00,-3.237729370594024658e-01
2.235351324081420898e+00,2.954902648925781250e+00,-1.941791623830795288e-01
2.238016128540039062e+00,2.958425045013427734e+00,-6.475089490413665771e-02
2.240686893463134766e+00,2.961955547332763672e+00,6.482815742492675781e-02
2.243302822113037109e+00,2.965413570404052734e+00,1.948698908090591431e-01
2.246093034744262695e+00,2.969101905822753906e+00,3.257171213626861572e-01
2.248865604400634766e+00,2.972766876220703125e+00,4.576867222785949707e-01
2.251518487930297852e+00,2.976273775100708008e+00,5.910838842391967773e-01
2.254428625106811523e+00,2.980120658874511719e+00,7.263564467430114746e-01
2.257084846496582031e+00,2.983631849288940430e+00,8.637200593948364258e-01
2.086345911026000977e+00,2.841560363769531250e+00,-9.445832967758178711e-01
2.089160919189453125e+00,2.845394611358642578e+00,-8.149623274803161621e-01
2.091718912124633789e+00,2.848878383636474609e+00,-6.870005726814270020e-01
2.094151496887207031e+00,2.852191448211669922e+00,-5.604309439659118652e-01
2.096750736236572266e+00,2.855731725692749023e+00,-4.350028634071350098e-01
2.099272251129150391e+00,2.859165906906127930e+00,-3.103288114070892334e-01
2.101772308349609375e+00,2.862571001052856445e+00,-1.861156821250915527e-01
2.104278564453125000e+00,2.865984201431274414e+00,-6.206206232309341431e-02
2.106802940368652344e+00,2.869422674179077148e+00,6.213651970028877258e-02
2.109324455261230469e+00,2.872856855392456055e+00,1.867844313383102417e-01
2.111799001693725586e+00,2.876227140426635742e+00,3.121805787086486816e-01
2.114483833312988281e+00,2.879883766174316406e+00,4.386818408966064453e-01
2.117100954055786133e+00,2.883448123931884766e+00,5.665726065635681152e-01
2.119529247283935547e+00,2.886755466461181641e+00,6.961345672607421875e-01
2.122154951095581055e+00,2.890331506729125977e+00,8.278328776359558105e-01
1.967478990554809570e+00,2.761665344238281250e+00,-9.085703492164611816e-01
1.969995260238647461e+00,2.765197277069091797e+00,-7.838361859321594238e-01
1.972305536270141602e+00,2.768440008163452148e+00,-6.607276797294616699e-01
1.974772214889526367e+00,2.771902322769165039e+00,-5.390456318855285645e-01
1.977130413055419922e+00,2.775212526321411133e+00,-4.183840155601501465e-01
1.979456901550292969e+00,2.778478145599365234e+00,-2.984653115272521973e-01
1.981806993484497070e+00,2.781776905059814453e+00,-1.790000498294830322e-01
1.984175562858581543e+00,2.785101413726806641e+00,-5.968945100903511047e-02
1.986564159393310547e+00,2.788454294204711914e+00,5.976130813360214233e-02
1.988996028900146484e+00,2.791867733001708984e+00,1.796493679285049438e-01
1.991426348686218262e+00,2.795279026031494141e+00,3.002700805664062500e-01
1.993789315223693848e+00,2.798595905303955078e+00,4.219092726707458496e-01
1.996363162994384766e+00,2.802208900451660156e+00,5.449392795562744141e-01
1.998796939849853516e+00,2.805624961853027344e+00,6.696023344993591309e-01
2.001443386077880859e+00,2.809339523315429688e+00,7.963489294052124023e-01
1.854370951652526855e+00,2.683354616165161133e+00,-8.739848136901855469e-01
1.856663703918457031e+00,2.686672449111938477e+00,-7.539667487144470215e-01
1.858788609504699707e+00,2.689747095108032227e+00,-6.355315446853637695e-01
1.861083269119262695e+00,2.693067550659179688e+00,-5.184813737869262695e-01
1.863463878631591797e+00,2.696512699127197266e+00,-4.024571180343627930e-01
1.865626811981201172e+00,2.699642181396484375e+00,-2.870988249778747559e-01
1.867874622344970703e+00,2.702895164489746094e+00,-1.721861958503723145e-01
1.870107889175415039e+00,2.706126689910888672e+00,-5.741732940077781677e-02
1.872333288192749023e+00,2.709347009658813477e+00,5.748565495014190674e-02
1.874655842781066895e+00,2.712707757949829102e+00,1.728113144636154175e-01
1.876793026924133301e+00,2.715800285339355469e+00,2.888171672821044922e-01
1.879053235054016113e+00,2.719070911407470703e+00,4.058239459991455078e-01
1.881535053253173828e+00,2.722662210464477539e+00,5.241790413856506348e-01
1.883912205696105957e+00,2.726102113723754883e+00,6.441214680671691895e-01
1.886053562164306641e+00,2.729200601577758789e+00,7.659015655517578125e-01
1.749726295471191406e+00,2.611054658889770508e+00,-8.421927690505981445e-01
1.751842617988586426e+00,2.614212751388549805e+00,-7.265209555625915527e-01
1.754077076911926270e+00,2.617547273635864258e+00,-6.124771833419799805e-01
1.756176710128784180e+00,2.620680332183837891e+00,-4.996543824672698975e-01
1.758231878280639648e+00,2.623747110366821289e+00,-3.878009915351867676e-01
1.760399222373962402e+00,2.626981496810913086e+00,-2.766635417938232422e-01
1.762524724006652832e+00,2.630153179168701172e+00,-1.659281104803085327e-01
1.764633893966674805e+00,2.633300542831420898e+00,-5.533055961132049561e-02
1.766732573509216309e+00,2.636432409286499023e+00,5.539636686444282532e-02
1.768804192543029785e+00,2.639523983001708984e+00,1.665192693471908569e-01
1.771011233329772949e+00,2.642817497253417969e+00,2.783313393592834473e-01
1.773213148117065430e+00,2.646103382110595703e+00,3.911052942276000977e-01
1.775327920913696289e+00,2.649259090423583984e+00,5.051031708717346191e-01
1.777621388435363770e+00,2.652681589126586914e+00,6.206982731819152832e-01
1.779712438583374023e+00,2.655801773071289062e+00,7.380790710449218750e-01
1.652712106704711914e+00,2.544284343719482422e+00,-8.129426836967468262e-01
1.654978036880493164e+00,2.547772884368896484e+00,-7.014013528823852539e-01
1.656791925430297852e+00,2.550565004348754883e+00,-5.911946296691894531e-01
1.658968210220336914e+00,2.553915262222290039e+00,-4.823483824729919434e-01
1.661015987396240234e+00,2.557067871093750000e+00,-3.743931055068969727e-01
1.662917852401733398e+00,2.559995651245117188e+00,-2.670747637748718262e-01
1.664933443069458008e+00,2.563098669052124023e+00,-1.601780205965042114e-01
1.666928052902221680e+00,2.566169261932373047e+00,-5.341320112347602844e-02
1.668905019760131836e+00,2.569212675094604492e+00,5.347654595971107483e-02
1.671008825302124023e+00,2.572451353073120117e+00,1.607625037431716919e-01
1.672992587089538574e+00,2.575505495071411133e+00,2.686928212642669678e-01
1.674880504608154297e+00,2.578411579132080078e+00,3.775181472301483154e-01
1.677179098129272461e+00,2.581950426101684570e+00,4.876432716846466064e-01
1.679079294204711914e+00,2.584875583648681641e+00,5.991474986076354980e-01
1.681091427803039551e+00,2.587973117828369141e+00,7.124685049057006836e-01
1.562886714935302734e+00,2.483086824417114258e+00,-7.861607670783996582e-01
1.564716935157775879e+00,2.485994815826416016e+00,-6.781587004661560059e-01
1.566665410995483398e+00,2.489090442657470703e+00,-5.716891884803771973e-01
1.568693041801452637e+00,2.492311954498291016e+00,-4.664251208305358887e-01
1.570612907409667969e+00,2.495362281799316406e+00,-3.620298504829406738e-01
1.572485446929931641e+00,2.498337268829345703e+00,-2.582675516605377197e-01
1.574352979660034180e+00,2.501304388046264648e+00,-1.548921167850494385e-01
1.576239228248596191e+00,2.504301309585571289e+00,-5.165056139230728149e-02
1.578148841857910156e+00,2.507335186004638672e+00,5.171313509345054626e-02
1.580067992210388184e+00,2.510384082794189453e+00,1.554543823003768921e-01
1.581962704658508301e+00,2.513394355773925781e+00,2.598241269588470459e-01
1.583780407905578613e+00,2.516282558441162109e+00,3.650649785995483398e-01
1.585721850395202637e+00,2.519366979598999023e+00,4.714883267879486084e-01
1.587835788726806641e+00,2.522725582122802734e+00,5.794144272804260254e-01
1.589791417121887207e+00,2.525832653045654297e+00,6.890261173248291016e-01
1.479218125343322754e+00,2.426509618759155273e+00,-7.614666819572448730e-01
1.480932831764221191e+00,2.429322481155395508e+00,-6.568492054939270020e-01
1.482759594917297363e+00,2.432318925857543945e+00,-5.537187457084655762e-01
1.484664320945739746e+00,2.435443639755249023e+00,-4.517592191696166992e-01
1.486476659774780273e+00,2.438416481018066406e+00,-3.506453335285186768e-01
1.488253593444824219e+00,2.441331386566162109e+00,-2.501468062400817871e-01
1.490035414695739746e+00,2.444254398345947266e+00,-1.500232666730880737e-01
1.491822242736816406e+00,2.447185516357421875e+00,-5.002703890204429626e-02
1.493616938591003418e+00,2.450129508972167969e+00,5.008722469210624695e-02
1.495430827140808105e+00,2.453104972839355469e+00,1.505664885044097900e-01
1.497230648994445801e+00,2.456057310104370117e+00,2.516556680202484131e-01
1.498968839645385742e+00,2.458908557891845703e+00,3.535921275615692139e-01
1.500824332237243652e+00,2.461952447891235352e+00,4.566764235496520996e-01
1.502845168113708496e+00,2.465267419815063477e+00,5.612194538116455078e-01
1.504720687866210938e+00,2.468343973159790039e+00,6.674000024795532227e-01
1.399737596511840820e+00,2.371855497360229492e+00,-7.379527091979980469e-01
1.401604175567626953e+00,2.375018596649169922e+00,-6.366767287254333496e-01
1.403305649757385254e+00,2.377901792526245117e+00,-5.367029905319213867e-01
1.404930710792541504e+00,2.380655288696289062e+00,-4.378212988376617432e-01
1.406658411026000977e+00,2.383582830429077148e+00,-3.398301303386688232e-01
1.408355712890625000e+00,2.386458873748779297e+00,-2.424340546131134033e-01
1.410082221031188965e+00,2.389384508132934570e+00,-1.454017609357833862e-01
1.411773443222045898e+00,2.392250299453735352e+00,-4.848595708608627319e-02
1.413434505462646484e+00,2.395064830780029297e+00,4.854300245642662048e-02
1.415136337280273438e+00,2.397948741912841797e+00,1.459229290485382080e-01
1.416829228401184082e+00,2.400817394256591797e+00,2.438926845788955688e-01
1.418653726577758789e+00,2.403908967971801758e+00,3.427280485630035400e-01
1.420440793037414551e+00,2.406937122344970703e+00,4.426547586917877197e-01
1.422107815742492676e+00,2.409761905670166016e+00,5.438939929008483887e-01
1.423866033554077148e+00,2.412741184234619141e+00,6.467891335487365723e-01
1.324332952499389648e+00,2.319290637969970703e+00,-7.156273126602172852e-01
1.326180338859558105e+00,2.322525978088378906e+00,-6.174530386924743652e-01
1.327670097351074219e+00,2.325134992599487305e+00,-5.204508304595947266e-01
1.329413533210754395e+00,2.328188180923461914e+00,-4.246292114257812500e-01
1.330950736999511719e+00,2.330880403518676758e+00,-3.295664787292480469e-01
1.332571506500244141e+00,2.333718776702880859e+00,-2.351145893335342407e-01
1.334172606468200684e+00,2.336522579193115234e+00,-1.410084217786788940e-01
1.335774302482604980e+00,2.339327812194824219e+00,-4.702099412679672241e-02
1.337380290031433105e+00,2.342140436172485352e+00,4.707752913236618042e-02
1.338978648185729980e+00,2.344939470291137695e+00,1.415163725614547729e-01
1.340679883956909180e+00,2.347918748855590820e+00,2.365451902151107788e-01
1.342203259468078613e+00,2.350586652755737305e+00,3.323527872562408447e-01
1.344017505645751953e+00,2.353764057159423828e+00,4.292938709259033203e-01
1.345517158508300781e+00,2.356390237808227539e+00,5.274469256401062012e-01
1.347361683845520020e+00,2.359620571136474609e+00,6.273148059844970703e-01
1.254703402519226074e+00,2.272267341613769531e+00,-6.955053806304931641e-01
1.256238579750061035e+00,2.275047302246093750e+00,-5.999888777732849121e-01
1.257842659950256348e+00,2.277952432632446289e+00,-5.058078169822692871e-01
1.259352922439575195e+00,2.280687570571899414e+00,-4.126358330249786377e-01
1.260930657386779785e+00,2.283544778823852539e+00,-3.202889561653137207e-01
1.262453436851501465e+00,2.286302566528320312e+00,-2.284936606884002686e-01
1.263934969902038574e+00,2.288985490798950195e+00,-1.370337307453155518e-01
1.265453457832336426e+00,2.291735410690307617e+00,-4.569562524557113647e-02
1.267010807991027832e+00,2.294555902481079102e+00,4.575186222791671753e-02
1.268539190292358398e+00,2.297323942184448242e+00,1.375329196453094482e-01
1.270031213760375977e+00,2.300025939941406250e+00,2.298651635646820068e-01
1.271616935729980469e+00,2.302897453308105469e+00,3.230033516883850098e-01
1.273143410682678223e+00,2.305662155151367188e+00,4.171544015407562256e-01
1.274782299995422363e+00,2.308630228042602539e+00,5.126196742057800293e-01
1.276273608207702637e+00,2.311330795288085938e+00,6.095577478408813477e-01
1.188312649726867676e+00,2.226763963699340820e+00,-6.763021349906921387e-01
1.189769864082336426e+00,2.229494571685791016e+00,-5.834244489669799805e-01
1.191293478012084961e+00,2.232349634170532227e+00,-4.918453693389892578e-01
1.192724704742431641e+00,2.235031604766845703e+00,-4.012456238269805908e-01
1.194124698638916016e+00,2.237655162811279297e+00,-3.114232718944549561e-01
1.195596694946289062e+00,2.240413427352905273e+00,-2.221744358539581299e-01
1.197043061256408691e+00,2.243123769760131836e+00,-1.332487463951110840e-01
1.198481321334838867e+00,2.245818853378295898e+00,-4.443348199129104614e-02
1.199915289878845215e+00,2.248505830764770508e+00,4.448664188385009766e-02
1.201333999633789062e+00,2.251164436340332031e+00,1.337263882160186768e-01
1.202842116355895996e+00,2.253990411758422852e+00,2.235208302736282349e-01
1.204344630241394043e+00,2.256805896759033203e+00,3.140885531902313232e-01
1.205787062644958496e+00,2.259508848190307617e+00,4.056399166584014893e-01
1.207337260246276855e+00,2.262413978576660156e+00,4.984693229198455811e-01
1.208745360374450684e+00,2.265052556991577148e+00,5.927294492721557617e-01
1.125016450881958008e+00,2.182803630828857422e+00,-6.579926013946533203e-01
1.126414895057678223e+00,2.185516834259033203e+00,-5.676389336585998535e-01
1.127875447273254395e+00,2.188350677490234375e+00,-4.785453379154205322e-01
1.129241824150085449e+00,2.191001892089843750e+00,-3.903994262218475342e-01
1.130572080612182617e+00,2.193583011627197266e+00,-3.030063509941101074e-01
1.131965279579162598e+00,2.196285963058471680e+00,-2.161695957183837891e-01
1.133325695991516113e+00,2.198925495147705078e+00,-1.296463161706924438e-01
1.134687423706054688e+00,2.201567649841308594e+00,-4.323220998048782349e-02
1.136055231094360352e+00,2.204221487045288086e+00,4.328432306647300720e-02
1.137400388717651367e+00,2.206831216812133789e+00,1.301124393939971924e-01
1.138824820518493652e+00,2.209594964981079102e+00,2.174795269966125488e-01
1.140236735343933105e+00,2.212334632873535156e+00,3.055965900421142578e-01
1.141585469245910645e+00,2.214951276779174805e+00,3.946668207645416260e-01
1.143035054206848145e+00,2.217763900756835938e+00,4.849773943424224854e-01
1.144607305526733398e+00,2.220814466476440430e+00,5.768066644668579102e-01
1.065839052200317383e+00,2.142748355865478516e+00,-6.412537097930908203e-01
1.067177891731262207e+00,2.145439863204956055e+00,-5.532058477401733398e-01
