-1.859016180038452148e+00,1.761831402778625488e+00,1.342291235923767090e-01
-1.861329078674316406e+00,1.764023303985595703e+00,2.243586182594299316e-01
-1.863622307777404785e+00,1.766196727752685547e+00,3.152604401111602783e-01
-1.865813970565795898e+00,1.768273711204528809e+00,4.071445465087890625e-01
-1.868460416793823242e+00,1.770781755447387695e+00,5.003846287727355957e-01
-1.870963692665100098e+00,1.773154258728027344e+00,5.951099991798400879e-01
-1.893230199813842773e+00,1.743507146835327148e+00,-6.896305084228515625e-01
-1.895373106002807617e+00,1.745480418205261230e+00,-5.948663353919982910e-01
-1.897887945175170898e+00,1.747796416282653809e+00,-5.015144348144531250e-01
-1.900228857994079590e+00,1.749952197074890137e+00,-4.091466665267944336e-01
-1.902485728263854980e+00,1.752030611038208008e+00,-3.175599873065948486e-01
-1.904738306999206543e+00,1.754105091094970703e+00,-2.265414595603942871e-01
-1.907036066055297852e+00,1.756221055984497070e+00,-1.358674019575119019e-01
-1.909354686737060547e+00,1.758356451988220215e+00,-4.530735313892364502e-02
-1.911696910858154297e+00,1.760513305664062500e+00,4.536293074488639832e-02
-1.914104461669921875e+00,1.762730479240417480e+00,1.363709867000579834e-01
-1.916535973548889160e+00,1.764969706535339355e+00,2.279446125030517578e-01
-1.918922662734985352e+00,1.767167687416076660e+00,3.203035891056060791e-01
-1.921184182167053223e+00,1.769250273704528809e+00,4.136586487293243408e-01
-1.923891067504882812e+00,1.771743178367614746e+00,5.083857178688049316e-01
-1.926430463790893555e+00,1.774081707000732422e+00,6.046137809753417969e-01
-1.952008962631225586e+00,1.746673583984375000e+00,-7.018625140190124512e-01
-1.954945445060729980e+00,1.749301195144653320e+00,-6.056427955627441406e-01
-1.957064032554626465e+00,1.751196980476379395e+00,-5.104757547378540039e-01
-1.959569215774536133e+00,1.753438591957092285e+00,-4.164769351482391357e-01
-1.961970448493957520e+00,1.755587220191955566e+00,-3.232615590095520020e-01
-1.964338660240173340e+00,1.757706284523010254e+00,-2.306141555309295654e-01
-1.966731309890747070e+00,1.759847283363342285e+00,-1.383116096258163452e-01
-1.969121932983398438e+00,1.761986374855041504e+00,-4.612239822745323181e-02
-1.971513509750366211e+00,1.764126420021057129e+00,4.617841914296150208e-02
-1.973948597908020020e+00,1.766305446624755859e+00,1.388191729784011841e-01
-1.976383328437805176e+00,1.768483996391296387e+00,2.320282012224197388e-01
-1.978754043579101562e+00,1.770605325698852539e+00,3.260268867015838623e-01
-1.981566071510314941e+00,1.773121476173400879e+00,4.211520254611968994e-01
-1.983621954917907715e+00,1.774961233139038086e+00,5.174030661582946777e-01
-1.986079096794128418e+00,1.777159810066223145e+00,6.152880191802978516e-01
-2.009674310684204102e+00,1.747130751609802246e+00,-7.135319113731384277e-01
-2.012118339538574219e+00,1.749255418777465820e+00,-6.155351400375366211e-01
-2.014914751052856445e+00,1.751686573028564453e+00,-5.189723372459411621e-01
-2.017082214355468750e+00,1.753570914268493652e+00,-4.233225286006927490e-01
-2.019618272781372070e+00,1.755775690078735352e+00,-3.285854458808898926e-01
-2.022102594375610352e+00,1.757935285568237305e+00,-2.344176024198532104e-01
-2.024588108062744141e+00,1.760096192359924316e+00,-1.405943036079406738e-01
-2.027047634124755859e+00,1.762234449386596680e+00,-4.688357561826705933e-02
-2.029489994049072266e+00,1.764357805252075195e+00,4.694006592035293579e-02
-2.031950950622558594e+00,1.766497135162353516e+00,1.411055922508239746e-01
-2.034388780593872070e+00,1.768616437911987305e+00,2.358419150114059448e-01
-2.037239789962768555e+00,1.771095037460327148e+00,3.314523994922637939e-01
-2.039517879486083984e+00,1.773075580596923828e+00,4.280310869216918945e-01
-2.042217969894409180e+00,1.775422811508178711e+00,5.260046720504760742e-01
-2.044696569442749023e+00,1.777577638626098633e+00,6.255012750625610352e-01
-2.072722196578979492e+00,1.750491976737976074e+00,-7.269465327262878418e-01
-2.075295925140380859e+00,1.752665638923645020e+00,-6.271234750747680664e-01
-2.077688694000244141e+00,1.754686236381530762e+00,-5.286176800727844238e-01
-2.080430269241333008e+00,1.757001638412475586e+00,-4.312951862812042236e-01
-2.083015680313110352e+00,1.759185075759887695e+00,-3.347689807415008545e-01
-2.085342168807983398e+00,1.761149883270263672e+00,-2.388020455837249756e-01
-2.087931156158447266e+00,1.763336420059204102e+00,-1.432256698608398438e-01
-2.090469121932983398e+00,1.765479803085327148e+00,-4.776108264923095703e-02
-2.092959642410278320e+00,1.767583131790161133e+00,4.781798273324966431e-02
-2.095733642578125000e+00,1.769925832748413086e+00,1.437608897686004639e-01
-2.098279953002929688e+00,1.772076487541198730e+00,2.402836233377456665e-01
-2.100709915161132812e+00,1.774128556251525879e+00,3.376127183437347412e-01
-2.103553056716918945e+00,1.776529788970947266e+00,4.360888004302978516e-01
-2.106285572052001953e+00,1.778837323188781738e+00,5.358934402465820312e-01
-2.108762502670288086e+00,1.780929207801818848e+00,6.372365355491638184e-01
-2.133011341094970703e+00,1.749726414680480957e+00,-7.392317652702331543e-01
-2.135810613632202148e+00,1.752022624015808105e+00,-6.377667188644409180e-01
-2.138923883438110352e+00,1.754576563835144043e+00,-5.377527475357055664e-01
-2.141323328018188477e+00,1.756544947624206543e+00,-4.386617839336395264e-01
-2.144061088562011719e+00,1.758790612220764160e+00,-3.404991030693054199e-01
-2.146685361862182617e+00,1.760943293571472168e+00,-2.429154962301254272e-01
-2.149260044097900391e+00,1.763055324554443359e+00,-1.456866562366485596e-01
-2.151868820190429688e+00,1.765195369720458984e+00,-4.858165606856346130e-02
-2.154526233673095703e+00,1.767375349998474121e+00,4.864165186882019043e-02
-2.157148361206054688e+00,1.769526243209838867e+00,1.462213695049285889e-01
-2.159693479537963867e+00,1.771613955497741699e+00,2.443874776363372803e-01
-2.162620306015014648e+00,1.774014949798583984e+00,3.434464931488037109e-01
-2.164891242980957031e+00,1.775877833366394043e+00,4.434897899627685547e-01
-2.167551994323730469e+00,1.778060555458068848e+00,5.449502468109130859e-01
-2.170783042907714844e+00,1.780710935592651367e+00,6.482097506523132324e-01
-2.199909925460815430e+00,1.752538204193115234e+00,-7.536458373069763184e-01
-2.202862262725830078e+00,1.754890084266662598e+00,-6.502215862274169922e-01
-2.205567359924316406e+00,1.757045149803161621e+00,-5.481287240982055664e-01
-2.208585500717163086e+00,1.759449481964111328e+00,-4.472359120845794678e-01
-2.211075305938720703e+00,1.761433005332946777e+00,-3.471021354198455811e-01
-2.213843345642089844e+00,1.763638257980346680e+00,-2.476330846548080444e-01
-2.216527700424194336e+00,1.765776634216308594e+00,-1.485179364681243896e-01
-2.219220399856567383e+00,1.767921805381774902e+00,-4.952584579586982727e-02
-2.221930265426635742e+00,1.770080566406250000e+00,4.958632215857505798e-02
-2.224573135375976562e+00,1.772185921669006348e+00,1.490570157766342163e-01
-2.227532863616943359e+00,1.774543881416320801e+00,2.491643428802490234e-01
-2.230001688003540039e+00,1.776510477066040039e+00,3.500732481479644775e-01
-2.232852458953857422e+00,1.778781533241271973e+00,4.521499574184417725e-01
-2.235528945922851562e+00,1.780913710594177246e+00,5.555747747421264648e-01
-2.238761663436889648e+00,1.783489108085632324e+00,6.608180999755859375e-01
-2.268954992294311523e+00,1.755053400993347168e+00,-7.686146497726440430e-01
-2.272076129913330078e+00,1.757467746734619141e+00,-6.631584763526916504e-01
-2.274907827377319336e+00,1.759658098220825195e+00,-5.590445995330810547e-01
-2.277595758438110352e+00,1.761737108230590820e+00,-4.560573995113372803e-01
-2.280260801315307617e+00,1.763798475265502930e+00,-3.539636135101318359e-01
-2.283178567886352539e+00,1.766055464744567871e+00,-2.525352537631988525e-01
-2.285979509353637695e+00,1.768221974372863770e+00,-1.514601707458496094e-01
-2.288756608963012695e+00,1.770370125770568848e+00,-5.050698667764663696e-02
-2.291517734527587891e+00,1.772505879402160645e+00,5.056791380047798157e-02
-2.294179916381835938e+00,1.774565219879150391e+00,1.520035117864608765e-01
-2.297131538391113281e+00,1.776848077774047852e+00,2.540785372257232666e-01
-2.300108671188354492e+00,1.779151082038879395e+00,3.570446074008941650e-01
-2.303006887435913086e+00,1.781392812728881836e+00,4.611456394195556641e-01
-2.305691242218017578e+00,1.783469200134277344e+00,5.666093826293945312e-01
-2.308913946151733398e+00,1.785961985588073730e+00,6.739104390144348145e-01
-2.340234518051147461e+00,1.757236361503601074e+00,-7.841600775718688965e-01
-2.343534469604492188e+00,1.759714365005493164e+00,-6.765943765640258789e-01
-2.345942258834838867e+00,1.761522173881530762e+00,-5.702463388442993164e-01
-2.348848342895507812e+00,1.763704419136047363e+00,-4.652222096920013428e-01
-2.352018117904663086e+00,1.766084551811218262e+00,-3.611414730548858643e-01
-2.354776859283447266e+00,1.768156051635742188e+00,-2.576288580894470215e-01
-2.357700347900390625e+00,1.770351171493530273e+00,-1.545173674821853638e-01
-2.360565423965454102e+00,1.772502541542053223e+00,-5.152647942304611206e-02
-2.363378047943115234e+00,1.774614572525024414e+00,5.158787220716476440e-02
-2.366373538970947266e+00,1.776863694190979004e+00,1.550857871770858765e-01
-2.368993759155273438e+00,1.778831243515014648e+00,2.591842710971832275e-01
-2.371925830841064453e+00,1.781032800674438477e+00,3.641982078552246094e-01
-2.375435352325439453e+00,1.783668041229248047e+00,4.704881012439727783e-01
-2.378121852874755859e+00,1.785685181617736816e+00,5.780684947967529297e-01
-2.381322383880615234e+00,1.788088560104370117e+00,6.875039935111999512e-01
-2.413833379745483398e+00,1.759044408798217773e+00,-8.003028631210327148e-01
-2.416628360748291016e+00,1.761081337928771973e+00,-6.903489232063293457e-01
-2.419870138168334961e+00,1.763443589210510254e+00,-5.820214152336120605e-01
-2.422887325286865234e+00,1.765642285346984863e+00,-4.748324453830718994e-01
-2.425809860229492188e+00,1.767772078514099121e+00,-3.685489594936370850e-01
-2.428731203079223633e+00,1.769900918006896973e+00,-2.629213631153106689e-01
-2.431779146194458008e+00,1.772122144699096680e+00,-1.576937735080718994e-01
-2.434733152389526367e+00,1.774274826049804688e+00,-5.258568376302719116e-02
-2.437599897384643555e+00,1.776363849639892578e+00,5.264759808778762817e-02
-2.440615415573120117e+00,1.778561472892761230e+00,1.582667827606201172e-01
-2.443667411804199219e+00,1.780785441398620605e+00,2.645382881164550781e-01
-2.446671962738037109e+00,1.782974958419799805e+00,3.717184960842132568e-01
-2.449521064758300781e+00,1.785051345825195312e+00,4.800521135330200195e-01
-2.452911138534545898e+00,1.787521600723266602e+00,5.899683833122253418e-01
-2.456078529357910156e+00,1.789829969406127930e+00,7.016184926033020020e-01
-2.489848613739013672e+00,1.760438323020935059e+00,-8.170675635337829590e-01
-2.492831707000732422e+00,1.762547612190246582e+00,-7.048385739326477051e-01
-2.496238708496093750e+00,1.764956474304199219e+00,-5.942524671554565430e-01
-2.498909473419189453e+00,1.766844749450683594e+00,-4.847252368927001953e-01
-2.502040863037109375e+00,1.769058823585510254e+00,-3.762450218200683594e-01
-2.505330324172973633e+00,1.771384716033935547e+00,-2.684413492679595947e-01
-2.508312940597534180e+00,1.773493528366088867e+00,-1.609941422939300537e-01
-2.511359214782714844e+00,1.775647401809692383e+00,-5.368623137474060059e-02
-2.514477491378784180e+00,1.777852058410644531e+00,5.375288799405097961e-02
-2.517309665679931641e+00,1.779854655265808105e+00,1.615715920925140381e-01
-2.520339727401733398e+00,1.781996965408325195e+00,2.700495421886444092e-01
-2.523884296417236328e+00,1.784503102302551270e+00,3.795297145843505859e-01
-2.526760816574096680e+00,1.786537051200866699e+00,4.901277124881744385e-01
-2.530149698257446289e+00,1.788933038711547852e+00,6.023252606391906738e-01
-2.533276796340942383e+00,1.791144013404846191e+00,7.162742018699645996e-01
-2.568372726440429688e+00,1.761370778083801270e+00,-8.344772458076477051e-01
-2.571563959121704102e+00,1.763559222221374512e+00,-7.198888063430786133e-01
-2.574536085128784180e+00,1.765597581863403320e+00,-6.068135499954223633e-01
-2.577937602996826172e+00,1.767930269241333008e+00,-4.950954318046569824e-01
-2.581147193908691406e+00,1.770131349563598633e+00,-3.842912912368774414e-01
-2.584278345108032227e+00,1.772278666496276855e+00,-2.741543054580688477e-01
-2.587395668029785156e+00,1.774416565895080566e+00,-1.644230186939239502e-01
-2.590539455413818359e+00,1.776572465896606445e+00,-5.482967942953109741e-02
-2.593713521957397461e+00,1.778749227523803711e+00,5.489685758948326111e-02
-2.596897602081298828e+00,1.780932903289794922e+00,1.650268435478210449e-01
-2.600035429000854492e+00,1.783084750175476074e+00,2.758259177207946777e-01
-2.603048086166381836e+00,1.785150766372680664e+00,3.875519633293151855e-01
-2.606560468673706055e+00,1.787559509277343750e+00,5.005924701690673828e-01
-2.609940052032470703e+00,1.789877176284790039e+00,6.151581406593322754e-01
-2.613010883331298828e+00,1.791983127593994141e+00,7.314915060997009277e-01
-2.655153751373291016e+00,1.765549182891845703e+00,-8.543745279312133789e-01
-2.658602476119995117e+00,1.767842531204223633e+00,-7.370954155921936035e-01
-2.661778926849365234e+00,1.769954800605773926e+00,-6.213416457176208496e-01
-2.665343046188354492e+00,1.772324562072753906e+00,-5.069578289985656738e-01
-2.668312788009643555e+00,1.774299502372741699e+00,-3.934474289417266846e-01
-2.671646595001220703e+00,1.776516199111938477e+00,-2.806965112686157227e-01
-2.674916982650756836e+00,1.778690934181213379e+00,-1.683496683835983276e-01
-2.678166627883911133e+00,1.780851721763610840e+00,-5.613907799124717712e-02
-2.681397914886474609e+00,1.783000349998474121e+00,5.620681121945381165e-02
-2.684593439102172852e+00,1.785125255584716797e+00,1.689586788415908813e-01
-2.688191413879394531e+00,1.787517786026000977e+00,2.824347913265228271e-01
-2.691252470016479492e+00,1.789553165435791016e+00,3.968299031257629395e-01
-2.694780588150024414e+00,1.791899204254150391e+00,5.125569701194763184e-01
-2.698126077651977539e+00,1.794123768806457520e+00,6.298261284828186035e-01
-2.701103687286376953e+00,1.796103835105895996e+00,7.488788366317749023e-01
-2.739282608032226562e+00,1.765478849411010742e+00,-8.732246756553649902e-01
-2.742972373962402344e+00,1.767856955528259277e+00,-7.533941268920898438e-01
-2.746336936950683594e+00,1.770025372505187988e+00,-6.351010203361511230e-01
-2.749552488327026367e+00,1.772097945213317871e+00,-5.180972218513488770e-01
-2.753114938735961914e+00,1.774393916130065918e+00,-4.021655321121215820e-01
-2.756280899047851562e+00,1.776434302330017090e+00,-2.868877351284027100e-01
-2.759700775146484375e+00,1.778638482093811035e+00,-1.720657795667648315e-01
-2.763051271438598633e+00,1.780797839164733887e+00,-5.737822875380516052e-02
-2.766344785690307617e+00,1.782920598983764648e+00,5.744662508368492126e-02
-2.769910573959350586e+00,1.785218715667724609e+00,1.727023422718048096e-01
-2.773120880126953125e+00,1.787287831306457520e+00,2.886405289173126221e-01
-2.776744842529296875e+00,1.789623379707336426e+00,4.056172966957092285e-01
-2.780293464660644531e+00,1.791910529136657715e+00,5.238897204399108887e-01
-2.783612489700317383e+00,1.794049620628356934e+00,6.437211036682128906e-01
-2.787554979324340820e+00,1.796590566635131836e+00,7.656393647193908691e-01
-2.832490682601928711e+00,1.768692851066589355e+00,-8.947755098342895508e-01
-2.836474895477294922e+00,1.771180629730224609e+00,-7.720336318016052246e-01
-2.840073347091674805e+00,1.773427605628967285e+00,-6.508411169052124023e-01
-2.843464851379394531e+00,1.775545358657836914e+00,-5.309498906135559082e-01
-2.846788406372070312e+00,1.777620792388916016e+00,-4.120900630950927734e-01
-2.850395917892456055e+00,1.779873371124267578e+00,-2.940019071102142334e-01
-2.853760719299316406e+00,1.781974434852600098e+00,-1.763219982385635376e-01
-2.857223987579345703e+00,1.784137010574340820e+00,-5.879751220345497131e-02
-2.860798358917236328e+00,1.786369085311889648e+00,5.887106806039810181e-02
-2.864157438278198242e+00,1.788466453552246094e+00,1.769643723964691162e-01
-2.867833137512207031e+00,1.790761709213256836e+00,2.958004772663116455e-01
-2.871516227722167969e+00,1.793061494827270508e+00,4.156695306301116943e-01
-2.875066041946411133e+00,1.795278191566467285e+00,5.368506908416748047e-01
-2.878322839736938477e+00,1.797311663627624512e+00,6.596065163612365723e-01
-2.882170438766479492e+00,1.799714326858520508e+00,7.844710350036621094e-01
-2.929290056228637695e+00,1.771376967430114746e+00,-9.172508120536804199e-01
-2.933592557907104492e+00,1.773978590965270996e+00,-7.914749383926391602e-01
-2.936771392822265625e+00,1.775900840759277344e+00,-6.671072840690612793e-01
-2.940498113632202148e+00,1.778154492378234863e+00,-5.442603230476379395e-01
-2.944484233856201172e+00,1.780565023422241211e+00,-4.224995970726013184e-01
-2.947942256927490234e+00,1.782656073570251465e+00,-3.014005422592163086e-01
-2.951476812362670898e+00,1.784793496131896973e+00,-1.807625293731689453e-01
-2.955061435699462891e+00,1.786961078643798828e+00,-6.027833744883537292e-02
-2.958700180053710938e+00,1.789161443710327148e+00,6.035256013274192810e-02
-2.962443113327026367e+00,1.791424989700317383e+00,1.814341694116592407e-01
-2.965697765350341797e+00,1.793393015861511230e+00,3.032158911228179932e-01
-2.969280004501342773e+00,1.795559167861938477e+00,4.260574877262115479e-01
-2.973499059677124023e+00,1.798110604286193848e+00,5.503685474395751953e-01
-2.976683855056762695e+00,1.800036430358886719e+00,6.761736869812011719e-01
-2.980417966842651367e+00,1.802294492721557617e+00,8.041082620620727539e-01
-3.030831336975097656e+00,1.774043083190917969e+00,-9.409988522529602051e-01
-3.034495353698730469e+00,1.776187896728515625e+00,-8.117559552192687988e-01
-3.037926673889160156e+00,1.778196215629577637e+00,-6.842336654663085938e-01
-3.041861057281494141e+00,1.780499219894409180e+00,-5.582475066184997559e-01
-3.045614242553710938e+00,1.782696008682250977e+00,-4.333048462867736816e-01
-3.049311161041259766e+00,1.784860014915466309e+00,-3.091209530830383301e-01
-3.053026914596557617e+00,1.787034869194030762e+00,-1.853963881731033325e-01
-3.056731224060058594e+00,1.789203166961669922e+00,-6.182350590825080872e-02
-3.060437440872192383e+00,1.791372537612915039e+00,6.189846619963645935e-02
-3.064190864562988281e+00,1.793569564819335938e+00,1.860743463039398193e-01
-3.067926883697509766e+00,1.795756340026855469e+00,3.110080957412719727e-01
-3.071551322937011719e+00,1.797877907752990723e+00,4.369949698448181152e-01
-3.075770854949951172e+00,1.800347685813903809e+00,5.644706487655639648e-01
-3.079861164093017578e+00,1.802741765975952148e+00,6.936785578727722168e-01
-3.083604574203491211e+00,1.804933071136474609e+00,8.248931169509887695e-01
-3.135365009307861328e+00,1.775476932525634766e+00,-9.654648900032043457e-01
-3.139369010925292969e+00,1.777744293212890625e+00,-8.329183459281921387e-01
-3.143071889877319336e+00,1.779841184616088867e+00,-7.021057605743408203e-01
-3.147233247756958008e+00,1.782197713851928711e+00,-5.728453993797302246e-01
-3.151142597198486328e+00,1.784411430358886719e+00,-4.446392357349395752e-01
-3.154689073562622070e+00,1.786419630050659180e+00,-3.171789050102233887e-01
-3.158594369888305664e+00,1.788631200790405273e+00,-1.902328878641128540e-01
-3.162429094314575195e+00,1.790802597999572754e+00,-6.343635916709899902e-02
-3.166199922561645508e+00,1.792937874794006348e+00,6.351199746131896973e-02
-3.170359611511230469e+00,1.795293450355529785e+00,1.909414678812026978e-01
-3.174198389053344727e+00,1.797467231750488281e+00,3.191404044628143311e-01
-3.177857875823974609e+00,1.799539685249328613e+00,4.484088718891143799e-01
-3.182066202163696289e+00,1.801922678947448730e+00,5.791854858398437500e-01
-3.186079502105712891e+00,1.804195284843444824e+00,7.117128968238830566e-01
-3.189677953720092773e+00,1.806233048439025879e+00,8.462659716606140137e-01
-3.251726150512695312e+00,1.780395150184631348e+00,-9.933468699455261230e-01
-3.256138563156127930e+00,1.782811045646667480e+00,-8.570408225059509277e-01
-3.260170459747314453e+00,1.785018563270568848e+00,-7.224820852279663086e-01
-3.264607191085815430e+00,1.787447810173034668e+00,-5.894920825958251953e-01
-3.268306016921997070e+00,1.789472937583923340e+00,-4.575104415416717529e-01
-3.272370815277099609e+00,1.791698575019836426e+00,-3.263989984989166260e-01
-3.276328086853027344e+00,1.793865323066711426e+00,-1.957571804523468018e-01
-3.280301094055175781e+00,1.796040534973144531e+00,-6.527843326330184937e-02
-3.284305810928344727e+00,1.798233270645141602e+00,6.535812467336654663e-02
-3.288229942321777344e+00,1.800381779670715332e+00,1.964682936668395996e-01
-3.292574644088745117e+00,1.802760601043701172e+00,3.284142017364501953e-01
-3.296249628067016602e+00,1.804772853851318359e+00,4.614221155643463135e-01
-3.300417184829711914e+00,1.807054519653320312e+00,5.959582924842834473e-01
-3.304314374923706055e+00,1.809188365936279297e+00,7.322647571563720703e-01
-3.308908462524414062e+00,1.811703681945800781e+00,8.709301948547363281e-01
-3.374335050582885742e+00,1.785237073898315430e+00,-1.022891044616699219e+00
-3.378127336502075195e+00,1.787243366241455078e+00,-8.823254704475402832e-01
-3.382518768310546875e+00,1.789566874504089355e+00,-7.438428997993469238e-01
-3.386658906936645508e+00,1.791757225990295410e+00,-6.068379282951354980e-01
-3.391145706176757812e+00,1.794130921363830566e+00,-4.710629284381866455e-01
-3.395088434219360352e+00,1.796216964721679688e+00,-3.360404968261718750e-01
-3.399267911911010742e+00,1.798428177833557129e+00,-2.015440165996551514e-01
-3.403392314910888672e+00,1.800610303878784180e+00,-6.720819324254989624e-02
-3.407470941543579102e+00,1.802767992019653320e+00,6.728873401880264282e-02
-3.411812543869018555e+00,1.805065155029296875e+00,2.022877931594848633e-01
-3.415668249130249023e+00,1.807104945182800293e+00,3.380774557590484619e-01
-3.419944286346435547e+00,1.809367299079895020e+00,4.750633537769317627e-01
-3.424058675765991211e+00,1.811544060707092285e+00,6.135393977165222168e-01
-3.428898811340332031e+00,1.814104795455932617e+00,7.540422081947326660e-01
-3.433457612991333008e+00,1.816516637802124023e+00,8.967770934104919434e-01
-3.501397132873535156e+00,1.788797855377197266e+00,-1.053539037704467773e+00
-3.506564617156982422e+00,1.791437745094299316e+00,-9.090813398361206055e-01
-3.510408401489257812e+00,1.793401479721069336e+00,-7.662433385848999023e-01
-3.514850616455078125e+00,1.795670986175537109e+00,-6.251384615898132324e-01
-3.519129991531372070e+00,1.797857165336608887e+00,-4.852168560028076172e-01
-3.523381233215332031e+00,1.800029039382934570e+00,-3.461531102657318115e-01
-3.527795553207397461e+00,1.802284240722656250e+00,-2.076136916875839233e-01
-3.532075166702270508e+00,1.804470658302307129e+00,-6.923221796751022339e-02
-3.536230087280273438e+00,1.806593298912048340e+00,6.931365281343460083e-02
-3.540574550628662109e+00,1.808812737464904785e+00,2.083657383918762207e-01
-3.544952154159545898e+00,1.811049222946166992e+00,3.482723534107208252e-01
-3.549244165420532227e+00,1.813241958618164062e+00,4.893690049648284912e-01
-3.554239988327026367e+00,1.815794229507446289e+00,6.321440935134887695e-01
-3.558007240295410156e+00,1.817718744277954102e+00,7.766330838203430176e-01
-3.562354326248168945e+00,1.819939732551574707e+00,9.235448837280273438e-01
-3.577958106994628906e+00,1.763800621032714844e+00,-1.068869709968566895e+00
-3.639934539794921875e+00,1.794352769851684570e+00,-9.369032382965087891e-01
-3.644165515899658203e+00,1.796438336372375488e+00,-7.897459864616394043e-01
-3.648927927017211914e+00,1.798786163330078125e+00,-6.443396806716918945e-01
-3.653442621231079102e+00,1.801011681556701660e+00,-5.001302361488342285e-01
-3.657843112945556641e+00,1.803181052207946777e+00,-3.567910492420196533e-01
-3.662236452102661133e+00,1.805346727371215820e+00,-2.139829844236373901e-01
-3.666679859161376953e+00,1.807537198066711426e+00,-7.135616987943649292e-02
-3.671179294586181641e+00,1.809755206108093262e+00,7.144373655319213867e-02
-3.675702571868896484e+00,1.811985135078430176e+00,2.147698104381561279e-01
-3.680174589157104492e+00,1.814189553260803223e+00,3.589692711830139160e-01
-3.684476852416992188e+00,1.816310405731201172e+00,5.043786168098449707e-01
-3.689411401748657227e+00,1.818742990493774414e+00,6.514883637428283691e-01
-3.694145202636718750e+00,1.821076512336730957e+00,8.005773425102233887e-01
-3.698420763015747070e+00,1.823184251785278320e+00,9.519573450088500977e-01
-3.614293098449707031e+00,1.717858195304870605e+00,-1.072268962860107422e+00
-3.779488086700439453e+00,1.796374678611755371e+00,-9.661065340042114258e-01
-3.784134626388549805e+00,1.798583149909973145e+00,-8.144169449806213379e-01
-3.789241790771484375e+00,1.801010608673095703e+00,-6.644966006278991699e-01
-3.793550729751586914e+00,1.803058624267578125e+00,-5.157243013381958008e-01
-3.798293828964233398e+00,1.805312991142272949e+00,-3.679326176643371582e-01
-3.802942752838134766e+00,1.807522535324096680e+00,-2.206701040267944336e-01
-3.807552814483642578e+00,1.809713721275329590e+00,-7.358603179454803467e-02
-3.812138795852661133e+00,1.811893463134765625e+00,7.367465645074844360e-02
-3.816661357879638672e+00,1.814042925834655762e+00,2.214661389589309692e-01
-3.821687459945678711e+00,1.816431879997253418e+00,3.701986968517303467e-01
-3.825986146926879883e+00,1.818475008010864258e+00,5.201338529586791992e-01
-3.830852746963500977e+00,1.820788025856018066e+00,6.717936992645263672e-01
-3.835426568984985352e+00,1.822962045669555664e+00,8.254559040069580078e-01
-3.840781211853027344e+00,1.825507044792175293e+00,9.817742109298706055e-01
-3.632669925689697266e+00,1.663281083106994629e+00,-1.070548176765441895e+00
-3.936875343322753906e+00,1.802566766738891602e+00,-9.996399879455566406e-01
-3.941005468368530273e+00,1.804457783699035645e+00,-8.425334692001342773e-01
-3.946526288986206055e+00,1.806985616683959961e+00,-6.874725818634033203e-01
-3.951123714447021484e+00,1.809090614318847656e+00,-5.335710644721984863e-01
-3.956070423126220703e+00,1.811355590820312500e+00,-3.806656301021575928e-01
-3.960725069046020508e+00,1.813486814498901367e+00,-2.282960116863250732e-01
-3.965527772903442383e+00,1.815685868263244629e+00,-7.612904161214828491e-02
-3.970487356185913086e+00,1.817956566810607910e+00,7.622425258159637451e-02
-3.975190162658691406e+00,1.820109844207763672e+00,2.291297912597656250e-01
-3.980309724807739258e+00,1.822453975677490234e+00,3.829980194568634033e-01
-3.984581232070922852e+00,1.824409723281860352e+00,5.380892753601074219e-01
-3.990369081497192383e+00,1.827059745788574219e+00,6.951098442077636719e-01
-3.994905233383178711e+00,1.829136729240417480e+00,8.540564775466918945e-01
-4.000139713287353516e+00,1.831533432006835938e+00,1.015703916549682617e+00
-3.648316621780395508e+00,1.607688903808593750e+00,-1.068268418312072754e+00
-4.090590000152587891e+00,1.802583694458007812e+00,-1.032013773918151855e+00
-4.096036911010742188e+00,1.804983973503112793e+00,-8.700647354125976562e-01
-4.101093769073486328e+00,1.807212233543395996e+00,-7.098189592361450195e-01
-4.105966567993164062e+00,1.809359550476074219e+00,-5.509276390075683594e-01
-4.110808372497558594e+00,1.811493158340454102e+00,-3.930197954177856445e-01
-4.115742683410644531e+00,1.813667535781860352e+00,-2.357107549905776978e-01
-4.120735645294189453e+00,1.815867781639099121e+00,-7.860165089368820190e-02
-4.125788688659667969e+00,1.818094491958618164e+00,7.869803160429000854e-02
-4.130970954895019531e+00,1.820378065109252930e+00,2.365828752517700195e-01
-4.136192798614501953e+00,1.822679281234741211e+00,3.954467177391052246e-01
-4.141319751739501953e+00,1.824938416481018066e+00,5.556712746620178223e-01
-4.146163463592529297e+00,1.827072978019714355e+00,7.176197171211242676e-01
-4.151732921600341797e+00,1.829527378082275391e+00,8.818954825401306152e-01
-4.156870365142822266e+00,1.831791162490844727e+00,1.048735618591308594e+00
-3.669533252716064453e+00,1.554708361625671387e+00,-1.067855477333068848e+00
-4.275978565216064453e+00,1.811647057533264160e+00,-1.072133302688598633e+00
-4.280964851379394531e+00,1.813759803771972656e+00,-9.037392139434814453e-01
-4.285820484161376953e+00,1.815816998481750488e+00,-7.372176051139831543e-01
-4.291265964508056641e+00,1.818124055862426758e+00,-5.722402334213256836e-01
-4.296566486358642578e+00,1.820369958877563477e+00,-4.082465767860412598e-01
-4.301839351654052734e+00,1.822603940963745117e+00,-2.448494732379913330e-01
-4.307053565979003906e+00,1.824813008308410645e+00,-8.164902031421661377e-02
-4.312215805053710938e+00,1.827000141143798828e+00,8.174687623977661133e-02
-4.317394733428955078e+00,1.829194307327270508e+00,2.457348257303237915e-01
-4.322496414184570312e+00,1.831355690956115723e+00,4.107103347778320312e-01
-4.328284263610839844e+00,1.833808064460754395e+00,5.771766901016235352e-01
-4.334051609039306641e+00,1.836251497268676758e+00,7.455139756202697754e-01
-4.339549064636230469e+00,1.838580608367919922e+00,9.161067008972167969e-01
-4.344477653503417969e+00,1.840668916702270508e+00,1.089308500289916992e+00
-3.708168268203735352e+00,1.508850336074829102e+00,-1.072703838348388672e+00
-4.399546146392822266e+00,1.790171265602111816e+00,-1.096578955650329590e+00
-4.464412689208984375e+00,1.816565513610839844e+00,-9.368812441825866699e-01
-4.469735145568847656e+00,1.818731307983398438e+00,-7.642971873283386230e-01
-4.475550651550292969e+00,1.821097493171691895e+00,-5.932779312133789062e-01
-4.481103897094726562e+00,1.823357105255126953e+00,-4.232575893402099609e-01
-4.486506938934326172e+00,1.825555682182312012e+00,-2.538470327854156494e-01
-4.491941928863525391e+00,1.827767133712768555e+00,-8.464933931827545166e-02
-4.497419357299804688e+00,1.829995870590209961e+00,8.475255221128463745e-02
-4.502793788909912109e+00,1.832182645797729492e+00,2.547685205936431885e-01
-4.507976055145263672e+00,1.834291338920593262e+00,4.257957637310028076e-01
-4.513747215270996094e+00,1.836639642715454102e+00,5.983412265777587891e-01
-4.519387245178222656e+00,1.838934659957885742e+00,7.727873921394348145e-01
-4.524635791778564453e+00,1.841070175170898438e+00,9.495193958282470703e-01
-4.530690670013427734e+00,1.843533873558044434e+00,1.129266500473022461e+00
-3.729292631149291992e+00,1.455589175224304199e+00,-1.072677731513977051e+00
-4.415586471557617188e+00,1.723458170890808105e+00,-1.094316244125366211e+00
-4.672252655029296875e+00,1.823638081550598145e+00,-9.749199151992797852e-01
-4.677921295166015625e+00,1.825850725173950195e+00,-7.953454852104187012e-01
-4.683430671691894531e+00,1.828001022338867188e+00,-6.173027753829956055e-01
-4.688964366912841797e+00,1.830160975456237793e+00,-4.403713941574096680e-01
-4.694748401641845703e+00,1.832418560981750488e+00,-2.641182839870452881e-01
-4.700432300567626953e+00,1.834637045860290527e+00,-8.807439357042312622e-02
-4.706031799316406250e+00,1.836822628974914551e+00,8.817931264638900757e-02
-4.711936473846435547e+00,1.839127182960510254e+00,2.650852501392364502e-01
-4.717935085296630859e+00,1.841468572616577148e+00,4.430921971797943115e-01
-4.723870277404785156e+00,1.843785166740417480e+00,6.226329803466796875e-01
-4.729531764984130859e+00,1.845995068550109863e+00,8.041203618049621582e-01
-4.734655380249023438e+00,1.847994804382324219e+00,9.879410266876220703e-01
-4.742048263549804688e+00,1.850880146026611328e+00,1.175223350524902344e+00
-3.750382423400878906e+00,1.402305603027343750e+00,-1.072860598564147949e+00
-4.431746006011962891e+00,1.657074093818664551e+00,-1.092331051826477051e+00
-4.891939640045166016e+00,1.829145193099975586e+00,-1.015193104743957520e+00
-4.898205280303955078e+00,1.831488132476806641e+00,-8.282564878463745117e-01
-4.904168605804443359e+00,1.833717823028564453e+00,-6.428719758987426758e-01
-4.910016059875488281e+00,1.835904240608215332e+00,-4.586168825626373291e-01
-4.915871620178222656e+00,1.838093638420104980e+00,-2.750499844551086426e-01
-4.921823024749755859e+00,1.840318918228149414e+00,-9.171973168849945068e-02
-4.927882194519042969e+00,1.842584609985351562e+00,9.183265268802642822e-02
-4.934006214141845703e+00,1.844874382019042969e+00,2.760646641254425049e-01
-4.940088272094726562e+00,1.847148537635803223e+00,4.614257812500000000e-01
-4.945969104766845703e+00,1.849347352981567383e+00,6.483514904975891113e-01
-4.952640056610107422e+00,1.851841688156127930e+00,8.374610543251037598e-01
-4.957614421844482422e+00,1.853701710700988770e+00,1.028822302818298340e+00
-4.964799880981445312e+00,1.856388449668884277e+00,1.223717451095581055e+00
-3.751526355743408203e+00,1.341854453086853027e+00,-1.067584156990051270e+00
-4.476316928863525391e+00,1.601099133491516113e+00,-1.097555756568908691e+00
-5.125501632690429688e+00,1.833300948143005371e+00,-1.058108806610107422e+00
-5.132409572601318359e+00,1.835771799087524414e+00,-8.633273839950561523e-01
-5.138288497924804688e+00,1.837874531745910645e+00,-6.700449585914611816e-01
-5.144703865051269531e+00,1.840169310569763184e+00,-4.780285656452178955e-01
-5.150986194610595703e+00,1.842416405677795410e+00,-2.867000997066497803e-01
-5.157221317291259766e+00,1.844646573066711426e+00,-9.560463577508926392e-02
-5.163422584533691406e+00,1.846864700317382812e+00,9.571959078311920166e-02
-5.169543266296386719e+00,1.849053859710693359e+00,2.877329587936401367e-01
-5.176286697387695312e+00,1.851465821266174316e+00,4.809631407260894775e-01
-5.182092189788818359e+00,1.853542566299438477e+00,6.757571101188659668e-01
-5.188578605651855469e+00,1.855862498283386230e+00,8.727756142616271973e-01
-5.196096897125244141e+00,1.858551740646362305e+00,1.072682499885559082e+00
-5.201573371887207031e+00,1.860510587692260742e+00,1.275382637977600098e+00
-3.775533199310302734e+00,1.289796948432922363e+00,-1.069052696228027344e+00
-4.495880603790283203e+00,1.535881996154785156e+00,-1.096850037574768066e+00
-5.391659259796142578e+00,1.841897606849670410e+00,-1.107498407363891602e+00
-5.398263931274414062e+00,1.844154000282287598e+00,-9.035143256187438965e-01
-5.404702663421630859e+00,1.846353530883789062e+00,-7.012678980827331543e-01
-5.411541461944580078e+00,1.848689794540405273e+00,-5.003123283386230469e-01
-5.417949676513671875e+00,1.850879073143005371e+00,-3.000538051128387451e-01
-5.424509048461914062e+00,1.853119850158691406e+00,-1.000576540827751160e-01
-5.431225776672363281e+00,1.855414271354675293e+00,1.001815423369407654e-01
-5.437571525573730469e+00,1.857582211494445801e+00,3.011404871940612793e-01
-5.444400787353515625e+00,1.859915256500244141e+00,5.033502578735351562e-01
-5.451166629791259766e+00,1.862226605415344238e+00,7.072967290878295898e-01
-5.457624435424804688e+00,1.864432573318481445e+00,9.134495258331298828e-01
-5.464997291564941406e+00,1.866951346397399902e+00,1.122562646865844727e+00
-5.471823215484619141e+00,1.869283199310302734e+00,1.334948539733886719e+00
-3.799440145492553711e+00,1.237529754638671875e+00,-1.070696830749511719e+00
-4.515462398529052734e+00,1.470747947692871094e+00,-1.096379160881042480e+00
-5.560193538665771484e+00,1.811031222343444824e+00,-1.136675834655761719e+00
-5.683251857757568359e+00,1.851113080978393555e+00,-9.466814994812011719e-01
-5.690303325653076172e+00,1.853409767150878906e+00,-7.348076105117797852e-01
-5.697221755981445312e+00,1.855663061141967773e+00,-5.242149233818054199e-01
-5.704144954681396484e+00,1.857918262481689453e+00,-3.143987357616424561e-01
-5.711043357849121094e+00,1.860164999961853027e+00,-1.048410609364509583e-01
-5.717937469482421875e+00,1.862410545349121094e+00,1.049676164984703064e-01
-5.724899291992187500e+00,1.864678144454956055e+00,3.155426681041717529e-01
-5.731808185577392578e+00,1.866928458213806152e+00,5.273972749710083008e-01
-5.738481998443603516e+00,1.869102120399475098e+00,7.410290837287902832e-01
-5.746011257171630859e+00,1.871554493904113770e+00,9.571354985237121582e-01
-5.753202438354492188e+00,1.873896837234497070e+00,1.176132798194885254e+00
-5.761465072631835938e+00,1.876588106155395508e+00,1.398915529251098633e+00
-3.806842327117919922e+00,1.179950594902038574e+00,-1.067914009094238281e+00
-4.538668155670166016e+00,1.406783699989318848e+00,-1.097012162208557129e+00
-5.572820186614990234e+00,1.727324604988098145e+00,-1.134086608886718750e+00
-6.008731365203857422e+00,1.862437486648559570e+00,-9.963552951812744141e-01
-6.016514778137207031e+00,1.864850044250488281e+00,-7.734062671661376953e-01
-6.023959159851074219e+00,1.867157459259033203e+00,-5.517632365226745605e-01
-6.031216621398925781e+00,1.869406938552856445e+00,-3.309174180030822754e-01
-6.038506507873535156e+00,1.871666550636291504e+00,-1.103493943810462952e-01
-6.045854568481445312e+00,1.873944044113159180e+00,1.104836687445640564e-01
-6.053077220916748047e+00,1.876182794570922852e+00,3.321168720722198486e-01
-6.060050964355468750e+00,1.878344297409057617e+00,5.550690293312072754e-01
-6.067737579345703125e+00,1.880726695060729980e+00,7.799907922744750977e-01
-6.075219154357910156e+00,1.883045792579650879e+00,1.007380127906799316e+00
-6.083797931671142578e+00,1.885704755783081055e+00,1.238072156906127930e+00
-3.830524921417236328e+00,1.127460956573486328e+00,-1.069920778274536133e+00
-4.558128833770751953e+00,1.341621041297912598e+00,-1.096962094306945801e+00
-5.581155776977539062e+00,1.642734527587890625e+00,-1.130882024765014648e+00
-6.340816974639892578e+00,1.866330146789550781e+00,-1.046884179115295410e+00
-6.348391056060791016e+00,1.868559360504150391e+00,-8.125467300415039062e-01
-6.355955123901367188e+00,1.870785832405090332e+00,-5.796602964401245117e-01
-6.363812923431396484e+00,1.873098611831665039e+00,-3.476594984531402588e-01
-6.371492862701416016e+00,1.875359177589416504e+00,-1.159320697188377380e-01
-6.379047870635986328e+00,1.877582907676696777e+00,1.160695403814315796e-01
-6.386953830718994141e+00,1.879909873008728027e+00,3.489236831665039062e-01
-6.394945621490478516e+00,1.882262110710144043e+00,5.832161903381347656e-01
-6.402803421020507812e+00,1.884575009346008301e+00,8.195111155509948730e-01
-6.410245418548583984e+00,1.886765480041503906e+00,1.058346986770629883e+00
-6.418636322021484375e+00,1.889235019683837891e+00,1.300576567649841309e+00
-3.841071605682373047e+00,1.071073889732360840e+00,-1.068475127220153809e+00
-4.584855556488037109e+00,1.278476238250732422e+00,-1.098877549171447754e+00
-5.598826885223388672e+00,1.561219811439514160e+00,-1.129819035530090332e+00
-6.744306087493896484e+00,1.880634069442749023e+00,-1.108943343162536621e+00
-6.752781867980957031e+00,1.882997512817382812e+00,-8.607679009437561035e-01
-6.761013984680175781e+00,1.885293006896972656e+00,-6.140775084495544434e-01
-6.769173145294189453e+00,1.887568116188049316e+00,-3.682908713817596436e-01
-6.777339458465576172e+00,1.889845371246337891e+00,-1.228118538856506348e-01
-6.785565376281738281e+00,1.892139077186584473e+00,1.229609176516532898e-01
-6.793784141540527344e+00,1.894430875778198242e+00,3.696298897266387939e-01
-6.801850795745849609e+00,1.896680235862731934e+00,6.177865862846374512e-01
-6.810815334320068359e+00,1.899180054664611816e+00,8.681653738021850586e-01
-6.818117141723632812e+00,1.901216030120849609e+00,1.121079802513122559e+00
-6.827981472015380859e+00,1.903966665267944336e+00,1.377857089042663574e+00
-3.870550632476806641e+00,1.019822716712951660e+00,-1.072504997253417969e+00
-4.584392547607421875e+00,1.207907676696777344e+00,-1.094510793685913086e+00
-5.616630077362060547e+00,1.479884266853332520e+00,-1.129021525382995605e+00
-7.187044620513916016e+00,1.893661022186279297e+00,-1.177163958549499512e+00
-7.195480346679687500e+00,1.895883679389953613e+00,-9.136454463005065918e-01
-7.204451084136962891e+00,1.898247361183166504e+00,-6.518186926841735840e-01
-7.212941169738769531e+00,1.900484323501586914e+00,-3.909149467945098877e-01
-7.221641540527343750e+00,1.902776718139648438e+00,-1.303561478853225708e-01
-7.230597972869873047e+00,1.905136585235595703e+00,1.305178105831146240e-01
-7.239147663116455078e+00,1.907389283180236816e+00,3.923352360725402832e-01
-7.248328208923339844e+00,1.909808158874511719e+00,6.557884216308593750e-01
-7.257452011108398438e+00,1.912212252616882324e+00,9.215142726898193359e-01
-7.266190052032470703e+00,1.914514541625976562e+00,1.190127253532409668e+00
-3.881007909774780273e+00,9.633940458297729492e-01,-1.071471810340881348e+00
-4.610964775085449219e+00,1.144593358039855957e+00,-1.096830964088439941e+00
-5.634463787078857422e+00,1.398659586906433105e+00,-1.128466486930847168e+00
-7.303161621093750000e+00,1.812885403633117676e+00,-1.191810607910156250e+00
-7.681937694549560547e+00,1.906909942626953125e+00,-9.718480110168457031e-01
-7.691251277923583984e+00,1.909222006797790527e+00,-6.933181881904602051e-01
-7.700584411621093750e+00,1.911538720130920410e+00,-4.158179759979248047e-01
-7.709875583648681641e+00,1.913845062255859375e+00,-1.386604607105255127e-01
-7.719158172607421875e+00,1.916149377822875977e+00,1.388274133205413818e-01
-7.728531360626220703e+00,1.918476104736328125e+00,4.173270761966705322e-01
-7.737828731536865234e+00,1.920783996582031250e+00,6.975168585777282715e-01
-7.748202800750732422e+00,1.923359155654907227e+00,9.802312254905700684e-01
-7.756806373596191406e+00,1.925494909286499023e+00,1.265841364860534668e+00
-3.894564151763916016e+00,9.077889919281005859e-01,-1.071517348289489746e+00
-4.614600658416748047e+00,1.075623273849487305e+00,-1.093921542167663574e+00
-5.656882762908935547e+00,1.318570137023925781e+00,-1.129060983657836914e+00
-7.301405429840087891e+00,1.701894044876098633e+00,-1.187427043914794922e+00
-8.250368118286132812e+00,1.923089146614074707e+00,-1.040171742439270020e+00
-8.260642051696777344e+00,1.925483703613281250e+00,-7.420848011970520020e-01
-8.270632743835449219e+00,1.927812576293945312e+00,-4.450640082359313965e-01
-8.280600547790527344e+00,1.930135846138000488e+00,-1.484127640724182129e-01
-8.290593147277832031e+00,1.932465076446533203e+00,1.485918611288070679e-01
-8.300375938415527344e+00,1.934745430946350098e+00,4.466645419597625732e-01
-8.310935020446777344e+00,1.937206625938415527e+00,7.466028332710266113e-01
-8.321493148803710938e+00,1.939667701721191406e+00,1.049138903617858887e+00
-3.908058404922485352e+00,8.521534800529479980e-01,-1.071764469146728516e+00
-4.644508838653564453e+00,1.012736678123474121e+00,-1.097462654113769531e+00
-5.679175853729248047e+00,1.238346219062805176e+00,-1.129856944084167480e+00
-7.366848468780517578e+00,1.606343865394592285e+00,-1.194208502769470215e+00
-8.884757995605468750e+00,1.937324523925781250e+00,-1.116542458534240723e+00
-8.896116256713867188e+00,1.939801216125488281e+00,-7.965960502624511719e-01
-8.906658172607421875e+00,1.942099928855895996e+00,-4.777453243732452393e-01
-8.917387962341308594e+00,1.944439530372619629e+00,-1.593107283115386963e-01
-8.928341865539550781e+00,1.946828007698059082e+00,1.595064252614974976e-01
-8.938570976257324219e+00,1.949058413505554199e+00,4.794570803642272949e-01
-8.949295997619628906e+00,1.951397061347961426e+00,8.013579249382019043e-01
-8.961265563964843750e+00,1.954007029533386230e+00,1.126157164573669434e+00
-3.906564712524414062e+00,7.934349775314331055e-01,-1.068130970001220703e+00
-4.651949882507324219e+00,9.448248744010925293e-01,-1.095913171768188477e+00
-5.705904483795166016e+00,1.158886313438415527e+00,-1.131758570671081543e+00
-7.371267318725585938e+00,1.497126340866088867e+00,-1.191328883171081543e+00
-9.638442993164062500e+00,1.957596659660339355e+00,-1.207612752914428711e+00
-9.649591445922851562e+00,1.959860801696777344e+00,-8.614652156829833984e-01
-9.661396026611328125e+00,1.962258338928222656e+00,-5.166693329811096191e-01
-9.673030853271484375e+00,1.964621424674987793e+00,-1.722903996706008911e-01
-9.684530258178710938e+00,1.966956973075866699e+00,1.724952161312103271e-01
-9.696754455566406250e+00,1.969439744949340820e+00,5.185602307319641113e-01
-9.708005905151367188e+00,1.971724867820739746e+00,8.666800856590270996e-01
-9.720212936401367188e+00,1.974204301834106445e+00,1.217857718467712402e+00
-3.926158428192138672e+00,7.390690445899963379e-01,-1.070486187934875488e+00
-4.663239002227783203e+00,8.778187632560729980e-01,-1.095500469207763672e+00
-5.737000465393066406e+00,1.079946160316467285e+00,-1.134744167327880859e+00
-7.382171154022216797e+00,1.389636874198913574e+00,-1.189754724502563477e+00
-1.033886814117431641e+01,1.946212172508239746e+00,-1.291747331619262695e+00
-1.055517005920410156e+01,1.986929297447204590e+00,-9.396753311157226562e-01
-1.056788253784179688e+01,1.989322423934936523e+00,-5.635657310485839844e-01
-1.058061695098876953e+01,1.991719603538513184e+00,-1.879287809133529663e-01
-1.059334087371826172e+01,1.994114756584167480e+00,1.881547719240188599e-01
-1.060623836517333984e+01,1.996542572975158691e+00,5.656111240386962891e-01
-1.061906814575195312e+01,1.998957753181457520e+00,9.453638792037963867e-01
-3.928023576736450195e+00,6.813607215881347656e-01,-1.068226218223571777e+00
-4.674537181854248047e+00,8.108520507812500000e-01,-1.095315933227539062e+00
-5.729518413543701172e+00,9.938506484031677246e-01,-1.130334734916687012e+00
-7.393336296081542969e+00,1.282458901405334473e+00,-1.188473939895629883e+00
-1.040829944610595703e+01,1.805438756942749023e+00,-1.297060608863830566e+00
-1.160366916656494141e+01,2.012789249420166016e+00,-1.030347704887390137e+00
-1.161765766143798828e+01,2.015215873718261719e+00,-6.179467439651489258e-01
-1.163163661956787109e+01,2.017640590667724609e+00,-2.060625255107879639e-01
-1.164557838439941406e+01,2.020058870315551758e+00,2.063094973564147949e-01
-1.165923690795898438e+01,2.022428035736083984e+00,6.201583147048950195e-01
-1.167387676239013672e+01,2.024967670440673828e+00,1.036581873893737793e+00
-3.950315952301025391e+00,6.271278262138366699e-01,-1.071737647056579590e+00
-4.689475536346435547e+00,7.444722056388854980e-01,-1.096207022666931152e+00
-5.764725685119628906e+00,9.151722788810729980e-01,-1.134580016136169434e+00
-7.410601139068603516e+00,1.176461338996887207e+00,-1.188420653343200684e+00
-1.036029624938964844e+01,1.644736766815185547e+00,-1.288012742996215820e+00
-1.289670276641845703e+01,2.047400951385498047e+00,-1.142443418502807617e+00
-1.291204833984375000e+01,2.049837112426757812e+00,-6.851649284362792969e-01
-1.292755985260009766e+01,2.052299737930297852e+00,-2.284768819808959961e-01
-1.294320964813232422e+01,2.054784059524536133e+00,2.287534624338150024e-01
-1.295895004272460938e+01,2.057282924652099609e+00,6.876537203788757324e-01
-1.297450256347656250e+01,2.059751987457275391e+00,1.149335265159606934e+00
-3.958271503448486328e+00,5.704379677772521973e-01,-1.071571111679077148e+00
-4.707944869995117188e+00,6.784756183624267578e-01,-1.098141908645629883e+00
-5.766823291778564453e+00,8.310736417770385742e-01,-1.132535696029663086e+00
-7.433759212493896484e+00,1.071300625801086426e+00,-1.189553499221801758e+00
-1.044515228271484375e+01,1.505281209945678711e+00,-1.295750975608825684e+00
-1.452531528472900391e+01,2.093285322189331055e+00,-1.283926963806152344e+00
-1.454240798950195312e+01,2.095748662948608398e+00,-7.700077295303344727e-01
-1.455984878540039062e+01,2.098262071609497070e+00,-2.567682564258575439e-01
-1.457759189605712891e+01,2.100819110870361328e+00,2.570811510086059570e-01
-1.459453678131103516e+01,2.103260993957519531e+00,7.727678418159484863e-01
-3.966181755065917969e+00,5.137484669685363770e-01,-1.071612119674682617e+00
-4.702195644378662109e+00,6.090859770774841309e-01,-1.094655156135559082e+00
-5.769222736358642578e+00,7.473004460334777832e-01,-1.130790472030639648e+00
-7.456651687622070312e+00,9.658768773078918457e-01,-1.190882444381713867e+00
-1.040764713287353516e+01,1.348125934600830078e+00,-1.288572549819946289e+00
-1.653167152404785156e+01,2.141384601593017578e+00,-1.458414912223815918e+00
-1.655121421813964844e+01,2.143915891647338867e+00,-8.746577501296997070e-01
-1.657099914550781250e+01,2.146478652954101562e+00,-2.916639149188995361e-01
