4.156383514404296875e+00,-1.487839221954345703e-01,3.638688027858734131e-01
4.161382198333740234e+00,-1.489628553390502930e-01,5.112800002098083496e-01
4.167419433593750000e+00,-1.491789668798446655e-01,6.604761481285095215e-01
4.171852111816406250e+00,-1.493376493453979492e-01,8.114441037178039551e-01
4.177254676818847656e+00,-1.495310366153717041e-01,9.650114774703979492e-01
3.979448795318603516e+00,-8.544681221246719360e-02,-1.066534161567687988e+00
4.124467372894287109e+00,-8.856065571308135986e-02,-9.524263143539428711e-01
4.128741741180419922e+00,-8.865243941545486450e-02,-8.027298450469970703e-01
4.133939266204833984e+00,-8.876403421163558960e-02,-6.549015641212463379e-01
4.138960361480712891e+00,-8.887185156345367432e-02,-5.083168148994445801e-01
4.144334316253662109e+00,-8.898723870515823364e-02,-3.626652956008911133e-01
4.149188518524169922e+00,-8.909147232770919800e-02,-2.174995541572570801e-01
4.154202938079833984e+00,-8.919914066791534424e-02,-7.252848148345947266e-02
4.159389019012451172e+00,-8.931050449609756470e-02,7.261903584003448486e-02
4.164097785949707031e+00,-8.941160887479782104e-02,2.182810902595520020e-01
4.169219017028808594e+00,-8.952157199382781982e-02,3.648429512977600098e-01
4.174251079559326172e+00,-8.962961286306381226e-02,5.126509666442871094e-01
4.180328845977783203e+00,-8.976012468338012695e-02,6.622506976127624512e-01
4.184801101684570312e+00,-8.985614776611328125e-02,8.136292099952697754e-01
4.190249919891357422e+00,-8.997314423322677612e-02,9.676169157028198242e-01
3.978396415710449219e+00,-2.847085148096084595e-02,-1.066033720970153809e+00
4.134658813476562500e+00,-2.958912029862403870e-02,-9.545841217041015625e-01
4.140248298645019531e+00,-2.962912246584892273e-02,-8.048021197319030762e-01
4.145452022552490234e+00,-2.966636046767234802e-02,-6.565908789634704590e-01
4.150480747222900391e+00,-2.970234863460063934e-02,-5.096272230148315430e-01
4.155866146087646484e+00,-2.974089048802852631e-02,-3.635999560356140137e-01
4.160732746124267578e+00,-2.977571450173854828e-02,-2.180600166320800781e-01
4.165760040283203125e+00,-2.981169521808624268e-02,-7.271537184715270996e-02
4.170963287353515625e+00,-2.984892763197422028e-02,7.280618697404861450e-02
4.175688266754150391e+00,-2.988274209201335907e-02,2.188438177108764648e-01
4.180830001831054688e+00,-2.991954050958156586e-02,3.657840490341186523e-01
4.185883045196533203e+00,-2.995570190250873566e-02,5.139741897583007812e-01
4.190661907196044922e+00,-2.998990193009376526e-02,6.637516617774963379e-01
4.196484088897705078e+00,-3.003156371414661407e-02,8.157334923744201660e-01
4.201961040496826172e+00,-3.007076308131217957e-02,9.701225161552429199e-01
3.977126121520996094e+00,2.846175990998744965e-02,-1.065693378448486328e+00
4.147592067718505859e+00,2.968167513608932495e-02,-9.575700759887695312e-01
4.153198242187500000e+00,2.972179651260375977e-02,-8.073194026947021484e-01
4.158418655395507812e+00,2.975915558636188507e-02,-6.586446762084960938e-01
4.163463115692138672e+00,2.979525364935398102e-02,-5.112212896347045898e-01
4.168865203857421875e+00,2.983391284942626953e-02,-3.647372126579284668e-01
4.173746109008789062e+00,2.986884675920009613e-02,-2.187420576810836792e-01
4.178790092468261719e+00,2.990493923425674438e-02,-7.294280827045440674e-02
4.184009075164794922e+00,2.994228899478912354e-02,7.303390651941299438e-02
4.188748836517333984e+00,2.997621148824691772e-02,2.195283323526382446e-01
4.193906784057617188e+00,3.001311980187892914e-02,3.669281303882598877e-01
4.198975563049316406e+00,3.004939667880535126e-02,5.155818462371826172e-01
4.203769207000732422e+00,3.008370101451873779e-02,6.658276915550231934e-01
4.209609031677246094e+00,3.012549132108688354e-02,8.182848095893859863e-01
4.215103626251220703e+00,3.016481362283229828e-02,9.731567502021789551e-01
3.975916385650634766e+00,8.537096530199050903e-02,-1.065587520599365234e+00
4.160404205322265625e+00,8.933229744434356689e-02,-9.607249498367309570e-01
4.164714813232421875e+00,8.942485600709915161e-02,-8.097239732742309570e-01
4.169957637786865234e+00,8.953741937875747681e-02,-6.606076359748840332e-01
4.175021171569824219e+00,8.964615315198898315e-02,-5.127455592155456543e-01
4.180442333221435547e+00,8.976255357265472412e-02,-3.658250570297241211e-01
4.185339927673339844e+00,8.986771106719970703e-02,-2.193945944309234619e-01
4.190396785736083984e+00,8.997630327939987183e-02,-7.316040247678756714e-02
4.195628643035888672e+00,9.008863568305969238e-02,7.325174659490585327e-02
4.200377464294433594e+00,9.019060432910919189e-02,2.201828658580780029e-01
4.205543041229248047e+00,9.030151367187500000e-02,3.680215775966644287e-01
4.210617542266845703e+00,9.041048586368560791e-02,5.171172618865966797e-01
4.216748714447021484e+00,9.054213017225265503e-02,6.680203676223754883e-01
4.221259117126464844e+00,9.063897281885147095e-02,8.207175135612487793e-01
4.226755619049072266e+00,9.075699746608734131e-02,9.760468602180480957e-01
3.974668502807617188e+00,1.422791630029678345e-01,-1.065689682960510254e+00
4.173543453216552734e+00,1.493981927633285522e-01,-9.641541242599487305e-01
4.177889823913574219e+00,1.495537757873535156e-01,-8.126184344291687012e-01
4.183166027069091797e+00,1.497426480054855347e-01,-6.629717946052551270e-01
4.188259124755859375e+00,1.499249637126922607e-01,-5.145821571350097656e-01
4.193705558776855469e+00,1.501199156045913696e-01,-3.671361207962036133e-01
4.198623657226562500e+00,1.502959728240966797e-01,-2.201811522245407104e-01
4.203697204589843750e+00,1.504775881767272949e-01,-7.342269271612167358e-02
4.208940029144287109e+00,1.506652683019638062e-01,7.351426780223846436e-02
4.213695049285888672e+00,1.508354842662811279e-01,2.209715247154235840e-01
4.218864440917968750e+00,1.510205268859863281e-01,3.693386912345886230e-01
4.223937034606933594e+00,1.512020975351333618e-01,5.189656615257263184e-01
4.230063915252685547e+00,1.514214277267456055e-01,6.704044342041015625e-01
4.234563350677490234e+00,1.515824794769287109e-01,8.236417174339294434e-01
4.240046024322509766e+00,1.517787426710128784e-01,9.795172214508056641e-01
3.973294496536254883e+00,1.992036402225494385e-01,-1.065976619720458984e+00
4.185024261474609375e+00,2.098188400268554688e-01,-9.674010276794433594e-01
4.189412593841552734e+00,2.100388556718826294e-01,-8.153609037399291992e-01
4.194726943969726562e+00,2.103053033351898193e-01,-6.652129292488098145e-01
4.199851989746093750e+00,2.105622440576553345e-01,-5.163239240646362305e-01
4.205324649810791016e+00,2.108366191387176514e-01,-3.683798015117645264e-01
4.210262775421142578e+00,2.110841870307922363e-01,-2.209273278713226318e-01
4.215349197387695312e+00,2.113392055034637451e-01,-7.367150485515594482e-02
4.220601081848144531e+00,2.116025090217590332e-01,7.376328855752944946e-02
4.225357532501220703e+00,2.118409872055053711e-01,2.217194139957427979e-01
4.230522632598876953e+00,2.120999395847320557e-01,3.705871105194091797e-01
4.235585689544677734e+00,2.123537808656692505e-01,5.207169651985168457e-01
4.241699695587158203e+00,2.126602977514266968e-01,6.726620197296142578e-01
4.246176719665527344e+00,2.128847539424896240e-01,8.264085054397583008e-01
4.251633167266845703e+00,2.131583243608474731e-01,9.827982187271118164e-01
3.972058534622192383e+00,2.561794221401214600e-01,-1.066519498825073242e+00
4.198356628417968750e+00,2.707745730876922607e-01,-9.712792634963989258e-01
4.202804088592529297e+00,2.710614204406738281e-01,-8.186384439468383789e-01
4.208169937133789062e+00,2.714075148105621338e-01,-6.678924560546875000e-01
4.213337898254394531e+00,2.717408239841461182e-01,-5.184069275856018066e-01
4.218844890594482422e+00,2.720960080623626709e-01,-3.698674440383911133e-01
4.223808765411376953e+00,2.724161148071289062e-01,-2.218200117349624634e-01
4.228912353515625000e+00,2.727453112602233887e-01,-7.396919280290603638e-02
4.234170913696289062e+00,2.730844616889953613e-01,7.406117767095565796e-02
4.238925457000732422e+00,2.733910977840423584e-01,2.226139008998870850e-01
4.244080066680908203e+00,2.737235426902770996e-01,3.720797896385192871e-01
4.249123573303222656e+00,2.740488350391387939e-01,5.228099822998046875e-01
4.255210876464843750e+00,2.744414210319519043e-01,6.753584146499633789e-01
4.259650230407714844e+00,2.747277617454528809e-01,8.297111988067626953e-01
4.265063762664794922e+00,2.750768959522247314e-01,9.867119193077087402e-01
3.970506429672241211e+00,3.132001161575317383e-01,-1.067197203636169434e+00
4.209808349609375000e+00,3.320766687393188477e-01,-9.749284386634826660e-01
4.214317321777343750e+00,3.324323594570159912e-01,-8.217237591743469238e-01
4.219737052917480469e+00,3.328598439693450928e-01,-6.704157590866088867e-01
4.224948883056640625e+00,3.332709372043609619e-01,-5.203691124916076660e-01
4.230489730834960938e+00,3.337080478668212891e-01,-3.712690472602844238e-01
4.235476970672607422e+00,3.341014385223388672e-01,-2.226611226797103882e-01
4.240594863891601562e+00,3.345051407814025879e-01,-7.424967736005783081e-02
4.245858669281005859e+00,3.349203765392303467e-01,7.434184104204177856e-02
4.250606060028076172e+00,3.352948725223541260e-01,2.234564870595932007e-01
4.255745410919189453e+00,3.357002437114715576e-01,3.734854757785797119e-01
4.260763168334960938e+00,3.360960781574249268e-01,5.247802734375000000e-01
4.266816616058349609e+00,3.365735709667205811e-01,6.778956055641174316e-01
4.271210670471191406e+00,3.369201719760894775e-01,8.328169584274291992e-01
4.276570796966552734e+00,3.373429775238037109e-01,9.903895854949951172e-01
3.942065954208374023e+00,3.677965700626373291e-01,-1.060859203338623047e+00
4.223313808441162109e+00,3.940371274948120117e-01,-9.792619347572326660e-01
4.229007720947265625e+00,3.945683538913726807e-01,-8.256046772003173828e-01
4.233395099639892578e+00,3.949777185916900635e-01,-6.734149456024169922e-01
4.238663196563720703e+00,3.954692184925079346e-01,-5.227019190788269043e-01
4.244248390197753906e+00,3.959903120994567871e-01,-3.729357421398162842e-01
4.249264717102050781e+00,3.964583575725555420e-01,-2.236613631248474121e-01
4.254399776458740234e+00,3.969374299049377441e-01,-7.458323240280151367e-02
4.259665966033935547e+00,3.974288105964660645e-01,7.467555254697799683e-02
4.264403343200683594e+00,3.978708088397979736e-01,2.244582027196884155e-01
4.269518375396728516e+00,3.983480334281921387e-01,3.751561939716339111e-01
4.275609970092773438e+00,3.989163637161254883e-01,5.272580981254577637e-01
4.280504226684570312e+00,3.993729948997497559e-01,6.809086203575134277e-01
4.286414146423339844e+00,3.999243974685668945e-01,8.368118405342102051e-01
4.291924476623535156e+00,4.004385173320770264e-01,9.951707124710083008e-01
3.940330743789672852e+00,4.246014654636383057e-01,-1.061918973922729492e+00
4.234710693359375000e+00,4.563232064247131348e-01,-9.833182692527770996e-01
4.240486621856689453e+00,4.569456279277801514e-01,-8.290376067161560059e-01
4.245808601379394531e+00,4.575191140174865723e-01,-6.763620376586914062e-01
4.250889301300048828e+00,4.580665826797485352e-01,-5.249643921852111816e-01
4.255893230438232422e+00,4.586058259010314941e-01,-3.744974136352539062e-01
4.260937690734863281e+00,4.591493904590606689e-01,-2.245987057685852051e-01
4.266087532043457031e+00,4.597043395042419434e-01,-7.489581406116485596e-02
4.271354198455810547e+00,4.602718055248260498e-01,7.498826831579208374e-02
4.276699066162109375e+00,4.608478248119354248e-01,2.254295051097869873e-01
4.282032489776611328e+00,4.614225327968597412e-01,3.767975270748138428e-01
4.287213802337646484e+00,4.619808495044708252e-01,5.294502973556518555e-01
4.292053699493408203e+00,4.625023603439331055e-01,6.837288737297058105e-01
4.297895908355712891e+00,4.631319046020507812e-01,8.402613997459411621e-01
4.303325653076171875e+00,4.637170135974884033e-01,9.992509484291076660e-01
3.939060688018798828e+00,4.815890192985534668e-01,-1.063325524330139160e+00
4.248359203338623047e+00,5.194038152694702148e-01,-9.881126880645751953e-01
4.254239559173583984e+00,5.201227068901062012e-01,-8.330965638160705566e-01
4.259648799896240234e+00,5.207840800285339355e-01,-6.796846389770507812e-01
4.264799594879150391e+00,5.214138031005859375e-01,-5.275498628616333008e-01
4.269856452941894531e+00,5.220320224761962891e-01,-3.763450384140014648e-01
4.274935722351074219e+00,5.226530432701110840e-01,-2.257077544927597046e-01
4.280102252960205078e+00,5.232846736907958984e-01,-7.526563853025436401e-02
4.285367488861083984e+00,5.239284038543701172e-01,7.535822689533233643e-02
4.290693759918212891e+00,5.245796442031860352e-01,2.265397608280181885e-01
4.295990943908691406e+00,5.252272486686706543e-01,3.786485195159912109e-01
4.301117420196533203e+00,5.258539915084838867e-01,5.320423245429992676e-01
4.305885314941406250e+00,5.264369249343872070e-01,6.870622634887695312e-01
4.311639308929443359e+00,5.271403789520263672e-01,8.443369865417480469e-01
4.316964149475097656e+00,5.277913808822631836e-01,1.004069209098815918e+00
3.937091112136840820e+00,5.386441946029663086e-01,-1.064766049385070801e+00
4.261004447937011719e+00,5.829597115516662598e-01,-9.928928017616271973e-01
4.265645980834960938e+00,5.835946798324584961e-01,-8.368803262710571289e-01
4.271140098571777344e+00,5.843464136123657227e-01,-6.827828884124755859e-01
4.276358127593994141e+00,5.850602388381958008e-01,-5.299612283706665039e-01
4.281464099884033203e+00,5.857588052749633789e-01,-3.780684173107147217e-01
4.286575794219970703e+00,5.864581465721130371e-01,-2.267422974109649658e-01
4.291756629943847656e+00,5.871669650077819824e-01,-7.561062276363372803e-02
4.297018051147460938e+00,5.878868103027343750e-01,7.570332288742065430e-02
4.302322864532470703e+00,5.886125564575195312e-01,2.275752425193786621e-01
4.307579517364501953e+00,5.893317461013793945e-01,3.803744614124298096e-01
4.312648773193359375e+00,5.900252461433410645e-01,5.344586372375488281e-01
4.318696022033691406e+00,5.908526182174682617e-01,6.903851032257080078e-01
4.323005199432373047e+00,5.914421677589416504e-01,8.481336832046508789e-01
4.328222274780273438e+00,5.921559333801269531e-01,1.008555769920349121e+00
3.909003734588623047e+00,5.919119715690612793e-01,-1.059352755546569824e+00
4.274751663208007812e+00,6.472945213317871094e-01,-9.981527924537658691e-01
4.279520034790039062e+00,6.480165719985961914e-01,-8.413358330726623535e-01
4.285119056701660156e+00,6.488643884658813477e-01,-6.864319443702697754e-01
4.290420532226562500e+00,6.496671438217163086e-01,-5.328018069267272949e-01
4.295588970184326172e+00,6.504497528076171875e-01,-3.800988495349884033e-01
4.300739288330078125e+00,6.512296795845031738e-01,-2.279612123966217041e-01
4.305936336517333984e+00,6.520166397094726562e-01,-7.601707428693771362e-02
4.311193466186523438e+00,6.528126597404479980e-01,7.610988616943359375e-02
4.316469192504882812e+00,6.536115407943725586e-01,2.287949770689010620e-01
4.321676731109619141e+00,6.544000506401062012e-01,3.824072480201721191e-01
4.326674461364746094e+00,6.551568508148193359e-01,5.373039841651916504e-01
4.332626819610595703e+00,6.560581922531127930e-01,6.940422058105468750e-01
4.338409423828125000e+00,6.569337844848632812e-01,8.529132604598999023e-01
4.343716621398925781e+00,6.577374339103698730e-01,1.014256119728088379e+00
3.907652139663696289e+00,6.490460634231567383e-01,-1.061395287513732910e+00
4.288584232330322266e+00,7.123174667358398438e-01,-1.003660559654235840e+00
4.293491363525390625e+00,7.131325006484985352e-01,-8.460026383399963379e-01
4.299204826354980469e+00,7.140814661979675293e-01,-6.902548670768737793e-01
4.304596424102783203e+00,7.149769663810729980e-01,-5.357782244682312012e-01
4.309831142425537109e+00,7.158464789390563965e-01,-3.822265863418579102e-01
4.315023422241210938e+00,7.167088985443115234e-01,-2.292386144399642944e-01
4.320238113403320312e+00,7.175750136375427246e-01,-7.644305378198623657e-02
4.325487613677978516e+00,7.184469103813171387e-01,7.653593271970748901e-02
4.330731391906738281e+00,7.193179130554199219e-01,2.300731092691421509e-01
4.335881233215332031e+00,7.201732993125915527e-01,3.845368921756744385e-01
4.340798377990722656e+00,7.209900021553039551e-01,5.402841567993164062e-01
4.346645355224609375e+00,7.219612002372741699e-01,6.978716850280761719e-01
4.352300167083740234e+00,7.229003906250000000e-01,8.575904369354248047e-01
4.357456207275390625e+00,7.237567901611328125e-01,1.019778728485107422e+00
3.905311107635498047e+00,7.062347531318664551e-01,-1.063396215438842773e+00
4.299708366394042969e+00,7.775574326515197754e-01,-1.008765339851379395e+00
4.305855274200439453e+00,7.786689996719360352e-01,-8.505478501319885254e-01
4.310566902160644531e+00,7.795210480690002441e-01,-6.937994956970214844e-01
4.316043853759765625e+00,7.805114984512329102e-01,-5.385383963584899902e-01
4.321340560913085938e+00,7.814693450927734375e-01,-3.841999769210815430e-01
4.326570034027099609e+00,7.824150323867797852e-01,-2.304233908653259277e-01
4.331799030303955078e+00,7.833606600761413574e-01,-7.683813571929931641e-02
4.337038516998291016e+00,7.843081355094909668e-01,7.693107426166534424e-02
4.342247962951660156e+00,7.852502465248107910e-01,2.312583625316619873e-01
4.347340583801269531e+00,7.861711978912353516e-01,3.865115642547607422e-01
4.353292465209960938e+00,7.872475385665893555e-01,5.431861281394958496e-01
4.357919216156005859e+00,7.880841493606567383e-01,7.014209032058715820e-01
4.363446235656738281e+00,7.890837192535400391e-01,8.619239330291748047e-01
4.370269775390625000e+00,7.903177142143249512e-01,1.025319933891296387e+00
3.877494335174560547e+00,7.586685419082641602e-01,-1.058670401573181152e+00
4.314896106719970703e+00,8.442503213882446289e-01,-1.015059590339660645e+00
4.319857597351074219e+00,8.452211022377014160e-01,-8.556159138679504395e-01
4.325574398040771484e+00,8.463395833969116211e-01,-6.980932354927062988e-01
4.330283164978027344e+00,8.472608923912048340e-01,-5.417727828025817871e-01
4.335653781890869141e+00,8.483117818832397461e-01,-3.865124881267547607e-01
4.340930938720703125e+00,8.493442535400390625e-01,-2.318119257688522339e-01
4.346176624298095703e+00,8.503705859184265137e-01,-7.730115205049514771e-02
4.351403713226318359e+00,8.513934016227722168e-01,7.739412784576416016e-02
4.356572628021240234e+00,8.524047136306762695e-01,2.326472103595733643e-01
4.362469673156738281e+00,8.535585403442382812e-01,3.889030516147613525e-01
4.367447853088378906e+00,8.545325994491577148e-01,5.464226007461547852e-01
4.373305797576904297e+00,8.556787371635437012e-01,7.057965397834777832e-01
4.378912448883056641e+00,8.567757010459899902e-01,8.673126101493835449e-01
4.383964538574218750e+00,8.577642440795898438e-01,1.031307697296142578e+00
3.875937461853027344e+00,8.161275982856750488e-01,-1.061326026916503906e+00
4.328773021697998047e+00,9.114778041839599609e-01,-1.021288633346557617e+00
4.333905696868896484e+00,9.125586152076721191e-01,-8.608973026275634766e-01
4.339762210845947266e+00,9.137917757034301758e-01,-7.024219036102294922e-01
4.344582557678222656e+00,9.148067831993103027e-01,-5.451442599296569824e-01
4.350033760070800781e+00,9.159545302391052246e-01,-3.889233469963073730e-01
4.355358123779296875e+00,9.170756936073303223e-01,-2.332594543695449829e-01
4.360620975494384766e+00,9.181838631629943848e-01,-7.778385281562805176e-02
4.365834712982177734e+00,9.192816615104675293e-01,7.787685096263885498e-02
4.370958805084228516e+00,9.203606247901916504e-01,2.340949624776840210e-01
4.376777648925781250e+00,9.215857982635498047e-01,3.913144469261169434e-01
4.381649494171142578e+00,9.226116538047790527e-01,5.497952699661254883e-01
4.387369155883789062e+00,9.238159656524658203e-01,7.101274132728576660e-01
4.392808437347412109e+00,9.249613285064697266e-01,8.725978136062622070e-01
4.397665500640869141e+00,9.259840250015258789e-01,1.037542462348937988e+00
3.874302625656127930e+00,8.738718032836914062e-01,-1.064194321632385254e+00
4.342664718627929688e+00,9.795135855674743652e-01,-1.027768611907958984e+00
4.349090576171875000e+00,9.809629917144775391e-01,-8.666139245033264160e-01
4.353983402252197266e+00,9.820665717124938965e-01,-7.069264650344848633e-01
4.359549522399902344e+00,9.833220839500427246e-01,-5.487320423126220703e-01
4.364457607269287109e+00,9.844290614128112793e-01,-3.914326131343841553e-01
4.369832992553710938e+00,9.856415987014770508e-01,-2.347662001848220825e-01
4.375113010406494141e+00,9.868325591087341309e-01,-7.828629761934280396e-02
4.380310058593750000e+00,9.880047440528869629e-01,7.837928831577301025e-02
4.386011123657226562e+00,9.892906546592712402e-01,2.356353551149368286e-01
4.391119480133056641e+00,9.904428720474243164e-01,3.938238620758056641e-01
4.396994590759277344e+00,9.917680621147155762e-01,5.534452795982360840e-01
4.401446342468261719e+00,9.927721619606018066e-01,7.146327495574951172e-01
4.406705379486083984e+00,9.939583539962768555e-01,8.780944943428039551e-01
4.413167476654052734e+00,9.954159855842590332e-01,1.044454455375671387e+00
3.846676588058471680e+00,9.256883859634399414e-01,-1.060136914253234863e+00
4.357889652252197266e+00,1.048709988594055176e+00,-1.034818530082702637e+00
4.363162517547607422e+00,1.049978733062744141e+00,-8.723233342170715332e-01
4.368215560913085938e+00,1.051194906234741211e+00,-7.116073966026306152e-01
4.373904705047607422e+00,1.052563905715942383e+00,-5.523787140846252441e-01
4.378902912139892578e+00,1.053766727447509766e+00,-3.940405845642089844e-01
4.384331703186035156e+00,1.055073022842407227e+00,-2.363322526216506958e-01
4.389628410339355469e+00,1.056347727775573730e+00,-7.880850881338119507e-02
4.394807815551757812e+00,1.057594060897827148e+00,7.890148460865020752e-02
4.400453090667724609e+00,1.058952569961547852e+00,2.372012585401535034e-01
4.405473232269287109e+00,1.060160636901855469e+00,3.964315056800842285e-01
4.411221027374267578e+00,1.061543822288513184e+00,5.570913553237915039e-01
4.416871547698974609e+00,1.062903761863708496e+00,7.195336818695068359e-01
4.422169685363769531e+00,1.064178705215454102e+00,8.841205835342407227e-01
4.428633689880371094e+00,1.065734267234802246e+00,1.051617264747619629e+00
3.844839811325073242e+00,9.836675524711608887e-01,-1.063402056694030762e+00
4.371737957000732422e+00,1.118469715118408203e+00,-1.041801691055297852e+00
4.377214431762695312e+00,1.119870901107788086e+00,-8.782474994659423828e-01
4.382436275482177734e+00,1.121206760406494141e+00,-7.164648771286010742e-01
4.388253688812255859e+00,1.122695088386535645e+00,-5.561633110046386719e-01
4.393345832824707031e+00,1.123997926712036133e+00,-3.967473208904266357e-01
4.398829936981201172e+00,1.125400900840759277e+00,-2.379576861858367920e-01
4.404144287109375000e+00,1.126760601997375488e+00,-7.935053110122680664e-02
4.409302234649658203e+00,1.128080129623413086e+00,7.944346219301223755e-02
4.414887905120849609e+00,1.129509210586547852e+00,2.388263642787933350e-01
4.419812679290771484e+00,1.130769252777099609e+00,3.991374671459197998e-01
4.425426483154296875e+00,1.132205367088317871e+00,5.608745217323303223e-01
4.430905818939208984e+00,1.133607268333435059e+00,7.243890166282653809e-01
4.435998439788818359e+00,1.134910225868225098e+00,8.900419473648071289e-01
4.442217826843261719e+00,1.136501431465148926e+00,1.058597326278686523e+00
3.817366600036621094e+00,1.035068988800048828e+00,-1.059792637825012207e+00
4.386873245239257812e+00,1.189489126205444336e+00,-1.049358248710632324e+00
4.392330169677734375e+00,1.190968751907348633e+00,-8.846099972724914551e-01
4.397486209869384766e+00,1.192366719245910645e+00,-7.216416597366333008e-01
4.402570724487304688e+00,1.193745493888854980e+00,-5.600860118865966797e-01
4.408138275146484375e+00,1.195255041122436523e+00,-3.995872139930725098e-01
4.413300991058349609e+00,1.196655035018920898e+00,-2.396425455808639526e-01
4.418632984161376953e+00,1.198100686073303223e+00,-7.991237193346023560e-02
4.424143314361572266e+00,1.199594855308532715e+00,8.001202344894409180e-02
4.429291248321533203e+00,1.200990676879882812e+00,2.405108064413070679e-01
4.434985160827636719e+00,1.202534556388854980e+00,4.020208418369293213e-01
4.440702438354492188e+00,1.204084753990173340e+00,5.649369955062866211e-01
4.446238994598388672e+00,1.205586075782775879e+00,7.296421527862548828e-01
4.451343536376953125e+00,1.206970095634460449e+00,8.964952230453491211e-01
4.457534790039062500e+00,1.208648800849914551e+00,1.066260695457458496e+00
3.790121316909790039e+00,1.086146593093872070e+00,-1.056436538696289062e+00
4.400578498840332031e+00,1.261087179183959961e+00,-1.056846022605895996e+00
4.406258583068847656e+00,1.262714862823486328e+00,-8.909639120101928711e-01
4.411599159240722656e+00,1.264245390892028809e+00,-7.268527150154113770e-01
4.416827678680419922e+00,1.265743732452392578e+00,-5.641468167304992676e-01
4.422496318817138672e+00,1.267368197441101074e+00,-4.024918973445892334e-01
4.427719593048095703e+00,1.268864989280700684e+00,-2.413869202136993408e-01
4.433068752288818359e+00,1.270397901535034180e+00,-8.049405366182327271e-02
4.438552379608154297e+00,1.271969437599182129e+00,8.059363067150115967e-02
4.443634033203125000e+00,1.273425579071044922e+00,2.422545254230499268e-01
4.449217796325683594e+00,1.275025963783264160e+00,4.049238562583923340e-01
4.454782485961914062e+00,1.276620507240295410e+00,5.689945816993713379e-01
4.460127830505371094e+00,1.278152346611022949e+00,7.348482608795166016e-01
4.466591835021972656e+00,1.280004739761352539e+00,9.031635522842407227e-01
4.470920562744140625e+00,1.281245350837707520e+00,1.073739528656005859e+00
3.787835121154785156e+00,1.144402623176574707e+00,-1.060256481170654297e+00
4.415514469146728516e+00,1.334040641784667969e+00,-1.064909815788269043e+00
4.420085906982421875e+00,1.335421919822692871e+00,-8.975329995155334473e-01
4.425618648529052734e+00,1.337093472480773926e+00,-7.322408556938171387e-01
4.431623458862304688e+00,1.338907599449157715e+00,-5.684261322021484375e-01
4.436770439147949219e+00,1.340462684631347656e+00,-4.054956138134002686e-01
4.442055225372314453e+00,1.342059373855590820e+00,-2.431908249855041504e-01
4.447422027587890625e+00,1.343680739402770996e+00,-8.109559118747711182e-02
4.452877998352050781e+00,1.345329165458679199e+00,8.119507879018783569e-02
4.458512783050537109e+00,1.347031593322753906e+00,2.440918236970901489e-01
4.463356971740722656e+00,1.348495125770568848e+00,4.079254865646362305e-01
4.468761444091796875e+00,1.350127935409545898e+00,5.731896758079528809e-01
4.475258350372314453e+00,1.352090954780578613e+00,7.404540181159973145e-01
4.480120658874511719e+00,1.353559851646423340e+00,9.097234606742858887e-01
4.485979557037353516e+00,1.355329990386962891e+00,1.081904172897338867e+00
3.760601520538330078e+00,1.195170283317565918e+00,-1.057313680648803711e+00
4.428964614868164062e+00,1.407585144042968750e+00,-1.072902798652648926e+00
4.434888839721679688e+00,1.409467935562133789e+00,-9.045427441596984863e-01
4.440382957458496094e+00,1.411214232444763184e+00,-7.379502058029174805e-01
4.445672512054443359e+00,1.412895202636718750e+00,-5.727635025978088379e-01
4.450931072235107422e+00,1.414566397666931152e+00,-4.085984528064727783e-01
4.456279277801513672e+00,1.416266202926635742e+00,-2.450542598962783813e-01
4.461662292480468750e+00,1.417977094650268555e+00,-8.171697705984115601e-02
4.467088699340820312e+00,1.419701576232910156e+00,8.181635290384292603e-02
4.472646236419677734e+00,1.421467781066894531e+00,2.459542900323867798e-01
4.478240489959716797e+00,1.423245787620544434e+00,4.111055135726928711e-01
4.483720302581787109e+00,1.424987196922302246e+00,5.776653885841369629e-01
4.488888263702392578e+00,1.426629781723022461e+00,7.460113167762756348e-01
4.495081901550292969e+00,1.428598165512084961e+00,9.168197512626647949e-01
4.500866413116455078e+00,1.430436611175537109e+00,1.090320825576782227e+00
3.759585380554199219e+00,1.254366159439086914e+00,-1.061967134475708008e+00
4.437523365020751953e+00,1.480556726455688477e+00,-1.079999208450317383e+00
4.452280044555664062e+00,1.485480189323425293e+00,-9.123331308364868164e-01
4.458009243011474609e+00,1.487391710281372070e+00,-7.443413734436035156e-01
4.463480472564697266e+00,1.489217162132263184e+00,-5.777449011802673340e-01
4.468868255615234375e+00,1.491014719009399414e+00,-4.121620655059814453e-01
4.474293231964111328e+00,1.492824792861938477e+00,-2.471945583820343018e-01
4.479697704315185547e+00,1.494627952575683594e+00,-8.243068307638168335e-02
4.485091209411621094e+00,1.496427416801452637e+00,8.252991735935211182e-02
4.490560531616210938e+00,1.498252272605895996e+00,2.480932921171188354e-01
4.496014595031738281e+00,1.500072002410888672e+00,4.146657884120941162e-01
4.501302242279052734e+00,1.501836180686950684e+00,5.826404690742492676e-01
4.507576942443847656e+00,1.503929615020751953e+00,7.526175379753112793e-01
4.512121200561523438e+00,1.505445957183837891e+00,9.245954155921936035e-01
4.519369602203369141e+00,1.507864236831665039e+00,1.099918842315673828e+00
3.732321262359619141e+00,1.304923892021179199e+00,-1.059433341026306152e+00
4.434162616729736328e+00,1.550307273864746094e+00,-1.084470868110656738e+00
4.466819286346435547e+00,1.561725020408630371e+00,-9.197987914085388184e-01
4.471660137176513672e+00,1.563417434692382812e+00,-7.502801418304443359e-01
4.477298736572265625e+00,1.565388798713684082e+00,-5.823740363121032715e-01
4.482804298400878906e+00,1.567313790321350098e+00,-4.154739081859588623e-01
4.488296508789062500e+00,1.569234013557434082e+00,-2.491836100816726685e-01
4.493717193603515625e+00,1.571129322052001953e+00,-8.309394866228103638e-02
4.499076366424560547e+00,1.573003053665161133e+00,8.319304883480072021e-02
4.504461765289306641e+00,1.574885845184326172e+00,2.500810921192169189e-01
4.509779930114746094e+00,1.576745271682739258e+00,4.179740548133850098e-01
4.515994071960449219e+00,1.578917860984802246e+00,5.874072313308715820e-01
4.520922660827636719e+00,1.580641031265258789e+00,7.585456967353820801e-01
4.526767253875732422e+00,1.582684397697448730e+00,9.321430921554565430e-01
4.532103061676025391e+00,1.584550023078918457e+00,1.108424305915832520e+00
3.706947565078735352e+00,1.355897188186645508e+00,-1.057631492614746094e+00
4.398288726806640625e+00,1.608770370483398438e+00,-1.081218004226684570e+00
4.484086990356445312e+00,1.640152931213378906e+00,-9.280935525894165039e-01
4.490045547485351562e+00,1.642332434654235840e+00,-7.572315931320190430e-01
4.495638370513916016e+00,1.644378185272216797e+00,-5.877608060836791992e-01
4.501036167144775391e+00,1.646352529525756836e+00,-4.193047285079956055e-01
4.506231307983398438e+00,1.648252725601196289e+00,-2.514633536338806152e-01
4.511674404144287109e+00,1.650243639945983887e+00,-8.385417610406875610e-02
4.517368316650390625e+00,1.652326345443725586e+00,8.396000415086746216e-02
4.522906780242919922e+00,1.654352068901062012e+00,2.523939013481140137e-01
4.528315544128417969e+00,1.656330585479736328e+00,4.218460321426391602e-01
4.533450126647949219e+00,1.658208608627319336e+00,5.927042961120605469e-01
4.539458274841308594e+00,1.660406231880187988e+00,7.655649185180664062e-01
4.545211315155029297e+00,1.662510514259338379e+00,9.407448172569274902e-01
4.550394535064697266e+00,1.664406418800354004e+00,1.118609786033630371e+00
3.679892301559448242e+00,1.406034350395202637e+00,-1.055546164512634277e+00
4.360600471496582031e+00,1.666123151779174805e+00,-1.077705383300781250e+00
4.498218536376953125e+00,1.718705296516418457e+00,-9.360143542289733887e-01
4.503306865692138672e+00,1.720649480819702148e+00,-7.635434269905090332e-01
4.509077548980712891e+00,1.722854256629943848e+00,-5.926811695098876953e-01
4.514600753784179688e+00,1.724964618682861328e+00,-4.228251576423645020e-01
4.519995212554931641e+00,1.727025747299194336e+00,-2.535849213600158691e-01
4.525449752807617188e+00,1.729109764099121094e+00,-8.456154167652130127e-02
4.530982494354248047e+00,1.731223821640014648e+00,8.466492593288421631e-02
4.536426067352294922e+00,1.733303785324096680e+00,2.545067369937896729e-01
4.541688919067382812e+00,1.735314488410949707e+00,4.253621399402618408e-01
4.547730922698974609e+00,1.737623214721679688e+00,5.977618694305419922e-01
4.553722381591796875e+00,1.739912390708923340e+00,7.720913887023925781e-01
4.559399604797363281e+00,1.742081522941589355e+00,9.487451910972595215e-01
4.564450740814208984e+00,1.744011521339416504e+00,1.128086090087890625e+00
3.654767513275146484e+00,1.456713676452636719e+00,-1.054212093353271484e+00
4.358595371246337891e+00,1.737244606018066406e+00,-1.083244442939758301e+00
4.515205860137939453e+00,1.799666404724121094e+00,-9.448125362396240234e-01
4.521427154541015625e+00,1.802145957946777344e+00,-7.709103226661682129e-01
4.526543140411376953e+00,1.804185152053833008e+00,-5.983099937438964844e-01
4.532212257385253906e+00,1.806444764137268066e+00,-4.268525242805480957e-01
4.537691116333007812e+00,1.808628559112548828e+00,-2.560038566589355469e-01
4.543166160583496094e+00,1.810810804367065430e+00,-8.536816388368606567e-02
4.548656940460205078e+00,1.812999129295349121e+00,8.547133207321166992e-02
4.553996086120605469e+00,1.815127253532409668e+00,2.569237351417541504e-01
4.559955596923828125e+00,1.817502617835998535e+00,4.294654130935668945e-01
4.564903259277343750e+00,1.819474697113037109e+00,6.033803820610046387e-01
4.570602893829345703e+00,1.821746349334716797e+00,7.792948484420776367e-01
4.577505588531494141e+00,1.824497818946838379e+00,9.578488469123840332e-01
4.582373619079589844e+00,1.826437950134277344e+00,1.138860106468200684e+00
3.652773141860961914e+00,1.516856312751770020e+00,-1.059790968894958496e+00
4.323134899139404297e+00,1.795231819152832031e+00,-1.080706954002380371e+00
4.533139705657958984e+00,1.882438659667968750e+00,-9.541055560111999512e-01
4.538538932800292969e+00,1.884680867195129395e+00,-7.783477306365966797e-01
4.544491767883300781e+00,1.887152791023254395e+00,-6.041908264160156250e-01
4.549691677093505859e+00,1.889312028884887695e+00,-4.310015141963958740e-01
4.555255889892578125e+00,1.891622781753540039e+00,-2.584958672523498535e-01
4.560752391815185547e+00,1.893905162811279297e+00,-8.619915693998336792e-02
4.566198348999023438e+00,1.896166682243347168e+00,8.630209416151046753e-02
4.572046756744384766e+00,1.898595333099365234e+00,2.594487071037292480e-01
4.577212333679199219e+00,1.900740265846252441e+00,4.336085915565490723e-01
4.583025932312011719e+00,1.903154492378234863e+00,6.093139648437500000e-01
4.588660717010498047e+00,1.905494451522827148e+00,7.869434356689453125e-01
4.593858242034912109e+00,1.907652735710144043e+00,9.668851494789123535e-01
4.600098609924316406e+00,1.910244226455688477e+00,1.149942994117736816e+00
3.627488851547241211e+00,1.567596197128295898e+00,-1.058856606483459473e+00
4.287931919097900391e+00,1.853002429008483887e+00,-1.078426599502563477e+00
4.550873279571533203e+00,1.966630935668945312e+00,-9.636640548706054688e-01
4.556323051452636719e+00,1.968985795974731445e+00,-7.861503958702087402e-01
4.561635494232177734e+00,1.971281647682189941e+00,-6.101589202880859375e-01
4.566991806030273438e+00,1.973596453666687012e+00,-4.352719187736511230e-01
4.572643756866455078e+00,1.976038932800292969e+00,-2.610608637332916260e-01
4.578160762786865234e+00,1.978422999382019043e+00,-8.705448359251022339e-02
4.583560466766357422e+00,1.980756521224975586e+00,8.715716004371643066e-02
4.589293003082275391e+00,1.983233809471130371e+00,2.620114088058471680e-01
4.595139980316162109e+00,1.985760450363159180e+00,4.379546940326690674e-01
4.600947380065917969e+00,1.988270044326782227e+00,6.154172420501708984e-01
4.606505393981933594e+00,1.990671992301940918e+00,7.948089241981506348e-01
4.611556529998779297e+00,1.992854714393615723e+00,9.765138626098632812e-01
4.617581844329833984e+00,1.995458602905273438e+00,1.161334514617919922e+00
3.602235317230224609e+00,1.618253111839294434e+00,-1.058137893676757812e+00
4.252936363220214844e+00,1.910571217536926270e+00,-1.076392650604248047e+00
4.567264556884765625e+00,2.051778793334960938e+00,-9.732540249824523926e-01
4.573008537292480469e+00,2.054359197616577148e+00,-7.940215468406677246e-01
4.578550338745117188e+00,2.056848764419555664e+00,-6.162962317466735840e-01
4.584066867828369141e+00,2.059327125549316406e+00,-4.396635890007019043e-01
4.589807510375976562e+00,2.061905860900878906e+00,-2.636986970901489258e-01
4.595345020294189453e+00,2.064393520355224609e+00,-8.793410658836364746e-02
4.600697040557861328e+00,2.066797733306884766e+00,8.803651481866836548e-02
4.606308937072753906e+00,2.069319009780883789e+00,2.646467685699462891e-01
4.611966609954833984e+00,2.071860551834106445e+00,4.423394799232482910e-01
4.617516994476318359e+00,2.074353933334350586e+00,6.215413212776184082e-01
4.624088764190673828e+00,2.077306270599365234e+00,8.028906583786010742e-01
4.628981113433837891e+00,2.079504013061523438e+00,9.864053726196289062e-01
4.634776115417480469e+00,2.082107305526733398e+00,1.173033952713012695e+00
3.576978921890258789e+00,1.668836712837219238e+00,-1.057627201080322266e+00
4.249676227569580078e+00,1.982683181762695312e+00,-1.082639217376708984e+00
4.584455490112304688e+00,2.138874292373657227e+00,-9.833403825759887695e-01
4.590267181396484375e+00,2.141585826873779297e+00,-8.022584915161132812e-01
4.595800876617431641e+00,2.144167423248291016e+00,-6.226855516433715820e-01
4.601235866546630859e+00,2.146703004837036133e+00,-4.442118108272552490e-01
4.606697082519531250e+00,2.149250984191894531e+00,-2.664092183113098145e-01
4.612254142761230469e+00,2.151843786239624023e+00,-8.883795142173767090e-02
4.617921829223632812e+00,2.154488086700439453e+00,8.894712477922439575e-02
4.623657703399658203e+00,2.157164096832275391e+00,2.673900723457336426e-01
4.629364013671875000e+00,2.159826278686523438e+00,4.469273686408996582e-01
4.634889125823974609e+00,2.162404060363769531e+00,6.279816031455993652e-01
4.640029430389404297e+00,2.164802312850952148e+00,8.109555840492248535e-01
4.646082401275634766e+00,2.167626380920410156e+00,9.965590238571166992e-01
4.651633262634277344e+00,2.170215845108032227e+00,1.185040950775146484e+00
3.553806066513061523e+00,1.720381379127502441e+00,-1.057948112487792969e+00
4.216976642608642578e+00,2.041419267654418945e+00,-1.081641912460327148e+00
4.606052398681640625e+00,2.229768991470336914e+00,-9.947165846824645996e-01
4.611119270324707031e+00,2.232221841812133789e+00,-8.114039301872253418e-01
4.616919040679931641e+00,2.235029697418212891e+00,-6.298168301582336426e-01
4.622541904449462891e+00,2.237751722335815430e+00,-4.493149816989898682e-01
4.628109931945800781e+00,2.240447044372558594e+00,-2.694745063781738281e-01
4.633692741394042969e+00,2.243149518966674805e+00,-8.986010402441024780e-02
4.639304161071777344e+00,2.245866060256958008e+00,8.996893465518951416e-02
4.644902706146240234e+00,2.248576402664184570e+00,2.704522609710693359e-01
4.650392055511474609e+00,2.251233577728271484e+00,4.520219862461090088e-01
4.656714439392089844e+00,2.254294395446777344e+00,6.352455019950866699e-01
4.661714553833007812e+00,2.256714820861816406e+00,8.203070163726806641e-01
4.667545318603515625e+00,2.259537458419799805e+00,1.007996439933776855e+00
4.674569129943847656e+00,2.262937545776367188e+00,1.199012994766235352e+00
3.528467416763305664e+00,1.770890355110168457e+00,-1.057842493057250977e+00
4.181860446929931641e+00,2.098819494247436523e+00,-1.080229640007019043e+00
4.621503353118896484e+00,2.319470405578613281e+00,-1.005120158195495605e+00
4.627738952636718750e+00,2.322599887847900391e+00,-8.200943470001220703e-01
4.632934093475341797e+00,2.325207233428955078e+00,-6.364764571189880371e-01
4.638725757598876953e+00,2.328114032745361328e+00,-4.540805816650390625e-01
4.644388675689697266e+00,2.330955982208251953e+00,-2.723370790481567383e-01
4.649991035461425781e+00,2.333767890930175781e+00,-9.081467241048812866e-02
4.655546188354492188e+00,2.336555957794189453e+00,9.092316776514053345e-02
4.661013126373291016e+00,2.339299678802490234e+00,2.733118832111358643e-01
4.667146205902099609e+00,2.342377901077270508e+00,4.568626284599304199e-01
4.672333717346191406e+00,2.344981431961059570e+00,6.418892145156860352e-01
4.678304195404052734e+00,2.347977876663208008e+00,8.290551304817199707e-01
4.683937549591064453e+00,2.350805282592773438e+00,1.018698811531066895e+00
4.690682411193847656e+00,2.354190349578857422e+00,1.211665034294128418e+00
3.505212545394897461e+00,1.822482943534851074e+00,-1.058582782745361328e+00
4.149387836456298828e+00,2.157412290573120117e+00,-1.079707622528076172e+00
4.642523288726806641e+00,2.413810491561889648e+00,-1.017101645469665527e+00
4.648038387298583984e+00,2.416678190231323242e+00,-8.297366499900817871e-01
4.654121398925781250e+00,2.419840812683105469e+00,-6.440795660018920898e-01
4.659499645233154297e+00,2.422637224197387695e+00,-4.594614803791046143e-01
4.665271759033203125e+00,2.425638437271118164e+00,-2.755692601203918457e-01
4.670899391174316406e+00,2.428564310073852539e+00,-9.189248830080032349e-02
4.676393985748291016e+00,2.431421279907226562e+00,9.200058877468109131e-02
4.682321548461914062e+00,2.434503078460693359e+00,2.765763401985168457e-01
4.687615871429443359e+00,2.437255859375000000e+00,4.622339606285095215e-01
4.693576335906982422e+00,2.440354824066162109e+00,6.495397090911865234e-01
4.699382781982421875e+00,2.443373918533325195e+00,8.389022350311279297e-01
4.704767704010009766e+00,2.446173667907714844e+00,1.030738472938537598e+00
4.711173057556152344e+00,2.449503898620605469e+00,1.225889086723327637e+00
3.460942268371582031e+00,1.862866878509521484e+00,-1.053157806396484375e+00
4.116971492767333984e+00,2.215977430343627930e+00,-1.079415440559387207e+00
4.663211822509765625e+00,2.509993791580200195e+00,-1.029399871826171875e+00
4.668864250183105469e+00,2.513036012649536133e+00,-8.397894501686096191e-01
4.674386501312255859e+00,2.516008377075195312e+00,-6.518010497093200684e-01
4.680330276489257812e+00,2.519207715988159180e+00,-4.650235772132873535e-01
4.685847759246826172e+00,2.522177457809448242e+00,-2.788884937763214111e-01
4.691499233245849609e+00,2.525219440460205078e+00,-9.299932420253753662e-02
4.697294235229492188e+00,2.528338670730590820e+00,9.311420470476150513e-02
4.702708244323730469e+00,2.531252622604370117e+00,2.798919975757598877e-01
4.708611011505126953e+00,2.534430027008056641e+00,4.678334593772888184e-01
4.714484214782714844e+00,2.537591218948364258e+00,6.573923230171203613e-01
4.720114707946777344e+00,2.540621757507324219e+00,8.490079045295715332e-01
4.726778030395507812e+00,2.544208288192749023e+00,1.043431997299194336e+00
4.733050346374511719e+00,2.547584533691406250e+00,1.240943193435668945e+00
3.437756776809692383e+00,1.914342045783996582e+00,-1.054332613945007324e+00
4.084558963775634766e+00,2.274518966674804688e+00,-1.079342484474182129e+00
4.683507442474365234e+00,2.608047962188720703e+00,-1.042013883590698242e+00
4.689304351806640625e+00,2.611276149749755859e+00,-8.501018285751342773e-01
4.694880485534667969e+00,2.614381313323974609e+00,-6.598091721534729004e-01
4.700420379638671875e+00,2.617466211318969727e+00,-4.706938564777374268e-01
4.706052780151367188e+00,2.620602607727050781e+00,-2.822946310043334961e-01
4.711728096008300781e+00,2.623763084411621094e+00,-9.413512796163558960e-02
4.717456340789794922e+00,2.626952886581420898e+00,9.424957633018493652e-02
4.723319053649902344e+00,2.630217552185058594e+00,2.833303511142730713e-01
4.729217529296875000e+00,2.633502006530761719e+00,4.735775589942932129e-01
4.734993934631347656e+00,2.636718750000000000e+00,6.654465794563293457e-01
4.740437507629394531e+00,2.639750242233276367e+00,8.593716025352478027e-01
4.746820449829101562e+00,2.643304347991943359e+00,1.056100130081176758e+00
4.752724647521972656e+00,2.646592378616333008e+00,1.255905032157897949e+00
3.414403915405273438e+00,1.965878844261169434e+00,-1.055692076683044434e+00
4.052099227905273438e+00,2.333038806915283203e+00,-1.079478859901428223e+00
4.703342914581298828e+00,2.707998991012573242e+00,-1.054942727088928223e+00
4.708454132080078125e+00,2.710942029953002930e+00,-8.605197072029113770e-01
4.714326858520507812e+00,2.714323282241821289e+00,-6.679337620735168457e-01
4.720073223114013672e+00,2.717631578445434570e+00,-4.765082895755767822e-01
4.725820064544677734e+00,2.720940589904785156e+00,-2.857872843742370605e-01
4.731519222259521484e+00,2.724221706390380859e+00,-9.529981017112731934e-02
4.737178802490234375e+00,2.727480411529541016e+00,9.541380405426025391e-02
4.742881298065185547e+00,2.730763673782348633e+00,2.868190407752990723e-01
4.748528480529785156e+00,2.734015226364135742e+00,4.793809652328491211e-01
4.755039691925048828e+00,2.737763881683349609e+00,6.737020015716552734e-01
4.760285854339599609e+00,2.740784406661987305e+00,8.699924349784851074e-01
4.766375541687011719e+00,2.744290828704833984e+00,1.069080710411071777e+00
4.771900653839111328e+00,2.747471809387207031e+00,1.271233797073364258e+00
3.390845775604248047e+00,2.017476081848144531e+00,-1.057228326797485352e+00
4.019541740417480469e+00,2.391535758972167969e+00,-1.079814076423645020e+00
4.722654819488525391e+00,2.809872150421142578e+00,-1.068185925483703613e+00
4.727928638458251953e+00,2.813009977340698242e+00,-8.713482618331909180e-01
4.733866691589355469e+00,2.816542863845825195e+00,-6.763447523117065430e-01
4.739584445953369141e+00,2.819944858551025391e+00,-4.825034439563751221e-01
4.745207309722900391e+00,2.823290348052978516e+00,-2.893738746643066406e-01
4.750924110412597656e+00,2.826691627502441406e+00,-9.649568796157836914e-02
4.756754398345947266e+00,2.830160617828369141e+00,9.661411494016647339e-02
4.762532711029052734e+00,2.833598375320434570e+00,2.904303967952728271e-01
4.768159866333007812e+00,2.836946487426757812e+00,4.854124784469604492e-01
4.774554729461669922e+00,2.840751409530639648e+00,6.821580529212951660e-01
4.779593944549560547e+00,2.843749523162841797e+00,8.808700442314147949e-01
4.785380840301513672e+00,2.847192525863647461e+00,1.082373380661010742e+00
4.792250633239746094e+00,2.851279973983764648e+00,1.287395358085632324e+00
3.349748373031616211e+00,2.058501005172729492e+00,-1.053493380546569824e+00
3.989599227905273438e+00,2.451704740524291992e+00,-1.081086754798889160e+00
4.745688438415527344e+00,2.916339874267578125e+00,-1.082726359367370605e+00
4.752233505249023438e+00,2.920361995697021484e+00,-8.834408521652221680e-01
4.757676601409912109e+00,2.923707008361816406e+00,-6.856553554534912109e-01
4.763629436492919922e+00,2.927365303039550781e+00,-4.891667962074279785e-01
4.769385814666748047e+00,2.930902481079101562e+00,-2.933765649795532227e-01
4.775130748748779297e+00,2.934432983398437500e+00,-9.783042967319488525e-02
4.780885696411132812e+00,2.937969446182250977e+00,9.794832766056060791e-02
4.786484718322753906e+00,2.941410303115844727e+00,2.944283783435821533e-01
4.792663574218750000e+00,2.945207357406616211e+00,4.921482503414154053e-01
4.797837734222412109e+00,2.948387145996093750e+00,6.914432644844055176e-01
4.803690910339355469e+00,2.951983928680419922e+00,8.930068612098693848e-01
4.810633659362792969e+00,2.956250429153442383e+00,1.097543478012084961e+00
4.817255973815917969e+00,2.960319995880126953e+00,1.305362105369567871e+00
3.328264951705932617e+00,2.111510753631591797e+00,-1.056133866310119629e+00
3.932091951370239258e+00,2.494589328765869141e+00,-1.075069069862365723e+00
4.769289970397949219e+00,3.025722980499267578e+00,-1.097879409790039062e+00
4.776050567626953125e+00,3.030011892318725586e+00,-8.958391547203063965e-01
4.781604766845703125e+00,3.033535480499267578e+00,-6.952901482582092285e-01
4.787200450897216797e+00,3.037085533142089844e+00,-4.960004091262817383e-01
4.793090820312500000e+00,3.040822505950927734e+00,-2.974815666675567627e-01
4.798863887786865234e+00,3.044485092163085938e+00,-9.919928014278411865e-02
4.804540634155273438e+00,3.048086404800415039e+00,9.931662678718566895e-02
4.810550212860107422e+00,3.051898956298828125e+00,2.985651493072509766e-01
4.816674709320068359e+00,3.055784463882446289e+00,4.990541934967041016e-01
4.821689605712890625e+00,3.058966159820556641e+00,7.011188268661499023e-01
4.828562736511230469e+00,3.063326597213745117e+00,9.056888818740844727e-01
4.833839893341064453e+00,3.066674232482910156e+00,1.112738490104675293e+00
4.839981079101562500e+00,3.070570707321166992e+00,1.323294162750244141e+00
