3.668447971343994141e+00,2.042804241180419922e+00,5.155563950538635254e-01
3.672548055648803711e+00,2.045087337493896484e+00,6.657788753509521484e-01
3.677371501922607422e+00,2.047773361206054688e+00,8.181629776954650879e-01
3.681820631027221680e+00,2.050251007080078125e+00,9.729191660881042480e-01
3.461541414260864258e+00,1.993018865585327148e+00,-1.070266485214233398e+00
3.468788623809814453e+00,1.997191429138183594e+00,-9.240849018096923828e-01
3.473487377166748047e+00,1.999896883964538574e+00,-7.790905833244323730e-01
3.477149724960327148e+00,2.002005338668823242e+00,-6.354858279228210449e-01
3.481383562088012695e+00,2.004443168640136719e+00,-4.932483136653900146e-01
3.485521554946899414e+00,2.006825685501098633e+00,-3.518759012222290039e-01
3.489662647247314453e+00,2.009209871292114258e+00,-2.110324203968048096e-01
3.493772029876708984e+00,2.011575937271118164e+00,-7.036975026130676270e-02
3.497847080230712891e+00,2.013922214508056641e+00,7.045182585716247559e-02
3.501949071884155273e+00,2.016283988952636719e+00,2.117754220962524414e-01
3.506014823913574219e+00,2.018624782562255859e+00,3.539447486400604248e-01
3.510714769363403320e+00,2.021330833435058594e+00,4.974040091037750244e-01
3.514483928680419922e+00,2.023500919342041016e+00,6.423090696334838867e-01
3.518871068954467773e+00,2.026026964187622070e+00,7.892699241638183594e-01
3.522843360900878906e+00,2.028314113616943359e+00,9.384850859642028809e-01
3.320813655853271484e+00,1.975808620452880859e+00,-1.035393118858337402e+00
3.325065851211547852e+00,1.978338479995727539e+00,-8.932492733001708984e-01
3.329730749130249023e+00,1.981114029884338379e+00,-7.531296014785766602e-01
3.333352804183959961e+00,1.983269095420837402e+00,-6.143305897712707520e-01
3.337443828582763672e+00,1.985703229904174805e+00,-4.768327772617340088e-01
3.341379165649414062e+00,1.988044500350952148e+00,-3.401620686054229736e-01
3.345251083374023438e+00,1.990348219871520996e+00,-2.040012478828430176e-01
3.349186182022094727e+00,1.992689609527587891e+00,-6.802508980035781860e-02
3.353202104568481445e+00,1.995079040527343750e+00,6.810665875673294067e-02
3.357179164886474609e+00,1.997445106506347656e+00,2.047286480665206909e-01
3.361053466796875000e+00,1.999750256538391113e+00,3.421649634838104248e-01
3.365465164184570312e+00,2.002375125885009766e+00,4.808362424373626709e-01
3.368923187255859375e+00,2.004432678222656250e+00,6.208861470222473145e-01
3.372903108596801758e+00,2.006800651550292969e+00,7.628945112228393555e-01
3.377643823623657227e+00,2.009621143341064453e+00,9.073739051818847656e-01
3.179749011993408203e+00,1.954032421112060547e+00,-1.000028729438781738e+00
3.183073043823242188e+00,1.956075072288513184e+00,-8.625373244285583496e-01
3.187011241912841797e+00,1.958495259284973145e+00,-7.271149158477783203e-01
3.191323995590209961e+00,1.961145401000976562e+00,-5.932675600051879883e-01
3.194890260696411133e+00,1.963337063789367676e+00,-4.604334831237792969e-01
3.198803186416625977e+00,1.965741634368896484e+00,-3.284781575202941895e-01
3.202588796615600586e+00,1.968068003654479980e+00,-1.969990581274032593e-01
3.206359148025512695e+00,1.970384955406188965e+00,-6.569024175405502319e-02
3.210137605667114258e+00,1.972706913948059082e+00,6.576765328645706177e-02
3.213814973831176758e+00,1.974966764450073242e+00,1.976896077394485474e-01
3.217877149581909180e+00,1.977463006973266602e+00,3.304368257522583008e-01
3.221266031265258789e+00,1.979545593261718750e+00,4.642346501350402832e-01
3.225110054016113281e+00,1.981907844543457031e+00,5.995483994483947754e-01
3.229679584503173828e+00,1.984715938568115234e+00,7.368496656417846680e-01
3.234032154083251953e+00,1.987390637397766113e+00,8.763459920883178711e-01
3.048854589462280273e+00,1.934247851371765137e+00,-9.674705862998962402e-01
3.053123950958251953e+00,1.936956405639648438e+00,-8.347513675689697266e-01
3.056277751922607422e+00,1.938957214355468750e+00,-7.035479545593261719e-01
3.060535192489624023e+00,1.941658258438110352e+00,-5.740616321563720703e-01
3.064013957977294922e+00,1.943865180015563965e+00,-4.455363452434539795e-01
3.067526102066040039e+00,1.946093440055847168e+00,-3.178254663944244385e-01
3.071223020553588867e+00,1.948438763618469238e+00,-1.906144171953201294e-01
3.074844121932983398e+00,1.950736045837402344e+00,-6.356136500835418701e-02
3.078409433364868164e+00,1.952998042106628418e+00,6.363506615161895752e-02
3.082180261611938477e+00,1.955390214920043945e+00,1.912944763898849487e-01
3.086025953292846680e+00,1.957830071449279785e+00,3.197422325611114502e-01
3.089164972305297852e+00,1.959821462631225586e+00,4.491935074329376221e-01
3.093487024307250977e+00,1.962563514709472656e+00,5.802423954010009766e-01
3.096788883209228516e+00,1.964658260345458984e+00,7.128735184669494629e-01
3.100642204284667969e+00,1.967102885246276855e+00,8.477432727813720703e-01
2.928733587265014648e+00,1.917372345924377441e+00,-9.379660487174987793e-01
2.932177782058715820e+00,1.919627189636230469e+00,-8.091130256652832031e-01
2.935396194458007812e+00,1.921734213829040527e+00,-6.819834113121032715e-01
2.939098834991455078e+00,1.924158334732055664e+00,-5.563928484916687012e-01
2.942642688751220703e+00,1.926478266716003418e+00,-4.318531751632690430e-01
2.946377754211425781e+00,1.928923606872558594e+00,-3.081023693084716797e-01
2.949773550033569336e+00,1.931146740913391113e+00,-1.847733259201049805e-01
2.953260660171508789e+00,1.933429718017578125e+00,-6.161381304264068604e-02
2.956831693649291992e+00,1.935767531394958496e+00,6.168831512331962585e-02
2.960110425949096680e+00,1.937914133071899414e+00,1.854208260774612427e-01
2.963611602783203125e+00,1.940206050872802734e+00,3.099044859409332275e-01
2.967016458511352539e+00,1.942435264587402344e+00,4.354301989078521729e-01
2.970977067947387695e+00,1.945028185844421387e+00,5.624276399612426758e-01
2.974822044372558594e+00,1.947545409202575684e+00,6.911432743072509766e-01
2.978341341018676758e+00,1.949849367141723633e+00,8.218515515327453613e-01
2.816348791122436523e+00,1.901930809020996094e+00,-9.105986356735229492e-01
2.819912433624267578e+00,1.904337406158447266e+00,-7.855753302574157715e-01
2.823821783065795898e+00,1.906977415084838867e+00,-6.623349189758300781e-01
2.826891899108886719e+00,1.909050822257995605e+00,-5.402687788009643555e-01
2.830357551574707031e+00,1.911391258239746094e+00,-4.193466901779174805e-01
2.833725214004516602e+00,1.913665413856506348e+00,-2.991559505462646484e-01
2.837066173553466797e+00,1.915921568870544434e+00,-1.794127672910690308e-01
2.840418577194213867e+00,1.918185591697692871e+00,-5.982627347111701965e-02
2.843794584274291992e+00,1.920465469360351562e+00,5.989738181233406067e-02
2.847172737121582031e+00,1.922746658325195312e+00,1.800518929958343506e-01
2.850483655929565430e+00,1.924982666969299316e+00,3.009251356124877930e-01
2.854255437850952148e+00,1.927529931068420410e+00,4.228873848915100098e-01
2.857267379760742188e+00,1.929563879966735840e+00,5.460740327835083008e-01
2.860717773437500000e+00,1.931893944740295410e+00,6.709889769554138184e-01
2.864790678024291992e+00,1.934644460678100586e+00,7.980775833129882812e-01
2.712495088577270508e+00,1.888880014419555664e+00,-8.856709599494934082e-01
2.716054916381835938e+00,1.891358852386474609e+00,-7.641060352325439453e-01
2.719287395477294922e+00,1.893609881401062012e+00,-6.441075205802917480e-01
2.722368001937866211e+00,1.895755052566528320e+00,-5.254245400428771973e-01
2.725772857666015625e+00,1.898126006126403809e+00,-4.078349173069000244e-01
2.728811025619506836e+00,1.900241732597351074e+00,-2.909217774868011475e-01
2.732094526290893555e+00,1.902528166770935059e+00,-1.744787096977233887e-01
2.735329151153564453e+00,1.904780626296997070e+00,-5.818111822009086609e-02
2.738522768020629883e+00,1.907004594802856445e+00,5.824904516339302063e-02
2.741979598999023438e+00,1.909411787986755371e+00,1.751100122928619385e-01
2.745111703872680664e+00,1.911592960357666016e+00,2.926596105098724365e-01
2.748625993728637695e+00,1.914040088653564453e+00,4.112542271614074707e-01
2.752059698104858398e+00,1.916431188583374023e+00,5.311551094055175781e-01
2.755263328552246094e+00,1.918662190437316895e+00,6.526290178298950195e-01
2.758995532989501953e+00,1.921261072158813477e+00,7.761864662170410156e-01
2.609712362289428711e+00,1.873332142829895020e+00,-8.607777357101440430e-01
2.612615585327148438e+00,1.875416040420532227e+00,-7.424813508987426758e-01
2.615935325622558594e+00,1.877799034118652344e+00,-6.259291768074035645e-01
2.619042634963989258e+00,1.880029678344726562e+00,-5.106238126754760742e-01
2.622075796127319336e+00,1.882206916809082031e+00,-3.963099420070648193e-01
2.625331401824951172e+00,1.884543895721435547e+00,-2.827365100383758545e-01
2.628365516662597656e+00,1.886721968650817871e+00,-1.695615947246551514e-01
2.631479501724243164e+00,1.888957262039184570e+00,-5.654151365160942078e-02
2.634671688079833984e+00,1.891248583793640137e+00,5.661009997129440308e-02
2.637683391571044922e+00,1.893410444259643555e+00,1.701627075672149658e-01
2.640943050384521484e+00,1.895750403404235840e+00,2.844178080558776855e-01
2.644183635711669922e+00,1.898076534271240234e+00,3.996513783931732178e-01
2.647282600402832031e+00,1.900301218032836914e+00,5.161296129226684570e-01
2.650893211364746094e+00,1.902892947196960449e+00,6.342937946319580078e-01
2.654259920120239258e+00,1.905309677124023438e+00,7.543162703514099121e-01
2.513188123703002930e+00,1.859118223190307617e+00,-8.376318216323852539e-01
2.516897678375244141e+00,1.861862301826477051e+00,-7.227787375450134277e-01
2.519652843475341797e+00,1.863900542259216309e+00,-6.092123985290527344e-01
2.522789478302001953e+00,1.866220712661743164e+00,-4.970147311687469482e-01
2.525787115097045898e+00,1.868438243865966797e+00,-3.857591748237609863e-01
2.528748512268066406e+00,1.870628952980041504e+00,-2.751903533935546875e-01
2.531739950180053711e+00,1.872841715812683105e+00,-1.650405228137969971e-01
2.534743309020996094e+00,1.875063538551330566e+00,-5.503401532769203186e-02
2.537762641906738281e+00,1.877297043800354004e+00,5.509957298636436462e-02
2.540829420089721680e+00,1.879565715789794922e+00,1.656330525875091553e-01
2.543896675109863281e+00,1.881834626197814941e+00,2.768388092517852783e-01
2.546883583068847656e+00,1.884044289588928223e+00,3.889811933040618896e-01
2.550316572189331055e+00,1.886583685874938965e+00,5.024378299713134766e-01
2.552881240844726562e+00,1.888481020927429199e+00,6.172464489936828613e-01
2.556663990020751953e+00,1.891279101371765137e+00,7.341984510421752930e-01
2.423671245574951172e+00,1.847147822380065918e+00,-8.165246844291687012e-01
2.426784276962280273e+00,1.849520444869995117e+00,-7.044309973716735840e-01
2.429647445678710938e+00,1.851702332496643066e+00,-5.937979221343994141e-01
2.432807207107543945e+00,1.854110598564147949e+00,-4.844661056995391846e-01
2.435780286788940430e+00,1.856376409530639648e+00,-3.760322034358978271e-01
2.438473701477050781e+00,1.858429193496704102e+00,-2.682335376739501953e-01
2.441424369812011719e+00,1.860678076744079590e+00,-1.608726680278778076e-01
2.444324254989624023e+00,1.862888097763061523e+00,-5.364428833127021790e-02
2.447174549102783203e+00,1.865060329437255859e+00,5.370683968067169189e-02
2.450294256210327148e+00,1.867437958717346191e+00,1.614571213722229004e-01
2.453183174133300781e+00,1.869639754295349121e+00,2.698515951633453369e-01
2.455924272537231445e+00,1.871728658676147461e+00,3.791420161724090576e-01
2.459035873413085938e+00,1.874100089073181152e+00,4.896892309188842773e-01
2.461978435516357422e+00,1.876342773437500000e+00,6.016995906829833984e-01
2.465405225753784180e+00,1.878954529762268066e+00,7.156416177749633789e-01
2.335365295410156250e+00,1.833273172378540039e+00,-7.955336570739746094e-01
2.338549375534057617e+00,1.835772633552551270e+00,-6.863756775856018066e-01
2.341426610946655273e+00,1.838031291961669922e+00,-5.786075592041015625e-01
2.344139814376831055e+00,1.840161204338073730e+00,-4.720057845115661621e-01
2.346818685531616211e+00,1.842264056205749512e+00,-3.663317561149597168e-01
2.349715709686279297e+00,1.844538211822509766e+00,-2.613475322723388672e-01
2.352517604827880859e+00,1.846737861633300781e+00,-1.567400395870208740e-01
2.355309724807739258e+00,1.848929643630981445e+00,-5.226618424057960510e-02
2.358100652694702148e+00,1.851120471954345703e+00,5.232811346650123596e-02
2.360813856124877930e+00,1.853250384330749512e+00,1.572927832603454590e-01
2.363784551620483398e+00,1.855582356452941895e+00,2.629123330116271973e-01
2.366763114929199219e+00,1.857920646667480469e+00,3.694450557231903076e-01
2.369649410247802734e+00,1.860186338424682617e+00,4.771422743797302246e-01
2.372306108474731445e+00,1.862271904945373535e+00,5.862384438514709473e-01
2.375355005264282227e+00,1.864665150642395020e+00,6.971783638000488281e-01
2.256704330444335938e+00,1.824323415756225586e+00,-7.775534987449645996e-01
2.259371519088745117e+00,1.826479673385620117e+00,-6.707410812377929688e-01
2.262344121932983398e+00,1.828882694244384766e+00,-5.654759407043457031e-01
2.265102386474609375e+00,1.831112504005432129e+00,-4.613213241100311279e-01
2.267766714096069336e+00,1.833266258239746094e+00,-3.580513298511505127e-01
2.270426034927368164e+00,1.835416078567504883e+00,-2.554243803024291992e-01
2.273193359375000000e+00,1.837653279304504395e+00,-1.531917303800582886e-01
2.275893926620483398e+00,1.839836359024047852e+00,-5.108303204178810120e-02
2.278535842895507812e+00,1.841971993446350098e+00,5.114233121275901794e-02
2.281301498413085938e+00,1.844207882881164551e+00,1.537381410598754883e-01
2.284095525741577148e+00,1.846466541290283203e+00,2.569622099399566650e-01
2.286844491958618164e+00,1.848688840866088867e+00,3.610635101795196533e-01
2.289441585540771484e+00,1.850788235664367676e+00,4.662783443927764893e-01
2.292418718338012695e+00,1.853194952011108398e+00,5.729930996894836426e-01
2.295155286788940430e+00,1.855407238006591797e+00,6.813642382621765137e-01
2.175189256668090820e+00,1.810510516166687012e+00,-7.583185434341430664e-01
2.177968740463256836e+00,1.812823891639709473e+00,-6.542111039161682129e-01
2.180528640747070312e+00,1.814954638481140137e+00,-5.514628291130065918e-01
2.183354139328002930e+00,1.817306518554687500e+00,-4.499237239360809326e-01
2.186022996902465820e+00,1.819527983665466309e+00,-3.492212891578674316e-01
2.188624620437622070e+00,1.821693420410156250e+00,-2.491295635700225830e-01
2.191211462020874023e+00,1.823846459388732910e+00,-1.494108885526657104e-01
2.193813323974609375e+00,1.826012253761291504e+00,-4.982225224375724792e-02
2.196444272994995117e+00,1.828202009201049805e+00,4.988199844956398010e-02
2.199080944061279297e+00,1.830396652221679688e+00,1.499474793672561646e-01
2.201675415039062500e+00,1.832556247711181641e+00,2.506151199340820312e-01
2.204159259796142578e+00,1.834623575210571289e+00,3.521185517311096191e-01
2.206972599029541016e+00,1.836965203285217285e+00,4.547907710075378418e-01
2.209637641906738281e+00,1.839183568954467773e+00,5.588245987892150879e-01
2.212724685668945312e+00,1.841752886772155762e+00,6.646509766578674316e-01
2.102153539657592773e+00,1.801268339157104492e+00,-7.417690157890319824e-01
2.105013847351074219e+00,1.803719401359558105e+00,-6.399865746498107910e-01
2.107604503631591797e+00,1.805939316749572754e+00,-5.395022034645080566e-01
2.110062122344970703e+00,1.808045029640197754e+00,-4.401083290576934814e-01
2.112729787826538086e+00,1.810330867767333984e+00,-3.416170477867126465e-01
2.115123033523559570e+00,1.812381505966186523e+00,-2.436908632516860962e-01
2.117686748504638672e+00,1.814578413963317871e+00,-1.461535394191741943e-01
2.120205640792846680e+00,1.816736698150634766e+00,-4.873615503311157227e-02
2.122688293457031250e+00,1.818863987922668457e+00,4.879322275519371033e-02
2.125351428985595703e+00,1.821146011352539062e+00,1.466825157403945923e-01
2.127779245376586914e+00,1.823226213455200195e+00,2.451490163803100586e-01
2.130458354949951172e+00,1.825521945953369141e+00,3.444836735725402832e-01
2.133062124252319336e+00,1.827753067016601562e+00,4.449055790901184082e-01
2.135463714599609375e+00,1.829810976982116699e+00,5.466336011886596680e-01
2.138206243515014648e+00,1.832160949707031250e+00,6.500780582427978516e-01
2.030699729919433594e+00,1.791075348854064941e+00,-7.255275249481201172e-01
2.033089160919189453e+00,1.793182730674743652e+00,-6.258586049079895020e-01
2.035327196121215820e+00,1.795156717300415039e+00,-5.275239944458007812e-01
2.037860631942749023e+00,1.797391295433044434e+00,-4.303707480430603027e-01
2.040533304214477539e+00,1.799748539924621582e+00,-3.340744078159332275e-01
2.042887210845947266e+00,1.801824688911437988e+00,-2.383152991533279419e-01
2.045284748077392578e+00,1.803939461708068848e+00,-1.429240554571151733e-01
2.047722101211547852e+00,1.806089043617248535e+00,-4.765936359763145447e-02
2.050193786621093750e+00,1.808269143104553223e+00,4.771689325571060181e-02
2.052732467651367188e+00,1.810508251190185547e+00,1.434444934129714966e-01
2.054980278015136719e+00,1.812490820884704590e+00,2.397260367870330811e-01
2.057411670684814453e+00,1.814635157585144043e+00,3.368377089500427246e-01
2.060192108154296875e+00,1.817087531089782715e+00,4.350868463516235352e-01
2.062890768051147461e+00,1.819467782974243164e+00,5.346680283546447754e-01
2.065362453460693359e+00,1.821647882461547852e+00,6.357935667037963867e-01
1.962784409523010254e+00,1.781762123107910156e+00,-7.103017568588256836e-01
1.965291500091552734e+00,1.784038066864013672e+00,-6.127861738204956055e-01
1.967593193054199219e+00,1.786127448081970215e+00,-5.165417790412902832e-01
1.970114350318908691e+00,1.788416147232055664e+00,-4.214264750480651855e-01
1.972277522087097168e+00,1.790379762649536133e+00,-3.270616829395294189e-01
1.974672913551330566e+00,1.792554140090942383e+00,-2.333269119262695312e-01
1.977052807807922363e+00,1.794714689254760742e+00,-1.399367898702621460e-01
1.979411721229553223e+00,1.796856045722961426e+00,-4.666330665349960327e-02
1.981743693351745605e+00,1.798972964286804199e+00,4.671828076243400574e-02
1.984075665473937988e+00,1.801089882850646973e+00,1.404338777065277100e-01
1.986673116683959961e+00,1.803447723388671875e+00,2.347448617219924927e-01
1.988950848579406738e+00,1.805515289306640625e+00,3.298265933990478516e-01
1.991505146026611328e+00,1.807834029197692871e+00,4.260021746158599854e-01
1.993918061256408691e+00,1.810024380683898926e+00,5.234526991844177246e-01
1.996679544448852539e+00,1.812531232833862305e+00,6.225730776786804199e-01
1.896035432815551758e+00,1.771323561668395996e+00,-6.952502727508544922e-01
1.898668527603149414e+00,1.773783445358276367e+00,-5.998677611351013184e-01
1.901046633720397949e+00,1.776005148887634277e+00,-5.056934356689453125e-01
1.903284311294555664e+00,1.778095722198486328e+00,-4.125328063964843750e-01
1.905483007431030273e+00,1.780149698257446289e+00,-3.201777338981628418e-01
1.907841444015502930e+00,1.782353043556213379e+00,-2.284211814403533936e-01
1.910123586654663086e+00,1.784484982490539551e+00,-1.369933634996414185e-01
1.912397980690002441e+00,1.786609888076782227e+00,-4.568167775869369507e-02
1.914672613143920898e+00,1.788734912872314453e+00,4.573601111769676208e-02
1.916891098022460938e+00,1.790807366371154785e+00,1.374787241220474243e-01
1.919289946556091309e+00,1.793048501014709473e+00,2.297918796539306641e-01
1.921692728996276855e+00,1.795293331146240234e+00,3.229014575481414795e-01
1.924008011817932129e+00,1.797456264495849609e+00,4.170246124267578125e-01
1.926129102706909180e+00,1.799437761306762695e+00,5.123655796051025391e-01
1.928518295288085938e+00,1.801669836044311523e+00,6.092985272407531738e-01
1.833520650863647461e+00,1.762735962867736816e+00,-6.815089583396911621e-01
1.835780858993530273e+00,1.764908909797668457e+00,-5.879200100898742676e-01
1.837883949279785156e+00,1.766930818557739258e+00,-4.955684840679168701e-01
1.840211391448974609e+00,1.769168496131896973e+00,-4.043091535568237305e-01
1.842442274093627930e+00,1.771313190460205078e+00,-3.138130307197570801e-01
1.844767093658447266e+00,1.773548245429992676e+00,-2.238858640193939209e-01
1.846917152404785156e+00,1.775615334510803223e+00,-1.342692375183105469e-01
1.849117636680603027e+00,1.777730822563171387e+00,-4.477332532405853271e-02
1.851375699043273926e+00,1.779901742935180664e+00,4.482800140976905823e-02
1.853476881980895996e+00,1.781921863555908203e+00,1.347461193799972534e-01
1.855696797370910645e+00,1.784056067466735840e+00,2.252123206853866577e-01
1.857853889465332031e+00,1.786129832267761230e+00,3.164380192756652832e-01
1.860294461250305176e+00,1.788476109504699707e+00,4.087215363979339600e-01
1.862636327743530273e+00,1.790727734565734863e+00,5.022427439689636230e-01
1.864748120307922363e+00,1.792757868766784668e+00,5.971969962120056152e-01
1.774312138557434082e+00,1.755365133285522461e+00,-6.687719225883483887e-01
1.776234745979309082e+00,1.757267236709594727e+00,-5.768461823463439941e-01
1.778411626815795898e+00,1.759420871734619141e+00,-4.862729907035827637e-01
1.780755758285522461e+00,1.761739969253540039e+00,-3.967458903789520264e-01
1.782755255699157715e+00,1.763718128204345703e+00,-3.079151809215545654e-01
1.784932255744934082e+00,1.765871882438659668e+00,-2.196691781282424927e-01
1.787072896957397461e+00,1.767989635467529297e+00,-1.317448467016220093e-01
1.789202928543090820e+00,1.770097017288208008e+00,-4.393156617879867554e-02
1.791331648826599121e+00,1.772202968597412109e+00,4.398383200168609619e-02
1.793435573577880859e+00,1.774284482002258301e+00,1.322139054536819458e-01
1.795740365982055664e+00,1.776564598083496094e+00,2.209993153810501099e-01
1.797748088836669922e+00,1.778550863265991211e+00,3.105047047138214111e-01
1.799957990646362305e+00,1.780737280845642090e+00,4.010241031646728516e-01
1.802494406700134277e+00,1.783246517181396484e+00,4.928579628467559814e-01
1.804347515106201172e+00,1.785079836845397949e+00,5.859760642051696777e-01
1.715667128562927246e+00,1.746636986732482910e+00,-6.560234427452087402e-01
1.718133211135864258e+00,1.749147653579711914e+00,-5.660500526428222656e-01
1.720018744468688965e+00,1.751067161560058594e+00,-4.771109223365783691e-01
1.722133040428161621e+00,1.753219723701477051e+00,-3.892361223697662354e-01
1.724183559417724609e+00,1.755307197570800781e+00,-3.021072745323181152e-01
1.726336240768432617e+00,1.757498741149902344e+00,-2.155316621065139771e-01
1.728361606597900391e+00,1.759560585021972656e+00,-1.292600333690643311e-01
1.730422139167785645e+00,1.761658310890197754e+00,-4.310299456119537354e-02
1.732527256011962891e+00,1.763801455497741699e+00,4.315543174743652344e-02
1.734517335891723633e+00,1.765827417373657227e+00,1.297204047441482544e-01
1.736634850502014160e+00,1.767983198165893555e+00,2.168174386024475098e-01
1.738725185394287109e+00,1.770111322402954102e+00,3.046552240848541260e-01
1.741093516349792480e+00,1.772522449493408203e+00,3.935215473175048828e-01
1.742936730384826660e+00,1.774398803710937500e+00,4.834680557250976562e-01
1.745486259460449219e+00,1.776994466781616211e+00,5.750616788864135742e-01
1.658699870109558105e+00,1.737704753875732422e+00,-6.436854004859924316e-01
1.660885572433471680e+00,1.739994525909423828e+00,-5.553377866744995117e-01
1.662887096405029297e+00,1.742091417312622070e+00,-4.681321382522583008e-01
1.665043354034423828e+00,1.744350433349609375e+00,-3.819367885589599609e-01
1.666903614997863770e+00,1.746299147605895996e+00,-2.964200973510742188e-01
1.668940544128417969e+00,1.748433113098144531e+00,-2.114686816930770874e-01
1.670960903167724609e+00,1.750549674034118652e+00,-1.268280893564224243e-01
1.672954916954040527e+00,1.752638697624206543e+00,-4.229208827018737793e-02
1.674929499626159668e+00,1.754707455635070801e+00,4.234200716018676758e-02
1.676900506019592285e+00,1.756772279739379883e+00,1.272789239883422852e-01
1.679071664810180664e+00,1.759046792984008789e+00,2.127523869276046753e-01
1.680978178977966309e+00,1.761044144630432129e+00,2.989229559898376465e-01
1.683091402053833008e+00,1.763257980346679688e+00,3.860767483711242676e-01
1.685071229934692383e+00,1.765332221984863281e+00,4.743773639202117920e-01
1.687299013137817383e+00,1.767665982246398926e+00,5.641694068908691406e-01
1.604698419570922852e+00,1.730042338371276855e+00,-6.322741508483886719e-01
1.606981515884399414e+00,1.732503652572631836e+00,-5.455499887466430664e-01
1.608739495277404785e+00,1.734399080276489258e+00,-4.598302841186523438e-01
1.610710024833679199e+00,1.736523509025573730e+00,-3.751366138458251953e-01
1.612787961959838867e+00,1.738763689994812012e+00,-2.911927998065948486e-01
1.614652633666992188e+00,1.740774035453796387e+00,-2.077258080244064331e-01
1.616601705551147461e+00,1.742875337600708008e+00,-1.245828792452812195e-01
1.618532538414001465e+00,1.744956970214843750e+00,-4.154344275593757629e-02
1.620446681976318359e+00,1.747020721435546875e+00,4.159257560968399048e-02
1.622461080551147461e+00,1.749192357063293457e+00,1.250344216823577881e-01
1.624284505844116211e+00,1.751158356666564941e+00,2.089649587869644165e-01
1.626252174377441406e+00,1.753279566764831543e+00,2.936237752437591553e-01
1.628474831581115723e+00,1.755675911903381348e+00,3.792740702629089355e-01
1.630222916603088379e+00,1.757560491561889648e+00,4.659709334373474121e-01
1.632614850997924805e+00,1.760139226913452148e+00,5.542521476745605469e-01
1.553347587585449219e+00,1.723510622978210449e+00,-6.216976046562194824e-01
1.555386424064636230e+00,1.725772738456726074e+00,-5.363650918006896973e-01
1.557258129119873047e+00,1.727849483489990234e+00,-4.521379768848419189e-01
1.559271693229675293e+00,1.730083703994750977e+00,-3.688862323760986328e-01
1.561180353164672852e+00,1.732201337814331055e+00,-2.863221466541290283e-01
1.563039898872375488e+00,1.734264612197875977e+00,-2.042584121227264404e-01
1.564890503883361816e+00,1.736317873001098633e+00,-1.225004941225051880e-01
1.566761255264282227e+00,1.738393664360046387e+00,-4.084909334778785706e-02
1.568646907806396484e+00,1.740485787391662598e+00,4.089825227856636047e-02
1.570545196533203125e+00,1.742592096328735352e+00,1.229431405663490295e-01
1.572419524192810059e+00,1.744671702384948730e+00,2.054841369390487671e-01
1.574214577674865723e+00,1.746663331985473633e+00,2.887126207351684570e-01
1.576197624206542969e+00,1.748863697052001953e+00,3.728904724121093750e-01
1.578064441680908203e+00,1.750934958457946777e+00,4.581789076328277588e-01
1.580153465270996094e+00,1.753252863883972168e+00,5.449058413505554199e-01
1.502037525177001953e+00,1.715320825576782227e+00,-6.109256744384765625e-01
1.503835201263427734e+00,1.717373728752136230e+00,-5.270107984542846680e-01
1.505781054496765137e+00,1.719595909118652344e+00,-4.442927837371826172e-01
1.507596731185913086e+00,1.721669316291809082e+00,-3.624539673328399658e-01
1.509362339973449707e+00,1.723685741424560547e+00,-2.813147306442260742e-01
1.511225581169128418e+00,1.725813508033752441e+00,-2.006948590278625488e-01
1.512987732887268066e+00,1.727825880050659180e+00,-1.203611493110656738e-01
1.514796376228332520e+00,1.729891300201416016e+00,-4.013570770621299744e-02
1.516649961471557617e+00,1.732008099555969238e+00,4.018481820821762085e-02
1.518422245979309082e+00,1.734032154083251953e+00,1.207934841513633728e-01
1.520311832427978516e+00,1.736189961433410645e+00,2.019015401601791382e-01
1.522181272506713867e+00,1.738324880599975586e+00,2.837038934230804443e-01
1.523964047431945801e+00,1.740360736846923828e+00,3.663889765739440918e-01
1.525944828987121582e+00,1.742622852325439453e+00,4.502422809600830078e-01
1.527755498886108398e+00,1.744690656661987305e+00,5.353935360908508301e-01
1.454158306121826172e+00,1.709398627281188965e+00,-6.013417840003967285e-01
1.456074237823486328e+00,1.711650848388671875e+00,-5.188058018684387207e-01
1.457828044891357422e+00,1.713712453842163086e+00,-4.373365938663482666e-01
1.459703087806701660e+00,1.715916633605957031e+00,-3.568077385425567627e-01
1.461330533027648926e+00,1.717829704284667969e+00,-2.769169211387634277e-01
1.463104963302612305e+00,1.719915628433227539e+00,-1.975534111261367798e-01
1.464872717857360840e+00,1.721993803977966309e+00,-1.184821501374244690e-01
1.466624140739440918e+00,1.724052548408508301e+00,-3.950913995504379272e-02
1.468362689018249512e+00,1.726096272468566895e+00,3.955597430467605591e-02
1.470106124877929688e+00,1.728145718574523926e+00,1.189054325222969055e-01
1.472017407417297363e+00,1.730392456054687500e+00,1.987567991018295288e-01
1.473712205886840820e+00,1.732384800910949707e+00,2.792631983757019043e-01
1.475571274757385254e+00,1.734570026397705078e+00,3.606865406036376953e-01
1.477311849594116211e+00,1.736616253852844238e+00,4.431815743446350098e-01
1.479240894317626953e+00,1.738883852958679199e+00,5.270602107048034668e-01
1.406464934349060059e+00,1.702104687690734863e+00,-5.916333198547363281e-01
1.408186316490173340e+00,1.704187870025634766e+00,-5.103821754455566406e-01
1.410026788711547852e+00,1.706415057182312012e+00,-4.302797317504882812e-01
1.411736488342285156e+00,1.708484292030334473e+00,-3.510245084762573242e-01
1.413388371467590332e+00,1.710483312606811523e+00,-2.724435627460479736e-01
1.415041685104370117e+00,1.712484121322631836e+00,-1.943534612655639648e-01
1.416756987571716309e+00,1.714560151100158691e+00,-1.165634542703628540e-01
1.418448090553283691e+00,1.716606497764587402e+00,-3.886925056576728821e-02
1.420127153396606445e+00,1.718638658523559570e+00,3.891526535153388977e-02
1.421877145767211914e+00,1.720756411552429199e+00,1.169847100973129272e-01
1.423650145530700684e+00,1.722902059555053711e+00,1.955358237028121948e-01
1.425394654273986816e+00,1.725013375282287598e+00,2.747578918933868408e-01
1.427048444747924805e+00,1.727014780044555664e+00,3.548317551612854004e-01
1.428868293762207031e+00,1.729217171669006348e+00,4.360293745994567871e-01
1.430515050888061523e+00,1.731210112571716309e+00,5.184749960899353027e-01
1.361007928848266602e+00,1.695950746536254883e+00,-5.826632976531982422e-01
1.362554907798767090e+00,1.697878479957580566e+00,-5.026002526283264160e-01
1.364246010780334473e+00,1.699985742568969727e+00,-4.236913025379180908e-01
1.366033911705017090e+00,1.702213644981384277e+00,-3.456834554672241211e-01
1.367580056190490723e+00,1.704140305519104004e+00,-2.682879269123077393e-01
1.369243621826171875e+00,1.706213235855102539e+00,-1.913978755474090576e-01
1.370885252952575684e+00,1.708258986473083496e+00,-1.147893220186233521e-01
1.372526764869689941e+00,1.710304379463195801e+00,-3.827779367566108704e-02
1.374165773391723633e+00,1.712346792221069336e+00,3.832350298762321472e-02
1.375796794891357422e+00,1.714379191398620605e+00,1.152005791664123535e-01
1.377566695213317871e+00,1.716584563255310059e+00,1.925612986087799072e-01
1.379122972488403320e+00,1.718523859977722168e+00,2.705523669719696045e-01
1.380810976028442383e+00,1.720627307891845703e+00,3.494228720664978027e-01
1.382692694664001465e+00,1.722972035408020020e+00,4.294202327728271484e-01
1.384447932243347168e+00,1.725159406661987305e+00,5.106758475303649902e-01
1.316610097885131836e+00,1.689607739448547363e+00,-5.739508271217346191e-01
1.318272829055786133e+00,1.691741466522216797e+00,-4.951473176479339600e-01
1.319800615310668945e+00,1.693702101707458496e+00,-4.173742234706878662e-01
1.321449875831604004e+00,1.695818662643432617e+00,-3.405087292194366455e-01
1.323027014732360840e+00,1.697842597961425781e+00,-2.642880678176879883e-01
1.324585676193237305e+00,1.699842810630798340e+00,-1.885371357202529907e-01
1.326159954071044922e+00,1.701863050460815430e+00,-1.130724325776100159e-01
1.327745676040649414e+00,1.703898072242736816e+00,-3.770521655678749084e-02
1.329348921775817871e+00,1.705955505371093750e+00,3.775074705481529236e-02
1.330979108810424805e+00,1.708047509193420410e+00,1.134833246469497681e-01
1.332610845565795898e+00,1.710141420364379883e+00,1.896793991327285767e-01
1.334196925163269043e+00,1.712176918983459473e+00,2.665193378925323486e-01
1.335940241813659668e+00,1.714414119720458984e+00,3.442426025867462158e-01
1.337593793869018555e+00,1.716536164283752441e+00,4.230011701583862305e-01
1.339071750640869141e+00,1.718432784080505371e+00,5.029594898223876953e-01
1.273310184478759766e+00,1.683183908462524414e+00,-5.655196309089660645e-01
1.274845123291015625e+00,1.685212969779968262e+00,-4.878458082675933838e-01
1.276479482650756836e+00,1.687373399734497070e+00,-4.112701117992401123e-01
1.278015136718750000e+00,1.689403414726257324e+00,-3.355131745338439941e-01
1.279511332511901855e+00,1.691381096839904785e+00,-2.604047656059265137e-01
1.281090378761291504e+00,1.693468451499938965e+00,-1.857772767543792725e-01
1.282626748085021973e+00,1.695499539375305176e+00,-1.114184558391571045e-01
1.284161567687988281e+00,1.697528362274169922e+00,-3.715371340513229370e-02
1.285697817802429199e+00,1.699559092521667480e+00,3.719815984368324280e-02
1.287204980850219727e+00,1.701551318168640137e+00,1.118161454796791077e-01
1.288810610771179199e+00,1.703673958778381348e+00,1.868968456983566284e-01
1.290405869483947754e+00,1.705782651901245117e+00,2.626220285892486572e-01
1.291934370994567871e+00,1.707803130149841309e+00,3.391673266887664795e-01
1.293607831001281738e+00,1.710015177726745605e+00,4.167886972427368164e-01
1.295138478279113770e+00,1.712038636207580566e+00,4.956114590167999268e-01
1.231119751930236816e+00,1.676759958267211914e+00,-5.573836565017700195e-01
1.232785582542419434e+00,1.679028868675231934e+00,-4.808982014656066895e-01
1.234297037124633789e+00,1.681087374687194824e+00,-4.053904116153717041e-01
1.235737204551696777e+00,1.683048725128173828e+00,-3.307045102119445801e-01
1.237275719642639160e+00,1.685144305229187012e+00,-2.566916644573211670e-01
1.238768100738525391e+00,1.687176823616027832e+00,-1.831231713294982910e-01
1.240244984626770020e+00,1.689188241958618164e+00,-1.098258942365646362e-01
1.241730690002441406e+00,1.691211938858032227e+00,-3.662270680069923401e-02
1.243224501609802246e+00,1.693246364593505859e+00,3.666676208376884460e-02
1.244714856147766113e+00,1.695276260375976562e+00,1.102217137813568115e-01
1.246179699897766113e+00,1.697271347045898438e+00,1.842188239097595215e-01
1.247768878936767578e+00,1.699435591697692871e+00,2.588686347007751465e-01
1.249317049980163574e+00,1.701544284820556641e+00,3.343387246131896973e-01
1.250753521919250488e+00,1.703500747680664062e+00,4.107953608036041260e-01
1.252307295799255371e+00,1.705616950988769531e+00,4.885134398937225342e-01
1.190995931625366211e+00,1.671749472618103027e+00,-5.499950051307678223e-01
1.192521214485168457e+00,1.673890471458435059e+00,-4.744890928268432617e-01
1.193921804428100586e+00,1.675856351852416992e+00,-3.999669849872589111e-01
1.195417165756225586e+00,1.677955508232116699e+00,-3.263082206249237061e-01
1.196848154067993164e+00,1.679964065551757812e+00,-2.532671391963958740e-01
1.198258996009826660e+00,1.681944370269775391e+00,-1.806751787662506104e-01
1.199683904647827148e+00,1.683944463729858398e+00,-1.083574146032333374e-01
1.201120495796203613e+00,1.685961008071899414e+00,-3.613300621509552002e-02
1.202572941780090332e+00,1.687999725341796875e+00,3.617670014500617981e-02
1.204046845436096191e+00,1.690068483352661133e+00,1.087514758110046387e-01
1.205520868301391602e+00,1.692137598991394043e+00,1.817701458930969238e-01
1.206954002380371094e+00,1.694149136543273926e+00,2.554056644439697266e-01
1.208516716957092285e+00,1.696342706680297852e+00,3.298839628696441650e-01
1.209992766380310059e+00,1.698414564132690430e+00,4.053508341312408447e-01
1.211597084999084473e+00,1.700666546821594238e+00,4.820791482925415039e-01
1.151187777519226074e+00,1.665818333625793457e+00,-5.425670742988586426e-01
1.152611970901489258e+00,1.667879223823547363e+00,-4.680605828762054443e-01
1.153933405876159668e+00,1.669791460037231445e+00,-3.945371210575103760e-01
1.155359029769897461e+00,1.671854257583618164e+00,-3.218728303909301758e-01
1.156839370727539062e+00,1.673996448516845703e+00,-2.498455792665481567e-01
1.158184885978698730e+00,1.675943493843078613e+00,-1.782315373420715332e-01
1.159582138061523438e+00,1.677965283393859863e+00,-1.068937033414840698e-01
1.160968065261840820e+00,1.679970860481262207e+00,-3.564483672380447388e-02
1.162353157997131348e+00,1.681975126266479492e+00,3.568736091256141663e-02
1.163799047470092773e+00,1.684067368507385254e+00,1.072824373841285706e-01
1.165128111839294434e+00,1.685990571975708008e+00,1.793000102043151855e-01
1.166533589363098145e+00,1.688024282455444336e+00,2.519392669200897217e-01
1.168077945709228516e+00,1.690259099006652832e+00,3.254162073135375977e-01
1.169554591178894043e+00,1.692395925521850586e+00,3.998781144618988037e-01
1.170885324478149414e+00,1.694321393966674805e+00,4.754811227321624756e-01
1.112444043159484863e+00,1.660061001777648926e+00,-5.354508757591247559e-01
1.113789558410644531e+00,1.662068843841552734e+00,-4.619087874889373779e-01
1.115212798118591309e+00,1.664192557334899902e+00,-3.894027173519134521e-01
1.116547703742980957e+00,1.666184663772583008e+00,-3.176718950271606445e-01
1.117855191230773926e+00,1.668135643005371094e+00,-2.465575337409973145e-01
1.119235396385192871e+00,1.670195460319519043e+00,-1.758985370397567749e-01
1.120587944984436035e+00,1.672213673591613770e+00,-1.054947078227996826e-01
1.121929407119750977e+00,1.674215435981750488e+00,-3.517838940024375916e-02
1.123265027999877930e+00,1.676208615303039551e+00,3.522027283906936646e-02
1.124585270881652832e+00,1.678178787231445312e+00,1.058710291981697083e-01
1.125990509986877441e+00,1.680275797843933105e+00,1.769601553678512573e-01
1.127390861511230469e+00,1.682365536689758301e+00,2.486607730388641357e-01
1.128736138343811035e+00,1.684372901916503906e+00,3.211396336555480957e-01
1.130198597908020020e+00,1.686555385589599609e+00,3.946353793144226074e-01
1.131526947021484375e+00,1.688537597656250000e+00,4.692648053169250488e-01
1.074735283851623535e+00,1.654512166976928711e+00,-5.286450982093811035e-01
1.076209187507629395e+00,1.656781196594238281e+00,-4.561115503311157227e-01
1.077392339706420898e+00,1.658602595329284668e+00,-3.844469785690307617e-01
1.078806996345520020e+00,1.660780429840087891e+00,-3.136653602123260498e-01
1.080139279365539551e+00,1.662831425666809082e+00,-2.434634715318679810e-01
1.081377744674682617e+00,1.664737939834594727e+00,-1.736758798360824585e-01
1.082688331604003906e+00,1.666755437850952148e+00,-1.041620373725891113e-01
1.083986163139343262e+00,1.668753504753112793e+00,-3.473405539989471436e-02
1.085271477699279785e+00,1.670732140541076660e+00,3.477524220943450928e-02
1.086640715599060059e+00,1.672839999198913574e+00,1.045422852039337158e-01
1.087932825088500977e+00,1.674829125404357910e+00,1.747286468744277954e-01
1.089161157608032227e+00,1.676720142364501953e+00,2.454969882965087891e-01
1.090656161308288574e+00,1.679021596908569336e+00,3.171105086803436279e-01
1.091892123222351074e+00,1.680924296379089355e+00,3.896209001541137695e-01
1.093202829360961914e+00,1.682942032814025879e+00,4.633136391639709473e-01
1.038238286972045898e+00,1.649534821510314941e+00,-5.222529768943786621e-01
1.039454817771911621e+00,1.651467561721801758e+00,-4.505065977573394775e-01
1.040750026702880859e+00,1.653525233268737793e+00,-3.797782659530639648e-01
1.042097330093383789e+00,1.655665993690490723e+00,-3.098505437374114990e-01
1.043373346328735352e+00,1.657693147659301758e+00,-2.404999136924743652e-01
1.044616103172302246e+00,1.659667730331420898e+00,-1.715694516897201538e-01
1.045857787132263184e+00,1.661640405654907227e+00,-1.028963178396224976e-01
1.047111630439758301e+00,1.663632512092590332e+00,-3.431198745965957642e-02
1.048380494117736816e+00,1.665648460388183594e+00,3.435356914997100830e-02
1.049655199050903320e+00,1.667673707008361816e+00,1.032699272036552429e-01
1.050912499427795410e+00,1.669671177864074707e+00,1.726035624742507935e-01
1.052121996879577637e+00,1.671592950820922852e+00,2.425165176391601562e-01
1.053412914276123047e+00,1.673643946647644043e+00,3.132150471210479736e-01
1.054817438125610352e+00,1.675875425338745117e+00,3.849116265773773193e-01
1.056116223335266113e+00,1.677938938140869141e+00,4.577277600765228271e-01
1.002685785293579102e+00,1.644806027412414551e+00,-5.161590576171875000e-01
1.003848195075988770e+00,1.646712660789489746e+00,-4.452442824840545654e-01
1.005086541175842285e+00,1.648744106292724609e+00,-3.753374814987182617e-01
1.006376147270202637e+00,1.650859594345092773e+00,-3.062238991260528564e-01
1.007605552673339844e+00,1.652876377105712891e+00,-2.376843392848968506e-01
1.008808970451354980e+00,1.654850482940673828e+00,-1.695614010095596313e-01
1.010015726089477539e+00,1.656829833984375000e+00,-1.016927808523178101e-01
1.011227607727050781e+00,1.658817887306213379e+00,-3.391069173812866211e-02
1.012443780899047852e+00,1.660812973976135254e+00,3.395147249102592468e-02
1.013672351837158203e+00,1.662828326225280762e+00,1.020609512925148010e-01
1.014891505241394043e+00,1.664828181266784668e+00,1.705837398767471313e-01
1.016069889068603516e+00,1.666761279106140137e+00,2.396809905767440796e-01
1.017328739166259766e+00,1.668826222419738770e+00,3.095565736293792725e-01
1.018698930740356445e+00,1.671073794364929199e+00,3.804208636283874512e-01
1.019969224929809570e+00,1.673157572746276855e+00,4.523945450782775879e-01
9.676579236984252930e-01,1.639696478843688965e+00,-5.101569294929504395e-01
9.689480066299438477e-01,1.641882538795471191e+00,-4.401432573795318604e-01
9.701226353645324707e-01,1.643872976303100586e+00,-3.710294663906097412e-01
9.712466597557067871e-01,1.645777583122253418e+00,-3.026714920997619629e-01
9.724404215812683105e-01,1.647800445556640625e+00,-2.349287867546081543e-01
9.736126065254211426e-01,1.649786710739135742e+00,-1.675974726676940918e-01
9.748055338859558105e-01,1.651808142662048340e+00,-1.005178615450859070e-01
9.759727716445922852e-01,1.653786063194274902e+00,-3.351881727576255798e-02
9.771220684051513672e-01,1.655733466148376465e+00,3.355828672647476196e-02
9.782971739768981934e-01,1.657724738121032715e+00,1.008779034018516541e-01
9.794666767120361328e-01,1.659706473350524902e+00,1.686051934957504272e-01
9.807274937629699707e-01,1.661842823028564453e+00,2.369308471679687500e-01
9.819621443748474121e-01,1.663935065269470215e+00,3.060107827186584473e-01
9.831151366233825684e-01,1.665888786315917969e+00,3.759985268115997314e-01
9.843286275863647461e-01,1.667944908142089844e+00,4.471298754215240479e-01
9.332683086395263672e-01,1.634423136711120605e+00,-5.043084025382995605e-01
9.345678687095642090e-01,1.636698961257934570e+00,-4.351231455802917480e-01
9.356155991554260254e-01,1.638533949851989746e+00,-3.667642176151275635e-01
9.368407726287841797e-01,1.640679597854614258e+00,-2.992371916770935059e-01
9.379230737686157227e-01,1.642575025558471680e+00,-2.322459965944290161e-01
9.390646815299987793e-01,1.644574284553527832e+00,-1.656855195760726929e-01
9.401918053627014160e-01,1.646548151969909668e+00,-9.936867654323577881e-02
9.413181543350219727e-01,1.648520827293395996e+00,-3.313562646508216858e-02
9.424500465393066406e-01,1.650503039360046387e+00,3.317546844482421875e-02
9.435747861862182617e-01,1.652472734451293945e+00,9.972622245550155640e-02
9.447712302207946777e-01,1.654568076133728027e+00,1.666923612356185913e-01
9.458436965942382812e-01,1.656446337699890137e+00,2.342072874307632446e-01
9.471203684806823730e-01,1.658682107925415039e+00,3.025206029415130615e-01
9.481762051582336426e-01,1.660531163215637207e+00,3.716880381107330322e-01
9.494753479957580566e-01,1.662806272506713867e+00,4.420638680458068848e-01
9.000816345214843750e-01,1.630047440528869629e+00,-4.989319443702697754e-01
9.011822342872619629e-01,1.632040500640869141e+00,-4.304113090038299561e-01
9.023312330245971680e-01,1.634121298789978027e+00,-3.628484010696411133e-01
9.034107923507690430e-01,1.636076569557189941e+00,-2.960089147090911865e-01
9.045413732528686523e-01,1.638123989105224609e+00,-2.297625243663787842e-01
9.056321978569030762e-01,1.640099406242370605e+00,-1.639119535684585571e-01
9.066935777664184570e-01,1.642021536827087402e+00,-9.830220788717269897e-02
9.077819585800170898e-01,1.643992662429809570e+00,-3.278008103370666504e-02
9.088968634605407715e-01,1.646011710166931152e+00,3.282034024596214294e-02
9.099914431571960449e-01,1.647994041442871094e+00,9.865976125001907349e-02
9.110594391822814941e-01,1.649928212165832520e+00,1.648942381143569946e-01
9.121947884559631348e-01,1.651984333992004395e+00,2.317065596580505371e-01
9.132882356643676758e-01,1.653964519500732422e+00,2.992453277111053467e-01
9.144632220268249512e-01,1.656092524528503418e+00,3.677269816398620605e-01
9.155306220054626465e-01,1.658025503158569336e+00,4.372642338275909424e-01
8.674080967903137207e-01,1.625424861907958984e+00,-4.936662912368774414e-01
8.684678673744201660e-01,1.627410888671875000e+00,-4.258684217929840088e-01
8.695791363716125488e-01,1.629493236541748047e+00,-3.590202629566192627e-01
8.706203699111938477e-01,1.631444454193115234e+00,-2.928861975669860840e-01
8.716412782669067383e-01,1.633357524871826172e+00,-2.273207902908325195e-01
8.727143406867980957e-01,1.635368347167968750e+00,-1.621741056442260742e-01
8.737664818763732910e-01,1.637339830398559570e+00,-9.726323932409286499e-02
8.748159408569335938e-01,1.639306426048278809e+00,-3.243364393711090088e-02
8.758600354194641113e-01,1.641262888908386230e+00,3.247235342860221863e-02
8.768943548202514648e-01,1.643201112747192383e+00,9.761141985654830933e-02
8.779923319816589355e-01,1.645258665084838867e+00,1.631548851728439331e-01
8.790885210037231445e-01,1.647312760353088379e+00,2.292629927396774292e-01
8.801398277282714844e-01,1.649282813072204590e+00,2.960886657238006592e-01
8.812689185142517090e-01,1.651398539543151855e+00,3.638465702533721924e-01
8.822951912879943848e-01,1.653321623802185059e+00,4.326488673686981201e-01
8.352518081665039062e-01,1.620590209960937500e+00,-4.885168671607971191e-01
8.362885117530822754e-01,1.622601747512817383e+00,-4.214343428611755371e-01
8.373716473579406738e-01,1.624703168869018555e+00,-3.552877306938171387e-01
8.383806347846984863e-01,1.626660823822021484e+00,-2.898434102535247803e-01
8.393673896789550781e-01,1.628575444221496582e+00,-2.249601334333419800e-01
8.403990864753723145e-01,1.630577206611633301e+00,-1.604896634817123413e-01
8.414068818092346191e-01,1.632532477378845215e+00,-9.625238925218582153e-02
8.424157500267028809e-01,1.634490013122558594e+00,-3.209649771451950073e-02
8.434295058250427246e-01,1.636456847190856934e+00,3.213512152433395386e-02
8.444270491600036621e-01,1.638392329216003418e+00,9.659788012504577637e-02
8.454819917678833008e-01,1.640439152717590332e+00,1.614603400230407715e-01
8.465291261672973633e-01,1.642470955848693848e+00,2.268795520067214966e-01
8.475281596183776855e-01,1.644409298896789551e+00,2.930058836936950684e-01
8.486019372940063477e-01,1.646492719650268555e+00,3.600526154041290283e-01
8.497669696807861328e-01,1.648753166198730469e+00,4.282265901565551758e-01
8.040435314178466797e-01,1.616438269615173340e+00,-4.837465286254882812e-01
8.050517439842224121e-01,1.618465185165405273e+00,-4.173243641853332520e-01
8.059826493263244629e-01,1.620336651802062988e+00,-3.517740666866302490e-01
8.069770932197570801e-01,1.622335910797119141e+00,-2.869852483272552490e-01
8.079393506050109863e-01,1.624270439147949219e+00,-2.227452248334884644e-01
8.089399337768554688e-01,1.626281976699829102e+00,-1.589109897613525391e-01
8.098931908607482910e-01,1.628198385238647461e+00,-9.530361741781234741e-02
8.108642101287841797e-01,1.630150556564331055e+00,-3.178011626005172729e-02
8.118573427200317383e-01,1.632147073745727539e+00,3.181904181838035583e-02
8.128111362457275391e-01,1.634064555168151855e+00,9.564697742462158203e-02
8.138138055801391602e-01,1.636080265045166016e+00,1.598684191703796387e-01
8.147984147071838379e-01,1.638059735298156738e+00,2.246362268924713135e-01
8.158732056617736816e-01,1.640220522880554199e+00,2.901489734649658203e-01
8.168979883193969727e-01,1.642280817031860352e+00,3.565381169319152832e-01
8.178144097328186035e-01,1.644123077392578125e+00,4.239403009414672852e-01
7.731840610504150391e-01,1.611847639083862305e+00,-4.790116846561431885e-01
