3.667361736297607422e+00,1.050966978073120117e+00,-8.807561993598937988e-01
3.672314643859863281e+00,1.052386403083801270e+00,-7.425574064254760742e-01
3.676985979080200195e+00,1.053725004196166992e+00,-6.058182716369628906e-01
3.681563138961791992e+00,1.055036664009094238e+00,-4.702338576316833496e-01
3.686497211456298828e+00,1.056450724601745605e+00,-3.355085551738739014e-01
3.691070556640625000e+00,1.057761311531066895e+00,-2.012268751859664917e-01
3.695739507675170898e+00,1.059099316596984863e+00,-6.710590422153472900e-02
3.700531244277954102e+00,1.060472488403320312e+00,6.719290465116500854e-02
3.704977750778198242e+00,1.061746716499328613e+00,2.019850611686706543e-01
3.709854602813720703e+00,1.063144326210021973e+00,3.376342952251434326e-01
3.714716911315917969e+00,1.064537763595581055e+00,4.744684994220733643e-01
3.719396829605102539e+00,1.065878868103027344e+00,6.128058433532714844e-01
3.725021123886108398e+00,1.067490577697753906e+00,7.532148361206054688e-01
3.728854894638061523e+00,1.068589210510253906e+00,8.955244421958923340e-01
3.685751676559448242e+00,1.113560557365417480e+00,-1.031682252883911133e+00
3.691275358200073242e+00,1.115229487419128418e+00,-8.902418017387390137e-01
3.695329666137695312e+00,1.116454243659973145e+00,-7.503655552864074707e-01
3.700177431106567383e+00,1.117918968200683594e+00,-6.122128963470458984e-01
3.705409049987792969e+00,1.119499564170837402e+00,-4.752776026725769043e-01
3.709934949874877930e+00,1.120866894721984863e+00,-3.390669822692871094e-01
3.714576482772827148e+00,1.122269272804260254e+00,-2.033632695674896240e-01
3.719276189804077148e+00,1.123689174652099609e+00,-6.781836599111557007e-02
3.724061489105224609e+00,1.125134944915771484e+00,6.790562719106674194e-02
3.728996992111206055e+00,1.126626133918762207e+00,2.041527628898620605e-01
3.733261346817016602e+00,1.127914547920227051e+00,3.411989212036132812e-01
3.738007068634033203e+00,1.129348278045654297e+00,4.794588387012481689e-01
3.743678092956542969e+00,1.131061673164367676e+00,6.194103360176086426e-01
3.747971296310424805e+00,1.132358789443969727e+00,7.610548734664916992e-01
3.753109455108642578e+00,1.133911013603210449e+00,9.051545858383178711e-01
3.709701776504516602e+00,1.178993701934814453e+00,-1.043002843856811523e+00
3.714179515838623047e+00,1.180416822433471680e+00,-8.997483849525451660e-01
3.719372272491455078e+00,1.182067155838012695e+00,-7.586055397987365723e-01
3.724205970764160156e+00,1.183603286743164062e+00,-6.189281940460205078e-01
3.728867053985595703e+00,1.185084700584411621e+00,-4.804129898548126221e-01
3.733501672744750977e+00,1.186557650566101074e+00,-3.427379727363586426e-01
3.738213539123535156e+00,1.188055157661437988e+00,-2.055672705173492432e-01
3.742944478988647461e+00,1.189558625221252441e+00,-6.855338811874389648e-02
3.747721433639526367e+00,1.191076874732971191e+00,6.864088773727416992e-02
3.752609729766845703e+00,1.192630410194396973e+00,2.063589245080947876e-01
3.757529020309448242e+00,1.194193840026855469e+00,3.449437022209167480e-01
3.762355327606201172e+00,1.195727705955505371e+00,4.847275018692016602e-01
3.766920328140258789e+00,1.197178483009338379e+00,6.260269880294799805e-01
3.772356748580932617e+00,1.198906302452087402e+00,7.694122791290283203e-01
3.777450561523437500e+00,1.200525164604187012e+00,9.150756001472473145e-01
3.736933946609497070e+00,1.246808648109436035e+00,-1.055568814277648926e+00
3.742828607559204102e+00,1.248775362968444824e+00,-9.109252095222473145e-01
3.747165203094482422e+00,1.250222325325012207e+00,-7.678454518318176270e-01
3.752214670181274414e+00,1.251906991004943848e+00,-6.264968514442443848e-01
3.757048368453979492e+00,1.253519654273986816e+00,-4.863055646419525146e-01
3.761811494827270508e+00,1.255108952522277832e+00,-3.469505012035369873e-01
3.766606092453002930e+00,1.256708621978759766e+00,-2.080964446067810059e-01
3.771373748779296875e+00,1.258299350738525391e+00,-6.939684599637985229e-02
3.776142835617065430e+00,1.259890556335449219e+00,6.948460638523101807e-02
3.780977249145507812e+00,1.261503458023071289e+00,2.088904231786727905e-01
3.785797595977783203e+00,1.263111710548400879e+00,3.491627275943756104e-01
3.790480852127075195e+00,1.264674305915832520e+00,4.906329810619354248e-01
3.796007394790649414e+00,1.266518235206604004e+00,6.338087916374206543e-01
3.800065994262695312e+00,1.267872333526611328e+00,7.786855101585388184e-01
3.806424140930175781e+00,1.269993662834167480e+00,9.264029860496520996e-01
3.761113882064819336e+00,1.314990520477294922e+00,-1.067606210708618164e+00
3.765982866287231445e+00,1.316692948341369629e+00,-9.210529327392578125e-01
3.771481990814208984e+00,1.318615674972534180e+00,-7.766162753105163574e-01
3.775810480117797852e+00,1.320128917694091797e+00,-6.335266232490539551e-01
3.780803203582763672e+00,1.321874499320983887e+00,-4.917790293693542480e-01
3.785682678222656250e+00,1.323580622673034668e+00,-3.508634865283966064e-01
3.790551900863647461e+00,1.325282931327819824e+00,-2.104458510875701904e-01
3.795351266860961914e+00,1.326960921287536621e+00,-7.018036395311355591e-02
3.800108671188354492e+00,1.328624248504638672e+00,7.026833295822143555e-02
3.804889202117919922e+00,1.330295681953430176e+00,2.112418413162231445e-01
3.809613227844238281e+00,1.331947326660156250e+00,3.530814051628112793e-01
3.815106630325317383e+00,1.333867907524108887e+00,4.962409436702728271e-01
3.819504022598266602e+00,1.335405349731445312e+00,6.408577561378479004e-01
3.824687719345092773e+00,1.337217807769775391e+00,7.875722646713256836e-01
3.829441308975219727e+00,1.338879823684692383e+00,9.365730881690979004e-01
3.743009805679321289e+00,1.369087696075439453e+00,-1.067920327186584473e+00
3.795076847076416016e+00,1.388132452964782715e+00,-9.329323172569274902e-01
3.799736738204956055e+00,1.389836907386779785e+00,-7.864502668380737305e-01
3.805019617080688477e+00,1.391769289970397949e+00,-6.417042613029479980e-01
3.809994220733642578e+00,1.393588781356811523e+00,-4.981195330619812012e-01
3.814802885055541992e+00,1.395347714424133301e+00,-3.553770482540130615e-01
3.819451332092285156e+00,1.397047877311706543e+00,-2.131386548280715942e-01
3.824288606643676758e+00,1.398817181587219238e+00,-7.107839733362197876e-02
3.829361200332641602e+00,1.400672674179077148e+00,7.117267698049545288e-02
3.834290504455566406e+00,1.402475714683532715e+00,2.139667272567749023e-01
3.839110851287841797e+00,1.404238820075988770e+00,3.576415181159973145e-01
3.843700170516967773e+00,1.405917525291442871e+00,5.025262832641601562e-01
3.849042892456054688e+00,1.407871723175048828e+00,6.491286158561706543e-01
3.854170083999633789e+00,1.409747123718261719e+00,7.977166175842285156e-01
3.858814239501953125e+00,1.411445736885070801e+00,9.486007094383239746e-01
3.715930700302124023e+00,1.419804096221923828e+00,-1.065883398056030273e+00
3.819499731063842773e+00,1.459376454353332520e+00,-9.439744949340820312e-01
3.824221611022949219e+00,1.461180567741394043e+00,-7.957652807235717773e-01
3.828795433044433594e+00,1.462928175926208496e+00,-6.491788029670715332e-01
3.833939075469970703e+00,1.464893460273742676e+00,-5.039397478103637695e-01
3.838872671127319336e+00,1.466778516769409180e+00,-3.595383167266845703e-01
3.843696832656860352e+00,1.468621850013732910e+00,-2.156426012516021729e-01
3.848583698272705078e+00,1.470489025115966797e+00,-7.191377878189086914e-02
3.853526353836059570e+00,1.472377538681030273e+00,7.200613617897033691e-02
3.858394622802734375e+00,1.474237561225891113e+00,2.164671868085861206e-01
3.863108158111572266e+00,1.476038575172424316e+00,3.618081510066986084e-01
3.868497371673583984e+00,1.478097677230834961e+00,5.084822177886962891e-01
3.873845338821411133e+00,1.480141162872314453e+00,6.568171381950378418e-01
3.878927707672119141e+00,1.482082962989807129e+00,8.071488142013549805e-01
3.883476972579956055e+00,1.483821153640747070e+00,9.597861766815185547e-01
3.690843820571899414e+00,1.471092939376831055e+00,-1.064618349075317383e+00
3.847802877426147461e+00,1.533653497695922852e+00,-9.562968611717224121e-01
3.852826833724975586e+00,1.535655975341796875e+00,-8.062088489532470703e-01
3.858375310897827148e+00,1.537867546081542969e+00,-6.578589677810668945e-01
3.862993001937866211e+00,1.539707899093627930e+00,-5.106031298637390137e-01
3.868072032928466797e+00,1.541732430458068848e+00,-3.643025159835815430e-01
3.872988700866699219e+00,1.543691992759704590e+00,-2.185032069683074951e-01
3.877913713455200195e+00,1.545655012130737305e+00,-7.286775857210159302e-02
3.882841587066650391e+00,1.547619223594665527e+00,7.296036183834075928e-02
3.887640714645385742e+00,1.549532055854797363e+00,2.193298339843750000e-01
3.892981052398681641e+00,1.551660537719726562e+00,3.666484653949737549e-01
3.897446393966674805e+00,1.553440332412719727e+00,5.151571631431579590e-01
3.902567625045776367e+00,1.555481672286987305e+00,6.653938293457031250e-01
3.908728599548339844e+00,1.557937264442443848e+00,8.179063796997070312e-01
3.913141012191772461e+00,1.559695959091186523e+00,9.725353717803955078e-01
3.689326286315917969e+00,1.532035350799560547e+00,-1.070396184921264648e+00
3.877413034439086914e+00,1.610140562057495117e+00,-9.692843556404113770e-01
3.882551193237304688e+00,1.612274289131164551e+00,-8.171739578247070312e-01
3.887430667877197266e+00,1.614300608634948730e+00,-6.666843295097351074e-01
3.892773628234863281e+00,1.616519331932067871e+00,-5.175448060035705566e-01
3.897484064102172852e+00,1.618475317955017090e+00,-3.692165911197662354e-01
3.902495145797729492e+00,1.620556354522705078e+00,-2.214538455009460449e-01
3.907459020614624023e+00,1.622617602348327637e+00,-7.385177910327911377e-02
3.912369728088378906e+00,1.624656796455383301e+00,7.394459843635559082e-02
3.917637109756469727e+00,1.626844167709350586e+00,2.223130911588668823e-01
3.922307968139648438e+00,1.628783702850341797e+00,3.715682029724121094e-01
3.927547216415405273e+00,1.630959391593933105e+00,5.221679806709289551e-01
3.932634353637695312e+00,1.633071899414062500e+00,6.744366288185119629e-01
3.937347412109375000e+00,1.635029077529907227e+00,8.287070989608764648e-01
3.942967653274536133e+00,1.637362957000732422e+00,9.856718778610229492e-01
3.664062738418579102e+00,1.583401322364807129e+00,-1.069532394409179688e+00
3.907175540924072266e+00,1.688460946083068848e+00,-9.826653599739074707e-01
3.912438392639160156e+00,1.690735340118408203e+00,-8.284730911254882812e-01
3.917382240295410156e+00,1.692871689796447754e+00,-6.759071946144104004e-01
3.922209024429321289e+00,1.694957613945007324e+00,-5.246300101280212402e-01
3.927074670791625977e+00,1.697060227394104004e+00,-3.742825388908386230e-01
3.932183027267456055e+00,1.699267745018005371e+00,-2.244957387447357178e-01
3.937186002731323242e+00,1.701429843902587891e+00,-7.486624270677566528e-02
3.942078113555908203e+00,1.703543901443481445e+00,7.495926320552825928e-02
3.947268247604370117e+00,1.705786705017089844e+00,2.253569811582565308e-01
3.952556848526000977e+00,1.708072304725646973e+00,3.767112195491790771e-01
3.957812786102294922e+00,1.710343480110168457e+00,5.293923020362854004e-01
3.962855577468872070e+00,1.712522745132446289e+00,6.837531924247741699e-01
3.967463970184326172e+00,1.714514255523681641e+00,8.401249051094055176e-01
3.972922563552856445e+00,1.716873049736022949e+00,9.992008805274963379e-01
3.638823509216308594e+00,1.634689807891845703e+00,-1.068885445594787598e+00
3.937054634094238281e+00,1.768665909767150879e+00,-9.964448809623718262e-01
3.941519021987915039e+00,1.770671486854553223e+00,-8.399117588996887207e-01
3.946738719940185547e+00,1.773016452789306641e+00,-6.852809786796569824e-01
3.951784372329711914e+00,1.775283098220825195e+00,-5.319303274154663086e-01
3.956809282302856445e+00,1.777540445327758789e+00,-3.795025348663330078e-01
3.962016344070434570e+00,1.779879570007324219e+00,-2.276301532983779907e-01
3.967059373855590820e+00,1.782145142555236816e+00,-7.591155916452407837e-02
3.971931457519531250e+00,1.784333825111389160e+00,7.600479573011398315e-02
3.977040052413940430e+00,1.786628842353820801e+00,2.284933179616928101e-01
3.982188940048217773e+00,1.788941860198974609e+00,3.819367289543151855e-01
3.987244844436645508e+00,1.791213274002075195e+00,5.367035269737243652e-01
3.993196010589599609e+00,1.793886661529541016e+00,6.933474540710449219e-01
3.997688055038452148e+00,1.795904636383056641e+00,8.518809676170349121e-01
4.002971649169921875e+00,1.798278212547302246e+00,1.013128161430358887e+00
3.613572120666503906e+00,1.685909271240234375e+00,-1.068446993827819824e+00
3.965882301330566406e+00,1.850279331207275391e+00,-1.010340452194213867e+00
3.971620082855224609e+00,1.852956295013427734e+00,-8.518905043601989746e-01
3.976921319961547852e+00,1.855429649353027344e+00,-6.950616836547851562e-01
3.981982707977294922e+00,1.857790946960449219e+00,-5.395192503929138184e-01
3.986959457397460938e+00,1.860112905502319336e+00,-3.849084377288818359e-01
3.991958141326904297e+00,1.862444996833801270e+00,-2.308583408594131470e-01
3.997040987014770508e+00,1.864816427230834961e+00,-7.698815315961837769e-02
4.002220153808593750e+00,1.867232799530029297e+00,7.708790898323059082e-02
4.007458686828613281e+00,1.869676828384399414e+00,2.317547500133514404e-01
4.012672424316406250e+00,1.872109174728393555e+00,3.873907923698425293e-01
4.017728328704833984e+00,1.874468207359313965e+00,5.443624854087829590e-01
4.022452831268310547e+00,1.876672387123107910e+00,7.030193805694580078e-01
4.027983188629150391e+00,1.879252552986145020e+00,8.639801144599914551e-01
4.033078670501708984e+00,1.881629824638366699e+00,1.027459263801574707e+00
3.590466499328613281e+00,1.738128542900085449e+00,-1.068861722946166992e+00
4.001544952392578125e+00,1.937129735946655273e+00,-1.026384353637695312e+00
4.007478237152099609e+00,1.940001964569091797e+00,-8.654493093490600586e-01
4.012169837951660156e+00,1.942273139953613281e+00,-7.060086727142333984e-01
4.017487525939941406e+00,1.944847583770751953e+00,-5.480453968048095703e-01
4.022652149200439453e+00,1.947347521781921387e+00,-3.910051584243774414e-01
4.027769088745117188e+00,1.949824810028076172e+00,-2.345192879438400269e-01
4.032898902893066406e+00,1.952308177947998047e+00,-7.820905745029449463e-02
4.038054943084716797e+00,1.954804062843322754e+00,7.830904424190521240e-02
4.043200016021728516e+00,1.957294702529907227e+00,2.354177385568618774e-01
4.048250198364257812e+00,1.959739565849304199e+00,3.934933245182037354e-01
4.054038524627685547e+00,1.962541580200195312e+00,5.530314445495605469e-01
4.058664321899414062e+00,1.964780926704406738e+00,7.141901850700378418e-01
4.064027309417724609e+00,1.967377305030822754e+00,8.776616454124450684e-01
4.070442676544189453e+00,1.970482707023620605e+00,1.044056296348571777e+00
3.565119504928588867e+00,1.789285421371459961e+00,-1.068830847740173340e+00
4.031668186187744141e+00,2.023439884185791016e+00,-1.041432976722717285e+00
4.036830902099609375e+00,2.026031017303466797e+00,-8.779610991477966309e-01
4.042552947998046875e+00,2.028903007507324219e+00,-7.163919806480407715e-01
4.047378540039062500e+00,2.031324625015258789e+00,-5.560322999954223633e-01
4.052713394165039062e+00,2.034002065658569336e+00,-3.967163562774658203e-01
4.057937145233154297e+00,2.036623954772949219e+00,-2.379488050937652588e-01
4.063107490539550781e+00,2.039218902587890625e+00,-7.935279607772827148e-02
4.068237304687500000e+00,2.041793584823608398e+00,7.945298403501510620e-02
4.073290824890136719e+00,2.044329643249511719e+00,2.388491034507751465e-01
4.078938484191894531e+00,2.047164440155029297e+00,3.992835581302642822e-01
4.083748340606689453e+00,2.049578428268432617e+00,5.610288381576538086e-01
4.089255809783935547e+00,2.052342414855957031e+00,7.246682643890380859e-01
4.094470500946044922e+00,2.054959535598754883e+00,8.904969692230224609e-01
4.100670337677001953e+00,2.058071136474609375e+00,1.059257030487060547e+00
3.541916370391845703e+00,1.841566443443298340e+00,-1.069667458534240723e+00
4.067675590515136719e+00,2.114927291870117188e+00,-1.058445334434509277e+00
4.073051929473876953e+00,2.117722511291503906e+00,-8.923397660255432129e-01
4.078182220458984375e+00,2.120389938354492188e+00,-7.280097603797912598e-01
4.083799362182617188e+00,2.123310565948486328e+00,-5.651532411575317383e-01
4.088810920715332031e+00,2.125916004180908203e+00,-4.031873047351837158e-01
4.094157218933105469e+00,2.128695726394653320e+00,-2.418345212936401367e-01
4.099375247955322266e+00,2.131408929824829102e+00,-8.064866811037063599e-02
4.104478359222412109e+00,2.134062290191650391e+00,8.074906468391418457e-02
4.109974384307861328e+00,2.136919736862182617e+00,2.427688241004943848e-01
4.114902496337890625e+00,2.139482021331787109e+00,4.057601392269134521e-01
4.120427608489990234e+00,2.142354726791381836e+00,5.702221393585205078e-01
4.125818729400634766e+00,2.145157814025878906e+00,7.365134954452514648e-01
4.130841255187988281e+00,2.147769212722778320e+00,9.050004482269287109e-01
4.136774063110351562e+00,2.150854110717773438e+00,1.076425433158874512e+00
3.497258663177490234e+00,1.882414340972900391e+00,-1.064208865165710449e+00
4.103855609893798828e+00,2.208917856216430664e+00,-1.075976610183715820e+00
4.109457969665527344e+00,2.211933135986328125e+00,-9.071590900421142578e-01
4.114734649658203125e+00,2.214773416519165039e+00,-7.401180863380432129e-01
4.119899749755859375e+00,2.217553377151489258e+00,-5.744828581809997559e-01
4.125422954559326172e+00,2.220526456832885742e+00,-4.098896086215972900e-01
4.130584716796875000e+00,2.223304748535156250e+00,-2.458407878875732422e-01
4.135850906372070312e+00,2.226139307022094727e+00,-8.198474347591400146e-02
4.141256809234619141e+00,2.229049205780029297e+00,8.209190517663955688e-02
4.146315574645996094e+00,2.231771945953369141e+00,2.467770576477050781e-01
4.151818275451660156e+00,2.234733819961547852e+00,4.125122129917144775e-01
4.157295227050781250e+00,2.237681865692138672e+00,5.796973109245300293e-01
4.162559509277343750e+00,2.240515232086181641e+00,7.487203478813171387e-01
4.168746948242187500e+00,2.243845939636230469e+00,9.202471375465393066e-01
4.174593925476074219e+00,2.246993064880371094e+00,1.094523310661315918e+00
3.474108457565307617e+00,1.934584736824035645e+00,-1.065481305122375488e+00
4.135033607482910156e+00,2.302626132965087891e+00,-1.092680454254150391e+00
4.146000862121582031e+00,2.308733224868774414e+00,-9.224262833595275879e-01
4.151434898376464844e+00,2.311759233474731445e+00,-7.525940537452697754e-01
4.156673908233642578e+00,2.314676523208618164e+00,-5.841706395149230957e-01
4.161881446838378906e+00,2.317576646804809570e+00,-4.167652726173400879e-01
4.167171001434326172e+00,2.320522069931030273e+00,-2.499695569276809692e-01
4.172486305236816406e+00,2.323482036590576172e+00,-8.336167782545089722e-02
4.177860736846923828e+00,2.326474905014038086e+00,8.346905559301376343e-02
4.183356761932373047e+00,2.329535245895385742e+00,2.509404718875885010e-01
4.188883781433105469e+00,2.332612991333007812e+00,4.194692671298980713e-01
4.194303989410400391e+00,2.335631132125854492e+00,5.894591212272644043e-01
4.199429512023925781e+00,2.338485717773437500e+00,7.612947821617126465e-01
4.205400466918945312e+00,2.341810464859008789e+00,9.356418251991271973e-01
4.210950851440429688e+00,2.344901323318481445e+00,1.112741589546203613e+00
3.450782537460327148e+00,1.986824274063110352e+00,-1.066939949989318848e+00
4.102502346038818359e+00,2.362058639526367188e+00,-1.092906117439270020e+00
4.182632446289062500e+00,2.408194541931152344e+00,-9.381492137908935547e-01
4.187498092651367188e+00,2.410995960235595703e+00,-7.653095126152038574e-01
4.193027973175048828e+00,2.414179801940917969e+00,-5.940752625465393066e-01
4.198446273803710938e+00,2.417299509048461914e+00,-4.238482117652893066e-01
4.203866004943847656e+00,2.420419931411743164e+00,-2.542228698730468750e-01
4.209231376647949219e+00,2.423509120941162109e+00,-8.478015661239624023e-02
4.214573383331298828e+00,2.426584959030151367e+00,8.488775789737701416e-02
4.219955444335937500e+00,2.429683685302734375e+00,2.551958262920379639e-01
4.225287914276123047e+00,2.432753801345825195e+00,4.265579581260681152e-01
4.231402873992919922e+00,2.436274766921997070e+00,5.995123386383056641e-01
4.236381053924560547e+00,2.439140796661376953e+00,7.742433547973632812e-01
4.242122650146484375e+00,2.442446708679199219e+00,9.514926671981811523e-01
4.247364044189453125e+00,2.445464372634887695e+00,1.131497263908386230e+00
3.427241563796997070e+00,2.039130687713623047e+00,-1.068576216697692871e+00
4.069862365722656250e+00,2.421475410461425781e+00,-1.093332171440124512e+00
4.219302654266357422e+00,2.510388851165771484e+00,-9.543359279632568359e-01
4.224339008331298828e+00,2.513385534286499023e+00,-7.785376310348510742e-01
4.229957580566406250e+00,2.516728401184082031e+00,-6.043494343757629395e-01
4.235379695892333984e+00,2.519954442977905273e+00,-4.311739206314086914e-01
4.240717411041259766e+00,2.523130416870117188e+00,-2.586089074611663818e-01
4.246152877807617188e+00,2.526364326477050781e+00,-8.624331653118133545e-02
4.251676559448242188e+00,2.529650926589965820e+00,8.635550737380981445e-02
4.257153987884521484e+00,2.532909870147705078e+00,2.596112489700317383e-01
4.262497901916503906e+00,2.536089181900024414e+00,4.339346289634704590e-01
4.268541812896728516e+00,2.539685249328613281e+00,6.098620891571044922e-01
4.273360729217529297e+00,2.542552471160888672e+00,7.875722646713256836e-01
4.278861999511718750e+00,2.545825481414794922e+00,9.678072929382324219e-01
4.285347938537597656e+00,2.549684524536132812e+00,1.151220440864562988e+00
3.385805368423461914e+00,2.080658912658691406e+00,-1.064833283424377441e+00
4.039918422698974609e+00,2.482627391815185547e+00,-1.094722151756286621e+00
4.261672973632812500e+00,2.618900775909423828e+00,-9.722985029220581055e-01
4.267868518829345703e+00,2.622708082199096680e+00,-7.933973670005798340e-01
4.273089885711669922e+00,2.625916719436645508e+00,-6.158188581466674805e-01
4.278754711151123047e+00,2.629397869110107422e+00,-4.393760561943054199e-01
4.284244060516357422e+00,2.632771253585815430e+00,-2.635343372821807861e-01
4.289738655090332031e+00,2.636147737503051758e+00,-8.788595348596572876e-02
4.295227050781250000e+00,2.639520406723022461e+00,8.799840509891510010e-02
4.300576686859130859e+00,2.642807960510253906e+00,2.645389735698699951e-01
4.306460857391357422e+00,2.646424055099487305e+00,4.422211349010467529e-01
4.311430931091308594e+00,2.649478435516357422e+00,6.213444471359252930e-01
4.317023754119873047e+00,2.652915239334106445e+00,8.025352954864501953e-01
4.323610305786132812e+00,2.656962633132934570e+00,9.864293932914733887e-01
4.329911231994628906e+00,2.660834789276123047e+00,1.173303246498107910e+00
3.364388704299926758e+00,2.134428262710571289e+00,-1.067596673965454102e+00
3.981718540191650391e+00,2.526073455810546875e+00,-1.088637471199035645e+00
4.305194854736328125e+00,2.731292724609375000e+00,-9.910457730293273926e-01
4.311621189117431641e+00,2.735369443893432617e+00,-8.087266087532043457e-01
4.316974639892578125e+00,2.738765954971313477e+00,-6.277285218238830566e-01
4.322365283966064453e+00,2.742185831069946289e+00,-4.478389620780944824e-01
4.328008174896240234e+00,2.745765686035156250e+00,-2.686163485050201416e-01
4.333561420440673828e+00,2.749288797378540039e+00,-8.958081901073455811e-02
4.339012622833251953e+00,2.752747058868408203e+00,8.969350904226303101e-02
4.344779014587402344e+00,2.756405353546142578e+00,2.696572244167327881e-01
4.350649833679199219e+00,2.760130167007446289e+00,4.507695436477661133e-01
4.355505943298339844e+00,2.763211011886596680e+00,6.333313584327697754e-01
4.362068653106689453e+00,2.767374277114868164e+00,8.181889653205871582e-01
4.367175579071044922e+00,2.770614147186279297e+00,1.005313515663146973e+00
4.373079776763916016e+00,2.774359941482543945e+00,1.195639133453369141e+00
3.323390960693359375e+00,2.175745248794555664e+00,-1.064360380172729492e+00
3.951809406280517578e+00,2.587155818939208984e+00,-1.090472936630249023e+00
4.348869323730468750e+00,2.847101688385009766e+00,-1.010377049446105957e+00
4.354800701141357422e+00,2.850984573364257812e+00,-8.243955373764038086e-01
4.360504627227783203e+00,2.854718923568725586e+00,-6.399342417716979980e-01
4.366460800170898438e+00,2.858618259429931641e+00,-4.566002786159515381e-01
4.371948719024658203e+00,2.862211227416992188e+00,-2.738581597805023193e-01
4.377561092376708984e+00,2.865885257720947266e+00,-9.132896363735198975e-02
4.383309841156005859e+00,2.869648933410644531e+00,9.144889563322067261e-02
4.388603687286376953e+00,2.873114585876464844e+00,2.749013900756835938e-01
4.394239425659179688e+00,2.876804113388061523e+00,4.595050811767578125e-01
4.399738311767578125e+00,2.880404233932495117e+00,6.456920504570007324e-01
4.406082153320312500e+00,2.884557485580444336e+00,8.341035246849060059e-01
4.412252426147460938e+00,2.888597011566162109e+00,1.025102853775024414e+00
4.417938709259033203e+00,2.892319440841674805e+00,1.219097852706909180e+00
3.301578760147094727e+00,2.229615211486816406e+00,-1.067486047744750977e+00
3.921624183654785156e+00,2.648343086242675781e+00,-1.092491745948791504e+00
4.393576145172119141e+00,2.967060565948486328e+00,-1.030525088310241699e+00
4.398815155029296875e+00,2.970598697662353516e+00,-8.406909704208374023e-01
4.404665470123291016e+00,2.974549531936645508e+00,-6.525966525077819824e-01
4.410356044769287109e+00,2.978392601013183594e+00,-4.656006693840026855e-01
4.416004657745361328e+00,2.982206821441650391e+00,-2.792629897594451904e-01
4.421675682067871094e+00,2.986036777496337891e+00,-9.313147515058517456e-02
4.427383422851562500e+00,2.989891290664672852e+00,9.325169771909713745e-02
4.433086872100830078e+00,2.993743181228637695e+00,2.803432941436767578e-01
4.438695907592773438e+00,2.997530698776245117e+00,4.685924649238586426e-01
4.445039749145507812e+00,3.001815080642700195e+00,6.585785150527954102e-01
4.450181961059570312e+00,3.005287408828735352e+00,8.505079746246337891e-01
4.456022739410400391e+00,3.009232044219970703e+00,1.045172095298767090e+00
4.462857723236083984e+00,3.013847589492797852e+00,1.243269443511962891e+00
3.260811805725097656e+00,2.270707130432128906e+00,-1.064704656600952148e+00
3.864641666412353516e+00,2.691191673278808594e+00,-1.087237238883972168e+00
4.437372207641601562e+00,3.090019702911376953e+00,-1.051063895225524902e+00
4.442867755889892578e+00,3.093846559524536133e+00,-8.574857115745544434e-01
4.448873519897460938e+00,3.098028659820556641e+00,-6.656482815742492676e-01
4.454302310943603516e+00,3.101809263229370117e+00,-4.748784601688385010e-01
4.460112094879150391e+00,3.105854988098144531e+00,-2.848344445228576660e-01
4.465843200683593750e+00,3.109845638275146484e+00,-9.498956799507141113e-02
4.471508026123046875e+00,3.113790512084960938e+00,9.511005878448486328e-02
4.477618217468261719e+00,3.118045568466186523e+00,2.859524488449096680e-01
4.483191967010498047e+00,3.121926784515380859e+00,4.779584109783172607e-01
4.489399909973144531e+00,3.126249551773071289e+00,6.717118620872497559e-01
4.495482921600341797e+00,3.130485773086547852e+00,8.676406145095825195e-01
4.501183509826660156e+00,3.134455680847167969e+00,1.066178679466247559e+00
4.507773876190185547e+00,3.139044523239135742e+00,1.268169164657592773e+00
3.222713470458984375e+00,2.313363313674926758e+00,-1.062967777252197266e+00
3.837033987045288086e+00,2.754341363906860352e+00,-1.090449810028076172e+00
4.488545417785644531e+00,3.222016334533691406e+00,-1.073998928070068359e+00
4.494349956512451172e+00,3.226182937622070312e+00,-8.762446045875549316e-01
4.500025749206542969e+00,3.230257272720336914e+00,-6.801500320434570312e-01
4.506062984466552734e+00,3.234591007232666016e+00,-4.852828979492187500e-01
4.511743545532226562e+00,3.238668441772460938e+00,-2.910624146461486816e-01
4.517543792724609375e+00,3.242832183837890625e+00,-9.706658869981765747e-02
4.523502349853515625e+00,3.247109413146972656e+00,9.719462692737579346e-02
4.529118061065673828e+00,3.251140594482421875e+00,2.921832799911499023e-01
4.535189151763916016e+00,3.255498886108398438e+00,4.884196817874908447e-01
4.541227340698242188e+00,3.259832859039306641e+00,6.863773465156555176e-01
4.547027111053466797e+00,3.263996124267578125e+00,8.865147829055786133e-01
4.553717136383056641e+00,3.268798828125000000e+00,1.089592933654785156e+00
4.559997558593750000e+00,3.273306846618652344e+00,1.295909404754638672e+00
3.202518224716186523e+00,2.369046688079833984e+00,-1.067381739616394043e+00
3.783653259277343750e+00,2.798938274383544922e+00,-1.086553573608398438e+00
4.539925098419189453e+00,3.358386516571044922e+00,-1.097682356834411621e+00
4.546049594879150391e+00,3.362917184829711914e+00,-8.956172466278076172e-01
4.551928997039794922e+00,3.367266416549682617e+00,-6.952083706855773926e-01
4.557740211486816406e+00,3.371565341949462891e+00,-4.959947764873504639e-01
4.563607215881347656e+00,3.375905513763427734e+00,-2.974950671195983887e-01
4.569478511810302734e+00,3.380248546600341797e+00,-9.921192377805709839e-02
4.575390338897705078e+00,3.384621858596801758e+00,9.934028238058090210e-02
4.581398963928222656e+00,3.389066457748413086e+00,2.986548840999603271e-01
4.587408065795898438e+00,3.393512010574340820e+00,4.992233812808990479e-01
4.593266487121582031e+00,3.397845745086669922e+00,7.015218138694763184e-01
4.599956989288330078e+00,3.402794837951660156e+00,9.062374830245971680e-01
4.605054378509521484e+00,3.406565666198730469e+00,1.113429665565490723e+00
4.612394809722900391e+00,3.411995649337768555e+00,1.324543833732604980e+00
3.164344310760498047e+00,2.411635398864746094e+00,-1.066054344177246094e+00
3.755526781082153320e+00,2.862192153930664062e+00,-1.090129613876342773e+00
4.591442108154296875e+00,3.499266862869262695e+00,-1.122133612632751465e+00
4.597895145416259766e+00,3.504184722900390625e+00,-9.156189560890197754e-01
4.603985786437988281e+00,3.508826494216918945e+00,-7.107565999031066895e-01
4.609578132629394531e+00,3.513088703155517578e+00,-5.070562362670898438e-01
4.615633487701416016e+00,3.517703771591186523e+00,-3.041377067565917969e-01
4.621575355529785156e+00,3.522232055664062500e+00,-1.014272570610046387e-01
4.627440452575683594e+00,3.526702165603637695e+00,1.015559807419776917e-01
4.633836746215820312e+00,3.531576871871948242e+00,3.053371906280517578e-01
4.639776706695556641e+00,3.536103725433349609e+00,5.103781223297119141e-01
4.645448207855224609e+00,3.540426254272460938e+00,7.171575427055358887e-01
4.651831626892089844e+00,3.545291423797607422e+00,9.263598322868347168e-01
4.657894134521484375e+00,3.549911737442016602e+00,1.138374328613281250e+00
4.664895057678222656e+00,3.555247306823730469e+00,1.354094982147216797e+00
3.128657817840576172e+00,2.456011533737182617e+00,-1.065765857696533203e+00
3.705443143844604492e+00,2.908790826797485352e+00,-1.087565779685974121e+00
4.539527416229248047e+00,3.563551187515258789e+00,-1.121796727180480957e+00
4.657780647277832031e+00,3.656380653381347656e+00,-9.378704428672790527e-01
4.663602352142333984e+00,3.660950422286987305e+00,-7.279751300811767578e-01
4.669845104217529297e+00,3.665850877761840820e+00,-5.194042921066284180e-01
4.675896167755126953e+00,3.670601367950439453e+00,-3.115386366844177246e-01
4.681944847106933594e+00,3.675349473953247070e+00,-1.038960516452789307e-01
4.687978267669677734e+00,3.680085897445678711e+00,1.040299460291862488e-01
4.693860530853271484e+00,3.684703588485717773e+00,3.127355575561523438e-01
4.700262546539306641e+00,3.689728975296020508e+00,5.227874517440795898e-01
4.706691265106201172e+00,3.694775581359863281e+00,7.347012162208557129e-01
4.712930679321289062e+00,3.699673652648925781e+00,9.489752054214477539e-01
4.718715667724609375e+00,3.704214572906494141e+00,1.166077256202697754e+00
4.725309371948242188e+00,3.709391117095947266e+00,1.386901617050170898e+00
3.090614080429077148e+00,2.498457431793212891e+00,-1.064879298210144043e+00
3.676575899124145508e+00,2.972150087356567383e+00,-1.091467499732971191e+00
4.497535228729248047e+00,3.635814905166625977e+00,-1.124164938926696777e+00
4.709862232208251953e+00,3.807460546493530273e+00,-9.592325687408447266e-01
4.715908050537109375e+00,3.812347888946533203e+00,-7.445815801620483398e-01
4.721941947937011719e+00,3.817225694656372070e+00,-5.312214493751525879e-01
4.728186607360839844e+00,3.822273731231689453e+00,-3.186350464820861816e-01
4.734306812286376953e+00,3.827221155166625977e+00,-1.062627509236335754e-01
4.740289688110351562e+00,3.832057952880859375e+00,1.063970401883125305e-01
4.746551990509033203e+00,3.837120294570922852e+00,3.198727071285247803e-01
4.752873420715332031e+00,3.842230796813964844e+00,5.347012877464294434e-01
4.759096622467041016e+00,3.847261667251586914e+00,7.514005303382873535e-01
4.765009880065917969e+00,3.852041721343994141e+00,9.704641103744506836e-01
4.771735668182373047e+00,3.857479095458984375e+00,1.192701697349548340e+00
4.777959823608398438e+00,3.862510442733764648e+00,1.418436050415039062e+00
3.057286024093627930e+00,2.544720411300659180e+00,-1.065836787223815918e+00
3.629471540451049805e+00,3.020976781845092773e+00,-1.090208768844604492e+00
4.462034225463867188e+00,3.713957309722900391e+00,-1.128463149070739746e+00
4.778509616851806641e+00,3.977374315261840820e+00,-9.847073554992675781e-01
4.784867763519287109e+00,3.982666254043579102e+00,-7.643915414810180664e-01
4.791068077087402344e+00,3.987827062606811523e+00,-5.453637838363647461e-01
4.797239303588867188e+00,3.992963790893554688e+00,-3.271066248416900635e-01
4.803453922271728516e+00,3.998136520385742188e+00,-1.090880781412124634e-01
4.809725284576416016e+00,4.003356933593750000e+00,1.092305108904838562e-01
4.816011428833007812e+00,4.008588790893554688e+00,3.283866345882415771e-01
4.822209835052490234e+00,4.013748168945312500e+00,5.489086508750915527e-01
4.828166007995605469e+00,4.018705844879150391e+00,7.713086009025573730e-01
4.834857463836669922e+00,4.024274826049804688e+00,9.963188767433166504e-01
4.841234683990478516e+00,4.029582977294921875e+00,1.224364042282104492e+00
3.021490573883056641e+00,2.589019060134887695e+00,-1.066167593002319336e+00
3.579781055450439453e+00,3.067400455474853516e+00,-1.088359475135803223e+00
4.387845039367675781e+00,3.759804487228393555e+00,-1.123195528984069824e+00
4.839196205139160156e+00,4.146553039550781250e+00,-1.009340167045593262e+00
4.845834732055664062e+00,4.152241706848144531e+00,-7.835454940795898438e-01
4.851865768432617188e+00,4.157409191131591797e+00,-5.590007305145263672e-01
4.858257770538330078e+00,4.162886142730712891e+00,-3.352958261966705322e-01
4.864555835723876953e+00,4.168283462524414062e+00,-1.118192374706268311e-01
4.870774269104003906e+00,4.173611640930175781e+00,1.119621694087982178e-01
4.877428054809570312e+00,4.179312705993652344e+00,3.366188704967498779e-01
4.883512973785400391e+00,4.184526920318603516e+00,5.626469850540161133e-01
4.890203475952148438e+00,4.190259456634521484e+00,7.907196283340454102e-01
4.896716594696044922e+00,4.195840835571289062e+00,1.021337628364562988e+00
4.902775287628173828e+00,4.201032161712646484e+00,1.255006790161132812e+00
2.972473382949829102e+00,2.621718883514404297e+00,-1.062003970146179199e+00
3.533084392547607422e+00,3.116177320480346680e+00,-1.087611675262451172e+00
4.351560115814208984e+00,3.838072061538696289e+00,-1.127854228019714355e+00
4.908710956573486328e+00,4.329478740692138672e+00,-1.036658525466918945e+00
4.915679454803466797e+00,4.335625171661376953e+00,-8.047909736633300781e-01
4.921888351440429688e+00,4.341101169586181641e+00,-5.741683840751647949e-01
4.928214550018310547e+00,4.346681118011474609e+00,-3.443825542926788330e-01
4.934609413146972656e+00,4.352321147918701172e+00,-1.148497387766838074e-01
4.941115379333496094e+00,4.358059406280517578e+00,1.150011643767356873e-01
4.947783470153808594e+00,4.363940715789794922e+00,3.457500338554382324e-01
4.953732013702392578e+00,4.369187355041503906e+00,5.778831839561462402e-01
4.960135459899902344e+00,4.374835014343261719e+00,8.120692372322082520e-01
4.967408180236816406e+00,4.381249904632568359e+00,1.049054622650146484e+00
4.974485874176025391e+00,4.387492179870605469e+00,1.289306640625000000e+00
2.938985824584960938e+00,2.667931079864501953e+00,-1.063574194908142090e+00
3.486462354660034180e+00,3.164915323257446289e+00,-1.087093591690063477e+00
4.281601428985595703e+00,3.886721134185791016e+00,-1.124026060104370117e+00
4.979380607604980469e+00,4.520145893096923828e+00,-1.065137624740600586e+00
4.985417842864990234e+00,4.525626659393310547e+00,-8.267290592193603516e-01
4.992028713226318359e+00,4.531627655029296875e+00,-5.898569822311401367e-01
4.998604774475097656e+00,4.537597179412841797e+00,-3.538037538528442383e-01
5.005095958709716797e+00,4.543489933013916016e+00,-1.179917827248573303e-01
5.011546611785888672e+00,4.549345493316650391e+00,1.181438565254211426e-01
5.018006324768066406e+00,4.555209636688232422e+00,3.551770150661468506e-01
5.025148391723632812e+00,4.561692714691162109e+00,5.937703847885131836e-01
5.031466960906982422e+00,4.567428588867187500e+00,8.343653678894042969e-01
5.038502693176269531e+00,4.573815345764160156e+00,1.077784419059753418e+00
5.045188426971435547e+00,4.579884529113769531e+00,1.324486494064331055e+00
2.907502412796020508e+00,2.716261148452758789e+00,-1.066141366958618164e+00
3.442581176757812500e+00,3.216145038604736328e+00,-1.087653517723083496e+00
4.215760231018066406e+00,3.938468217849731445e+00,-1.121425509452819824e+00
5.058796882629394531e+00,4.726054191589355469e+00,-1.096483349800109863e+00
5.065224170684814453e+00,4.732058525085449219e+00,-8.511081337928771973e-01
5.072058677673339844e+00,4.738443851470947266e+00,-6.072651743888854980e-01
5.078693389892578125e+00,4.744641780853271484e+00,-3.642420172691345215e-01
5.085325241088867188e+00,4.750837802886962891e+00,-1.214737743139266968e-01
5.091938972473144531e+00,4.757016181945800781e+00,1.216317489743232727e-01
5.098397254943847656e+00,4.763049602508544922e+00,3.656551539897918701e-01
5.105370521545410156e+00,4.769564628601074219e+00,6.112534999847412109e-01
5.112347126007080078e+00,4.776082038879394531e+00,8.590261340141296387e-01
5.119094848632812500e+00,4.782385826110839844e+00,1.109552860260009766e+00
5.125324726104736328e+00,4.788206100463867188e+00,1.363376855850219727e+00
2.861363649368286133e+00,2.750898361206054688e+00,-1.063552260398864746e+00
3.398576736450195312e+00,3.267371892929077148e+00,-1.088415026664733887e+00
4.181326389312744141e+00,4.019902706146240234e+00,-1.127456068992614746e+00
5.138901233673095703e+00,4.940509319305419922e+00,-1.129057645797729492e+00
5.145727634429931641e+00,4.947072505950927734e+00,-8.764434456825256348e-01
5.152795791625976562e+00,4.953867435455322266e+00,-6.253570318222045898e-01
5.159396171569824219e+00,4.960213184356689453e+00,-3.750835359096527100e-01
5.166140556335449219e+00,4.966697216033935547e+00,-1.250895410776138306e-01
5.173044204711914062e+00,4.973334312438964844e+00,1.252567172050476074e-01
5.179493427276611328e+00,4.979534626007080078e+00,3.765445649623870850e-01
5.186293125152587891e+00,4.986072063446044922e+00,6.294223666191101074e-01
5.192926406860351562e+00,4.992448806762695312e+00,8.844825029373168945e-01
5.200366020202636719e+00,4.999601364135742188e+00,1.142561912536621094e+00
5.207530975341796875e+00,5.006489753723144531e+00,1.404162764549255371e+00
2.815569639205932617e+00,2.785503625869750977e+00,-1.061241626739501953e+00
3.354382514953613281e+00,3.318562984466552734e+00,-1.089362144470214844e+00
4.115484714508056641e+00,4.071537971496582031e+00,-1.125301361083984375e+00
5.220357418060302734e+00,5.164611816406250000e+00,-1.163076639175415039e+00
5.226849555969238281e+00,5.171034812927246094e+00,-9.027746915817260742e-01
5.233841896057128906e+00,5.177952289581298828e+00,-6.441217660903930664e-01
5.240727424621582031e+00,5.184764385223388672e+00,-3.863517940044403076e-01
5.247585773468017578e+00,5.191549301147460938e+00,-1.288476735353469849e-01
5.254430770874023438e+00,5.198321342468261719e+00,1.290157437324523926e-01
5.261216163635253906e+00,5.205034255981445312e+00,3.878622353076934814e-01
5.268616199493408203e+00,5.212355613708496094e+00,6.484013795852661133e-01
5.275108814239501953e+00,5.218778610229492188e+00,9.111098647117614746e-01
5.282237052917480469e+00,5.225831031799316406e+00,1.176863193511962891e+00
2.785634517669677734e+00,2.835918426513671875e+00,-1.065149188041687012e+00
3.293375253677368164e+00,3.352824687957763672e+00,-1.085023641586303711e+00
4.053246021270751953e+00,4.126411914825439453e+00,-1.124317884445190430e+00
5.216020107269287109e+00,5.310175418853759766e+00,-1.178923606872558594e+00
5.318438529968261719e+00,5.414442539215087891e+00,-9.318839311599731445e-01
5.325710296630859375e+00,5.421845912933349609e+00,-6.649105548858642578e-01
5.332596778869628906e+00,5.428856372833251953e+00,-3.988121747970581055e-01
5.339583396911621094e+00,5.435969352722167969e+00,-1.330033987760543823e-01
5.346719264984130859e+00,5.443233966827392578e+00,1.331811547279357910e-01
5.353482246398925781e+00,5.450119018554687500e+00,4.003741443157196045e-01
5.360675334930419922e+00,5.457442283630371094e+00,6.692759394645690918e-01
5.367773532867431641e+00,5.464668273925781250e+00,9.405282735824584961e-01
5.375748634338378906e+00,5.472787380218505859e+00,1.215025424957275391e+00
2.744172573089599609e+00,2.874878883361816406e+00,-1.064920663833618164e+00
3.254258155822753906e+00,3.409260511398315430e+00,-1.088101744651794434e+00
3.994358062744140625e+00,4.184611797332763672e+00,-1.124482512474060059e+00
5.118752002716064453e+00,5.362561225891113281e+00,-1.174167394638061523e+00
5.421214580535888672e+00,5.679430484771728516e+00,-9.640371799468994141e-01
5.428497314453125000e+00,5.687059879302978516e+00,-6.878359317779541016e-01
5.435728549957275391e+00,5.694635391235351562e+00,-4.125788211822509766e-01
5.442859172821044922e+00,5.702105522155761719e+00,-1.375947892665863037e-01
5.449940204620361328e+00,5.709523677825927734e+00,1.377737969160079956e-01
5.457016944885253906e+00,5.716938018798828125e+00,4.141946434974670410e-01
5.464766025543212891e+00,5.725056171417236328e+00,6.924314498901367188e-01
5.471646308898925781e+00,5.732264041900634766e+00,9.730052947998046875e-01
5.479205131530761719e+00,5.740182876586914062e+00,1.256850123405456543e+00
2.702717065811157227e+00,2.913827657699584961e+00,-1.064909219741821289e+00
3.196541547775268555e+00,3.446225166320800781e+00,-1.085185527801513672e+00
3.935415267944335938e+00,4.242812633514404297e+00,-1.124870181083679199e+00
5.068537235260009766e+00,5.464443683624267578e+00,-1.180469393730163574e+00
5.525989532470703125e+00,5.957627296447753906e+00,-9.977307915687561035e-01
5.533071517944335938e+00,5.965262889862060547e+00,-7.118322253227233887e-01
5.540432453155517578e+00,5.973198890686035156e+00,-4.269716143608093262e-01
5.547746181488037109e+00,5.981083393096923828e+00,-1.423959434032440186e-01
5.554993629455566406e+00,5.988897323608398438e+00,1.425819694995880127e-01
5.562606334686279297e+00,5.997104644775390625e+00,4.286804497241973877e-01
5.569542407989501953e+00,6.004582405090332031e+00,7.165242433547973633e-01
5.576987743377685547e+00,6.012609481811523438e+00,1.006938695907592773e+00
5.585337162017822266e+00,6.021611213684082031e+00,1.300832748413085938e+00
2.661201953887939453e+00,2.952725887298583984e+00,-1.065095067024230957e+00
3.156763076782226562e+00,3.502573728561401367e+00,-1.088589549064636230e+00
3.876324176788330078e+00,4.300959587097167969e+00,-1.125460982322692871e+00
4.972109317779541016e+00,5.516783714294433594e+00,-1.176281571388244629e+00
5.631643295288085938e+00,6.248567104339599609e+00,-1.032849431037902832e+00
5.639068126678466797e+00,6.256805419921875000e+00,-7.369147539138793945e-01
5.646470546722412109e+00,6.265018463134765625e+00,-4.420088231563568115e-01
5.653935432434082031e+00,6.273301124572753906e+00,-1.474111825227737427e-01
5.661479473114013672e+00,6.281672000885009766e+00,1.476078778505325317e-01
5.669053077697753906e+00,6.290074825286865234e+00,4.437765777111053467e-01
5.676536083221435547e+00,6.298377990722656250e+00,7.418110966682434082e-01
5.683744907379150391e+00,6.306375980377197266e+00,1.042404890060424805e+00
5.691653728485107422e+00,6.315151214599609375e+00,1.346508383750915527e+00
2.611779689788818359e+00,2.982641696929931641e+00,-1.062292575836181641e+00
3.104240894317626953e+00,3.545030593872070312e+00,-1.087864160537719727e+00
3.797272682189941406e+00,4.336470127105712891e+00,-1.120415806770324707e+00
4.884562969207763672e+00,5.578151226043701172e+00,-1.174338698387145996e+00
5.761040687561035156e+00,6.579085350036621094e+00,-1.073741912841796875e+00
5.768895626068115234e+00,6.588055610656738281e+00,-7.661250233650207520e-01
5.776399612426757812e+00,6.596625328063964844e+00,-4.595239758491516113e-01
5.784049034118652344e+00,6.605360507965087891e+00,-1.532528698444366455e-01
5.791901111602783203e+00,6.614327907562255859e+00,1.534609198570251465e-01
5.799414634704589844e+00,6.622908115386962891e+00,4.613548815250396729e-01
5.807405948638916016e+00,6.632033824920654297e+00,7.712392807006835938e-01
5.815323829650878906e+00,6.641076564788818359e+00,1.083859086036682129e+00
2.572263240814208984e+00,3.023758172988891602e+00,-1.063714504241943359e+00
3.049436330795288086e+00,3.584686994552612305e+00,-1.086527943611145020e+00
3.741259098052978516e+00,4.397941589355468750e+00,-1.122347474098205566e+00
4.793743133544921875e+00,5.635161876678466797e+00,-1.171775817871093750e+00
5.881580829620361328e+00,6.913941860198974609e+00,-1.114538550376892090e+00
5.889520645141601562e+00,6.923274993896484375e+00,-7.952230572700500488e-01
5.897424697875976562e+00,6.932566642761230469e+00,-4.769967496395111084e-01
5.905248641967773438e+00,6.941764354705810547e+00,-1.590804904699325562e-01
5.913048267364501953e+00,6.950932979583740234e+00,1.592906117439270020e-01
5.920866012573242188e+00,6.960122585296630859e+00,4.788927435874938965e-01
5.929385185241699219e+00,6.970137119293212891e+00,8.006057143211364746e-01
5.937016963958740234e+00,6.979108810424804688e+00,1.125043511390686035e+00
2.525250673294067383e+00,3.056059598922729492e+00,-1.062253594398498535e+00
2.999479770660400391e+00,3.629971981048583984e+00,-1.087129473686218262e+00
3.666492462158203125e+00,4.437191009521484375e+00,-1.118856310844421387e+00
4.710965633392333984e+00,5.701212882995605469e+00,-1.171368956565856934e+00
6.028604984283447266e+00,7.295820713043212891e+00,-1.162068843841552734e+00
6.036498069763183594e+00,7.305373191833496094e+00,-8.291023373603820801e-01
6.044643878936767578e+00,7.315231323242187500e+00,-4.973221123218536377e-01
6.052721023559570312e+00,7.325006008148193359e+00,-1.658606678247451782e-01
6.060704708099365234e+00,7.334668159484863281e+00,1.660794466733932495e-01
6.069038867950439453e+00,7.344754219055175781e+00,4.993292093276977539e-01
6.077460289001464844e+00,7.354945659637451172e+00,8.347284197807312012e-01
6.085767269134521484e+00,7.364998340606689453e+00,1.173087358474731445e+00
2.478447914123535156e+00,3.088391780853271484e+00,-1.061052322387695312e+00
2.949378013610839844e+00,3.675217390060424805e+00,-1.087925434112548828e+00
3.615647554397583008e+00,4.505455017089843750e+00,-1.122904777526855469e+00
4.628264904022216797e+00,5.767276287078857422e+00,-1.171211361885070801e+00
6.178735256195068359e+00,7.699316501617431641e+00,-1.212126493453979492e+00
6.187139034271240234e+00,7.709788322448730469e+00,-8.648608922958374023e-01
6.195443153381347656e+00,7.720136642456054688e+00,-5.187674760818481445e-01
6.203739643096923828e+00,7.730474472045898438e+00,-1.730133593082427979e-01
6.212047576904296875e+00,7.740827083587646484e+00,1.732450574636459351e-01
6.220311164855957031e+00,7.751123905181884766e+00,5.208497643470764160e-01
6.229222774505615234e+00,7.762228965759277344e+00,8.707435131072998047e-01
6.237160682678222656e+00,7.772120475769042969e+00,1.223588228225708008e+00
2.433639287948608398e+00,3.123093128204345703e+00,-1.060898184776306152e+00
2.886567592620849609e+00,3.704336404800415039e+00,-1.084203600883483887e+00
3.544204235076904297e+00,4.548282623291015625e+00,-1.120820522308349609e+00
4.549078464508056641e+00,5.837839126586914062e+00,-1.172198057174682617e+00
