-7.607285022735595703e+00,-4.750218868255615234e+00,-1.101201057434082031e+00
-7.616388797760009766e+00,-4.755903720855712891e+00,-7.855865955352783203e-01
-7.624825954437255859e+00,-4.761171817779541016e+00,-4.711062610149383545e-01
-7.633554458618164062e+00,-4.766622066497802734e+00,-1.570874303579330444e-01
-7.642547607421875000e+00,-4.772237777709960938e+00,1.572725027799606323e-01
-7.651011943817138672e+00,-4.777523040771484375e+00,4.727241992950439453e-01
-7.660279273986816406e+00,-4.783309936523437500e+00,7.901136279106140137e-01
-7.669547557830810547e+00,-4.789097309112548828e+00,1.110213994979858398e+00
-3.370196580886840820e+00,-2.172105550765991211e+00,-1.074346542358398438e+00
-4.000889301300048828e+00,-2.578589439392089844e+00,-1.098897814750671387e+00
-4.918245315551757812e+00,-3.169829130172729492e+00,-1.137363195419311523e+00
-6.376476287841796875e+00,-4.109664916992187500e+00,-1.201517224311828613e+00
-7.181282520294189453e+00,-4.628365993499755859e+00,-1.049016952514648438e+00
-7.189043998718261719e+00,-4.633368492126464844e+00,-7.482722401618957520e-01
-7.197483539581298828e+00,-4.638807773590087891e+00,-4.487589895725250244e-01
-7.205743789672851562e+00,-4.644131183624267578e+00,-1.496363133192062378e-01
-7.213848114013671875e+00,-4.649354934692382812e+00,1.498046219348907471e-01
-7.222669601440429688e+00,-4.655040264129638672e+00,4.503293633460998535e-01
-7.230552196502685547e+00,-4.660120487213134766e+00,7.525926828384399414e-01
-7.239494323730468750e+00,-4.665884017944335938e+00,1.057520389556884766e+00
-3.337777137756347656e+00,-2.219460964202880859e+00,-1.074028849601745605e+00
-3.966997146606445312e+00,-2.637861728668212891e+00,-1.099846720695495605e+00
-4.885033130645751953e+00,-3.248311519622802734e+00,-1.140318036079406738e+00
-6.274240970611572266e+00,-4.172067642211914062e+00,-1.193383216857910156e+00
-6.816722869873046875e+00,-4.532792091369628906e+00,-1.005137801170349121e+00
-6.824796676635742188e+00,-4.538160800933837891e+00,-7.170471549034118652e-01
-6.832713127136230469e+00,-4.543425083160400391e+00,-4.300264418125152588e-01
-6.840572357177734375e+00,-4.548650741577148438e+00,-1.433904170989990234e-01
-6.848415851593017578e+00,-4.553866386413574219e+00,1.435548216104507446e-01
-6.856138229370117188e+00,-4.559001445770263672e+00,4.315007328987121582e-01
-6.864859104156494141e+00,-4.564800262451171875e+00,7.212563157081604004e-01
-6.872231483459472656e+00,-4.569702625274658203e+00,1.013322591781616211e+00
-6.880754470825195312e+00,-4.575369834899902344e+00,1.308744192123413086e+00
-3.303195238113403320e+00,-2.265306472778320312e+00,-1.073224663734436035e+00
-3.930459260940551758e+00,-2.695479393005371094e+00,-1.100300669670104980e+00
-4.848549365997314453e+00,-3.325098514556884766e+00,-1.142794370651245117e+00
-6.244199752807617188e+00,-4.282225131988525391e+00,-1.199204564094543457e+00
-6.452370166778564453e+00,-4.424986839294433594e+00,-9.606540799140930176e-01
-6.459800720214843750e+00,-4.430082798004150391e+00,-6.852908134460449219e-01
-6.467195510864257812e+00,-4.435153961181640625e+00,-4.109753370285034180e-01
-6.474650382995605469e+00,-4.440266609191894531e+00,-1.370382457971572876e-01
-6.482204437255859375e+00,-4.445446968078613281e+00,1.371981352567672729e-01
-6.489760875701904297e+00,-4.450629234313964844e+00,4.124093055725097656e-01
-6.497203826904296875e+00,-4.455733299255371094e+00,6.892586946487426758e-01
-6.504323959350585938e+00,-4.460616588592529297e+00,9.683891534805297852e-01
-6.512656688690185547e+00,-4.466331005096435547e+00,1.250761985778808594e+00
-3.270661592483520508e+00,-2.312509298324584961e+00,-1.073298811912536621e+00
-3.896414279937744141e+00,-2.754945516586303711e+00,-1.101696133613586426e+00
-4.769760608673095703e+00,-3.372442007064819336e+00,-1.135485172271728516e+00
-6.131040096282958984e+00,-4.334929466247558594e+00,-1.189266681671142578e+00
-6.138352870941162109e+00,-4.340100288391113281e+00,-9.230563640594482422e-01
-6.146075725555419922e+00,-4.345560550689697266e+00,-6.585402488708496094e-01
-6.153026103973388672e+00,-4.350474357604980469e+00,-3.949272632598876953e-01
-6.160133838653564453e+00,-4.355500221252441406e+00,-1.316874027252197266e-01
-6.167432308197021484e+00,-4.360660552978515625e+00,1.318434327840805054e-01
-6.174025058746337891e+00,-4.365321636199951172e+00,3.962750732898712158e-01
-6.181087493896484375e+00,-4.370315074920654297e+00,6.622916460037231445e-01
-6.189392566680908203e+00,-4.376187324523925781e+00,9.307314157485961914e-01
-6.196057796478271484e+00,-4.380899906158447266e+00,1.201878547668457031e+00
-3.238061428070068359e+00,-2.359688043594360352e+00,-1.073574423789978027e+00
-3.862276792526245117e+00,-2.814575672149658203e+00,-1.103321671485900879e+00
-4.736202239990234375e+00,-3.451435565948486328e+00,-1.139140129089355469e+00
-5.839077472686767578e+00,-4.255138874053955078e+00,-1.144330263137817383e+00
-5.845783710479736328e+00,-4.260025978088378906e+00,-8.881394863128662109e-01
-5.852485179901123047e+00,-4.264909744262695312e+00,-6.335585713386535645e-01
-5.859513282775878906e+00,-4.270030975341796875e+00,-3.799723088741302490e-01
-5.866292953491210938e+00,-4.274971961975097656e+00,-1.267009526491165161e-01
-5.872889041900634766e+00,-4.279778480529785156e+00,1.268434077501296997e-01
-5.879814147949218750e+00,-4.284825325012207031e+00,3.812887668609619141e-01
-5.886823654174804688e+00,-4.289933204650878906e+00,6.372758746147155762e-01
-5.893722534179687500e+00,-4.294960975646972656e+00,8.954227566719055176e-01
-5.900245666503906250e+00,-4.299714565277099609e+00,1.156317949295043945e+00
-3.205389499664306641e+00,-2.406864404678344727e+00,-1.074054241180419922e+00
-3.798646688461303711e+00,-2.852329730987548828e+00,-1.096695184707641602e+00
-4.702574253082275391e+00,-3.531071424484252930e+00,-1.143091201782226562e+00
-5.564704418182373047e+00,-4.178428173065185547e+00,-1.102167367935180664e+00
-5.571917057037353516e+00,-4.183844089508056641e+00,-8.555420637130737305e-01
-5.578145027160644531e+00,-4.188520431518554688e+00,-6.102875471115112305e-01
-5.584772109985351562e+00,-4.193496227264404297e+00,-3.660109937191009521e-01
-5.591244220733642578e+00,-4.198356151580810547e+00,-1.220458149909973145e-01
-5.597621917724609375e+00,-4.203145027160644531e+00,1.221850216388702393e-01
-5.604404926300048828e+00,-4.208238124847412109e+00,3.672977089881896973e-01
-5.610311031341552734e+00,-4.212673187255859375e+00,6.138067245483398438e-01
-5.616938591003417969e+00,-4.217649459838867188e+00,8.624548316001892090e-01
-5.624917984008789062e+00,-4.223640918731689453e+00,1.114093422889709473e+00
-5.630948066711425781e+00,-4.228168964385986328e+00,1.368758201599121094e+00
-3.172669410705566406e+00,-2.454083204269409180e+00,-1.074750423431396484e+00
-3.764396429061889648e+00,-2.911788463592529297e+00,-1.098726987838745117e+00
-4.623966217041015625e+00,-3.576671838760375977e+00,-1.136311054229736328e+00
-5.308431148529052734e+00,-4.106110572814941406e+00,-1.062940716743469238e+00
-5.314357280731201172e+00,-4.110694408416748047e+00,-8.249447345733642578e-01
-5.320884704589843750e+00,-4.115743637084960938e+00,-5.885264277458190918e-01
-5.327137470245361328e+00,-4.120580196380615234e+00,-3.529555499553680420e-01
-5.333334445953369141e+00,-4.125373363494873047e+00,-1.176930069923400879e-01
-5.339489936828613281e+00,-4.130135059356689453e+00,1.178288459777832031e-01
-5.345417499542236328e+00,-4.134719848632812500e+00,3.541667163372039795e-01
-5.352002620697021484e+00,-4.139813423156738281e+00,5.919682979583740234e-01
-5.358646869659423828e+00,-4.144952774047851562e+00,8.318197727203369141e-01
-5.365104675292968750e+00,-4.149948120117187500e+00,1.074288845062255859e+00
-5.371056079864501953e+00,-4.154551506042480469e+00,1.319903969764709473e+00
-3.139913320541381836e+00,-2.501383543014526367e+00,-1.075672507286071777e+00
-3.730090141296386719e+00,-2.971542358398437500e+00,-1.101015329360961914e+00
-4.590115547180175781e+00,-3.656673908233642578e+00,-1.140737891197204590e+00
-5.067692279815673828e+00,-4.037130832672119141e+00,-1.026201725006103516e+00
-5.073137760162353516e+00,-4.041469097137451172e+00,-7.963984012603759766e-01
-5.079235553741455078e+00,-4.046326637268066406e+00,-5.681462287902832031e-01
-5.085140228271484375e+00,-4.051030635833740234e+00,-3.407286703586578369e-01
-5.091062545776367188e+00,-4.055748462677001953e+00,-1.136161014437675476e-01
-5.097019672393798828e+00,-4.060494422912597656e+00,1.137490421533584595e-01
-5.102829456329345703e+00,-4.065122604370117188e+00,3.419139087200164795e-01
-5.109345912933349609e+00,-4.070313930511474609e+00,5.715142488479614258e-01
-5.114755153656005859e+00,-4.074623107910156250e+00,8.029316663742065430e-01
-5.121022701263427734e+00,-4.079616069793701172e+00,1.037001013755798340e+00
-5.126880645751953125e+00,-4.084282875061035156e+00,1.274134993553161621e+00
-3.107128620147705078e+00,-2.548802852630615234e+00,-1.076828956604003906e+00
-3.695735692977905273e+00,-3.031641721725463867e+00,-1.103570342063903809e+00
-4.511963367462158203e+00,-3.701200008392333984e+00,-1.134365081787109375e+00
-4.840242385864257812e+00,-3.970489978790283203e+00,-9.915501475334167480e-01
-4.846190452575683594e+00,-3.975368976593017578e+00,-7.696251869201660156e-01
-4.851889610290527344e+00,-3.980044126510620117e+00,-5.490320920944213867e-01
-4.857469081878662109e+00,-3.984621286392211914e+00,-3.292614221572875977e-01
-4.863134860992431641e+00,-3.989269018173217773e+00,-1.097925379872322083e-01
-4.868900299072265625e+00,-3.993998289108276367e+00,1.099227070808410645e-01
-4.874590873718261719e+00,-3.998666286468505859e+00,3.304220139980316162e-01
-4.880104064941406250e+00,-4.003188610076904297e+00,5.522247552871704102e-01
-4.886468410491943359e+00,-4.008409500122070312e+00,7.760217785835266113e-01
-4.891356945037841797e+00,-4.012419700622558594e+00,1.002021193504333496e+00
-4.897107124328613281e+00,-4.017136573791503906e+00,1.231195092201232910e+00
-3.055824756622314453e+00,-2.580759048461914062e+00,-1.071740865707397461e+00
-3.634428024291992188e+00,-3.069411277770996094e+00,-1.098269939422607422e+00
-4.480325222015380859e+00,-3.783803224563598633e+00,-1.139910459518432617e+00
-4.642017841339111328e+00,-3.920358896255493164e+00,-9.623394012451171875e-01
-4.647562503814697266e+00,-3.925041198730468750e+00,-7.469266057014465332e-01
-4.652523994445800781e+00,-3.929231643676757812e+00,-5.327817797660827637e-01
-4.658082485198974609e+00,-3.933926105499267578e+00,-3.195301890373229980e-01
-4.663542270660400391e+00,-3.938536882400512695e+00,-1.065482497215270996e-01
-4.668877124786376953e+00,-3.943042516708374023e+00,1.066701412200927734e-01
-4.674829959869384766e+00,-3.948069810867309570e+00,3.206789791584014893e-01
-4.680289745330810547e+00,-3.952680587768554688e+00,5.359613299369812012e-01
-4.685483455657958984e+00,-3.957067012786865234e+00,7.530210018157958984e-01
-4.691593647003173828e+00,-3.962227106094360352e+00,9.726169109344482422e-01
-4.697445392608642578e+00,-3.967169523239135742e+00,1.195151448249816895e+00
-4.702733039855957031e+00,-3.971635103225708008e+00,1.421095728874206543e+00
-3.022998094558715820e+00,-2.628074169158935547e+00,-1.073310971260070801e+00
-3.599945068359375000e+00,-3.129648685455322266e+00,-1.101273536682128906e+00
-4.402549266815185547e+00,-3.827400684356689453e+00,-1.133944272994995117e+00
-4.438706398010253906e+00,-3.858834505081176758e+00,-9.315457940101623535e-01
-4.444084644317626953e+00,-3.863509893417358398e+00,-7.230383753776550293e-01
-4.449346065521240234e+00,-3.868083953857421875e+00,-5.158022642135620117e-01
-4.454620361328125000e+00,-3.872669219970703125e+00,-3.093440234661102295e-01
-4.459837913513183594e+00,-3.877205371856689453e+00,-1.031515672802925110e-01
-4.465001583099365234e+00,-3.881694316864013672e+00,1.032709926366806030e-01
-4.470208644866943359e+00,-3.886221170425415039e+00,3.104265332221984863e-01
-4.475364685058593750e+00,-3.890703678131103516e+00,5.188185572624206543e-01
-4.481423377990722656e+00,-3.895971059799194336e+00,7.291133403778076172e-01
-4.486226081848144531e+00,-3.900146007537841797e+00,9.415186643600463867e-01
-4.491949558258056641e+00,-3.905122041702270508e+00,1.156970858573913574e+00
-4.497170925140380859e+00,-3.909661054611206055e+00,1.375747561454772949e+00
-2.991592884063720703e+00,-2.676901817321777344e+00,-1.075654387474060059e+00
-3.538866758346557617e+00,-3.166606903076171875e+00,-1.096342206001281738e+00
-4.255414962768554688e+00,-3.807780265808105469e+00,-1.109972000122070312e+00
-4.260671615600585938e+00,-3.812484025955200195e+00,-9.055415987968444824e-01
-4.265697002410888672e+00,-3.816980600357055664e+00,-7.028321027755737305e-01
-4.270657062530517578e+00,-3.821419000625610352e+00,-5.013768672943115234e-01
-4.275675773620605469e+00,-3.825909614562988281e+00,-3.006895482540130615e-01
-4.280689239501953125e+00,-3.830395698547363281e+00,-1.002658382058143616e-01
-4.285698413848876953e+00,-3.834877967834472656e+00,1.003831699490547180e-01
-4.290797710418701172e+00,-3.839440822601318359e+00,3.017530143260955811e-01
-4.295895576477050781e+00,-3.844002485275268555e+00,5.043398737907409668e-01
-4.300851345062255859e+00,-3.848437070846557617e+00,7.086243033409118652e-01
-4.306762218475341797e+00,-3.853726387023925781e+00,9.153375029563903809e-01
-4.311035156250000000e+00,-3.857549667358398438e+00,1.124479770660400391e+00
-4.316163063049316406e+00,-3.862138032913208008e+00,1.337148785591125488e+00
-2.939076900482177734e+00,-2.706644535064697266e+00,-1.070591926574707031e+00
-3.504272460937500000e+00,-3.227142572402954102e+00,-1.099822402000427246e+00
-4.074017047882080078e+00,-3.751829624176025391e+00,-1.076553583145141602e+00
-4.078861713409423828e+00,-3.756291389465332031e+00,-8.782377243041992188e-01
-4.083531379699707031e+00,-3.760591506958007812e+00,-6.816167235374450684e-01
-4.088186264038085938e+00,-3.764878273010253906e+00,-4.862314462661743164e-01
-4.092945575714111328e+00,-3.769261598587036133e+00,-2.916032373905181885e-01
-4.097748756408691406e+00,-3.773684740066528320e+00,-9.723606705665588379e-02
-4.102599620819091797e+00,-3.778151988983154297e+00,9.735117852687835693e-02
-4.107584953308105469e+00,-3.782742977142333984e+00,2.926461994647979736e-01
-4.112618446350097656e+00,-3.787378311157226562e+00,4.891372919082641602e-01
-4.117561340332031250e+00,-3.791930437088012695e+00,6.872969865798950195e-01
-4.122232437133789062e+00,-3.796231985092163086e+00,8.875760436058044434e-01
-4.127852916717529297e+00,-3.801408052444458008e+00,1.090779781341552734e+00
-4.133101940155029297e+00,-3.806242227554321289e+00,1.297181725502014160e+00
-2.907497167587280273e+00,-2.755500078201293945e+00,-1.073345422744750977e+00
-3.471210479736328125e+00,-3.289744138717651367e+00,-1.104111313819885254e+00
-3.912692308425903320e+00,-3.708146333694458008e+00,-1.047841906547546387e+00
-3.917402267456054688e+00,-3.712610006332397461e+00,-8.548274636268615723e-01
-3.921987771987915039e+00,-3.716955661773681641e+00,-6.634646654129028320e-01
-3.926941394805908203e+00,-3.721650600433349609e+00,-4.733408689498901367e-01
-3.931475877761840820e+00,-3.725947856903076172e+00,-2.838698029518127441e-01
-3.936094284057617188e+00,-3.730324745178222656e+00,-9.465743601322174072e-02
-3.940797567367553711e+00,-3.734782457351684570e+00,9.477055072784423828e-02
-3.945127487182617188e+00,-3.738885879516601562e+00,2.848554849624633789e-01
-3.949868202209472656e+00,-3.743378639221191406e+00,4.761043787002563477e-01
-3.954568147659301758e+00,-3.747833013534545898e+00,6.689761281013488770e-01
-3.959047555923461914e+00,-3.752078056335449219e+00,8.639150261878967285e-01
-3.964485406875610352e+00,-3.757231950759887695e+00,1.061712384223937988e+00
-3.969610214233398438e+00,-3.762088537216186523e+00,1.262640595436096191e+00
-2.875759124755859375e+00,-2.804628849029541016e+00,-1.076338291168212891e+00
-3.410206556320190430e+00,-3.325857162475585938e+00,-1.099736571311950684e+00
-3.759781122207641602e+00,-3.666785001754760742e+00,-1.020842432975769043e+00
-3.764163017272949219e+00,-3.671058654785156250e+00,-8.327695727348327637e-01
-3.768461465835571289e+00,-3.675250768661499023e+00,-6.463261842727661133e-01
-3.773151874542236328e+00,-3.679825067520141602e+00,-4.611051380634307861e-01
-3.777473449707031250e+00,-3.684039831161499023e+00,-2.765292525291442871e-01
-3.781915187835693359e+00,-3.688371658325195312e+00,-9.220981597900390625e-02
-3.786477565765380859e+00,-3.692821264266967773e+00,9.232105314731597900e-02
-3.790713071823120117e+00,-3.696951866149902344e+00,2.774984538555145264e-01
-3.795385837554931641e+00,-3.701508998870849609e+00,4.638222754001617432e-01
-3.800054311752319336e+00,-3.706062078475952148e+00,6.517446041107177734e-01
-3.804546356201171875e+00,-3.710443019866943359e+00,8.417037725448608398e-01
-3.808648824691772461e+00,-3.714444160461425781e+00,1.034110784530639648e+00
-3.813639402389526367e+00,-3.719311237335205078e+00,1.229837179183959961e+00
-2.824769496917724609e+00,-2.834906339645385742e+00,-1.072331428527832031e+00
-3.376768827438354492e+00,-3.388886451721191406e+00,-1.104482889175415039e+00
-3.612861871719360352e+00,-3.625826835632324219e+00,-9.949407577514648438e-01
-3.617861509323120117e+00,-3.630844354629516602e+00,-8.118168115615844727e-01
-3.621891975402832031e+00,-3.634889364242553711e+00,-6.300468444824218750e-01
-3.626337528228759766e+00,-3.639350652694702148e+00,-4.494833350181579590e-01
-3.630459070205688477e+00,-3.643487215042114258e+00,-2.695571780204772949e-01
-3.634730815887451172e+00,-3.647774219512939453e+00,-8.988501876592636108e-02
-3.639154195785522461e+00,-3.652213335037231445e+00,8.999440819025039673e-02
-3.643296241760253906e+00,-3.656370401382446289e+00,2.705103158950805664e-01
-3.647895336151123047e+00,-3.660985708236694336e+00,4.521554112434387207e-01
-3.651608228683471680e+00,-3.664711952209472656e+00,6.352161169052124023e-01
-3.655902385711669922e+00,-3.669021606445312500e+00,8.203528523445129395e-01
-3.661159992218017578e+00,-3.674298048019409180e+00,1.008241415023803711e+00
-3.666197061538696289e+00,-3.679353237152099609e+00,1.199149847030639648e+00
-2.792782068252563477e+00,-2.884209632873535156e+00,-1.075749993324279785e+00
-3.315918684005737305e+00,-3.424472093582153320e+00,-1.100499391555786133e+00
-3.473367929458618164e+00,-3.587075948715209961e+00,-9.705656766891479492e-01
-3.477360010147094727e+00,-3.591198682785034180e+00,-7.917426824569702148e-01
-3.481840610504150391e+00,-3.595825910568237305e+00,-6.145744919776916504e-01
-3.485754489898681641e+00,-3.599867820739746094e+00,-4.383999109268188477e-01
-3.489986658096313477e+00,-3.604238748550415039e+00,-2.629307806491851807e-01
-3.494096755981445312e+00,-3.608483314514160156e+00,-8.767550438642501831e-02
-3.498092174530029297e+00,-3.612609386444091797e+00,8.777575939893722534e-02
-3.502431631088256836e+00,-3.617091178894042969e+00,2.638683617115020752e-01
-3.506262779235839844e+00,-3.621047735214233398e+00,4.409792125225067139e-01
-3.510646104812622070e+00,-3.625574588775634766e+00,6.196588873863220215e-01
-3.514932632446289062e+00,-3.630001306533813477e+00,8.002973794937133789e-01
-3.518921136856079102e+00,-3.634120225906372070e+00,9.832946062088012695e-01
-3.523809671401977539e+00,-3.639168977737426758e+00,1.169495105743408203e+00
-2.741963148117065430e+00,-2.914049386978149414e+00,-1.072131514549255371e+00
-3.255391597747802734e+00,-3.459700822830200195e+00,-1.096734166145324707e+00
-3.339942932128906250e+00,-3.549558877944946289e+00,-9.473825097084045410e-01
-3.343670606613159180e+00,-3.553520441055297852e+00,-7.728052139282226562e-01
-3.347899198532104492e+00,-3.558014154434204102e+00,-5.998603701591491699e-01
-3.351606130599975586e+00,-3.561954021453857422e+00,-4.278965592384338379e-01
-3.355652093887329102e+00,-3.566253662109375000e+00,-2.566295862197875977e-01
-3.359605550765991211e+00,-3.570455312728881836e+00,-8.557438850402832031e-02
-3.363478660583496094e+00,-3.574571609497070312e+00,8.567304164171218872e-02
-3.367713451385498047e+00,-3.579071998596191406e+00,2.575519979000091553e-01
-3.371482849121093750e+00,-3.583078145980834961e+00,4.304341971874237061e-01
-3.375816583633422852e+00,-3.587683916091918945e+00,6.048625111579895020e-01
-3.380082607269287109e+00,-3.592217683792114258e+00,7.812209129333496094e-01
-3.384088516235351562e+00,-3.596474885940551758e+00,9.599044322967529297e-01
-3.387601375579833984e+00,-3.600208282470703125e+00,1.141275286674499512e+00
-2.709710836410522461e+00,-2.963640689849853516e+00,-1.075996994972229004e+00
-3.207602739334106445e+00,-3.508190631866455078e+00,-1.097438812255859375e+00
-3.211390018463134766e+00,-3.512332677841186523e+00,-9.250836372375488281e-01
-3.215699911117553711e+00,-3.517046451568603516e+00,-7.547857761383056641e-01
-3.219224929809570312e+00,-3.520901679992675781e+00,-5.857748985290527344e-01
-3.223207235336303711e+00,-3.525257349014282227e+00,-4.179031848907470703e-01
-3.227074384689331055e+00,-3.529487133026123047e+00,-2.506342530250549316e-01
-3.230880022048950195e+00,-3.533649206161499023e+00,-8.357530832290649414e-02
-3.234632015228271484e+00,-3.537752866744995117e+00,8.367236703634262085e-02
-3.238302707672119141e+00,-3.541767358779907227e+00,2.515062987804412842e-01
-3.242466449737548828e+00,-3.546321392059326172e+00,4.204002320766448975e-01
-3.245918750762939453e+00,-3.550097227096557617e+00,5.906321406364440918e-01
-3.249976873397827148e+00,-3.554535627365112305e+00,7.628312110900878906e-01
-3.253811836242675781e+00,-3.558729887008666992e+00,9.373037815093994141e-01
-3.258540391921997070e+00,-3.563901662826538086e+00,1.114866495132446289e+00
-2.659046888351440430e+00,-2.993146181106567383e+00,-1.072781205177307129e+00
-3.085511922836303711e+00,-3.473195075988769531e+00,-1.072566032409667969e+00
-3.089041709899902344e+00,-3.477168321609497070e+00,-9.040839672088623047e-01
-3.093100786209106445e+00,-3.481737136840820312e+00,-7.376312017440795898e-01
-3.096421957015991211e+00,-3.485475778579711914e+00,-5.724487304687500000e-01
-3.100208520889282227e+00,-3.489737987518310547e+00,-4.083902835845947266e-01
-3.103907585144042969e+00,-3.493901968002319336e+00,-2.449273318052291870e-01
-3.107569932937622070e+00,-3.498024463653564453e+00,-8.167236298322677612e-02
-3.111204385757446289e+00,-3.502115488052368164e+00,8.176787942647933960e-02
-3.114784002304077148e+00,-3.506145000457763672e+00,2.457855939865112305e-01
-3.118863821029663086e+00,-3.510737419128417969e+00,4.108477532863616943e-01
-3.122278213500976562e+00,-3.514580726623535156e+00,5.772289037704467773e-01
-3.126300811767578125e+00,-3.519108772277832031e+00,7.455486655235290527e-01
-3.130130290985107422e+00,-3.523419380187988281e+00,9.161095023155212402e-01
-3.133551597595214844e+00,-3.527270555496215820e+00,1.089265227317810059e+00
-2.608627080917358398e+00,-3.022426843643188477e+00,-1.069783568382263184e+00
-2.968432664871215820e+00,-3.439307689666748047e+00,-1.048872709274291992e+00
-2.971726417541503906e+00,-3.443123817443847656e+00,-8.840820789337158203e-01
-2.974946737289428711e+00,-3.446854829788208008e+00,-7.211460471153259277e-01
-2.978688001632690430e+00,-3.451189517974853516e+00,-5.597579479217529297e-01
-2.982287168502807617e+00,-3.455359697341918945e+00,-3.993307650089263916e-01
-2.985827207565307617e+00,-3.459461212158203125e+00,-2.394925057888031006e-01
-2.989352703094482422e+00,-3.463545799255371094e+00,-7.986015081405639648e-02
-2.992872476577758789e+00,-3.467623949050903320e+00,7.995417714118957520e-02
-2.996360301971435547e+00,-3.471665143966674805e+00,2.403373569250106812e-01
-2.999753475189208984e+00,-3.475596666336059570e+00,4.016695022583007812e-01
-3.003721237182617188e+00,-3.480193614959716797e+00,5.644622445106506348e-01
-3.007698774337768555e+00,-3.484802246093750000e+00,7.290853261947631836e-01
-3.011509895324707031e+00,-3.489217758178710938e+00,8.959175348281860352e-01
-3.014944553375244141e+00,-3.493197441101074219e+00,1.065307378768920898e+00
-2.576688766479492188e+00,-3.073270559310913086e+00,-1.074615478515625000e+00
-2.862002849578857422e+00,-3.413570642471313477e+00,-1.028425455093383789e+00
-2.865998268127441406e+00,-3.418336153030395508e+00,-8.670954108238220215e-01
-2.869038343429565430e+00,-3.421962022781372070e+00,-7.072737812995910645e-01
-2.872597455978393555e+00,-3.426207065582275391e+00,-5.489808917045593262e-01
-2.876037120819091797e+00,-3.430309534072875977e+00,-3.916381299495697021e-01
-2.879436492919921875e+00,-3.434364318847656250e+00,-2.348778098821640015e-01
-2.882837533950805664e+00,-3.438420534133911133e+00,-7.832138240337371826e-02
-2.886251449584960938e+00,-3.442492246627807617e+00,7.841412723064422607e-02
-2.889649391174316406e+00,-3.446545362472534180e+00,2.357108741998672485e-01
-2.892974138259887695e+00,-3.450510740280151367e+00,3.939445018768310547e-01
-2.896871566772460938e+00,-3.455159187316894531e+00,5.536199212074279785e-01
-2.899893522262573242e+00,-3.458763599395751953e+00,7.148801684379577637e-01
-2.903514862060546875e+00,-3.463082790374755859e+00,8.784458637237548828e-01
-2.906794309616088867e+00,-3.466994524002075195e+00,1.044520854949951172e+00
-2.526309967041015625e+00,-3.102305412292480469e+00,-1.072014093399047852e+00
-2.753680944442749023e+00,-3.381516695022583008e+00,-1.006790637969970703e+00
-2.756729602813720703e+00,-3.385260581970214844e+00,-8.486095070838928223e-01
-2.760304689407348633e+00,-3.389650821685791016e+00,-6.923584938049316406e-01
-2.763681411743164062e+00,-3.393797159194946289e+00,-5.373944640159606934e-01
-2.766958475112915039e+00,-3.397821426391601562e+00,-3.833680152893066406e-01
-2.770213603973388672e+00,-3.401818990707397461e+00,-2.299166917800903320e-01
-2.773488759994506836e+00,-3.405840635299682617e+00,-7.666715234518051147e-02
-2.776791334152221680e+00,-3.409896135330200195e+00,7.675844430923461914e-02
-2.780096530914306641e+00,-3.413955211639404297e+00,2.307369261980056763e-01
-2.783347129821777344e+00,-3.417946815490722656e+00,3.856387138366699219e-01
-2.786453485488891602e+00,-3.421761274337768555e+00,5.418224930763244629e-01
-2.790158748626708984e+00,-3.426311254501342773e+00,6.998466253280639648e-01
-2.793745279312133789e+00,-3.430715560913085938e+00,8.600040674209594727e-01
-2.797016382217407227e+00,-3.434732675552368164e+00,1.022634744644165039e+00
-2.476149320602416992e+00,-3.131187200546264648e+00,-1.069637537002563477e+00
-2.649569511413574219e+00,-3.350483655929565430e+00,-9.861586093902587891e-01
-2.652430295944213867e+00,-3.354101181030273438e+00,-8.311963081359863281e-01
-2.655814886093139648e+00,-3.358381271362304688e+00,-6.781374216079711914e-01
-2.659020900726318359e+00,-3.362435340881347656e+00,-5.263478755950927734e-01
-2.662146806716918945e+00,-3.366388082504272461e+00,-3.754837512969970703e-01
-2.665265321731567383e+00,-3.370331525802612305e+00,-2.251871377229690552e-01
-2.668417692184448242e+00,-3.374317884445190430e+00,-7.509009540081024170e-02
-2.671612262725830078e+00,-3.378357648849487305e+00,7.517999410629272461e-02
-2.674823999404907227e+00,-3.382418870925903320e+00,2.259947508573532104e-01
-2.677997827529907227e+00,-3.386432170867919922e+00,3.777194619178771973e-01
-2.681046009063720703e+00,-3.390286922454833984e+00,5.307077169418334961e-01
-2.684688568115234375e+00,-3.394893169403076172e+00,6.855100393295288086e-01
-2.688229560852050781e+00,-3.399370908737182617e+00,8.424148559570312500e-01
-2.691479682922363281e+00,-3.403480529785156250e+00,1.001757383346557617e+00
-2.443457365036010742e+00,-3.182422876358032227e+00,-1.075082421302795410e+00
-2.554270029067993164e+00,-3.326748132705688477e+00,-9.683123230934143066e-01
-2.557780027389526367e+00,-3.331319570541381836e+00,-8.163943886756896973e-01
-2.560999631881713867e+00,-3.335513114929199219e+00,-6.660496592521667480e-01
-2.564058780670166016e+00,-3.339497089385986328e+00,-5.169592499732971191e-01
-2.567050695419311523e+00,-3.343393802642822266e+00,-3.687829077243804932e-01
-2.570047616958618164e+00,-3.347297191619873047e+00,-2.211675941944122314e-01
-2.573088407516479492e+00,-3.351257801055908203e+00,-7.374978810548782349e-02
-2.576182365417480469e+00,-3.355287313461303711e+00,7.383846491575241089e-02
-2.579304695129394531e+00,-3.359354019165039062e+00,2.219642251729965210e-01
-2.582401037216186523e+00,-3.363386631011962891e+00,3.709881603717803955e-01
-2.585387945175170898e+00,-3.367276668548583984e+00,5.212595462799072266e-01
-2.588151216506958008e+00,-3.370875835418701172e+00,6.731110811233520508e-01
-2.591495990753173828e+00,-3.375231981277465820e+00,8.271558880805969238e-01
-2.594575643539428711e+00,-3.379243135452270508e+00,9.835919737815856934e-01
-2.393279552459716797e+00,-3.211189746856689453e+00,-1.073118209838867188e+00
-2.457543373107910156e+00,-3.297415733337402344e+00,-9.494387507438659668e-01
-2.460868120193481445e+00,-3.301876783370971680e+00,-8.004648685455322266e-01
-2.463922500610351562e+00,-3.305974960327148438e+00,-6.530421972274780273e-01
-2.466833829879760742e+00,-3.309881210327148438e+00,-5.068568587303161621e-01
-2.469690799713134766e+00,-3.313714504241943359e+00,-3.615730404853820801e-01
-2.472564458847045898e+00,-3.317570209503173828e+00,-2.168428301811218262e-01
-2.475491523742675781e+00,-3.321497917175292969e+00,-7.230771332979202271e-02
-2.478481054306030273e+00,-3.325509071350097656e+00,7.239503413438796997e-02
-2.481509447097778320e+00,-3.329572439193725586e+00,2.176273018121719360e-01
-2.484523773193359375e+00,-3.333616971969604492e+00,3.637446761131286621e-01
-2.487443447113037109e+00,-3.337534427642822266e+00,5.110915303230285645e-01
-2.490159034729003906e+00,-3.341177940368652344e+00,6.599959135055541992e-01
-2.493445396423339844e+00,-3.345587491989135742e+00,8.110615015029907227e-01
-2.496486902236938477e+00,-3.349668264389038086e+00,9.644840359687805176e-01
-2.343282699584960938e+00,-3.239868879318237305e+00,-1.071383833885192871e+00
-2.364371776580810547e+00,-3.269027233123779297e+00,-9.314249157905578613e-01
-2.367525815963745117e+00,-3.273387908935546875e+00,-7.852627038955688477e-01
-2.370431661605834961e+00,-3.277405500411987305e+00,-6.406309604644775391e-01
-2.373202085494995117e+00,-3.281235933303833008e+00,-4.972175657749176025e-01
-2.375932455062866211e+00,-3.285011053085327148e+00,-3.546940088272094727e-01
-2.378689050674438477e+00,-3.288822412490844727e+00,-2.127166241407394409e-01
-2.381506443023681641e+00,-3.292717695236206055e+00,-7.093183696269989014e-02
-2.384393453598022461e+00,-3.296709299087524414e+00,7.101782411336898804e-02
-2.387327671051025391e+00,-3.300766229629516602e+00,2.134891301393508911e-01
-2.390258789062500000e+00,-3.304818868637084961e+00,3.568327426910400391e-01
-2.393106937408447266e+00,-3.308756828308105469e+00,5.013878941535949707e-01
-2.395766735076904297e+00,-3.312434196472167969e+00,6.474779844284057617e-01
-2.398987531661987305e+00,-3.316887378692626953e+00,7.956979274749755859e-01
-2.401979923248291016e+00,-3.321024894714355469e+00,9.462403059005737305e-01
-2.276677370071411133e+00,-3.244576692581176758e+00,-1.062055706977844238e+00
-2.279214859008789062e+00,-3.248192787170410156e+00,-9.160996675491333008e-01
-2.282222509384155273e+00,-3.252479076385498047e+00,-7.723312377929687500e-01
-2.284525632858276367e+00,-3.255761384963989258e+00,-6.299439668655395508e-01
-2.287307739257812500e+00,-3.259726285934448242e+00,-4.889469444751739502e-01
-2.290265083312988281e+00,-3.263940811157226562e+00,-3.488437235355377197e-01
-2.292915582656860352e+00,-3.267718315124511719e+00,-2.092074751853942871e-01
-2.295633792877197266e+00,-3.271592140197753906e+00,-6.976176798343658447e-02
-2.298424482345581055e+00,-3.275569200515747070e+00,6.984657049179077148e-02
-2.300935268402099609e+00,-3.279147624969482422e+00,2.099392116069793701e-01
-2.303650617599487305e+00,-3.283017158508300781e+00,3.508825600147247314e-01
-2.306892156600952148e+00,-3.287636995315551758e+00,4.931334257125854492e-01
-2.309492588043212891e+00,-3.291342496871948242e+00,6.368284225463867188e-01
-2.312641382217407227e+00,-3.295830011367797852e+00,7.826253175735473633e-01
-2.315575838088989258e+00,-3.300012350082397461e+00,9.307144880294799805e-01
-2.189054489135742188e+00,-3.216650247573852539e+00,-1.042551398277282715e+00
-2.192271232604980469e+00,-3.221376895904541016e+00,-8.995946049690246582e-01
-2.194556951522827148e+00,-3.224735498428344727e+00,-7.582066655158996582e-01
-2.197322845458984375e+00,-3.228800058364868164e+00,-6.185785531997680664e-01
-2.199980497360229492e+00,-3.232705116271972656e+00,-4.801214039325714111e-01
-2.202813625335693359e+00,-3.236868381500244141e+00,-3.425453305244445801e-01
-2.205357313156127930e+00,-3.240605831146240234e+00,-2.054296731948852539e-01
-2.207972764968872070e+00,-3.244449138641357422e+00,-6.850206851959228516e-02
-2.210665464401245117e+00,-3.248405933380126953e+00,6.858560442924499512e-02
-2.213094949722290039e+00,-3.251975774765014648e+00,2.061504423618316650e-01
-2.215726852416992188e+00,-3.255843400955200195e+00,3.445533812046051025e-01
-2.218297958374023438e+00,-3.259621381759643555e+00,4.841189980506896973e-01
-2.221408128738403320e+00,-3.264191627502441406e+00,6.253589391708374023e-01
-2.223657608032226562e+00,-3.267496824264526367e+00,7.682607769966125488e-01
-2.226409912109375000e+00,-3.271541357040405273e+00,9.136033654212951660e-01
-2.109360218048095703e+00,-3.196978330612182617e+00,-1.026284694671630859e+00
-2.112434625625610352e+00,-3.201637983322143555e+00,-8.855479359626770020e-01
-2.114614963531494141e+00,-3.204942703247070312e+00,-7.463598847389221191e-01
-2.117263078689575195e+00,-3.208956241607666016e+00,-6.089085340499877930e-01
-2.119810581207275391e+00,-3.212816953659057617e+00,-4.726128280162811279e-01
-2.122532606124877930e+00,-3.216942548751831055e+00,-3.371870219707489014e-01
-2.124980449676513672e+00,-3.220652580261230469e+00,-2.022159397602081299e-01
-2.127501010894775391e+00,-3.224472999572753906e+00,-6.743043661117553711e-02
-2.130102396011352539e+00,-3.228415489196777344e+00,6.751288473606109619e-02
-2.132452249526977539e+00,-3.231976985931396484e+00,2.029269635677337646e-01
-2.135003089904785156e+00,-3.235843181610107422e+00,3.391681015491485596e-01
-2.137501001358032227e+00,-3.239629030227661133e+00,4.765569269657135010e-01
-2.140521764755249023e+00,-3.244207382202148438e+00,6.155975461006164551e-01
-2.142717599868774414e+00,-3.247535228729248047e+00,7.562787532806396484e-01
-2.145401954650878906e+00,-3.251603841781616211e+00,8.993681073188781738e-01
-2.028150796890258789e+00,-3.171732664108276367e+00,-1.008758068084716797e+00
-2.031085014343261719e+00,-3.176321268081665039e+00,-8.704153299331665039e-01
-2.033164501190185547e+00,-3.179573297500610352e+00,-7.335996627807617188e-01
-2.035694360733032227e+00,-3.183529853820800781e+00,-5.984935164451599121e-01
-2.038132667541503906e+00,-3.187342882156372070e+00,-4.645265936851501465e-01
-2.040744066238403320e+00,-3.191426515579223633e+00,-3.314169049263000488e-01
-2.043093919754028320e+00,-3.195101499557495117e+00,-1.987551748752593994e-01
-2.045518398284912109e+00,-3.198893070220947266e+00,-6.627644598484039307e-02
-2.048024654388427734e+00,-3.202812433242797852e+00,6.635764986276626587e-02
-2.050292730331420898e+00,-3.206359386444091797e+00,1.994554847478866577e-01
-2.052758693695068359e+00,-3.210215806961059570e+00,3.333680927753448486e-01
-2.055176734924316406e+00,-3.213997125625610352e+00,4.684111773967742920e-01
-2.058103084564208984e+00,-3.218573808670043945e+00,6.050816774368286133e-01
-2.060237884521484375e+00,-3.221912145614624023e+00,7.433681488037109375e-01
-2.062847614288330078e+00,-3.225993394851684570e+00,8.840270638465881348e-01
-1.953221082687377930e+00,-3.153090238571166992e+00,-9.938353300094604492e-01
-1.956034064292907715e+00,-3.157631158828735352e+00,-8.575335144996643066e-01
-1.958025217056274414e+00,-3.160845279693603516e+00,-7.227383852005004883e-01
-1.960452437400817871e+00,-3.164763689041137695e+00,-5.896298289299011230e-01
-1.962794661521911621e+00,-3.168544769287109375e+00,-4.576455354690551758e-01
-1.965305209159851074e+00,-3.172597408294677734e+00,-3.265069127082824707e-01
-1.967566728591918945e+00,-3.176248311996459961e+00,-1.958104372024536133e-01
-1.969902873039245605e+00,-3.180019617080688477e+00,-6.529454141855239868e-02
-1.972319602966308594e+00,-3.183920860290527344e+00,6.537464261054992676e-02
-1.974509477615356445e+00,-3.187455892562866211e+00,1.965013593435287476e-01
-1.976892948150634766e+00,-3.191303730010986328e+00,3.284320533275604248e-01
-1.979231953620910645e+00,-3.195079326629638672e+00,4.614780545234680176e-01
-1.982063055038452148e+00,-3.199649810791015625e+00,5.961294770240783691e-01
-1.984134674072265625e+00,-3.202993869781494141e+00,7.323758006095886230e-01
-1.986665964126586914e+00,-3.207080125808715820e+00,8.709626793861389160e-01
-1.877018928527832031e+00,-3.129248619079589844e+00,-9.777523279190063477e-01
-1.879115581512451172e+00,-3.132744073867797852e+00,-8.433839678764343262e-01
-1.881619930267333984e+00,-3.136919021606445312e+00,-7.110365629196166992e-01
-1.883946895599365234e+00,-3.140798330307006836e+00,-5.800813436508178711e-01
-1.886194348335266113e+00,-3.144545316696166992e+00,-4.502336382865905762e-01
-1.888604044914245605e+00,-3.148562431335449219e+00,-3.212184309959411621e-01
-1.890776634216308594e+00,-3.152184486389160156e+00,-1.926387846469879150e-01
-1.893022537231445312e+00,-3.155928850173950195e+00,-6.423696875572204590e-02
-1.895347595214843750e+00,-3.159805059432983398e+00,6.431586295366287231e-02
-1.897457122802734375e+00,-3.163321733474731445e+00,1.933194100856781006e-01
-1.899752497673034668e+00,-3.167148590087890625e+00,3.231145739555358887e-01
-1.902007818222045898e+00,-3.170908451080322266e+00,4.540083408355712891e-01
-1.904138326644897461e+00,-3.174460172653198242e+00,5.862984657287597656e-01
-1.906739473342895508e+00,-3.178796768188476562e+00,7.205288410186767578e-01
-1.909184098243713379e+00,-3.182872295379638672e+00,8.568792343139648438e-01
-1.806378722190856934e+00,-3.111587285995483398e+00,-9.640564322471618652e-01
-1.808394074440002441e+00,-3.115058898925781250e+00,-8.315691947937011719e-01
-1.810802102088928223e+00,-3.119207143783569336e+00,-7.010750174522399902e-01
-1.813040256500244141e+00,-3.123062372207641602e+00,-5.719541311264038086e-01
-1.815201878547668457e+00,-3.126785755157470703e+00,-4.439253211021423340e-01
-1.817520618438720703e+00,-3.130779981613159180e+00,-3.167177438735961914e-01
-1.819612145423889160e+00,-3.134382724761962891e+00,-1.899397373199462891e-01
-1.821773886680603027e+00,-3.138106346130371094e+00,-6.333695352077484131e-02
-1.824012637138366699e+00,-3.141963005065917969e+00,6.341478973627090454e-02
-1.826044440269470215e+00,-3.145462751388549805e+00,1.906111687421798706e-01
-1.828256130218505859e+00,-3.149272441864013672e+00,3.185884654521942139e-01
-1.830430150032043457e+00,-3.153017282485961914e+00,4.476495683193206787e-01
-1.832483410835266113e+00,-3.156554222106933594e+00,5.780878067016601562e-01
-1.834990739822387695e+00,-3.160873174667358398e+00,7.104399800300598145e-01
-1.837347984313964844e+00,-3.164933681488037109e+00,8.448833227157592773e-01
-1.734683990478515625e+00,-3.089082241058349609e+00,-9.492936730384826660e-01
-1.736622214317321777e+00,-3.092533588409423828e+00,-8.188365697860717773e-01
-1.738937020301818848e+00,-3.096655845642089844e+00,-6.903413534164428711e-01
-1.741088628768920898e+00,-3.100487470626831055e+00,-5.631980895996093750e-01
-1.743165731430053711e+00,-3.104186296463012695e+00,-4.371296167373657227e-01
-1.745394587516784668e+00,-3.108155250549316406e+00,-3.118697106838226318e-01
-1.747403860092163086e+00,-3.111733436584472656e+00,-1.870324015617370605e-01
-1.749480605125427246e+00,-3.115431547164916992e+00,-6.236750632524490356e-02
-1.751631617546081543e+00,-3.119262218475341797e+00,6.244419142603874207e-02
-1.753582715988159180e+00,-3.122736692428588867e+00,1.876937597990036011e-01
-1.755706429481506348e+00,-3.126518487930297852e+00,3.137122392654418945e-01
-1.757793307304382324e+00,-3.130234718322753906e+00,4.407977163791656494e-01
-1.759764552116394043e+00,-3.133745193481445312e+00,5.692393183708190918e-01
-1.762171387672424316e+00,-3.138031005859375000e+00,6.995651721954345703e-01
-1.764434218406677246e+00,-3.142060518264770508e+00,8.319501876831054688e-01
-1.667907714843750000e+00,-3.072353601455688477e+00,-9.367204308509826660e-01
-1.670309543609619141e+00,-3.076777935028076172e+00,-8.082516193389892578e-01
-1.672009587287902832e+00,-3.079909324645996094e+00,-6.812030076980590820e-01
-1.674083113670349121e+00,-3.083728790283203125e+00,-5.557443499565124512e-01
-1.676084637641906738e+00,-3.087415695190429688e+00,-4.313454627990722656e-01
-1.678229928016662598e+00,-3.091367483139038086e+00,-3.077434301376342773e-01
-1.680163741111755371e+00,-3.094929695129394531e+00,-1.845580190420150757e-01
-1.682161927223205566e+00,-3.098610401153564453e+00,-6.154245883226394653e-02
-1.684229135513305664e+00,-3.102418184280395508e+00,6.161808222532272339e-02
-1.686103343963623047e+00,-3.105870485305786133e+00,1.852104514837265015e-01
-1.688143372535705566e+00,-3.109628438949584961e+00,3.095613121986389160e-01
-1.690146565437316895e+00,-3.113318443298339844e+00,4.349643588066101074e-01
-1.692570805549621582e+00,-3.117784023284912109e+00,5.618817210197448730e-01
-1.694345712661743164e+00,-3.121053457260131836e+00,6.903031468391418457e-01
-1.696514606475830078e+00,-3.125048637390136719e+00,8.209320902824401855e-01
-1.602828264236450195e+00,-3.055990934371948242e+00,-9.246422052383422852e-01
-1.605148196220397949e+00,-3.060414075851440430e+00,-7.978358268737792969e-01
-1.606790304183959961e+00,-3.063544750213623047e+00,-6.724278926849365234e-01
-1.608790159225463867e+00,-3.067357778549194336e+00,-5.485878586769104004e-01
-1.610719442367553711e+00,-3.071036338806152344e+00,-4.257924556732177734e-01
-1.612785458564758301e+00,-3.074975252151489258e+00,-3.037824332714080811e-01
-1.614646553993225098e+00,-3.078523874282836914e+00,-1.821828633546829224e-01
-1.616566896438598633e+00,-3.082185268402099609e+00,-6.075044348835945129e-02
-1.618552207946777344e+00,-3.085970640182495117e+00,6.082505360245704651e-02
-1.620351314544677734e+00,-3.089400768280029297e+00,1.828265488147735596e-01
-1.622306585311889648e+00,-3.093128681182861328e+00,3.055758476257324219e-01
-1.624225258827209473e+00,-3.096786737442016602e+00,4.293627142906188965e-01
-1.626547098159790039e+00,-3.101213693618774414e+00,5.546428561210632324e-01
-1.628243446350097656e+00,-3.104447841644287109e+00,6.814059019088745117e-01
-1.630315899848937988e+00,-3.108399391174316406e+00,8.103453516960144043e-01
-1.536974430084228516e+00,-3.035265207290649414e+00,-9.116216301918029785e-01
-1.539215326309204102e+00,-3.039690494537353516e+00,-7.866091728210449219e-01
-1.540803790092468262e+00,-3.042827606201171875e+00,-6.629719734191894531e-01
-1.542733430862426758e+00,-3.046638250350952148e+00,-5.408775806427001953e-01
-1.544591665267944336e+00,-3.050307989120483398e+00,-4.198102355003356934e-01
-1.546578645706176758e+00,-3.054231882095336914e+00,-2.995155453681945801e-01
-1.548366665840148926e+00,-3.057762861251831055e+00,-1.796243190765380859e-01
-1.550209045410156250e+00,-3.061401367187500000e+00,-5.989731103181838989e-02
-1.552110910415649414e+00,-3.065157175064086914e+00,5.997079238295555115e-02
-1.553831458091735840e+00,-3.068555116653442383e+00,1.802582889795303345e-01
-1.555699229240417480e+00,-3.072243690490722656e+00,3.012818694114685059e-01
-1.557529211044311523e+00,-3.075857639312744141e+00,4.233265817165374756e-01
-1.559742331504821777e+00,-3.080228090286254883e+00,5.468408465385437012e-01
-1.561353921890258789e+00,-3.083410739898681641e+00,6.718142032623291016e-01
-1.563323736190795898e+00,-3.087300777435302734e+00,7.989297509193420410e-01
-1.475208997726440430e+00,-3.019762992858886719e+00,-9.005315899848937988e-01
-1.477376580238342285e+00,-3.024199962615966797e+00,-7.770487070083618164e-01
-1.478917717933654785e+00,-3.027354717254638672e+00,-6.549214720726013184e-01
-1.480781793594360352e+00,-3.031170368194580078e+00,-5.343139767646789551e-01
-1.482575416564941406e+00,-3.034842014312744141e+00,-4.147185981273651123e-01
-1.484488964080810547e+00,-3.038759231567382812e+00,-2.958841621875762939e-01
-1.486208677291870117e+00,-3.042279243469238281e+00,-1.774469316005706787e-01
-1.487977981567382812e+00,-3.045901060104370117e+00,-5.917127430438995361e-02
-1.489800810813903809e+00,-3.049632549285888672e+00,5.924376100301742554e-02
-1.491446614265441895e+00,-3.053001403808593750e+00,1.780723184347152710e-01
-1.493231534957885742e+00,-3.056655168533325195e+00,2.976267039775848389e-01
-1.494976282119750977e+00,-3.060226678848266602e+00,4.181874692440032959e-01
-1.497085809707641602e+00,-3.064545154571533203e+00,5.401970148086547852e-01
-1.498616099357604980e+00,-3.067677497863769531e+00,6.636446714401245117e-01
-1.500487446784973145e+00,-3.071507930755615234e+00,7.892041802406311035e-01
-1.413353800773620605e+00,-3.001312732696533203e+00,-8.889055848121643066e-01
-1.414929151535034180e+00,-3.004657983779907227e+00,-7.667452096939086914e-01
-1.416796565055847168e+00,-3.008623600006103516e+00,-6.464159488677978516e-01
-1.418227195739746094e+00,-3.011661291122436523e+00,-5.272427201271057129e-01
-1.419957280158996582e+00,-3.015335321426391602e+00,-4.092336297035217285e-01
-1.421798467636108398e+00,-3.019245147705078125e+00,-2.919726073741912842e-01
-1.423450112342834473e+00,-3.022752523422241211e+00,-1.751016676425933838e-01
-1.425145268440246582e+00,-3.026352167129516602e+00,-5.838925018906593323e-02
-1.426887750625610352e+00,-3.030052661895751953e+00,5.846064165234565735e-02
-1.428456783294677734e+00,-3.033384323120117188e+00,1.757175475358963013e-01
-1.430155038833618164e+00,-3.036990642547607422e+00,2.936886548995971680e-01
-1.432181954383850098e+00,-3.041294813156127930e+00,4.127568006515502930e-01
-1.433811426162719727e+00,-3.044755220413208008e+00,5.330364108085632324e-01
-1.435783982276916504e+00,-3.048943996429443359e+00,6.550789475440979004e-01
-1.437624454498291016e+00,-3.052852392196655273e+00,7.790437340736389160e-01
-1.352631926536560059e+00,-2.982378005981445312e+00,-8.774736523628234863e-01
-1.354167342185974121e+00,-2.985763549804687500e+00,-7.568998932838439941e-01
-1.355976581573486328e+00,-2.989752769470214844e+00,-6.381260752677917480e-01
-1.357365012168884277e+00,-2.992813825607299805e+00,-5.204885601997375488e-01
-1.359235882759094238e+00,-2.996939182281494141e+00,-4.040551185607910156e-01
-1.360806465148925781e+00,-3.000401735305786133e+00,-2.882372736930847168e-01
-1.362392783164978027e+00,-3.003899574279785156e+00,-1.728622317314147949e-01
-1.364015579223632812e+00,-3.007477760314941406e+00,-5.764250457286834717e-02
-1.365679025650024414e+00,-3.011145353317260742e+00,5.771280080080032349e-02
-1.367370963096618652e+00,-3.014875650405883789e+00,1.734938621520996094e-01
-1.368784785270690918e+00,-3.017993211746215820e+00,2.899272143840789795e-01
-1.370706677436828613e+00,-3.022230625152587891e+00,4.074650108814239502e-01
-1.372244477272033691e+00,-3.025621414184570312e+00,5.261941552162170410e-01
-1.374105453491210938e+00,-3.029724359512329102e+00,6.466575264930725098e-01
-1.375836491584777832e+00,-3.033541202545166016e+00,7.690116167068481445e-01
-1.295276165008544922e+00,-2.968128204345703125e+00,-8.677373528480529785e-01
-1.296772956848144531e+00,-2.971558094024658203e+00,-7.485167384147644043e-01
-1.298527836799621582e+00,-2.975579500198364258e+00,-6.310692429542541504e-01
-1.300142407417297363e+00,-2.979279041290283203e+00,-5.148454904556274414e-01
-1.301681041717529297e+00,-2.982805013656616211e+00,-3.995966315269470215e-01
-1.303194642066955566e+00,-2.986273288726806641e+00,-2.850588560104370117e-01
-1.304718732833862305e+00,-2.989765882492065430e+00,-1.709567010402679443e-01
-1.306273460388183594e+00,-2.993328571319580078e+00,-5.700711533427238464e-02
-1.307862281799316406e+00,-2.996969223022460938e+00,5.707645416259765625e-02
-1.309474110603332520e+00,-3.000662803649902344e+00,1.715798079967498779e-01
