-1.087688922882080078e+00,1.375424981117248535e+00,2.777311801910400391e-01
-1.089228391647338867e+00,1.377371549606323242e+00,3.413332402706146240e-01
-1.090648889541625977e+00,1.379168033599853516e+00,4.059349596500396729e-01
-1.099657893180847168e+00,1.350378513336181641e+00,-4.666287302970886230e-01
-1.101068258285522461e+00,1.352110385894775391e+00,-4.025684893131256104e-01
-1.102392673492431641e+00,1.353736877441406250e+00,-3.393517136573791504e-01
-1.103925347328186035e+00,1.355618953704833984e+00,-2.768940925598144531e-01
-1.105376005172729492e+00,1.357400298118591309e+00,-2.149390131235122681e-01
-1.106788158416748047e+00,1.359134435653686523e+00,-1.533478647470474243e-01
-1.108191847801208496e+00,1.360858082771301270e+00,-9.197550266981124878e-02
-1.109604597091674805e+00,1.362593054771423340e+00,-3.067264147102832794e-02
-1.111028194427490234e+00,1.364341259002685547e+00,3.071199543774127960e-02
-1.112453341484069824e+00,1.366091251373291016e+00,9.232918918132781982e-02
-1.113856434822082520e+00,1.367814302444458008e+00,1.543271988630294800e-01
-1.115202069282531738e+00,1.369466662406921387e+00,2.168496698141098022e-01
-1.116792559623718262e+00,1.371419906616210938e+00,2.801215350627899170e-01
-1.118336558341979980e+00,1.373315930366516113e+00,3.442597687244415283e-01
-1.119753718376159668e+00,1.375056147575378418e+00,4.094001948833465576e-01
-1.128736019134521484e+00,1.346266984939575195e+00,-4.707426130771636963e-01
-1.130224466323852539e+00,1.348042249679565430e+00,-4.061322510242462158e-01
-1.131908178329467773e+00,1.350050449371337891e+00,-3.424539268016815186e-01
-1.133219122886657715e+00,1.351614117622375488e+00,-2.793605625629425049e-01
-1.134729504585266113e+00,1.353415608406066895e+00,-2.168576717376708984e-01
-1.136194109916687012e+00,1.355162501335144043e+00,-1.547187864780426025e-01
-1.137642145156860352e+00,1.356889486312866211e+00,-9.279832243919372559e-02
-1.139091968536376953e+00,1.358618855476379395e+00,-3.094702959060668945e-02
-1.140547275543212891e+00,1.360354661941528320e+00,3.098656795918941498e-02
-1.141996622085571289e+00,1.362083315849304199e+00,9.315352886915206909e-02
-1.143416762351989746e+00,1.363777041435241699e+00,1.557022929191589355e-01
-1.145068764686584473e+00,1.365747451782226562e+00,2.188336104154586792e-01
-1.146369934082031250e+00,1.367299437522888184e+00,2.826025187969207764e-01
-1.147913813591003418e+00,1.369140863418579102e+00,3.472963571548461914e-01
-1.149322390556335449e+00,1.370820879936218262e+00,4.129948914051055908e-01
-1.157532691955566406e+00,1.341149091720581055e+00,-4.746977686882019043e-01
-1.159037709236145020e+00,1.342892885208129883e+00,-4.095370173454284668e-01
-1.160438418388366699e+00,1.344515800476074219e+00,-3.452278673648834229e-01
-1.161812186241149902e+00,1.346107482910156250e+00,-2.816306650638580322e-01
-1.163380026817321777e+00,1.347923994064331055e+00,-2.186235189437866211e-01
-1.164894819259643555e+00,1.349679112434387207e+00,-1.559803932905197144e-01
-1.166387915611267090e+00,1.351409077644348145e+00,-9.355570375919342041e-02
-1.167873978614807129e+00,1.353130817413330078e+00,-3.119959495961666107e-02
-1.169360041618347168e+00,1.354852557182312012e+00,3.123929537832736969e-02
-1.170832037925720215e+00,1.356558084487915039e+00,9.391216933727264404e-02
-1.172269105911254883e+00,1.358223080635070801e+00,1.569678187370300293e-01
-1.173935294151306152e+00,1.360153555870056152e+00,2.206070572137832642e-01
-1.175605893135070801e+00,1.362089276313781738e+00,2.849743664264678955e-01
-1.177211046218872070e+00,1.363948941230773926e+00,3.502176702022552490e-01
-1.178670763969421387e+00,1.365640282630920410e+00,4.164742231369018555e-01
-1.187520742416381836e+00,1.336728215217590332e+00,-4.791001975536346436e-01
-1.189115047454833984e+00,1.338522911071777344e+00,-4.133526086807250977e-01
-1.190594434738159180e+00,1.340188145637512207e+00,-3.484567105770111084e-01
-1.192271947860717773e+00,1.342076420783996582e+00,-2.843286097049713135e-01
-1.193671226501464844e+00,1.343651533126831055e+00,-2.206791043281555176e-01
-1.195243000984191895e+00,1.345420837402343750e+00,-1.574492901563644409e-01
-1.196782946586608887e+00,1.347154259681701660e+00,-9.443737566471099854e-02
-1.198309659957885742e+00,1.348872780799865723e+00,-3.149366751313209534e-02
-1.199824452400207520e+00,1.350577831268310547e+00,3.153347969055175781e-02
-1.201319098472595215e+00,1.352260351181030273e+00,9.479530900716781616e-02
-1.203013300895690918e+00,1.354167342185974121e+00,1.584728658199310303e-01
-1.204444646835327148e+00,1.355778574943542480e+00,2.226708233356475830e-01
-1.206116437911987305e+00,1.357660412788391113e+00,2.876302003860473633e-01
-1.207715988159179688e+00,1.359460949897766113e+00,3.534677624702453613e-01
-1.209154963493347168e+00,1.361080765724182129e+00,4.203187823295593262e-01
-1.218008160591125488e+00,1.332149028778076172e+00,-4.836579561233520508e-01
-1.219696760177612305e+00,1.333995819091796875e+00,-4.173031151294708252e-01
-1.221260428428649902e+00,1.335705995559692383e+00,-3.518003225326538086e-01
-1.223017454147338867e+00,1.337627649307250977e+00,-2.870653867721557617e-01
-1.224481344223022461e+00,1.339228749275207520e+00,-2.228084206581115723e-01
-1.226112484931945801e+00,1.341012716293334961e+00,-1.589709520339965820e-01
-1.227702260017395020e+00,1.342751622200012207e+00,-9.535083919763565063e-02
-1.229268789291381836e+00,1.344464778900146484e+00,-3.179830685257911682e-02
-1.230813503265380859e+00,1.346154332160949707e+00,3.183826431632041931e-02
-1.232329130172729492e+00,1.347812056541442871e+00,9.571018815040588379e-02
-1.234039902687072754e+00,1.349683046340942383e+00,1.599987745285034180e-01
-1.235472083091735840e+00,1.351249456405639648e+00,2.248083055019378662e-01
-1.237141489982604980e+00,1.353075265884399414e+00,2.903805673122406006e-01
-1.238726615905761719e+00,1.354809045791625977e+00,3.568316698074340820e-01
-1.240657210350036621e+00,1.356920480728149414e+00,4.244744479656219482e-01
-1.249454736709594727e+00,1.327870845794677734e+00,-4.885477125644683838e-01
-1.251180410385131836e+00,1.329704880714416504e+00,-4.215198755264282227e-01
-1.252766370773315430e+00,1.331390380859375000e+00,-3.553500473499298096e-01
-1.254292845726013184e+00,1.333012580871582031e+00,-2.898981869220733643e-01
-1.256002426147460938e+00,1.334829449653625488e+00,-2.250444293022155762e-01
-1.257518529891967773e+00,1.336440801620483398e+00,-1.605462729930877686e-01
-1.259159803390502930e+00,1.338185071945190430e+00,-9.629653394222259521e-02
-1.260767579078674316e+00,1.339893698692321777e+00,-3.211371600627899170e-02
-1.262342214584350586e+00,1.341567277908325195e+00,3.215382248163223267e-02
-1.264061331748962402e+00,1.343394160270690918e+00,9.667138755321502686e-02
-1.265599846839904785e+00,1.345029354095458984e+00,1.615780144929885864e-01
-1.267355442047119141e+00,1.346895098686218262e+00,2.270786166191101074e-01
-1.269088149070739746e+00,1.348736524581909180e+00,2.933177649974822998e-01
-1.270722270011901855e+00,1.350473165512084961e+00,3.604432642459869385e-01
-1.272170662879943848e+00,1.352012515068054199e+00,4.285914301872253418e-01
-1.280988931655883789e+00,1.322924733161926270e+00,-4.934233129024505615e-01
-1.282822608947753906e+00,1.324818491935729980e+00,-4.257479608058929443e-01
-1.284502387046813965e+00,1.326553225517272949e+00,-3.589293956756591797e-01
-1.286112785339355469e+00,1.328216314315795898e+00,-2.928285598754882812e-01
-1.287897944450378418e+00,1.330060005187988281e+00,-2.273249477148056030e-01
-1.289475202560424805e+00,1.331688761711120605e+00,-1.621760278940200806e-01
-1.291170597076416016e+00,1.333439826965332031e+00,-9.727501124143600464e-02
-1.292818427085876465e+00,1.335141539573669434e+00,-3.244000300765037537e-02
-1.294425368309020996e+00,1.336801052093505859e+00,3.248032554984092712e-02
-1.296163558959960938e+00,1.338596105575561523e+00,9.765116870403289795e-02
-1.297710299491882324e+00,1.340193510055541992e+00,1.632117480039596558e-01
-1.299468159675598145e+00,1.342008948326110840e+00,2.293671816587448120e-01
-1.301188230514526367e+00,1.343785285949707031e+00,2.962610125541687012e-01
-1.302799105644226074e+00,1.345448970794677734e+00,3.640420734882354736e-01
-1.304750561714172363e+00,1.347464323043823242e+00,4.330255091190338135e-01
-1.313530087471008301e+00,1.318243741989135742e+00,-4.986387491226196289e-01
-1.315011024475097656e+00,1.319730043411254883e+00,-4.301174581050872803e-01
-1.316791415214538574e+00,1.321516752243041992e+00,-3.626292347908020020e-01
-1.318747639656066895e+00,1.323480010032653809e+00,-2.959155440330505371e-01
-1.320354104042053223e+00,1.325092196464538574e+00,-2.296824157238006592e-01
-1.322106361389160156e+00,1.326850771903991699e+00,-1.638746410608291626e-01
-1.323744893074035645e+00,1.328495264053344727e+00,-9.828644990921020508e-02
-1.325435876846313477e+00,1.330192208290100098e+00,-3.277734667062759399e-02
-1.327188849449157715e+00,1.331951498985290527e+00,3.282069787383079529e-02
-1.328831195831298828e+00,1.333599805831909180e+00,9.866410493850708008e-02
-1.330648541450500488e+00,1.335423588752746582e+00,1.649334430694580078e-01
-1.332137107849121094e+00,1.336917519569396973e+00,2.317321300506591797e-01
-1.333842515945434570e+00,1.338629126548767090e+00,2.993027269840240479e-01
-1.335908532142639160e+00,1.340702533721923828e+00,3.678939044475555420e-01
-1.337895154953002930e+00,1.342696309089660645e+00,4.376024603843688965e-01
-1.346163034439086914e+00,1.312866449356079102e+00,-5.038415789604187012e-01
-1.348162651062011719e+00,1.314816594123840332e+00,-4.347606897354125977e-01
-1.349979639053344727e+00,1.316588640213012695e+00,-3.665416836738586426e-01
-1.351697683334350586e+00,1.318264245986938477e+00,-2.990446090698242188e-01
-1.353385567665100098e+00,1.319910287857055664e+00,-2.321182042360305786e-01
-1.355207204818725586e+00,1.321686863899230957e+00,-1.656156480312347412e-01
-1.356899857521057129e+00,1.323337674140930176e+00,-9.933160245418548584e-02
-1.358634352684020996e+00,1.325029253959655762e+00,-3.312592208385467529e-02
-1.360417723655700684e+00,1.326768517494201660e+00,3.316939994692802429e-02
-1.362076878547668457e+00,1.328386664390563965e+00,9.971059113740921021e-02
-1.363901615142822266e+00,1.330166220664978027e+00,1.666781604290008545e-01
-1.365724802017211914e+00,1.331944346427917480e+00,2.342344820499420166e-01
-1.367483496665954590e+00,1.333659529685974121e+00,3.025369942188262939e-01
-1.369104504585266113e+00,1.335240483283996582e+00,3.717344105243682861e-01
-1.371052622795104980e+00,1.337140440940856934e+00,4.421423375606536865e-01
-1.379844307899475098e+00,1.307709336280822754e+00,-5.093898773193359375e-01
-1.381487250328063965e+00,1.309266448020935059e+00,-4.394189119338989258e-01
-1.383415937423706055e+00,1.311094403266906738e+00,-3.704868853092193604e-01
-1.385231494903564453e+00,1.312814950942993164e+00,-3.022753000259399414e-01
-1.387003183364868164e+00,1.314494013786315918e+00,-2.346329540014266968e-01
-1.388897299766540527e+00,1.316289186477661133e+00,-1.674132049083709717e-01
-1.390646934509277344e+00,1.317947268486022949e+00,-1.004108041524887085e-01
-1.392423868179321289e+00,1.319631338119506836e+00,-3.348580375313758850e-02
-1.394238710403442383e+00,1.321351408958435059e+00,3.352944925427436829e-02
-1.395913481712341309e+00,1.322938561439514160e+00,1.007910743355751038e-01
-1.397741317749023438e+00,1.324670791625976562e+00,1.684792339801788330e-01
-1.399555206298828125e+00,1.326389908790588379e+00,2.367563247680664062e-01
-1.401292204856872559e+00,1.328036069869995117e+00,3.057799637317657471e-01
-1.403375148773193359e+00,1.330010175704956055e+00,3.758320808410644531e-01
-1.405350208282470703e+00,1.331881880760192871e+00,4.470091760158538818e-01
-1.414121150970458984e+00,1.302287578582763672e+00,-5.151095986366271973e-01
-1.415817856788635254e+00,1.303850173950195312e+00,-4.443570375442504883e-01
-1.417792677879333496e+00,1.305668830871582031e+00,-3.746498823165893555e-01
-1.419632673263549805e+00,1.307363271713256836e+00,-3.056673705577850342e-01
-1.421413302421569824e+00,1.309003114700317383e+00,-2.372601181268692017e-01
-1.423189401626586914e+00,1.310638785362243652e+00,-1.692680865526199341e-01
-1.424998283386230469e+00,1.312304496765136719e+00,-1.015244647860527039e-01
-1.426819324493408203e+00,1.313981533050537109e+00,-3.385720029473304749e-02
-1.428665876388549805e+00,1.315682053565979004e+00,3.390101715922355652e-02
-1.430556058883666992e+00,1.317422747611999512e+00,1.019204258918762207e-01
-1.432465553283691406e+00,1.319181203842163086e+00,1.703713536262512207e-01
-1.434345841407775879e+00,1.320912837982177734e+00,2.394187897443771362e-01
-1.436128616333007812e+00,1.322554588317871094e+00,3.092191815376281738e-01
-1.438252091407775879e+00,1.324510216712951660e+00,3.800562620162963867e-01
-1.440247058868408203e+00,1.326347351074218750e+00,4.520241618156433105e-01
-1.450291037559509277e+00,1.297732234001159668e+00,-5.214653015136718750e-01
-1.452567458152770996e+00,1.299769282341003418e+00,-4.500059187412261963e-01
-1.454243302345275879e+00,1.301268815994262695e+00,-3.793212175369262695e-01
-1.456201672554016113e+00,1.303021192550659180e+00,-3.094937503337860107e-01
-1.458081364631652832e+00,1.304703116416931152e+00,-2.402389049530029297e-01
-1.459938883781433105e+00,1.306365251541137695e+00,-1.713974177837371826e-01
-1.461812376976013184e+00,1.308041691780090332e+00,-1.028028726577758789e-01
-1.463681697845458984e+00,1.309714436531066895e+00,-3.428356349468231201e-02
-1.465557813644409180e+00,1.311393141746520996e+00,3.432750701904296875e-02
-1.467463493347167969e+00,1.313098311424255371e+00,1.032002791762351990e-01
-1.469370961189270020e+00,1.314805150032043457e+00,1.725047528743743896e-01
-1.471228003501892090e+00,1.316466808319091797e+00,2.424049973487854004e-01
-1.473421216011047363e+00,1.318429350852966309e+00,3.131535053253173828e-01
-1.475048065185546875e+00,1.319885134696960449e+00,3.847478926181793213e-01
-1.476976513862609863e+00,1.321610689163208008e+00,4.575678408145904541e-01
-1.485857725143432617e+00,1.291745543479919434e+00,-5.275515913963317871e-01
-1.487768054008483887e+00,1.293406248092651367e+00,-4.551290571689605713e-01
-1.489933609962463379e+00,1.295288801193237305e+00,-3.837553560733795166e-01
-1.491641402244567871e+00,1.296773552894592285e+00,-3.130488991737365723e-01
-1.493617296218872070e+00,1.298491239547729492e+00,-2.430067658424377441e-01
-1.495554804801940918e+00,1.300175786018371582e+00,-1.733761727809906006e-01
-1.497490048408508301e+00,1.301858067512512207e+00,-1.039908081293106079e-01
-1.499405264854431152e+00,1.303523182868957520e+00,-3.467973694205284119e-02
-1.501312613487243652e+00,1.305181384086608887e+00,3.472385182976722717e-02
-1.503230929374694824e+00,1.306849122047424316e+00,1.043894812464714050e-01
-1.505135059356689453e+00,1.308504343032836914e+00,1.744867712259292603e-01
-1.507348656654357910e+00,1.310428738594055176e+00,2.452408075332641602e-01
-1.509134888648986816e+00,1.311981797218322754e+00,3.167202770709991455e-01
-1.511239051818847656e+00,1.313811063766479492e+00,3.892429172992706299e-01
-1.513176083564758301e+00,1.315494894981384277e+00,4.629017412662506104e-01
-1.524011492729187012e+00,1.287085056304931641e+00,-5.345023274421691895e-01
-1.526010990142822266e+00,1.288773775100708008e+00,-4.611377716064453125e-01
-1.527876138687133789e+00,1.290348887443542480e+00,-3.887311518192291260e-01
-1.529996752738952637e+00,1.292139768600463867e+00,-3.171845078468322754e-01
-1.532000422477722168e+00,1.293831944465637207e+00,-2.462133318185806274e-01
-1.533820986747741699e+00,1.295369505882263184e+00,-1.756448298692703247e-01
-1.535827040672302246e+00,1.297063708305358887e+00,-1.053530201315879822e-01
-1.537791132926940918e+00,1.298722505569458008e+00,-3.513401374220848083e-02
-1.539726018905639648e+00,1.300356626510620117e+00,3.517822176218032837e-02
-1.541874170303344727e+00,1.302170753479003906e+00,1.057678386569023132e-01
-1.543853163719177246e+00,1.303842067718505859e+00,1.767936795949935913e-01
-1.545742034912109375e+00,1.305437326431274414e+00,2.484218180179595947e-01
-1.547944664955139160e+00,1.307297587394714355e+00,3.209052979946136475e-01
-1.550062298774719238e+00,1.309085965156555176e+00,3.943758904933929443e-01
-1.551994085311889648e+00,1.310717344284057617e+00,4.689894616603851318e-01
-1.560394287109375000e+00,1.280004024505615234e+00,-5.407814979553222656e-01
-1.562550306320190430e+00,1.281772613525390625e+00,-4.665875136852264404e-01
-1.564933419227600098e+00,1.283727526664733887e+00,-3.934442102909088135e-01
-1.566800951957702637e+00,1.285259485244750977e+00,-3.209677338600158691e-01
-1.568908810615539551e+00,1.286988615989685059e+00,-2.491589635610580444e-01
-1.570936203002929688e+00,1.288651704788208008e+00,-1.777646392583847046e-01
-1.572924256324768066e+00,1.290282487869262695e+00,-1.066199839115142822e-01
-1.574946761131286621e+00,1.291941523551940918e+00,-3.555677831172943115e-02
-1.576997041702270508e+00,1.293623328208923340e+00,3.560306504368782043e-02
-1.579023480415344238e+00,1.295285701751708984e+00,1.070334166288375854e-01
-1.580994129180908203e+00,1.296902298927307129e+00,1.789027750492095947e-01
-1.583247184753417969e+00,1.298750519752502441e+00,2.514360547065734863e-01
-1.585015535354614258e+00,1.300201058387756348e+00,3.246991038322448730e-01
-1.587075233459472656e+00,1.301890611648559570e+00,3.990109264850616455e-01
-1.589560270309448242e+00,1.303929090499877930e+00,4.746528863906860352e-01
-1.600083589553833008e+00,1.274692058563232422e+00,-5.481571555137634277e-01
-1.602344989776611328e+00,1.276493549346923828e+00,-4.729661941528320312e-01
-1.604426503181457520e+00,1.278151750564575195e+00,-3.987328708171844482e-01
-1.606733560562133789e+00,1.279989600181579590e+00,-3.253616392612457275e-01
-1.608659148216247559e+00,1.281523704528808594e+00,-2.525327801704406738e-01
-1.610781073570251465e+00,1.283214092254638672e+00,-1.801765561103820801e-01
-1.612844705581665039e+00,1.284857988357543945e+00,-1.080682873725891113e-01
-1.614918112754821777e+00,1.286509871482849121e+00,-3.603976592421531677e-02
-1.616999626159667969e+00,1.288168072700500488e+00,3.608622029423713684e-02
-1.619033455848693848e+00,1.289788246154785156e+00,1.084829643368721008e-01
-1.621301174163818359e+00,1.291594862937927246e+00,1.813533008098602295e-01
-1.623211383819580078e+00,1.293116569519042969e+00,2.548172473907470703e-01
-1.625399947166442871e+00,1.294860124588012695e+00,3.291415572166442871e-01
-1.627465248107910156e+00,1.296505451202392578e+00,4.044584929943084717e-01
-1.629938483238220215e+00,1.298475623130798340e+00,4.811109602451324463e-01
-1.640612483024597168e+00,1.269025921821594238e+00,-5.557619333267211914e-01
-1.642986178398132324e+00,1.270861983299255371e+00,-4.795438945293426514e-01
-1.645152568817138672e+00,1.272537589073181152e+00,-4.042860865592956543e-01
-1.647216081619262695e+00,1.274133801460266113e+00,-3.298324942588806152e-01
-1.649263501167297363e+00,1.275717496871948242e+00,-2.560142576694488525e-01
-1.651484847068786621e+00,1.277435779571533203e+00,-1.826655864715576172e-01
-1.653626441955566406e+00,1.279092192649841309e+00,-1.095628961920738220e-01
-1.655751228332519531e+00,1.280735731124877930e+00,-3.653817996382713318e-02
-1.657864332199096680e+00,1.282370328903198242e+00,3.658481314778327942e-02
-1.659904837608337402e+00,1.283948659896850586e+00,1.099788844585418701e-01
-1.662158250808715820e+00,1.285691618919372559e+00,1.838461309671401978e-01
-1.664431095123291016e+00,1.287449717521667480e+00,2.583687007427215576e-01
-1.666646361351013184e+00,1.289163231849670410e+00,3.337231278419494629e-01
-1.668710470199584961e+00,1.290759921073913574e+00,4.100753068923950195e-01
-1.671167016029357910e+00,1.292659997940063477e+00,4.877691268920898438e-01
-1.682000041007995605e+00,1.262980937957763672e+00,-5.636004805564880371e-01
-1.684490919113159180e+00,1.264851331710815430e+00,-4.863239824771881104e-01
-1.686347961425781250e+00,1.266245841979980469e+00,-4.099136590957641602e-01
-1.688563346862792969e+00,1.267909288406372070e+00,-3.344435393810272217e-01
-1.690960526466369629e+00,1.269709348678588867e+00,-2.596391439437866211e-01
-1.693065047264099121e+00,1.271289467811584473e+00,-1.852330118417739868e-01
-1.695285081863403320e+00,1.272956490516662598e+00,-1.111044511198997498e-01
-1.697464942932128906e+00,1.274593353271484375e+00,-3.705230355262756348e-02
-1.699607014656066895e+00,1.276201725006103516e+00,3.709906339645385742e-02
-1.701882600784301758e+00,1.277910470962524414e+00,1.115368306636810303e-01
-1.703886628150939941e+00,1.279415249824523926e+00,1.864169538021087646e-01
-1.706116080284118652e+00,1.281089305877685547e+00,2.619661986827850342e-01
-1.708770513534545898e+00,1.283082485198974609e+00,3.384458422660827637e-01
-1.710826516151428223e+00,1.284626245498657227e+00,4.158638417720794678e-01
-1.713259220123291016e+00,1.286453008651733398e+00,4.946296215057373047e-01
-1.724256515502929688e+00,1.256525754928588867e+00,-5.716747045516967773e-01
-1.726382613182067871e+00,1.258075118064880371e+00,-4.931690394878387451e-01
-1.728824734687805176e+00,1.259854793548583984e+00,-4.158128499984741211e-01
-1.731107592582702637e+00,1.261518359184265137e+00,-3.392588794231414795e-01
-1.733322858810424805e+00,1.263132691383361816e+00,-2.633406519889831543e-01
-1.735535860061645508e+00,1.264745354652404785e+00,-1.878797709941864014e-01
-1.737835764884948730e+00,1.266421437263488770e+00,-1.126935780048370361e-01
-1.740073204040527344e+00,1.268051862716674805e+00,-3.758232668042182922e-02
-1.742244243621826172e+00,1.269634008407592773e+00,3.762921690940856934e-02
-1.744525671005249023e+00,1.271296620368957520e+00,1.131273955106735229e-01
-1.746834635734558105e+00,1.272979140281677246e+00,1.891029179096221924e-01
-1.749109983444213867e+00,1.274637341499328613e+00,2.657391428947448730e-01
-1.751275658607482910e+00,1.276215553283691406e+00,3.432113826274871826e-01
-1.753830909729003906e+00,1.278077602386474609e+00,4.218272566795349121e-01
-1.756229639053344727e+00,1.279825687408447266e+00,5.016953349113464355e-01
-1.767401337623596191e+00,1.249634623527526855e+00,-5.799896121025085449e-01
-1.769653081893920898e+00,1.251226782798767090e+00,-5.003625750541687012e-01
-1.772200822830200195e+00,1.253028154373168945e+00,-4.218886196613311768e-01
-1.774234890937805176e+00,1.254466295242309570e+00,-3.441567122936248779e-01
-1.776588559150695801e+00,1.256130456924438477e+00,-2.671549618244171143e-01
-1.779051423072814941e+00,1.257871866226196289e+00,-1.906219422817230225e-01
-1.781300306320190430e+00,1.259461879730224609e+00,-1.143313944339752197e-01
-1.783593177795410156e+00,1.261083126068115234e+00,-3.812851384282112122e-02
-1.785939693450927734e+00,1.262742161750793457e+00,3.817867487668991089e-02
-1.788077473640441895e+00,1.264253616333007812e+00,1.147663816809654236e-01
-1.790360450744628906e+00,1.265867829322814941e+00,1.918336749076843262e-01
-1.793016672134399414e+00,1.267745852470397949e+00,2.696253359317779541e-01
-1.795191884040832520e+00,1.269283890724182129e+00,3.482218384742736816e-01
-1.797737836837768555e+00,1.271084070205688477e+00,4.279679358005523682e-01
-1.800095677375793457e+00,1.272751092910766602e+00,5.089701414108276367e-01
-1.811446189880371094e+00,1.242276191711425781e+00,-5.885479450225830078e-01
-1.813836216926574707e+00,1.243915200233459473e+00,-5.077689886093139648e-01
-1.816074848175048828e+00,1.245450377464294434e+00,-4.280455410480499268e-01
-1.818605899810791016e+00,1.247186183929443359e+00,-3.492650389671325684e-01
-1.821007609367370605e+00,1.248833298683166504e+00,-2.711187303066253662e-01
-1.823352456092834473e+00,1.250441431999206543e+00,-1.934311538934707642e-01
-1.825688958168029785e+00,1.252043724060058594e+00,-1.160183101892471313e-01
-1.828040003776550293e+00,1.253656029701232910e+00,-3.869110718369483948e-02
-1.830414652824401855e+00,1.255284547805786133e+00,3.874136880040168762e-02
-1.832799673080444336e+00,1.256920218467712402e+00,1.164701879024505615e-01
-1.835150957107543945e+00,1.258532762527465820e+00,1.946828067302703857e-01
-1.837411761283874512e+00,1.260083198547363281e+00,2.735610306262969971e-01
-1.840034246444702148e+00,1.261881589889526367e+00,3.533803522586822510e-01
-1.842563390731811523e+00,1.263616085052490234e+00,4.342888891696929932e-01
-1.844872474670410156e+00,1.265199661254882812e+00,5.164573192596435547e-01
-1.859125494956970215e+00,1.236228823661804199e+00,-5.982288122177124023e-01
-1.861684560775756836e+00,1.237930536270141602e+00,-5.161505341529846191e-01
-1.864053010940551758e+00,1.239505410194396973e+00,-4.351277053356170654e-01
-1.866687893867492676e+00,1.241257429122924805e+00,-3.550507426261901855e-01
-1.868917346000671387e+00,1.242740035057067871e+00,-2.755751609802246094e-01
-1.871391773223876953e+00,1.244385361671447754e+00,-1.966177523136138916e-01
-1.873822689056396484e+00,1.246001839637756348e+00,-1.179316788911819458e-01
-1.876238107681274414e+00,1.247607946395874023e+00,-3.932924568653106689e-02
-1.878644585609436035e+00,1.249208092689514160e+00,3.937968984246253967e-02
-1.881025910377502441e+00,1.250791668891906738e+00,1.183850243687629700e-01
-1.883692264556884766e+00,1.252564549446105957e+00,1.979100853204727173e-01
-1.885977745056152344e+00,1.254084229469299316e+00,2.780907452106475830e-01
-1.888595700263977051e+00,1.255825161933898926e+00,3.592176735401153564e-01
-1.891088962554931641e+00,1.257483005523681641e+00,4.414387345314025879e-01
-1.893323779106140137e+00,1.258969068527221680e+00,5.249224901199340820e-01
-1.905122756958007812e+00,1.227859497070312500e+00,-6.073123812675476074e-01
-1.907835960388183594e+00,1.229608058929443359e+00,-5.240127444267272949e-01
-1.910325288772583008e+00,1.231212496757507324e+00,-4.417701065540313721e-01
-1.912711262702941895e+00,1.232750296592712402e+00,-3.604115247726440430e-01
-1.915340542793273926e+00,1.234444856643676758e+00,-2.797863185405731201e-01
-1.917693376541137695e+00,1.235961318016052246e+00,-1.996032893657684326e-01
-1.920216560363769531e+00,1.237587451934814453e+00,-1.197244077920913696e-01
-1.922692894935607910e+00,1.239183425903320312e+00,-3.992713242769241333e-02
-1.925127625465393066e+00,1.240752696990966797e+00,3.997769206762313843e-02
-1.927764773368835449e+00,1.242452263832092285e+00,1.201950311660766602e-01
-1.930141568183898926e+00,1.243984103202819824e+00,2.008989602327346802e-01
-1.932816743850708008e+00,1.245708346366882324e+00,2.823391854763031006e-01
-1.935441136360168457e+00,1.247399806976318359e+00,3.646945059299468994e-01
-1.937903165817260742e+00,1.248986482620239258e+00,4.481475651264190674e-01
-1.940807223320007324e+00,1.250858187675476074e+00,5.330687165260314941e-01
-1.955003738403320312e+00,1.220763444900512695e+00,-6.175799369812011719e-01
-1.957907557487487793e+00,1.222576618194580078e+00,-5.329045653343200684e-01
-1.960547804832458496e+00,1.224225282669067383e+00,-4.492859840393066406e-01
-1.963043808937072754e+00,1.225783944129943848e+00,-3.665520846843719482e-01
-1.965498566627502441e+00,1.227316737174987793e+00,-2.845179438591003418e-01
-1.968138575553894043e+00,1.228965282440185547e+00,-2.030021548271179199e-01
-1.970617413520812988e+00,1.230513095855712891e+00,-1.217562481760978699e-01
-1.973160624504089355e+00,1.232101082801818848e+00,-4.060477390885353088e-02
-1.975785374641418457e+00,1.233740091323852539e+00,4.065878689289093018e-02
-1.978256702423095703e+00,1.235283255577087402e+00,1.222282499074935913e-01
-1.980953693389892578e+00,1.236967444419860840e+00,2.043239623308181763e-01
-1.983654975891113281e+00,1.238654136657714844e+00,2.871462106704711914e-01
-1.986262798309326172e+00,1.240282535552978516e+00,3.708876669406890869e-01
-1.988673567771911621e+00,1.241787910461425781e+00,4.557313621044158936e-01
-1.991496562957763672e+00,1.243550658226013184e+00,5.420468449592590332e-01
-2.006077051162719727e+00,1.213098883628845215e+00,-6.281644105911254883e-01
-2.009181976318359375e+00,1.214976429939270020e+00,-5.420715808868408203e-01
-2.011524677276611328e+00,1.216393232345581055e+00,-4.569313228130340576e-01
-2.014239788055419922e+00,1.218034982681274414e+00,-3.728180825710296631e-01
-2.017127752304077148e+00,1.219781279563903809e+00,-2.894345819950103760e-01
-2.019658327102661133e+00,1.221311688423156738e+00,-2.064918875694274902e-01
-2.022243499755859375e+00,1.222874999046325684e+00,-1.238518506288528442e-01
-2.024856090545654297e+00,1.224454760551452637e+00,-4.130369424819946289e-02
-2.027511119842529297e+00,1.226060271263122559e+00,4.135785251855850220e-02
-2.030241489410400391e+00,1.227711439132690430e+00,1.243416815996170044e-01
-2.032628059387207031e+00,1.229154586791992188e+00,2.078179121017456055e-01
-2.035245895385742188e+00,1.230737566947937012e+00,2.920343279838562012e-01
-2.038308382034301758e+00,1.232589602470397949e+00,3.772729635238647461e-01
-2.040655851364135742e+00,1.234009027481079102e+00,4.635486304759979248e-01
-2.043388128280639648e+00,1.235661387443542480e+00,5.513003468513488770e-01
-2.059014081954956055e+00,1.205207228660583496e+00,-6.392734050750732422e-01
-2.061677694320678711e+00,1.206766247749328613e+00,-5.515180826187133789e-01
-2.064180850982666016e+00,1.208231449127197266e+00,-4.649164080619812012e-01
-2.067020654678344727e+00,1.209893703460693359e+00,-3.793431222438812256e-01
-2.069744586944580078e+00,1.211488008499145508e+00,-2.944661676883697510e-01
-2.072421312332153320e+00,1.213054895401000977e+00,-2.100896984338760376e-01
-2.075118064880371094e+00,1.214633345603942871e+00,-1.260124593973159790e-01
-2.077799320220947266e+00,1.216202855110168457e+00,-4.202425107359886169e-02
-2.080483913421630859e+00,1.217774152755737305e+00,4.207854717969894409e-02
-2.083204030990600586e+00,1.219366431236267090e+00,1.265034824609756470e-01
-2.085914373397827148e+00,1.220952749252319336e+00,2.114575207233428955e-01
-2.088548660278320312e+00,1.222494721412658691e+00,2.971414625644683838e-01
-2.091593742370605469e+00,1.224277138710021973e+00,3.838528394699096680e-01
-2.094551563262939453e+00,1.226008534431457520e+00,4.717568755149841309e-01
-2.097275972366333008e+00,1.227603077888488770e+00,5.610409379005432129e-01
-2.112537622451782227e+00,1.196276068687438965e+00,-6.505083441734313965e-01
-2.115417003631591797e+00,1.197906613349914551e+00,-5.612496137619018555e-01
-2.118091583251953125e+00,1.199421048164367676e+00,-4.731435775756835938e-01
-2.121067523956298828e+00,1.201106309890747070e+00,-3.860672712326049805e-01
-2.123878955841064453e+00,1.202698230743408203e+00,-2.996880710124969482e-01
-2.126451253890991211e+00,1.204154968261718750e+00,-2.137977778911590576e-01
-2.129258871078491211e+00,1.205744743347167969e+00,-1.282390207052230835e-01
-2.132011175155639648e+00,1.207303404808044434e+00,-4.276681691408157349e-02
-2.134728431701660156e+00,1.208842039108276367e+00,4.282132163643836975e-02
-2.137713432312011719e+00,1.210532307624816895e+00,1.287482082843780518e-01
-2.140479326248168945e+00,1.212098598480224609e+00,2.152081876993179321e-01
-2.143123865127563477e+00,1.213596105575561523e+00,3.024036288261413574e-01
-2.146144151687622070e+00,1.215306401252746582e+00,3.906315863132476807e-01
-2.149034023284912109e+00,1.216943025588989258e+00,4.800555706024169922e-01
-2.151647329330444336e+00,1.218422770500183105e+00,5.708619952201843262e-01
-2.170755386352539062e+00,1.188538670539855957e+00,-6.631287336349487305e-01
-2.173886537551879883e+00,1.190253138542175293e+00,-5.721837282180786133e-01
-2.176768064498901367e+00,1.191830754280090332e+00,-4.823907017707824707e-01
-2.179908752441406250e+00,1.193550348281860352e+00,-3.936274349689483643e-01
-2.182564735412597656e+00,1.195004582405090332e+00,-3.055240809917449951e-01
-2.185466527938842773e+00,1.196593403816223145e+00,-2.179869413375854492e-01
-2.188288450241088867e+00,1.198138475418090820e+00,-1.307479441165924072e-01
-2.191132307052612305e+00,1.199695467948913574e+00,-4.360382631421089172e-02
-2.193989038467407227e+00,1.201259613037109375e+00,4.366067796945571899e-02
-2.196792125701904297e+00,1.202794313430786133e+00,1.312560141086578369e-01
-2.199883699417114258e+00,1.204487085342407227e+00,2.194249480962753296e-01
-2.202523946762084961e+00,1.205932617187500000e+00,3.083180189132690430e-01
-2.205500125885009766e+00,1.207562208175659180e+00,3.982484936714172363e-01
-2.208294391632080078e+00,1.209092140197753906e+00,4.893772304058074951e-01
-2.211564540863037109e+00,1.210882663726806641e+00,5.821008682250976562e-01
-2.231208324432373047e+00,1.180450558662414551e+00,-6.763652563095092773e-01
-2.233918190002441406e+00,1.181884288787841797e+00,-5.834720730781555176e-01
-2.237019300460815430e+00,1.183524966239929199e+00,-4.919384121894836426e-01
-2.239948511123657227e+00,1.185074687004089355e+00,-4.013647735118865967e-01
-2.243103742599487305e+00,1.186744093894958496e+00,-3.115888237953186035e-01
-2.245909690856933594e+00,1.188228607177734375e+00,-2.222965955734252930e-01
-2.248863220214843750e+00,1.189791202545166016e+00,-1.333360373973846436e-01
-2.251789093017578125e+00,1.191339135169982910e+00,-4.446700960397720337e-02
-2.254676342010498047e+00,1.192866683006286621e+00,4.452402517199516296e-02
-2.257747173309326172e+00,1.194491267204284668e+00,1.338627636432647705e-01
-2.260487079620361328e+00,1.195940971374511719e+00,2.237394452095031738e-01
-2.263516426086425781e+00,1.197543621063232422e+00,3.144243359565734863e-01
-2.266439199447631836e+00,1.199089884757995605e+00,4.061115086078643799e-01
-2.269845962524414062e+00,1.200892329216003418e+00,4.991572201251983643e-01
-2.273070096969604492e+00,1.202598214149475098e+00,5.936980843544006348e-01
-2.292555570602416992e+00,1.171223521232604980e+00,-6.898094415664672852e-01
-2.296142578125000000e+00,1.173056006431579590e+00,-5.952779054641723633e-01
-2.298870801925659180e+00,1.174449682235717773e+00,-5.017918944358825684e-01
-2.301978111267089844e+00,1.176037192344665527e+00,-4.094213843345642090e-01
-2.304986238479614258e+00,1.177574038505554199e+00,-3.178109824657440186e-01
-2.307979583740234375e+00,1.179103255271911621e+00,-2.267464846372604370e-01
-2.311066865921020508e+00,1.180680513381958008e+00,-1.360081881284713745e-01
-2.314074277877807617e+00,1.182216882705688477e+00,-4.535817354917526245e-02
-2.316991329193115234e+00,1.183707237243652344e+00,4.541535675525665283e-02
-2.320045471191406250e+00,1.185267448425292969e+00,1.365365982055664062e-01
-2.323117733001708984e+00,1.186837077140808105e+00,2.282337248325347900e-01
-2.326136589050292969e+00,1.188379406929016113e+00,3.207271993160247803e-01
-2.329619884490966797e+00,1.190158963203430176e+00,4.143376648426055908e-01
-2.332297563552856445e+00,1.191526889801025391e+00,5.090882182121276855e-01
-2.335361480712890625e+00,1.193092107772827148e+00,6.054454445838928223e-01
-2.356229066848754883e+00,1.161533594131469727e+00,-7.038936018943786621e-01
-2.359401702880859375e+00,1.163097500801086426e+00,-6.072996854782104492e-01
-2.362360239028930664e+00,1.164555907249450684e+00,-5.119593143463134766e-01
-2.365657806396484375e+00,1.166181564331054688e+00,-4.177356362342834473e-01
-2.368797063827514648e+00,1.167729139328002930e+00,-3.242714405059814453e-01
-2.371865749359130859e+00,1.169241905212402344e+00,-2.313550561666488647e-01
-2.374926805496215820e+00,1.170750856399536133e+00,-1.387660056352615356e-01
-2.378020286560058594e+00,1.172275781631469727e+00,-4.627794772386550903e-02
-2.381148576736450195e+00,1.173817873001098633e+00,4.633883014321327209e-02
-2.384299039840698242e+00,1.175370931625366211e+00,1.393136084079742432e-01
-2.387410402297973633e+00,1.176904797554016113e+00,2.328712940216064453e-01
-2.390414953231811523e+00,1.178385972976684570e+00,3.272307813167572021e-01
-2.393838644027709961e+00,1.180073618888854980e+00,4.227118790149688721e-01
-2.397134542465209961e+00,1.181698441505432129e+00,5.194954276084899902e-01
-2.400132179260253906e+00,1.183176159858703613e+00,6.177835464477539062e-01
-2.420838832855224609e+00,1.150614500045776367e+00,-7.182013988494873047e-01
-2.424316167831420898e+00,1.152267217636108398e+00,-6.196997165679931641e-01
-2.427524566650390625e+00,1.153792142868041992e+00,-5.224489569664001465e-01
-2.431017875671386719e+00,1.155452489852905273e+00,-4.263130426406860352e-01
-2.434007644653320312e+00,1.156873464584350586e+00,-3.308975994586944580e-01
-2.437274217605590820e+00,1.158426165580749512e+00,-2.360935509204864502e-01
-2.440480470657348633e+00,1.159950017929077148e+00,-1.416116654872894287e-01
-2.443660020828247070e+00,1.161461234092712402e+00,-4.722698405385017395e-02
-2.446824073791503906e+00,1.162965178489685059e+00,4.728813469409942627e-02
-2.449946880340576172e+00,1.164449334144592285e+00,1.421609669923782349e-01
-2.453404664993286133e+00,1.166092872619628906e+00,2.376560717821121216e-01
-2.456387281417846680e+00,1.167510509490966797e+00,3.339400887489318848e-01
-2.459745407104492188e+00,1.169106483459472656e+00,4.313507974147796631e-01
-2.462912797927856445e+00,1.170611977577209473e+00,5.300651192665100098e-01
-2.466590642929077148e+00,1.172360062599182129e+00,6.305058002471923828e-01
-2.492050886154174805e+00,1.141028761863708496e+00,-7.344076633453369141e-01
-2.495774030685424805e+00,1.142733454704284668e+00,-6.337196826934814453e-01
-2.498635530471801758e+00,1.144043684005737305e+00,-5.341743826866149902e-01
-2.502366542816162109e+00,1.145751953125000000e+00,-4.359044432640075684e-01
-2.505516052246093750e+00,1.147194027900695801e+00,-3.383520543575286865e-01
-2.508885622024536133e+00,1.148736834526062012e+00,-2.414129227399826050e-01
-2.512079954147338867e+00,1.150199413299560547e+00,-1.447961777448654175e-01
-2.515356302261352539e+00,1.151699542999267578e+00,-4.828907176852226257e-02
-2.518742799758911133e+00,1.153250217437744141e+00,4.835408553481101990e-02
-2.521955490112304688e+00,1.154721140861511230e+00,1.453654021024703979e-01
-2.525444030761718750e+00,1.156318426132202148e+00,2.430062294006347656e-01
-2.528387546539306641e+00,1.157666206359863281e+00,3.414407074451446533e-01
-2.532310009002685547e+00,1.159462094306945801e+00,4.411205053329467773e-01
-2.535428524017333984e+00,1.160889983177185059e+00,5.420402288436889648e-01
-2.539003610610961914e+00,1.162526845932006836e+00,6.446964144706726074e-01
-2.560973882675170898e+00,1.128533959388732910e+00,-7.498821020126342773e-01
-2.564280509948730469e+00,1.129991054534912109e+00,-6.469415426254272461e-01
-2.567939519882202148e+00,1.131603479385375977e+00,-5.454720258712768555e-01
-2.571356773376464844e+00,1.133109331130981445e+00,-4.450514912605285645e-01
-2.574655771255493164e+00,1.134563088417053223e+00,-3.454604744911193848e-01
-2.577944517135620117e+00,1.136012315750122070e+00,-2.464681267738342285e-01
-2.581288337707519531e+00,1.137485742568969727e+00,-1.478317379951477051e-01
-2.584659814834594727e+00,1.138971447944641113e+00,-4.930151626467704773e-02
-2.588079452514648438e+00,1.140478491783142090e+00,4.936674609780311584e-02
-2.591580867767333984e+00,1.142021417617797852e+00,1.484212130308151245e-01
-2.595106601715087891e+00,1.143575072288513184e+00,2.481089383363723755e-01
-2.598572015762329102e+00,1.145102143287658691e+00,3.486694991588592529e-01
-2.601863145828247070e+00,1.146552443504333496e+00,4.503315687179565430e-01
-2.605622053146362305e+00,1.148208856582641602e+00,5.534763932228088379e-01
-2.609105825424194336e+00,1.149744153022766113e+00,6.582505106925964355e-01
-2.640714645385742188e+00,1.118818283081054688e+00,-7.684632539749145508e-01
-2.644323110580444336e+00,1.120347142219543457e+00,-6.630218029022216797e-01
-2.647677183151245117e+00,1.121768116950988770e+00,-5.589416623115539551e-01
-2.650944948196411133e+00,1.123152732849121094e+00,-4.559974670410156250e-01
-2.654571771621704102e+00,1.124689340591430664e+00,-3.539871275424957275e-01
-2.658111810684204102e+00,1.126189112663269043e+00,-2.525656223297119141e-01
-2.661639213562011719e+00,1.127683639526367188e+00,-1.514935493469238281e-01
-2.665114879608154297e+00,1.129156231880187988e+00,-5.052270740270614624e-02
-2.668570995330810547e+00,1.130620479583740234e+00,5.058822408318519592e-02
-2.672035455703735352e+00,1.132088303565979004e+00,1.520852893590927124e-01
-2.675455093383789062e+00,1.133537173271179199e+00,2.542135119438171387e-01
-2.679308414459228516e+00,1.135169744491577148e+00,3.572857379913330078e-01
-2.683151721954345703e+00,1.136798143386840820e+00,4.615374803543090820e-01
-2.686829566955566406e+00,1.138356208801269531e+00,5.672069787979125977e-01
-2.690154552459716797e+00,1.139765024185180664e+00,6.745133399963378906e-01
-2.717484712600708008e+00,1.105742096900939941e+00,-7.861175537109375000e-01
-2.721492290496826172e+00,1.107372760772705078e+00,-6.783270835876464844e-01
-2.725177049636840820e+00,1.108872056007385254e+00,-5.718932151794433594e-01
-2.728702545166015625e+00,1.110306620597839355e+00,-4.665913283824920654e-01
-2.732519865036010742e+00,1.111859917640686035e+00,-3.622221946716308594e-01
-2.736180305480957031e+00,1.113349318504333496e+00,-2.584427893161773682e-01
-2.739756345748901367e+00,1.114804387092590332e+00,-1.550156921148300171e-01
-2.743355989456176758e+00,1.116269111633300781e+00,-5.169774591922760010e-02
-2.746975898742675781e+00,1.117742061614990234e+00,5.176595970988273621e-02
-2.750530719757080078e+00,1.119188427925109863e+00,1.556252986192703247e-01
-2.753969192504882812e+00,1.120587587356567383e+00,2.601230442523956299e-01
-2.757778167724609375e+00,1.122137427330017090e+00,3.655704259872436523e-01
-2.761507987976074219e+00,1.123655080795288086e+00,4.722008705139160156e-01
-2.765000343322753906e+00,1.125076174736022949e+00,5.802503228187561035e-01
-2.768996715545654297e+00,1.126702308654785156e+00,6.901674866676330566e-01
-2.802148818969726562e+00,1.093713402748107910e+00,-8.059980869293212891e-01
-2.806503295898437500e+00,1.095413088798522949e+00,-6.955366730690002441e-01
-2.810446262359619141e+00,1.096952080726623535e+00,-5.864323973655700684e-01
-2.814147472381591797e+00,1.098396658897399902e+00,-4.784645140171051025e-01
-2.817753314971923828e+00,1.099804162979125977e+00,-3.713959157466888428e-01
-2.821374416351318359e+00,1.101217508316040039e+00,-2.649737894535064697e-01
-2.825143814086914062e+00,1.102688670158386230e+00,-1.589376181364059448e-01
-2.828859806060791016e+00,1.104139089584350586e+00,-5.300578847527503967e-02
-2.832514762878417969e+00,1.105565667152404785e+00,5.307427421212196350e-02
-2.836365461349487305e+00,1.107068657875061035e+00,1.595689207315444946e-01
-2.840271711349487305e+00,1.108593225479125977e+00,2.667485475540161133e-01
-2.844142198562622070e+00,1.110103964805603027e+00,3.748741149902343750e-01
-2.847847938537597656e+00,1.111550450325012207e+00,4.841943085193634033e-01
-2.851231813430786133e+00,1.112871170043945312e+00,5.949427485466003418e-01
-2.856004714965820312e+00,1.114734053611755371e+00,7.078046202659606934e-01
-2.889482736587524414e+00,1.080406546592712402e+00,-8.265857100486755371e-01
-2.894205093383789062e+00,1.082172274589538574e+00,-7.133599519729614258e-01
-2.897846937179565430e+00,1.083534002304077148e+00,-6.013717651367187500e-01
-2.901867389678955078e+00,1.085037231445312500e+00,-4.906879663467407227e-01
-2.905704975128173828e+00,1.086472153663635254e+00,-3.808996975421905518e-01
-2.909475088119506836e+00,1.087881922721862793e+00,-2.717576622962951660e-01
-2.913260459899902344e+00,1.089297294616699219e+00,-1.630010604858398438e-01
-2.917092800140380859e+00,1.090730190277099609e+00,-5.436095222830772400e-02
-2.920996665954589844e+00,1.092189908027648926e+00,5.443369969725608826e-02
-2.924937486648559570e+00,1.093663454055786133e+00,1.636544018983840942e-01
-2.928853273391723633e+00,1.095127582550048828e+00,2.735676467418670654e-01
-2.932651042938232422e+00,1.096547603607177734e+00,3.844319581985473633e-01
-2.936928510665893555e+00,1.098147034645080566e+00,4.966166019439697266e-01
-2.940192222595214844e+00,1.099367260932922363e+00,6.101593971252441406e-01
-2.944789171218872070e+00,1.101086139678955078e+00,7.258278131484985352e-01
-2.980401754379272461e+00,1.066036820411682129e+00,-8.481427431106567383e-01
-2.983968019485473633e+00,1.067312359809875488e+00,-7.316442131996154785e-01
-2.988020181655883789e+00,1.068761825561523438e+00,-6.168470382690429688e-01
-2.992369651794433594e+00,1.070317506790161133e+00,-5.033492445945739746e-01
-2.996126651763916016e+00,1.071661353111267090e+00,-3.907020092010498047e-01
-3.000190734863281250e+00,1.073114991188049316e+00,-2.787676453590393066e-01
-3.004179239273071289e+00,1.074541687965393066e+00,-1.672104150056838989e-01
-3.008140802383422852e+00,1.075958609580993652e+00,-5.576495453715324402e-02
-3.012080669403076172e+00,1.077367901802062988e+00,5.583798885345458984e-02
-3.015978336334228516e+00,1.078761935234069824e+00,1.678671240806579590e-01
-3.020246982574462891e+00,1.080288767814636230e+00,2.806311845779418945e-01
-3.023963928222656250e+00,1.081618309020996094e+00,3.943320512771606445e-01
-3.028084278106689453e+00,1.083091974258422852e+00,5.093568563461303711e-01
-3.032822132110595703e+00,1.084786653518676758e+00,6.260959506034851074e-01
-3.036359310150146484e+00,1.086051940917968750e+00,7.444901466369628906e-01
-3.078887224197387695e+00,1.051808834075927734e+00,-8.717954754829406738e-01
-3.082881212234497070e+00,1.053173303604125977e+00,-7.521237134933471680e-01
-3.087273359298706055e+00,1.054673790931701660e+00,-6.341555118560791016e-01
-3.091409683227539062e+00,1.056086778640747070e+00,-5.174131393432617188e-01
-3.095445632934570312e+00,1.057465553283691406e+00,-4.016385078430175781e-01
-3.099697113037109375e+00,1.058917999267578125e+00,-2.865757644176483154e-01
-3.103722810745239258e+00,1.060293197631835938e+00,-1.718886047601699829e-01
-3.107817173004150391e+00,1.061691880226135254e+00,-5.732516571879386902e-02
-3.112020254135131836e+00,1.063127756118774414e+00,5.740269273519515991e-02
-3.116001129150390625e+00,1.064487695693969727e+00,1.725685894489288330e-01
-3.120266199111938477e+00,1.065944790840148926e+00,2.884774208068847656e-01
-3.124498128890991211e+00,1.067390441894531250e+00,4.054081141948699951e-01
-3.128555774688720703e+00,1.068776607513427734e+00,5.236303210258483887e-01
-3.133152246475219727e+00,1.070346951484680176e+00,6.435794234275817871e-01
-3.137433528900146484e+00,1.071809530258178711e+00,7.654327750205993652e-01
-3.180760622024536133e+00,1.036017298698425293e+00,-8.963505029678344727e-01
-3.185204505920410156e+00,1.037464737892150879e+00,-7.733852267265319824e-01
-3.189351797103881836e+00,1.038815617561340332e+00,-6.520023345947265625e-01
-3.193876266479492188e+00,1.040289282798767090e+00,-5.320164561271667480e-01
-3.198207616806030273e+00,1.041700005531311035e+00,-4.129951000213623047e-01
-3.202459573745727539e+00,1.043084979057312012e+00,-2.946659326553344727e-01
-3.206724882125854492e+00,1.044474244117736816e+00,-1.767469495534896851e-01
-3.210962057113647461e+00,1.045854330062866211e+00,-5.894556269049644470e-02
-3.215208768844604492e+00,1.047237515449523926e+00,5.902352184057235718e-02
-3.219493389129638672e+00,1.048633098602294922e+00,1.774507164955139160e-01
-3.223752021789550781e+00,1.050020098686218262e+00,2.966250777244567871e-01
-3.227877855300903320e+00,1.051363945007324219e+00,4.168264865875244141e-01
-3.232500553131103516e+00,1.052869677543640137e+00,5.384502410888671875e-01
-3.236932516098022461e+00,1.054313182830810547e+00,6.617292761802673340e-01
-3.241983890533447266e+00,1.055958509445190430e+00,7.871716022491455078e-01
-3.293081045150756836e+00,1.020707607269287109e+00,-9.237911105155944824e-01
-3.297166585922241211e+00,1.021973967552185059e+00,-7.969368696212768555e-01
-3.301728963851928711e+00,1.023388028144836426e+00,-6.719123721122741699e-01
-3.306084156036376953e+00,1.024737954139709473e+00,-5.482079982757568359e-01
-3.310752391815185547e+00,1.026184916496276855e+00,-4.255880117416381836e-01
-3.315231800079345703e+00,1.027573347091674805e+00,-3.036579191684722900e-01
-3.319620609283447266e+00,1.028933644294738770e+00,-1.821390837430953979e-01
-3.324037075042724609e+00,1.030302524566650391e+00,-6.074440479278564453e-02
-3.328475236892700195e+00,1.031678199768066406e+00,6.082550436258316040e-02
