4.929207801818847656e+00,-2.386207103729248047e+00,6.724177002906799316e-01
4.933948993682861328e+00,-2.388502359390258789e+00,8.682112097740173340e-01
4.939546585083007812e+00,-2.391211986541748047e+00,1.066737532615661621e+00
4.946381092071533203e+00,-2.394520759582519531e+00,1.268732070922851562e+00
3.572836160659790039e+00,-1.666903972625732422e+00,-1.056402325630187988e+00
4.242827892303466797e+00,-1.979488134384155273e+00,-1.080894589424133301e+00
4.885697364807128906e+00,-2.279418468475341797e+00,-1.047955036163330078e+00
4.891344070434570312e+00,-2.282052755355834961e+00,-8.548787832260131836e-01
4.896693706512451172e+00,-2.284548759460449219e+00,-6.634535193443298340e-01
4.901936531066894531e+00,-2.286994934082031250e+00,-4.732420444488525391e-01
4.907205104827880859e+00,-2.289452791213989258e+00,-2.837878763675689697e-01
4.912575244903564453e+00,-2.291958093643188477e+00,-9.462252259254455566e-02
4.918060779571533203e+00,-2.294517517089843750e+00,9.472818672657012939e-02
4.923618316650390625e+00,-2.297110557556152344e+00,2.847370505332946777e-01
4.929142951965332031e+00,-2.299687862396240234e+00,4.758685827255249023e-01
4.934472560882568359e+00,-2.302174329757690430e+00,6.685721874237060547e-01
4.939391613006591797e+00,-2.304469347000122070e+00,8.632762432098388672e-01
4.945260047912597656e+00,-2.307207345962524414e+00,1.060730934143066406e+00
4.950592517852783203e+00,-2.309695243835449219e+00,1.261203289031982422e+00
3.597383975982666016e+00,-1.616073727607727051e+00,-1.056712865829467773e+00
4.245215415954589844e+00,-1.907102823257446289e+00,-1.074438571929931641e+00
4.892855167388916016e+00,-2.198045730590820312e+00,-1.042635202407836914e+00
4.898460865020751953e+00,-2.200563907623291016e+00,-8.505305051803588867e-01
4.903846263885498047e+00,-2.202983379364013672e+00,-6.600826978683471680e-01
4.909205913543701172e+00,-2.205391168594360352e+00,-4.708480834960937500e-01
4.914825916290283203e+00,-2.207915782928466797e+00,-2.823720276355743408e-01
4.920203208923339844e+00,-2.210331439971923828e+00,-9.415042400360107422e-02
4.925404548645019531e+00,-2.212668180465698242e+00,9.424995630979537964e-02
4.930859565734863281e+00,-2.215118885040283203e+00,2.832932174205780029e-01
4.936361789703369141e+00,-2.217590570449829102e+00,4.734526276588439941e-01
4.941747665405273438e+00,-2.220010042190551758e+00,6.651844382286071777e-01
4.948201656341552734e+00,-2.222909450531005859e+00,8.591672182083129883e-01
4.952883720397949219e+00,-2.225012779235839844e+00,1.055426955223083496e+00
4.958506584167480469e+00,-2.227538585662841797e+00,1.254968285560607910e+00
3.621908187866210938e+00,-1.565184593200683594e+00,-1.057227611541748047e+00
4.279161930084228516e+00,-1.849212527275085449e+00,-1.076220870018005371e+00
4.900776386260986328e+00,-2.117839336395263672e+00,-1.037757277488708496e+00
4.906094551086425781e+00,-2.120137453079223633e+00,-8.465001583099365234e-01
4.911263465881347656e+00,-2.122371196746826172e+00,-6.569247245788574219e-01
4.916479110717773438e+00,-2.124624967575073242e+00,-4.685809016227722168e-01
4.922033786773681641e+00,-2.127025604248046875e+00,-2.810082137584686279e-01
4.927417755126953125e+00,-2.129352092742919922e+00,-9.369566291570663452e-02
4.932699203491210938e+00,-2.131634473800659180e+00,9.379609674215316772e-02
4.938312530517578125e+00,-2.134060144424438477e+00,2.819375693798065186e-01
4.944048404693603516e+00,-2.136538982391357422e+00,4.712085127830505371e-01
4.949739456176757812e+00,-2.138998270034790039e+00,6.620712280273437500e-01
4.955162525177001953e+00,-2.141341924667358398e+00,8.549664020538330078e-01
4.960041046142578125e+00,-2.143450021743774414e+00,1.050306797027587891e+00
4.965941905975341797e+00,-2.146000146865844727e+00,1.248947978019714355e+00
3.646444559097290039e+00,-1.514228343963623047e+00,-1.057954788208007812e+00
4.313283443450927734e+00,-1.791140794754028320e+00,-1.078244209289550781e+00
4.907106876373291016e+00,-2.037733078002929688e+00,-1.032815814018249512e+00
4.912400245666503906e+00,-2.039931058883666992e+00,-8.424639701843261719e-01
4.918313980102539062e+00,-2.042386770248413086e+00,-6.538905501365661621e-01
4.923387527465820312e+00,-2.044493675231933594e+00,-4.664025008678436279e-01
4.928878307342529297e+00,-2.046773910522460938e+00,-2.796977162361145020e-01
4.934268951416015625e+00,-2.049012422561645508e+00,-9.325870126485824585e-02
4.939628601074218750e+00,-2.051237821578979492e+00,9.335999935865402222e-02
4.945398330688476562e+00,-2.053633689880371094e+00,2.806351780891418457e-01
4.950450897216796875e+00,-2.055732011795043945e+00,4.689662754535675049e-01
4.956180572509765625e+00,-2.058111429214477539e+00,6.589249372482299805e-01
4.961716651916503906e+00,-2.060410261154174805e+00,8.509216308593750000e-01
4.966778755187988281e+00,-2.062512397766113281e+00,1.045375108718872070e+00
4.972945213317871094e+00,-2.065073013305664062e+00,1.243147969245910645e+00
3.647794008255004883e+00,-1.453934192657470703e+00,-1.052200555801391602e+00
4.347629070281982422e+00,-1.732873797416687012e+00,-1.080518960952758789e+00
4.913093566894531250e+00,-1.958256006240844727e+00,-1.028071045875549316e+00
4.919332027435302734e+00,-1.960742592811584473e+00,-8.387537598609924316e-01
4.924343109130859375e+00,-1.962739825248718262e+00,-6.508904099464416504e-01
4.929979324340820312e+00,-1.964986443519592285e+00,-4.643149971961975098e-01
4.935405731201171875e+00,-1.967149257659912109e+00,-2.784418165683746338e-01
4.940803527832031250e+00,-1.969300627708435059e+00,-9.283994138240814209e-02
4.946239471435546875e+00,-1.971467256546020508e+00,9.294208884239196777e-02
4.951510906219482422e+00,-1.973568439483642578e+00,2.793504297733306885e-01
4.957431316375732422e+00,-1.975928187370300293e+00,4.669004678726196289e-01
4.962273597717285156e+00,-1.977858185768127441e+00,6.559039950370788574e-01
4.967910289764404297e+00,-1.980104804039001465e+00,8.470364212989807129e-01
4.974830150604248047e+00,-1.982862949371337891e+00,1.040989398956298828e+00
4.979560852050781250e+00,-1.984748482704162598e+00,1.237573266029357910e+00
3.672142505645751953e+00,-1.403073310852050781e+00,-1.053323149681091309e+00
4.348717212677001953e+00,-1.661582946777343750e+00,-1.074768543243408203e+00
4.920007705688476562e+00,-1.879864811897277832e+00,-1.023782491683959961e+00
4.925016403198242188e+00,-1.881778478622436523e+00,-8.350449204444885254e-01
4.930794239044189453e+00,-1.883986234664916992e+00,-6.481124162673950195e-01
4.936301708221435547e+00,-1.886090517044067383e+00,-4.623205065727233887e-01
4.941665172576904297e+00,-1.888139963150024414e+00,-2.772418260574340820e-01
4.947068691253662109e+00,-1.890204310417175293e+00,-9.243981540203094482e-02
4.952580451965332031e+00,-1.892310380935668945e+00,9.254281222820281982e-02
4.957994461059570312e+00,-1.894378900527954102e+00,2.781579494476318359e-01
4.963208198547363281e+00,-1.896371245384216309e+00,4.648405015468597412e-01
4.969248771667480469e+00,-1.898679137229919434e+00,6.531668901443481445e-01
4.975235462188720703e+00,-1.900966525077819824e+00,8.435596823692321777e-01
4.980877399444580078e+00,-1.903122305870056152e+00,1.036448717117309570e+00
4.985834121704101562e+00,-1.905016183853149414e+00,1.232229471206665039e+00
3.698461532592773438e+00,-1.352793216705322266e+00,-1.055210351943969727e+00
4.385325908660888672e+00,-1.604029059410095215e+00,-1.078031539916992188e+00
4.927373886108398438e+00,-1.802294850349426270e+00,-1.019842863082885742e+00
4.933387279510498047e+00,-1.804494380950927734e+00,-8.319997191429138184e-01
4.938998699188232422e+00,-1.806546807289123535e+00,-6.457257866859436035e-01
4.944391727447509766e+00,-1.808519601821899414e+00,-4.606066048145294189e-01
4.949538230895996094e+00,-1.810401916503906250e+00,-2.762014269828796387e-01
4.955004215240478516e+00,-1.812401175498962402e+00,-9.209392219781875610e-02
4.960695743560791016e+00,-1.814483165740966797e+00,9.219971299171447754e-02
4.966238498687744141e+00,-1.816510319709777832e+00,2.771333456039428711e-01
4.971638679504394531e+00,-1.818485617637634277e+00,4.631448090076446533e-01
4.976737022399902344e+00,-1.820350408554077148e+00,6.506597399711608887e-01
4.982770919799804688e+00,-1.822557449340820312e+00,8.403280973434448242e-01
4.988522052764892578e+00,-1.824661254882812500e+00,1.032499074935913086e+00
4.993648052215576172e+00,-1.826536059379577637e+00,1.227573394775390625e+00
3.723017930984497070e+00,-1.301671147346496582e+00,-1.056792497634887695e+00
4.420001029968261719e+00,-1.545355916023254395e+00,-1.081007242202758789e+00
4.933755874633789062e+00,-1.724979043006896973e+00,-1.015949368476867676e+00
4.938542366027832031e+00,-1.726652503013610840e+00,-8.286162614822387695e-01
4.944232463836669922e+00,-1.728641986846923828e+00,-6.431093215942382812e-01
4.949776172637939453e+00,-1.730580210685729980e+00,-4.587536454200744629e-01
4.955301761627197266e+00,-1.732511997222900391e+00,-2.751110494136810303e-01
4.960772514343261719e+00,-1.734424829483032227e+00,-9.173032641410827637e-02
4.966148853302001953e+00,-1.736304521560668945e+00,9.182973951101303101e-02
4.971552848815917969e+00,-1.738193988800048828e+00,2.760132849216461182e-01
4.976881504058837891e+00,-1.740056991577148438e+00,4.612658023834228516e-01
4.983174800872802734e+00,-1.742257237434387207e+00,6.481746435165405273e-01
4.988072872161865234e+00,-1.743969798088073730e+00,8.369268178939819336e-01
4.993957519531250000e+00,-1.746027231216430664e+00,1.028346061706542969e+00
4.999279499053955078e+00,-1.747887849807739258e+00,1.222682356834411621e+00
3.749506711959838867e+00,-1.251003503799438477e+00,-1.059120178222656250e+00
4.422502517700195312e+00,-1.475545048713684082e+00,-1.076343417167663574e+00
4.940478801727294922e+00,-1.648365139961242676e+00,-1.012371659278869629e+00
4.946297645568847656e+00,-1.650306582450866699e+00,-8.258695602416992188e-01
4.951831340789794922e+00,-1.652152895927429199e+00,-6.409561038017272949e-01
4.957270145416259766e+00,-1.653967499732971191e+00,-4.572072029113769531e-01
4.962747097015380859e+00,-1.655794858932495117e+00,-2.741805315017700195e-01
4.968225479125976562e+00,-1.657622694969177246e+00,-9.142005443572998047e-02
4.973665237426757812e+00,-1.659437656402587891e+00,9.152015298604965210e-02
4.979189395904541016e+00,-1.661280632019042969e+00,2.750889062881469727e-01
4.984693050384521484e+00,-1.663116931915283203e+00,4.597364068031311035e-01
4.990013599395751953e+00,-1.664892077445983887e+00,6.458983421325683594e-01
4.996404647827148438e+00,-1.667024493217468262e+00,8.342357873916625977e-01
5.000899791717529297e+00,-1.668524265289306641e+00,1.024752736091613770e+00
5.008341789245605469e+00,-1.671007394790649414e+00,1.218924403190612793e+00
3.749840497970581055e+00,-1.191750288009643555e+00,-1.054288148880004883e+00
4.457381725311279297e+00,-1.416616559028625488e+00,-1.079786777496337891e+00
4.946490287780761719e+00,-1.572062015533447266e+00,-1.008889317512512207e+00
4.952080249786376953e+00,-1.573838591575622559e+00,-8.229895234107971191e-01
4.957437992095947266e+00,-1.575541138648986816e+00,-6.386973857879638672e-01
4.962760448455810547e+00,-1.577232837677001953e+00,-4.555847644805908203e-01
4.968183040618896484e+00,-1.578956127166748047e+00,-2.732042372226715088e-01
4.973667144775390625e+00,-1.580699086189270020e+00,-9.109452366828918457e-02
4.979171752929687500e+00,-1.582448482513427734e+00,9.119534492492675781e-02
4.984822750091552734e+00,-1.584244489669799805e+00,2.741192877292633057e-01
4.990512847900390625e+00,-1.586052894592285156e+00,4.581324756145477295e-01
4.996077537536621094e+00,-1.587821364402770996e+00,6.436755657196044922e-01
5.001293659210205078e+00,-1.589479088783264160e+00,8.311682343482971191e-01
5.007625579833984375e+00,-1.591491580009460449e+00,1.021358489990234375e+00
5.013501167297363281e+00,-1.593358874320983887e+00,1.214504957199096680e+00
3.776268720626831055e+00,-1.140908122062683105e+00,-1.057018876075744629e+00
4.459428310394287109e+00,-1.347308158874511719e+00,-1.075500726699829102e+00
4.952719211578369141e+00,-1.496344089508056641e+00,-1.005688309669494629e+00
4.958378314971923828e+00,-1.498053789138793945e+00,-8.203885555267333984e-01
4.964588642120361328e+00,-1.499930143356323242e+00,-6.367874145507812500e-01
4.969811916351318359e+00,-1.501508355140686035e+00,-4.542126059532165527e-01
4.975188255310058594e+00,-1.503132581710815430e+00,-2.723784446716308594e-01
4.980679035186767578e+00,-1.504791498184204102e+00,-9.081915766000747681e-02
4.986243724822998047e+00,-1.506472706794738770e+00,9.092062711715698242e-02
4.992008209228515625e+00,-1.508214354515075684e+00,2.732992768287658691e-01
4.996910572052001953e+00,-1.509695529937744141e+00,4.566892981529235840e-01
5.002417087554931641e+00,-1.511359095573425293e+00,6.416395306587219238e-01
5.009120941162109375e+00,-1.513384580612182617e+00,8.287842273712158203e-01
5.014018058776855469e+00,-1.514864087104797363e+00,1.018135547637939453e+00
5.020004272460937500e+00,-1.516672730445861816e+00,1.210697412490844727e+00
3.777927875518798828e+00,-1.082652211189270020e+00,-1.053037881851196289e+00
4.496510982513427734e+00,-1.288578748703002930e+00,-1.079885244369506836e+00
4.959976196289062500e+00,-1.421395421028137207e+00,-1.002927899360656738e+00
4.965444564819335938e+00,-1.422962546348571777e+00,-8.181040883064270020e-01
4.970787048339843750e+00,-1.424493551254272461e+00,-6.349021196365356445e-01
4.976646900177001953e+00,-1.426172733306884766e+00,-4.529252052307128906e-01
4.981978893280029297e+00,-1.427700757980346680e+00,-2.716035842895507812e-01
4.987476348876953125e+00,-1.429276227951049805e+00,-9.056078642606735229e-02
4.993099212646484375e+00,-1.430887579917907715e+00,9.066288918256759644e-02
4.998292922973632812e+00,-1.432375907897949219e+00,2.724930047988891602e-01
5.004026412963867188e+00,-1.434019088745117188e+00,4.554170370101928711e-01
5.009738922119140625e+00,-1.435656189918518066e+00,6.398773789405822754e-01
5.015203952789306641e+00,-1.437222242355346680e+00,8.263023495674133301e-01
5.021900653839111328e+00,-1.439141273498535156e+00,1.015449285507202148e+00
5.026220321655273438e+00,-1.440379142761230469e+00,1.207100629806518555e+00
3.804336309432983398e+00,-1.031535863876342773e+00,-1.056175112724304199e+00
4.498132228851318359e+00,-1.219656705856323242e+00,-1.075971841812133789e+00
4.967032909393310547e+00,-1.346797943115234375e+00,-1.000354409217834473e+00
4.972319126129150391e+00,-1.348231196403503418e+00,-8.159735798835754395e-01
4.977523326873779297e+00,-1.349642395973205566e+00,-6.332302689552307129e-01
4.983297348022460938e+00,-1.351207971572875977e+00,-4.517240226268768311e-01
4.988586425781250000e+00,-1.352642059326171875e+00,-2.708805799484252930e-01
4.994090080261230469e+00,-1.354134440422058105e+00,-9.031969308853149414e-02
4.999769210815429688e+00,-1.355674266815185547e+00,9.042239934206008911e-02
5.005062580108642578e+00,-1.357109546661376953e+00,2.717752456665039062e-01
5.010949134826660156e+00,-1.358705759048461914e+00,4.542306065559387207e-01
5.016860485076904297e+00,-1.360308527946472168e+00,6.382346749305725098e-01
5.022567749023437500e+00,-1.361855983734130859e+00,8.242195248603820801e-01
5.027786254882812500e+00,-1.363270998001098633e+00,1.012590050697326660e+00
5.034204006195068359e+00,-1.365011215209960938e+00,1.204202413558959961e+00
3.830951690673828125e+00,-9.801144003868103027e-01,-1.059560894966125488e+00
4.535456180572509766e+00,-1.160355567932128906e+00,-1.080816388130187988e+00
4.972630977630615234e+00,-1.272202849388122559e+00,-9.977123141288757324e-01
4.978016853332519531e+00,-1.273580670356750488e+00,-8.138337135314941406e-01
4.984103202819824219e+00,-1.275137901306152344e+00,-6.316807270050048828e-01
4.989339351654052734e+00,-1.276477456092834473e+00,-4.505693316459655762e-01
4.995042324066162109e+00,-1.277936577796936035e+00,-2.702102363109588623e-01
5.000552177429199219e+00,-1.279346108436584473e+00,-9.009616076946258545e-02
5.005884170532226562e+00,-1.280710339546203613e+00,9.019222855567932129e-02
5.011675357818603516e+00,-1.282191991806030273e+00,2.711099982261657715e-01
5.016741275787353516e+00,-1.283488035202026367e+00,4.530439376831054688e-01
5.022563457489013672e+00,-1.284977555274963379e+00,6.365551352500915527e-01
5.028232574462890625e+00,-1.286427855491638184e+00,8.220432996749877930e-01
5.033461570739746094e+00,-1.287765741348266602e+00,1.009917378425598145e+00
5.039943218231201172e+00,-1.289423942565917969e+00,1.201037406921386719e+00
3.832141637802124023e+00,-9.221906065940856934e-01,-1.056131124496459961e+00
4.536755561828613281e+00,-1.091753363609313965e+00,-1.077291727066040039e+00
4.979369163513183594e+00,-1.198266744613647461e+00,-9.955210685729980469e-01
4.984587669372558594e+00,-1.199522495269775391e+00,-8.120179176330566406e-01
4.990555286407470703e+00,-1.200958490371704102e+00,-6.302552223205566406e-01
4.995708465576171875e+00,-1.202198624610900879e+00,-4.495445489883422852e-01
5.001375675201416016e+00,-1.203562378883361816e+00,-2.695932984352111816e-01
5.006893157958984375e+00,-1.204890131950378418e+00,-8.989046514034271240e-02
5.012272834777832031e+00,-1.206184744834899902e+00,8.998704701662063599e-02
5.018159389495849609e+00,-1.207601308822631836e+00,2.704979777336120605e-01
5.023357868194580078e+00,-1.208852410316467285e+00,4.520325958728790283e-01
5.029362201690673828e+00,-1.210297226905822754e+00,6.351561546325683594e-01
5.035253047943115234e+00,-1.211714863777160645e+00,8.202715516090393066e-01
5.040740966796875000e+00,-1.213035464286804199e+00,1.007790923118591309e+00
5.047531127929687500e+00,-1.214669585227966309e+00,1.198579788208007812e+00
3.858876943588256836e+00,-8.703923821449279785e-01,-1.059957146644592285e+00
4.574433326721191406e+00,-1.031790375709533691e+00,-1.082620739936828613e+00
4.985994338989257812e+00,-1.124620437622070312e+00,-9.935255050659179688e-01
4.991054058074951172e+00,-1.125761747360229492e+00,-8.103633522987365723e-01
4.996909141540527344e+00,-1.127082347869873047e+00,-6.289559006690979004e-01
5.001984119415283203e+00,-1.128226995468139648e+00,-4.486101269721984863e-01
5.007617473602294922e+00,-1.129497528076171875e+00,-2.690307199954986572e-01
5.013139724731445312e+00,-1.130743145942687988e+00,-8.970285207033157349e-02
5.018566131591796875e+00,-1.131967186927795410e+00,8.979995548725128174e-02
5.024544715881347656e+00,-1.133315682411193848e+00,2.699401378631591797e-01
5.029870033264160156e+00,-1.134516835212707520e+00,4.511111080646514893e-01
5.036046981811523438e+00,-1.135910034179687500e+00,6.338821053504943848e-01
5.040617942810058594e+00,-1.136941075325012207e+00,8.184106349945068359e-01
5.046086788177490234e+00,-1.138174533843994141e+00,1.005499720573425293e+00
5.052906513214111328e+00,-1.139712810516357422e+00,1.195859909057617188e+00
3.859856128692626953e+00,-8.127415180206298828e-01,-1.056922554969787598e+00
4.575509548187255859e+00,-9.634313583374023438e-01,-1.079501271247863770e+00
4.991225719451904297e+00,-1.050965666770935059e+00,-9.914688467979431152e-01
4.997443675994873047e+00,-1.052274942398071289e+00,-8.088724017143249512e-01
5.002442359924316406e+00,-1.053327441215515137e+00,-6.276903748512268066e-01
5.008190631866455078e+00,-1.054537773132324219e+00,-4.477671384811401367e-01
5.013792514801025391e+00,-1.055717349052429199e+00,-2.685231566429138184e-01
5.019320964813232422e+00,-1.056881427764892578e+00,-8.953360468149185181e-02
5.024792194366455078e+00,-1.058033466339111328e+00,8.963119238615036011e-02
5.030160427093505859e+00,-1.059163808822631836e+00,2.693997621536254883e-01
5.036303043365478516e+00,-1.060457229614257812e+00,4.502806067466735840e-01
5.041380405426025391e+00,-1.061526298522949219e+00,6.325761675834655762e-01
5.047405719757080078e+00,-1.062795042991638184e+00,8.169591426849365234e-01
5.053108215332031250e+00,-1.063995838165283203e+00,1.003761291503906250e+00
5.058139324188232422e+00,-1.065055131912231445e+00,1.193368315696716309e+00
3.860757350921630859e+00,-7.553938031196594238e-01,-1.054100632667541504e+00
4.576505661010742188e+00,-8.954367041587829590e-01,-1.076602101325988770e+00
4.997695922851562500e+00,-9.778465628623962402e-01,-9.898724555969238281e-01
5.003780841827392578e+00,-9.790371656417846680e-01,-8.075472712516784668e-01
5.008674144744873047e+00,-9.799945354461669922e-01,-6.266480088233947754e-01
5.014356613159179688e+00,-9.811064600944519043e-01,-4.470171332359313965e-01
5.019928932189941406e+00,-9.821966886520385742e-01,-2.680713832378387451e-01
5.025463581085205078e+00,-9.832796454429626465e-01,-8.938296884298324585e-02
5.030976295471191406e+00,-9.843582510948181152e-01,8.948101848363876343e-02
5.036422729492187500e+00,-9.854238033294677734e-01,2.689521908760070801e-01
5.042684555053710938e+00,-9.866490364074707031e-01,4.495424628257751465e-01
5.047908306121826172e+00,-9.876710772514343262e-01,6.315566897392272949e-01
5.054122447967529297e+00,-9.888869524002075195e-01,8.156716823577880859e-01
5.060044765472412109e+00,-9.900457262992858887e-01,1.002221584320068359e+00
5.065324783325195312e+00,-9.910787940025329590e-01,1.191594600677490234e+00
3.887640714645385742e+00,-7.030392885208129883e-01,-1.058584690093994141e+00
4.614593982696533203e+00,-8.345012068748474121e-01,-1.082641482353210449e+00
5.004129409790039062e+00,-9.049445986747741699e-01,-9.884799122810363770e-01
5.009050369262695312e+00,-9.058345556259155273e-01,-8.062226176261901855e-01
5.014883995056152344e+00,-9.068894386291503906e-01,-6.257368326187133789e-01
5.020506858825683594e+00,-9.079062342643737793e-01,-4.463611543178558350e-01
5.026051044464111328e+00,-9.089089035987854004e-01,-2.676761746406555176e-01
5.031591892242431641e+00,-9.099108576774597168e-01,-8.925117552280426025e-02
5.037144184112548828e+00,-9.109149575233459473e-01,8.934966474771499634e-02
5.042663574218750000e+00,-9.119130969047546387e-01,2.685609161853790283e-01
5.048045635223388672e+00,-9.128863811492919922e-01,4.488095641136169434e-01
5.054399490356445312e+00,-9.140354394912719727e-01,6.306674480438232422e-01
5.059238433837890625e+00,-9.149104952812194824e-01,8.143005371093750000e-01
5.065096378326416016e+00,-9.159698486328125000e-01,1.000522971153259277e+00
5.072432994842529297e+00,-9.172965884208679199e-01,1.190056204795837402e+00
3.889385700225830078e+00,-6.460121273994445801e-01,-1.056433796882629395e+00
4.616625785827636719e+00,-7.668039202690124512e-01,-1.080432415008544922e+00
5.009845256805419922e+00,-8.321161270141601562e-01,-9.871551990509033203e-01
5.015980243682861328e+00,-8.331351280212402344e-01,-8.053360581398010254e-01
5.021738529205322266e+00,-8.340916037559509277e-01,-6.250384449958801270e-01
5.027312755584716797e+00,-8.350173830986022949e-01,-4.458579719066619873e-01
5.032835483551025391e+00,-8.359347581863403320e-01,-2.673728764057159424e-01
5.038383007049560547e+00,-8.368561863899230957e-01,-8.915003389120101929e-02
5.043971061706542969e+00,-8.377842903137207031e-01,8.924891054630279541e-02
5.049552440643310547e+00,-8.387113809585571289e-01,2.682609856128692627e-01
5.055024623870849609e+00,-8.396202325820922852e-01,4.483156502246856689e-01
5.060223102569580078e+00,-8.404837250709533691e-01,6.298284530639648438e-01
5.066479682922363281e+00,-8.415229320526123047e-01,8.134440183639526367e-01
5.072509288787841797e+00,-8.425244092941284180e-01,9.995027184486389160e-01
5.077957630157470703e+00,-8.434293270111083984e-01,1.188398241996765137e+00
3.890070676803588867e+00,-5.890450477600097656e-01,-1.054221749305725098e+00
4.617405891418457031e+00,-6.991801261901855469e-01,-1.078162431716918945e+00
5.016147613525390625e+00,-7.595586776733398438e-01,-9.861537218093872070e-01
5.022177219390869141e+00,-7.604717016220092773e-01,-8.045009970664978027e-01
5.027855873107910156e+00,-7.613316178321838379e-01,-6.243795156478881836e-01
5.033377647399902344e+00,-7.621677517890930176e-01,-4.453827440738677979e-01
5.038877964019775391e+00,-7.630006670951843262e-01,-2.670863568782806396e-01
5.044431686401367188e+00,-7.638415694236755371e-01,-8.905448019504547119e-02
5.050054073333740234e+00,-7.646929025650024414e-01,8.915373682975769043e-02
5.055699825286865234e+00,-7.655478715896606445e-01,2.679779827594757080e-01
5.061264038085937500e+00,-7.663903832435607910e-01,4.478502571582794189e-01
5.066581249237060547e+00,-7.671955227851867676e-01,6.291885972023010254e-01
5.072990417480468750e+00,-7.681660652160644531e-01,8.126408457756042480e-01
5.079199314117431641e+00,-7.691062092781066895e-01,9.985494613647460938e-01
5.084849357604980469e+00,-7.699617147445678711e-01,1.187310338020324707e+00
3.917179822921752930e+00,-5.359200835227966309e-01,-1.059381127357482910e+00
4.618182659149169922e+00,-6.318262219429016113e-01,-1.076121926307678223e+00
5.022474288940429688e+00,-6.871384382247924805e-01,-9.853630661964416504e-01
5.028408050537109375e+00,-6.879502534866333008e-01,-8.038394451141357422e-01
5.034015178680419922e+00,-6.887174248695373535e-01,-6.238563060760498047e-01
5.039490699768066406e+00,-6.894665360450744629e-01,-4.450048506259918213e-01
5.044970035552978516e+00,-6.902161240577697754e-01,-2.668582499027252197e-01
5.050529479980468750e+00,-6.909767389297485352e-01,-8.897840976715087891e-02
5.056184768676757812e+00,-6.917504668235778809e-01,8.907805383205413818e-02
5.061890125274658203e+00,-6.925310492515563965e-01,2.677532732486724854e-01
5.067538738250732422e+00,-6.933038234710693359e-01,4.474815428256988525e-01
5.072965145111083984e+00,-6.940462589263916016e-01,6.286833286285400391e-01
5.079514503479003906e+00,-6.949422955513000488e-01,8.120093345642089844e-01
5.084045410156250000e+00,-6.955621838569641113e-01,9.974427223205566406e-01
5.089616775512695312e+00,-6.963243484497070312e-01,1.185974717140197754e+00
3.918544530868530273e+00,-4.790807068347930908e-01,-1.057787299156188965e+00
4.657627105712890625e+00,-5.694408416748046875e-01,-1.083302974700927734e+00
5.029119014739990234e+00,-6.148594021797180176e-01,-9.848391413688659668e-01
5.034976959228515625e+00,-6.155756115913391113e-01,-8.033987283706665039e-01
5.040527820587158203e+00,-6.162542104721069336e-01,-6.235063672065734863e-01
5.045966625213623047e+00,-6.169191598892211914e-01,-4.447513818740844727e-01
5.051430702209472656e+00,-6.175872087478637695e-01,-2.667050957679748535e-01
5.056996345520019531e+00,-6.182676553726196289e-01,-8.892732858657836914e-02
5.062680244445800781e+00,-6.189625263214111328e-01,8.902727812528610229e-02
5.068435192108154297e+00,-6.196661591529846191e-01,2.676028907299041748e-01
5.074153423309326172e+00,-6.203653216361999512e-01,4.472357630729675293e-01
5.079669952392578125e+00,-6.210397481918334961e-01,6.283482313156127930e-01
5.084762096405029297e+00,-6.216622591018676758e-01,8.113425970077514648e-01
5.090991020202636719e+00,-6.224238872528076172e-01,9.969553947448730469e-01
5.096712112426757812e+00,-6.231233477592468262e-01,1.185428380966186523e+00
3.919136285781860352e+00,-4.223176240921020508e-01,-1.056207060813903809e+00
4.658342838287353516e+00,-5.019729137420654297e-01,-1.081687569618225098e+00
5.035427093505859375e+00,-5.426066517829895020e-01,-9.844526648521423340e-01
5.041207790374755859e+00,-5.432295799255371094e-01,-8.030700087547302246e-01
5.046701431274414062e+00,-5.438215732574462891e-01,-6.232433319091796875e-01
5.052103042602539062e+00,-5.444036126136779785e-01,-4.445598721504211426e-01
5.057550907135009766e+00,-5.449907183647155762e-01,-2.665890455245971680e-01
5.063123226165771484e+00,-5.455911159515380859e-01,-8.888863772153854370e-02
5.068834781646728516e+00,-5.462066531181335449e-01,8.898891508579254150e-02
5.074638366699218750e+00,-5.468320250511169434e-01,2.674897611141204834e-01
5.080428123474121094e+00,-5.474558472633361816e-01,4.470523297786712646e-01
5.086034774780273438e+00,-5.480599999427795410e-01,6.281008124351501465e-01
5.091235160827636719e+00,-5.486204028129577637e-01,8.110393881797790527e-01
5.097598075866699219e+00,-5.493060946464538574e-01,9.966074824333190918e-01
5.103469848632812500e+00,-5.499387979507446289e-01,1.185047984123229980e+00
3.920267581939697266e+00,-3.657627701759338379e-01,-1.054992914199829102e+00
4.659709453582763672e+00,-4.347530305385589600e-01,-1.080449223518371582e+00
5.041849136352539062e+00,-4.704068601131439209e-01,-9.842910766601562500e-01
5.046514511108398438e+00,-4.708421230316162109e-01,-8.027595281600952148e-01
5.052253723144531250e+00,-4.713776111602783203e-01,-6.230320334434509277e-01
5.058395385742187500e+00,-4.719506204128265381e-01,-4.444736242294311523e-01
5.063832283020019531e+00,-4.724578857421875000e-01,-2.665363848209381104e-01
5.069410800933837891e+00,-4.729783535003662109e-01,-8.887106925249099731e-02
5.075145721435546875e+00,-4.735134243965148926e-01,8.897160738706588745e-02
5.080275058746337891e+00,-4.739919900894165039e-01,2.674018442630767822e-01
5.085827350616455078e+00,-4.745100140571594238e-01,4.468840062618255615e-01
5.092515468597412109e+00,-4.751340150833129883e-01,6.279969811439514160e-01
5.097802639007568359e+00,-4.756273031234741211e-01,8.109180331230163574e-01
5.104271888732910156e+00,-4.762309193611145020e-01,9.964774847030639648e-01
5.110263347625732422e+00,-4.767899215221405029e-01,1.184919357299804688e+00
3.947674274444580078e+00,-3.113990724086761475e-01,-1.061060309410095215e+00
4.660404205322265625e+00,-3.676204085350036621e-01,-1.079279661178588867e+00
5.046846866607666016e+00,-3.981036543846130371e-01,-9.840534925460815430e-01
5.052795410156250000e+00,-3.985728919506072998e-01,-8.027689456939697266e-01
5.058493137359619141e+00,-3.990223109722137451e-01,-6.230332851409912109e-01
5.064611434936523438e+00,-3.995049595832824707e-01,-4.444718360900878906e-01
5.070038318634033203e+00,-3.999330103397369385e-01,-2.665344178676605225e-01
5.075622081756591797e+00,-4.003734588623046875e-01,-8.887038379907608032e-02
5.081379890441894531e+00,-4.008276760578155518e-01,8.897120505571365356e-02
5.086545944213867188e+00,-4.012351930141448975e-01,2.674022614955902100e-01
5.092152595520019531e+00,-4.016774296760559082e-01,4.468888342380523682e-01
5.097613334655761719e+00,-4.021081924438476562e-01,6.278515458106994629e-01
5.104285240173339844e+00,-4.026344716548919678e-01,8.109493851661682129e-01
5.108997821807861328e+00,-4.030062258243560791e-01,9.961719512939453125e-01
5.114838123321533203e+00,-4.034668803215026855e-01,1.184519648551940918e+00
3.948611259460449219e+00,-2.546671628952026367e-01,-1.060223817825317383e+00
4.661556720733642578e+00,-3.006488680839538574e-01,-1.078439593315124512e+00
5.053085803985595703e+00,-3.259006738662719727e-01,-9.842596054077148438e-01
5.058993816375732422e+00,-3.262817263603210449e-01,-8.029294610023498535e-01
5.064662456512451172e+00,-3.266473114490509033e-01,-6.231534481048583984e-01
5.070764541625976562e+00,-3.270408511161804199e-01,-4.445554614067077637e-01
5.076183795928955078e+00,-3.273904025554656982e-01,-2.665838599205017090e-01
5.081774711608886719e+00,-3.277509808540344238e-01,-8.888687193393707275e-02
5.087551116943359375e+00,-3.281235396862030029e-01,8.898790925741195679e-02
5.092745780944824219e+00,-3.284585475921630859e-01,2.674536108970642090e-01
5.098393917083740234e+00,-3.288228511810302734e-01,4.469777643680572510e-01
5.103908538818359375e+00,-3.291785120964050293e-01,6.279822587966918945e-01
5.110648632049560547e+00,-3.296132087707519531e-01,8.111277818679809570e-01
5.115434646606445312e+00,-3.299218714237213135e-01,9.964041113853454590e-01
5.121362686157226562e+00,-3.303042054176330566e-01,1.184814453125000000e+00
3.949158191680908203e+00,-1.979935467243194580e-01,-1.059501171112060547e+00
4.662268638610839844e+00,-2.337457984685897827e-01,-1.077719807624816895e+00
5.059498786926269531e+00,-2.536611855030059814e-01,-9.847006797790527344e-01
5.065371513366699219e+00,-2.539556026458740234e-01,-8.032824397087097168e-01
5.071014404296875000e+00,-2.542385160923004150e-01,-6.234233975410461426e-01
5.077101707458496094e+00,-2.545437216758728027e-01,-4.447461068630218506e-01
5.082517147064208984e+00,-2.548152208328247070e-01,-2.666975855827331543e-01
5.088113307952880859e+00,-2.550957798957824707e-01,-8.892476558685302734e-02
5.093907356262207031e+00,-2.553862631320953369e-01,8.902602642774581909e-02
5.099128246307373047e+00,-2.556480169296264648e-01,2.675692439079284668e-01
5.104815483093261719e+00,-2.559331655502319336e-01,4.471737742424011230e-01
5.110379219055175781e+00,-2.562120854854583740e-01,6.282628178596496582e-01
5.117181777954101562e+00,-2.565531432628631592e-01,8.114987015724182129e-01
5.122034549713134766e+00,-2.567964494228363037e-01,9.968715906143188477e-01
5.128042697906494141e+00,-2.570976912975311279e-01,1.185387134552001953e+00
3.949917793273925781e+00,-1.413931846618652344e-01,-1.059053540229797363e+00
4.663236141204833984e+00,-1.669274568557739258e-01,-1.077280759811401367e+00
5.065588951110839844e+00,-1.813302785158157349e-01,-9.852799177169799805e-01
5.071439743041992188e+00,-1.815397143363952637e-01,-8.037503957748413086e-01
5.077066898345947266e+00,-1.817411482334136963e-01,-6.237837672233581543e-01
5.083147048950195312e+00,-1.819588094949722290e-01,-4.450019299983978271e-01
5.088561058044433594e+00,-1.821525990962982178e-01,-2.668505907058715820e-01
5.094163417816162109e+00,-1.823531538248062134e-01,-8.897577226161956787e-02
5.099969863891601562e+00,-1.825610101222991943e-01,8.907719701528549194e-02
5.105211257934570312e+00,-1.827486306428909302e-01,2.677237689495086670e-01
5.110925674438476562e+00,-1.829531788825988770e-01,4.474337995052337646e-01
5.116524219512939453e+00,-1.831535845994949341e-01,6.286315917968750000e-01
5.123371124267578125e+00,-1.833986639976501465e-01,8.119807243347167969e-01
5.128270626068115234e+00,-1.835740655660629272e-01,9.974717497825622559e-01
5.134333610534667969e+00,-1.837911009788513184e-01,1.186111688613891602e+00
3.950475454330444336e+00,-8.482470363378524780e-02,-1.058769106864929199e+00
4.663989543914794922e+00,-1.001452952623367310e-01,-1.077013373374938965e+00
5.072105884552001953e+00,-1.089083775877952576e-01,-9.861432313919067383e-01
5.077941417694091797e+00,-1.090336814522743225e-01,-8.044511079788208008e-01
5.083559036254882812e+00,-1.091542989015579224e-01,-6.243255138397216797e-01
5.089636325836181641e+00,-1.092847883701324463e-01,-4.453874230384826660e-01
5.095049858093261719e+00,-1.094010323286056519e-01,-2.670814096927642822e-01
5.100659370422363281e+00,-1.095214709639549255e-01,-8.905272930860519409e-02
5.106478691101074219e+00,-1.096464321017265320e-01,8.915433287620544434e-02
5.111735820770263672e+00,-1.097593083977699280e-01,2.679560780525207520e-01
5.117473602294921875e+00,-1.098825111985206604e-01,4.478234648704528809e-01
5.123098850250244141e+00,-1.100033000111579895e-01,6.291815042495727539e-01
5.129981994628906250e+00,-1.101510897278785706e-01,8.126953244209289551e-01
5.134917736053466797e+00,-1.102570816874504089e-01,9.983555078506469727e-01
5.141025543212890625e+00,-1.103882268071174622e-01,1.187171101570129395e+00
3.951070785522460938e+00,-2.827529981732368469e-02,-1.058711647987365723e+00
4.703380107879638672e+00,-3.365909680724143982e-02,-1.085886955261230469e+00
5.078065395355224609e+00,-3.634048253297805786e-02,-9.870997071266174316e-01
5.083898067474365234e+00,-3.638222441077232361e-02,-8.052297830581665039e-01
5.089514255523681641e+00,-3.642241284251213074e-02,-6.249288320541381836e-01
5.095593452453613281e+00,-3.646592050790786743e-02,-4.458174109458923340e-01
5.101009845733642578e+00,-3.650468215346336365e-02,-2.673390507698059082e-01
5.106625080108642578e+00,-3.654486685991287231e-02,-8.913862705230712891e-02
5.112453460693359375e+00,-3.658657521009445190e-02,8.924036473035812378e-02
5.117720603942871094e+00,-3.662426769733428955e-02,2.682148516178131104e-01
5.123471260070800781e+00,-3.666542470455169678e-02,4.482564628124237061e-01
5.129112243652343750e+00,-3.670579195022583008e-02,6.297909617424011230e-01
5.134416103363037109e+00,-3.674374893307685852e-02,8.132312297821044922e-01
5.140969276428222656e+00,-3.679064661264419556e-02,9.993273019790649414e-01
5.147100448608398438e+00,-3.683452308177947998e-02,1.188330411911010742e+00
3.951651096343994141e+00,2.827945165336132050e-02,-1.058867216110229492e+00
4.704200744628906250e+00,3.366497159004211426e-02,-1.086076498031616211e+00
5.084700584411621094e+00,3.638796508312225342e-02,-9.883894920349121094e-01
5.090539932250976562e+00,3.642975538969039917e-02,-8.062818050384521484e-01
5.096162319183349609e+00,3.646998852491378784e-02,-6.257451176643371582e-01
5.102248668670654297e+00,3.651354834437370300e-02,-4.463996887207031250e-01
5.107671260833740234e+00,3.655235469341278076e-02,-2.676881849765777588e-01
5.113292694091796875e+00,3.659258037805557251e-02,-8.925500512123107910e-02
5.119127750396728516e+00,3.663433715701103210e-02,8.935686200857162476e-02
5.124401569366455078e+00,3.667208179831504822e-02,2.685649991035461426e-01
5.130158901214599609e+00,3.671328350901603699e-02,4.488415718078613281e-01
5.135806560516357422e+00,3.675369918346405029e-02,6.306129693984985352e-01
5.141117095947265625e+00,3.679170086979866028e-02,8.142925500869750977e-01
5.147678375244140625e+00,3.683865815401077271e-02,1.000631332397460938e+00
5.153815746307373047e+00,3.688257932662963867e-02,1.189880728721618652e+00
3.952086687088012695e+00,8.485929667949676514e-02,-1.059200882911682129e+00
4.666231155395507812e+00,1.001934260129928589e-01,-1.077530980110168457e+00
5.090536117553710938e+00,1.093041151762008667e-01,-9.897266030311584473e-01
5.096391201019287109e+00,1.094298288226127625e-01,-8.073738813400268555e-01
5.102026462554931641e+00,1.095508337020874023e-01,-6.265935301780700684e-01
5.108122825622558594e+00,1.096817404031753540e-01,-4.470052123069763184e-01
5.113554477691650391e+00,1.097983568906784058e-01,-2.680514156818389893e-01
5.119181632995605469e+00,1.099191829562187195e-01,-8.937610685825347900e-02
5.125020027160644531e+00,1.100445464253425598e-01,8.947804570198059082e-02
5.130294799804687500e+00,1.101578027009963989e-01,2.689289152622222900e-01
5.136050701141357422e+00,1.102814003825187683e-01,4.494491219520568848e-01
5.141694545745849609e+00,1.104025915265083313e-01,6.314653158187866211e-01
5.148600101470947266e+00,1.105508580803871155e-01,8.156448602676391602e-01
5.153552055358886719e+00,1.106571853160858154e-01,1.001978397369384766e+00
5.159679412841796875e+00,1.107887551188468933e-01,1.191478610038757324e+00
3.952688455581665039e+00,1.414923518896102905e-01,-1.059796333312988281e+00
4.667092323303222656e+00,1.670655012130737305e-01,-1.078171610832214355e+00
5.097289562225341797e+00,1.824650615453720093e-01,-9.914458394050598145e-01
5.103172779083251953e+00,1.826756447553634644e-01,-8.087796568870544434e-01
5.108830928802490234e+00,1.828781962394714355e-01,-6.276863813400268555e-01
5.114946365356445312e+00,1.830970942974090576e-01,-4.477857649326324463e-01
5.120388984680175781e+00,1.832919269800186157e-01,-2.685196995735168457e-01
5.126022815704345703e+00,1.834935992956161499e-01,-8.953223377466201782e-02
5.131862640380859375e+00,1.837026476860046387e-01,8.963423967361450195e-02
5.137133598327636719e+00,1.838913261890411377e-01,2.693977952003479004e-01
5.142879962921142578e+00,1.840970367193222046e-01,4.502312242984771729e-01
5.148509025573730469e+00,1.842985153198242188e-01,6.325613260269165039e-01
5.155395030975341797e+00,1.845450252294540405e-01,8.170561194419860840e-01
5.160320758819580078e+00,1.847213506698608398e-01,1.003705620765686035e+00
5.166418552398681641e+00,1.849396228790283203e-01,1.193523764610290527e+00
3.952959775924682617e+00,1.981841325759887695e-01,-1.060521006584167480e+00
4.667559623718261719e+00,2.340110540390014648e-01,-1.078942894935607910e+00
5.102993488311767578e+00,2.558418214321136475e-01,-9.931657910346984863e-01
5.108911037445068359e+00,2.561385035514831543e-01,-8.101871609687805176e-01
5.114596843719482422e+00,2.564235627651214600e-01,-6.287813782691955566e-01
5.120731353759765625e+00,2.567311227321624756e-01,-4.485679864883422852e-01
5.126187801361083984e+00,2.570046782493591309e-01,-2.689891457557678223e-01
5.131827354431152344e+00,2.572874128818511963e-01,-8.968875557184219360e-02
5.137665748596191406e+00,2.575801312923431396e-01,8.979079127311706543e-02
5.142926692962646484e+00,2.578439116477966309e-01,2.698675096035003662e-01
5.148657798767089844e+00,2.581312060356140137e-01,4.510142803192138672e-01
5.154263496398925781e+00,2.584122717380523682e-01,6.336579322814941406e-01
5.161118984222412109e+00,2.587559819221496582e-01,8.184664249420166016e-01
5.166008949279785156e+00,2.590011358261108398e-01,1.005430102348327637e+00
5.172062873840332031e+00,2.593046426773071289e-01,1.195562720298767090e+00
3.953572988510131836e+00,2.549871802330017090e-01,-1.061555981636047363e+00
4.668462753295898438e+00,3.010942637920379639e-01,-1.080037117004394531e+00
5.109852790832519531e+00,3.295618593692779541e-01,-9.953168630599975586e-01
5.115819931030273438e+00,3.299467265605926514e-01,-8.119485378265380859e-01
5.121545314788818359e+00,3.303159773349761963e-01,-6.301522850990295410e-01
5.127707481384277344e+00,3.307134509086608887e-01,-4.495477080345153809e-01
5.133182525634765625e+00,3.310665190219879150e-01,-2.695772349834442139e-01
5.138828277587890625e+00,3.314306735992431641e-01,-8.988481014966964722e-02
5.144662857055664062e+00,3.318069577217102051e-01,8.998686820268630981e-02
5.149909496307373047e+00,3.321453332901000977e-01,2.704556584358215332e-01
5.155614376068115234e+00,3.325132727622985840e-01,4.519942700862884521e-01
5.161183834075927734e+00,3.328725099563598633e-01,6.350294351577758789e-01
5.167993068695068359e+00,3.333116471767425537e-01,8.202290534973144531e-01
5.172825336456298828e+00,3.336233198642730713e-01,1.007583022117614746e+00
5.178812980651855469e+00,3.340094983577728271e-01,1.198105454444885254e+00
3.953666210174560547e+00,3.118717372417449951e-01,-1.062670826911926270e+00
4.668743610382080078e+00,3.682782351970672607e-01,-1.081210970878601074e+00
5.115405559539794922e+00,4.035116732120513916e-01,-9.974213242530822754e-01
5.121425628662109375e+00,4.039865136146545410e-01,-8.136726021766662598e-01
5.127192020416259766e+00,4.044414162635803223e-01,-6.314946413040161133e-01
5.133384704589843750e+00,4.049298763275146484e-01,-4.505073726177215576e-01
5.138875961303710938e+00,4.053630530834197998e-01,-2.701532840728759766e-01
5.144528388977050781e+00,4.058088958263397217e-01,-9.007688611745834351e-02
5.150355815887451172e+00,4.062685966491699219e-01,9.017892181873321533e-02
5.155584335327148438e+00,4.066810309886932373e-01,2.710316479206085205e-01
5.161258220672607422e+00,4.071286022663116455e-01,4.529535770416259766e-01
5.166786193847656250e+00,4.075646400451660156e-01,6.363712549209594727e-01
5.173540115356445312e+00,4.080974161624908447e-01,8.219523429870605469e-01
5.178308010101318359e+00,4.084734916687011719e-01,1.009686231613159180e+00
5.184218406677246094e+00,4.089397490024566650e-01,1.200587153434753418e+00
3.927320241928100586e+00,3.664207756519317627e-01,-1.056890964508056641e+00
4.669662475585937500e+00,4.356816411018371582e-01,-1.082756996154785156e+00
5.123703956604003906e+00,4.780439138412475586e-01,-1.000271081924438477e+00
5.128433704376220703e+00,4.784852266311645508e-01,-8.157905936241149902e-01
5.134255409240722656e+00,4.790284037590026855e-01,-6.331442594528198242e-01
5.140487670898437500e+00,4.796098768711090088e-01,-4.516869485378265381e-01
5.146001815795898438e+00,4.801243543624877930e-01,-2.708614170551300049e-01
5.151660919189453125e+00,4.806523025035858154e-01,-9.031298011541366577e-02
5.157479763031005859e+00,4.811952114105224609e-01,9.041498601436614990e-02
5.162682533264160156e+00,4.816806614398956299e-01,2.717393934726715088e-01
5.168314933776855469e+00,4.822061657905578613e-01,4.541320800781250000e-01
5.175101280212402344e+00,4.828393459320068359e-01,6.381812691688537598e-01
5.180463790893554688e+00,4.833396673202514648e-01,8.240671753883361816e-01
5.187028884887695312e+00,4.839521646499633789e-01,1.012633681297302246e+00
5.193107604980468750e+00,4.845193028450012207e-01,1.204128503799438477e+00
3.927204370498657227e+00,4.231869876384735107e-01,-1.058381438255310059e+00
4.669728755950927734e+00,5.031998157501220703e-01,-1.084331393241882324e+00
5.129071235656738281e+00,5.526975393295288086e-01,-1.002760648727416992e+00
5.134947776794433594e+00,5.533307790756225586e-01,-8.180028200149536133e-01
5.140530586242675781e+00,5.539323687553405762e-01,-6.348307728767395020e-01
5.146021366119384766e+00,5.545240640640258789e-01,-4.528242051601409912e-01
5.151557922363281250e+00,5.551206469535827637e-01,-2.715442478656768799e-01
5.157222747802734375e+00,5.557311177253723145e-01,-9.054065495729446411e-02
5.163028717041015625e+00,5.563567280769348145e-01,9.064258635044097900e-02
5.168929576873779297e+00,5.569926500320434570e-01,2.724599540233612061e-01
5.174815177917480469e+00,5.576268434524536133e-01,4.553579390048980713e-01
5.180515289306640625e+00,5.582410693168640137e-01,6.397687196731567383e-01
5.185800552368164062e+00,5.588105916976928711e-01,8.261038064956665039e-01
5.192270278930664062e+00,5.595077872276306152e-01,1.015116453170776367e+00
5.198239803314208984e+00,5.601509809494018555e-01,1.207053899765014648e+00
3.927754640579223633e+00,4.802067279815673828e-01,-1.060273528099060059e+00
4.670627593994140625e+00,5.710302591323852539e-01,-1.086326718330383301e+00
5.136041641235351562e+00,6.279317140579223633e-01,-1.005777597427368164e+00
5.142010688781738281e+00,6.286615133285522461e-01,-8.204774260520935059e-01
5.147666454315185547e+00,6.293529272079467773e-01,-6.367592811584472656e-01
5.153205871582031250e+00,6.300302147865295410e-01,-4.542034268379211426e-01
5.158773422241210938e+00,6.307108998298645020e-01,-2.723725438117980957e-01
5.164444446563720703e+00,6.314042210578918457e-01,-9.081680327653884888e-02
5.170236587524414062e+00,6.321123838424682617e-01,9.091866016387939453e-02
5.176100254058837891e+00,6.328293085098266602e-01,2.732873857021331787e-01
5.181927680969238281e+00,6.335417032241821289e-01,4.567349553108215332e-01
5.187548637390136719e+00,6.342289447784423828e-01,6.416926980018615723e-01
5.192735671997070312e+00,6.348631381988525391e-01,8.285712599754333496e-01
5.199083805084228516e+00,6.356392502784729004e-01,1.018122911453247070e+00
5.204913139343261719e+00,6.363519430160522461e-01,1.210594534873962402e+00
3.927404403686523438e+00,5.373189449310302734e-01,-1.062146306037902832e+00
4.632376194000244141e+00,6.337680816650390625e-01,-1.079429268836975098e+00
5.141179084777832031e+00,7.033787369728088379e-01,-1.008651733398437500e+00
5.147236824035644531e+00,7.042075991630554199e-01,-8.228353857994079590e-01
5.152961254119873047e+00,7.049907445907592773e-01,-6.385970711708068848e-01
5.158550739288330078e+00,7.057554125785827637e-01,-4.555182456970214844e-01
5.164144039154052734e+00,7.065206170082092285e-01,-2.731620669364929199e-01
5.169821262359619141e+00,7.072973847389221191e-01,-9.108005464076995850e-02
5.175595760345458984e+00,7.080873847007751465e-01,9.118178486824035645e-02
5.181421756744384766e+00,7.088844776153564453e-01,2.740759849548339844e-01
5.187189579010009766e+00,7.096735835075378418e-01,4.580471515655517578e-01
5.192729949951171875e+00,7.104315757751464844e-01,6.435255408287048340e-01
5.199419498443603516e+00,7.113468050956726074e-01,8.311772942543029785e-01
5.204042434692382812e+00,7.119792699813842773e-01,1.020985007286071777e+00
5.209730148315429688e+00,7.127574086189270020e-01,1.213963389396667480e+00
3.901281118392944336e+00,5.907425880432128906e-01,-1.057259798049926758e+00
4.633186817169189453e+00,7.015697360038757324e-01,-1.081847310066223145e+00
5.148130416870117188e+00,7.795438766479492188e-01,-1.012101054191589355e+00
5.154301166534423828e+00,7.804782986640930176e-01,-8.256658911705017090e-01
5.160112857818603516e+00,7.813583612442016602e-01,-6.408037543296813965e-01
5.165763378143310547e+00,7.822139263153076172e-01,-4.570969939231872559e-01
5.171391487121582031e+00,7.830661535263061523e-01,-2.741102278232574463e-01
5.177074909210205078e+00,7.839267849922180176e-01,-9.139616787433624268e-02
5.182829856872558594e+00,7.847982048988342285e-01,9.149776399135589600e-02
5.188608169555664062e+00,7.856732010841369629e-01,2.750228047370910645e-01
