2.672756671905517578e+00,-1.861207604408264160e+00,6.330859661102294922e-01
2.676435708999633789e+00,-1.863769531250000000e+00,7.529599666595458984e-01
2.720053672790527344e+00,-1.836900949478149414e+00,-8.794639110565185547e-01
2.723550796508789062e+00,-1.839262723922729492e+00,-7.587307691574096680e-01
2.727378606796264648e+00,-1.841847658157348633e+00,-6.397139430046081543e-01
2.730397939682006836e+00,-1.843886613845825195e+00,-5.218270421028137207e-01
2.733805894851684570e+00,-1.846188068389892578e+00,-4.050415456295013428e-01
2.737115859985351562e+00,-1.848423361778259277e+00,-2.889569103717803955e-01
2.740398883819580078e+00,-1.850640416145324707e+00,-1.732996404170989990e-01
2.743697404861450195e+00,-1.852868080139160156e+00,-5.778908729553222656e-02
2.747015476226806641e+00,-1.855108857154846191e+00,5.785897374153137207e-02
2.750332117080688477e+00,-1.857348442077636719e+00,1.739278137683868408e-01
2.753588438034057617e+00,-1.859547615051269531e+00,2.906959354877471924e-01
2.757292032241821289e+00,-1.862048745155334473e+00,4.085212647914886475e-01
2.760257959365844727e+00,-1.864051699638366699e+00,5.275338292121887207e-01
2.763648271560668945e+00,-1.866341114044189453e+00,6.482210755348205566e-01
2.767645359039306641e+00,-1.869040489196777344e+00,7.710146903991699219e-01
2.816079854965209961e+00,-1.843620657920837402e+00,-9.018872380256652832e-01
2.819449424743652344e+00,-1.845826625823974609e+00,-7.780064940452575684e-01
2.822609186172485352e+00,-1.847895264625549316e+00,-6.557794809341430664e-01
2.826226949691772461e+00,-1.850263833999633789e+00,-5.350253582000732422e-01
2.829696893692016602e+00,-1.852535367012023926e+00,-4.152776002883911133e-01
2.833341836929321289e+00,-1.854921698570251465e+00,-2.962822318077087402e-01
2.836673021316528320e+00,-1.857102394104003906e+00,-1.776887178421020508e-01
2.840085983276367188e+00,-1.859336853027343750e+00,-5.925264954566955566e-02
2.843585729598999023e+00,-1.861628055572509766e+00,5.932566523551940918e-02
2.846798658370971680e+00,-1.863731503486633301e+00,1.783229857683181763e-01
2.850223541259765625e+00,-1.865973711013793945e+00,2.980475425720214844e-01
2.853559494018554688e+00,-1.868157625198364258e+00,4.187795817852020264e-01
2.857433319091796875e+00,-1.870693683624267578e+00,5.409329533576965332e-01
2.861194610595703125e+00,-1.873156189918518066e+00,6.647440791130065918e-01
2.864639759063720703e+00,-1.875411748886108398e+00,7.904764413833618164e-01
2.917610406875610352e+00,-1.850984096527099609e+00,-9.258238077163696289e-01
2.921762466430664062e+00,-1.853618383407592773e+00,-7.988359928131103516e-01
2.924843549728393555e+00,-1.855572938919067383e+00,-6.732921004295349121e-01
2.928979396820068359e+00,-1.858196854591369629e+00,-5.493858456611633301e-01
2.932374954223632812e+00,-1.860351085662841797e+00,-4.263947904109954834e-01
2.935797691345214844e+00,-1.862522482872009277e+00,-3.041771054267883301e-01
2.939401865005493164e+00,-1.864809155464172363e+00,-1.824329793453216553e-01
2.942937135696411133e+00,-1.867051959037780762e+00,-6.083466112613677979e-02
2.946410655975341797e+00,-1.869255542755126953e+00,6.090646237134933472e-02
2.950087070465087891e+00,-1.871587991714477539e+00,1.830961555242538452e-01
2.953834056854248047e+00,-1.873965263366699219e+00,3.060458600521087646e-01
2.956901311874389648e+00,-1.875911116600036621e+00,4.299611747264862061e-01
2.961107254028320312e+00,-1.878579378128051758e+00,5.554119944572448730e-01
2.964334249496459961e+00,-1.880626678466796875e+00,6.823827624320983887e-01
2.968091487884521484e+00,-1.883010268211364746e+00,8.115027546882629395e-01
3.027202129364013672e+00,-1.860288739204406738e+00,-9.520528912544250488e-01
3.030436754226684570e+00,-1.862276315689086914e+00,-8.211764693260192871e-01
3.034257650375366211e+00,-1.864624381065368652e+00,-6.922642588615417480e-01
3.038429498672485352e+00,-1.867188096046447754e+00,-5.648444890975952148e-01
3.041896343231201172e+00,-1.869318604469299316e+00,-4.383846819400787354e-01
3.045690536499023438e+00,-1.871650218963623047e+00,-3.127553761005401611e-01
3.049360752105712891e+00,-1.873905777931213379e+00,-1.875736266374588013e-01
3.053025960922241211e+00,-1.876157999038696289e+00,-6.254882365465164185e-02
3.056694269180297852e+00,-1.878412246704101562e+00,6.262398511171340942e-02
3.060263633728027344e+00,-1.880605816841125488e+00,1.882442831993103027e-01
3.064203023910522461e+00,-1.883026599884033203e+00,3.146563470363616943e-01
3.067500352859497070e+00,-1.885052919387817383e+00,4.420746266841888428e-01
3.071231126785278320e+00,-1.887345433235168457e+00,5.709422826766967773e-01
3.075657606124877930e+00,-1.890065789222717285e+00,7.017096281051635742e-01
3.079879999160766602e+00,-1.892660498619079590e+00,8.345744609832763672e-01
3.143862724304199219e+00,-1.870526671409606934e+00,-9.802217483520507812e-01
3.147961854934692383e+00,-1.872965693473815918e+00,-8.456718921661376953e-01
3.152451038360595703e+00,-1.875636577606201172e+00,-7.130318880081176758e-01
3.155954360961914062e+00,-1.877720952033996582e+00,-5.816363692283630371e-01
3.159902572631835938e+00,-1.880070090293884277e+00,-4.514667689800262451e-01
3.163703918457031250e+00,-1.882331728935241699e+00,-3.220742046833038330e-01
3.167443990707397461e+00,-1.884557127952575684e+00,-1.931581646203994751e-01
3.171249151229858398e+00,-1.886821031570434570e+00,-6.441102176904678345e-02
3.175126791000366211e+00,-1.889128208160400391e+00,6.448978185653686523e-02
3.178970575332641602e+00,-1.891415119171142578e+00,1.938610821962356567e-01
3.182713270187377930e+00,-1.893641948699951172e+00,3.240094184875488281e-01
3.186966896057128906e+00,-1.896172761917114258e+00,4.553335607051849365e-01
3.190316438674926758e+00,-1.898165702819824219e+00,5.879693031311035156e-01
3.194164514541625977e+00,-1.900455117225646973e+00,7.224667668342590332e-01
3.198735952377319336e+00,-1.903175115585327148e+00,8.593119382858276367e-01
3.261804103851318359e+00,-1.878017902374267578e+00,-1.008510112762451172e+00
3.265830516815185547e+00,-1.880336165428161621e+00,-8.700168728828430176e-01
3.270328998565673828e+00,-1.882926344871520996e+00,-7.335228919982910156e-01
3.273863315582275391e+00,-1.884961128234863281e+00,-5.983330607414245605e-01
3.277926206588745117e+00,-1.887300491333007812e+00,-4.644221365451812744e-01
3.281902551651000977e+00,-1.889589905738830566e+00,-3.313198387622833252e-01
3.285882711410522461e+00,-1.891881465911865234e+00,-1.987091153860092163e-01
3.289830207824707031e+00,-1.894154191017150879e+00,-6.626205891370773315e-02
3.293751478195190430e+00,-1.896411895751953125e+00,6.634103506803512573e-02
3.297700166702270508e+00,-1.898685455322265625e+00,1.994237452745437622e-01
3.301609277725219727e+00,-1.900936126708984375e+00,3.333092927932739258e-01
3.306118726730346680e+00,-1.903532624244689941e+00,4.684164822101593018e-01
3.309749603271484375e+00,-1.905623078346252441e+00,6.048916578292846680e-01
3.313966274261474609e+00,-1.908050894737243652e+00,7.433105707168579102e-01
3.317791700363159180e+00,-1.910253405570983887e+00,8.838593363761901855e-01
3.388334274291992188e+00,-1.886820793151855469e+00,-1.039175033569335938e+00
3.392287254333496094e+00,-1.889021992683410645e+00,-8.964101076126098633e-01
3.396800279617309570e+00,-1.891535043716430664e+00,-7.557398080825805664e-01
3.400982141494750977e+00,-1.893863797187805176e+00,-6.165480017662048340e-01
3.405003070831298828e+00,-1.896102905273437500e+00,-4.785323441028594971e-01
3.408998012542724609e+00,-1.898327469825744629e+00,-3.413725197315216064e-01
3.413061857223510742e+00,-1.900590538978576660e+00,-2.047339975833892822e-01
3.417159795761108398e+00,-1.902872323989868164e+00,-6.827108561992645264e-02
3.421296834945678711e+00,-1.905176162719726562e+00,6.835373491048812866e-02
3.425529956817626953e+00,-1.907533407211303711e+00,2.054819017648696899e-01
3.429786920547485352e+00,-1.909903883934020996e+00,3.434543013572692871e-01
3.433955669403076172e+00,-1.912225365638732910e+00,4.826012849807739258e-01
3.437883138656616211e+00,-1.914412379264831543e+00,6.232376098632812500e-01
3.442490100860595703e+00,-1.916977882385253906e+00,7.659052014350891113e-01
3.446753740310668945e+00,-1.919352054595947266e+00,9.108028411865234375e-01
3.506703138351440430e+00,-1.887497901916503906e+00,-1.067082762718200684e+00
3.528410434722900391e+00,-1.899181962013244629e+00,-9.251025319099426270e-01
3.532944202423095703e+00,-1.901622295379638672e+00,-7.798942327499389648e-01
3.537198781967163086e+00,-1.903912305831909180e+00,-6.362366080284118652e-01
3.541355371475219727e+00,-1.906149625778198242e+00,-4.938100874423980713e-01
3.545832395553588867e+00,-1.908559322357177734e+00,-3.523032665252685547e-01
3.549987077713012695e+00,-1.910795688629150391e+00,-2.112852632999420166e-01
3.554246187210083008e+00,-1.913088083267211914e+00,-7.045561820268630981e-02
3.558616399765014648e+00,-1.915440440177917480e+00,7.054225355386734009e-02
3.562694549560546875e+00,-1.917635440826416016e+00,2.120415717363357544e-01
3.567142486572265625e+00,-1.920029640197753906e+00,3.544205725193023682e-01
3.571567535400390625e+00,-1.922411441802978516e+00,4.980228841304779053e-01
3.575808525085449219e+00,-1.924694180488586426e+00,6.431813240051269531e-01
3.580831050872802734e+00,-1.927397608757019043e+00,7.904652357101440430e-01
3.585559844970703125e+00,-1.929942846298217773e+00,9.400863051414489746e-01
3.550952434539794922e+00,-1.846264719963073730e+00,-1.072396397590637207e+00
3.675457477569580078e+00,-1.910999298095703125e+00,-9.563867449760437012e-01
3.680019140243530273e+00,-1.913371086120605469e+00,-8.062326908111572266e-01
3.684359788894653320e+00,-1.915627837181091309e+00,-6.577072143554687500e-01
3.689150571823120117e+00,-1.918118715286254883e+00,-5.105381011962890625e-01
3.693381309509277344e+00,-1.920318484306335449e+00,-3.641949892044067383e-01
3.697926998138427734e+00,-1.922681927680969238e+00,-2.184299379587173462e-01
3.702360391616821289e+00,-1.924987077713012695e+00,-7.283803820610046387e-02
3.706693649291992188e+00,-1.927240014076232910e+00,7.292328774929046631e-02
3.711363554000854492e+00,-1.929668068885803223e+00,2.192236036062240601e-01
3.715532302856445312e+00,-1.931835532188415527e+00,3.663792610168457031e-01
3.720227479934692383e+00,-1.934276819229125977e+00,5.148388743400573730e-01
3.724800586700439453e+00,-1.936654448509216309e+00,6.649264097213745117e-01
3.729040384292602539e+00,-1.938858866691589355e+00,8.169724345207214355e-01
3.734089136123657227e+00,-1.941483974456787109e+00,9.716432094573974609e-01
3.573506832122802734e+00,-1.793494939804077148e+00,-1.071345329284667969e+00
3.834906816482543945e+00,-1.924688100814819336e+00,-9.906069040298461914e-01
3.839506387710571289e+00,-1.926996588706970215e+00,-8.350454568862915039e-01
3.844650506973266602e+00,-1.929578304290771484e+00,-6.813210844993591309e-01
3.848929166793823242e+00,-1.931725740432739258e+00,-5.287691950798034668e-01
3.853704690933227539e+00,-1.934122443199157715e+00,-3.772355914115905762e-01
3.858372926712036133e+00,-1.936465382575988770e+00,-2.262467741966247559e-01
3.862995386123657227e+00,-1.938785433769226074e+00,-7.544459402561187744e-02
3.867582559585571289e+00,-1.941087603569030762e+00,7.553417980670928955e-02
3.872092247009277344e+00,-1.943350911140441895e+00,2.270512431859970093e-01
3.877152681350708008e+00,-1.945890784263610840e+00,3.795309066772460938e-01
3.881429672241210938e+00,-1.948037266731262207e+00,5.332341194152832031e-01
3.886355161666870117e+00,-1.950509309768676758e+00,6.887116432189941406e-01
3.891001701354980469e+00,-1.952841281890869141e+00,8.462449908256530762e-01
3.896571159362792969e+00,-1.955636620521545410e+00,1.006535649299621582e+00
3.598437786102294922e+00,-1.741987466812133789e+00,-1.071234822273254395e+00
3.994501829147338867e+00,-1.933720231056213379e+00,-1.024577856063842773e+00
4.000111579895019531e+00,-1.936435818672180176e+00,-8.638584613800048828e-01
4.004468917846679688e+00,-1.938545227050781250e+00,-7.046536207199096680e-01
4.009464263916015625e+00,-1.940963387489318848e+00,-5.469508767127990723e-01
4.014305114746093750e+00,-1.943306922912597656e+00,-3.901938199996948242e-01
4.019098758697509766e+00,-1.945627331733703613e+00,-2.340144366025924683e-01
4.023909091949462891e+00,-1.947956085205078125e+00,-7.803471386432647705e-02
4.028748989105224609e+00,-1.950299143791198730e+00,7.812857627868652344e-02
4.033573627471923828e+00,-1.952634811401367188e+00,2.348572611808776855e-01
4.038302421569824219e+00,-1.954923868179321289e+00,3.925263881683349609e-01
4.043752670288085938e+00,-1.957562327384948730e+00,5.516283512115478516e-01
4.048056602478027344e+00,-1.959645748138427734e+00,7.123235464096069336e-01
4.053082466125488281e+00,-1.962078809738159180e+00,8.752979636192321777e-01
4.059141635894775391e+00,-1.965012073516845703e+00,1.041157722473144531e+00
3.620959997177124023e+00,-1.689356088638305664e+00,-1.070631384849548340e+00
4.182775497436523438e+00,-1.951470851898193359e+00,-1.065595746040344238e+00
4.188497066497802734e+00,-1.954140186309814453e+00,-8.984094262123107910e-01
4.193757057189941406e+00,-1.956594228744506836e+00,-7.329589128494262695e-01
4.198764801025390625e+00,-1.958930492401123047e+00,-5.688911080360412598e-01
4.203681945800781250e+00,-1.961224555969238281e+00,-4.058312177658081055e-01
4.208622455596923828e+00,-1.963529586791992188e+00,-2.433882206678390503e-01
4.213652610778808594e+00,-1.965876340866088867e+00,-8.116037398576736450e-02
4.218787193298339844e+00,-1.968271851539611816e+00,8.125926554203033447e-02
4.223988056182861328e+00,-1.970698356628417969e+00,2.442768216133117676e-01
4.229156494140625000e+00,-1.973109722137451172e+00,4.082905948162078857e-01
4.234158992767333984e+00,-1.975443601608276367e+00,5.736866593360900879e-01
4.238809585571289062e+00,-1.977613329887390137e+00,7.408328652381896973e-01
4.244295597076416016e+00,-1.980172991752624512e+00,9.103779196739196777e-01
4.249321460723876953e+00,-1.982517719268798828e+00,1.082548856735229492e+00
3.645691156387329102e+00,-1.637774944305419922e+00,-1.070902824401855469e+00
4.312181949615478516e+00,-1.937186598777770996e+00,-1.091387391090393066e+00
4.378209590911865234e+00,-1.966848492622375488e+00,-9.329676032066345215e-01
4.383659839630126953e+00,-1.969296932220458984e+00,-7.611445188522338867e-01
4.388914585113525391e+00,-1.971657514572143555e+00,-5.907703042030334473e-01
4.394146442413330078e+00,-1.974008083343505859e+00,-4.214481115341186523e-01
4.399595737457275391e+00,-1.976455807685852051e+00,-2.527704238891601562e-01
4.404848098754882812e+00,-1.978815436363220215e+00,-8.428885787725448608e-02
4.409930229187011719e+00,-1.981098532676696777e+00,8.438610285520553589e-02
4.415263652801513672e+00,-1.983494520187377930e+00,2.536706030368804932e-01
4.420634746551513672e+00,-1.985907435417175293e+00,4.239886105060577393e-01
4.425903320312500000e+00,-1.988274335861206055e+00,5.957491993904113770e-01
4.432148456573486328e+00,-1.991079926490783691e+00,7.695637345314025879e-01
4.436788558959960938e+00,-1.993164420127868652e+00,9.454504251480102539e-01
4.442291736602783203e+00,-1.995636582374572754e+00,1.124317407608032227e+00
3.670373439788818359e+00,-1.586128473281860352e+00,-1.071374535560607910e+00
4.346441268920898438e+00,-1.878286838531494141e+00,-1.093141794204711914e+00
4.586566925048828125e+00,-1.982055544853210449e+00,-9.712222218513488770e-01
4.591993808746337891e+00,-1.984400749206542969e+00,-7.923050522804260254e-01
4.597282886505126953e+00,-1.986686348915100098e+00,-6.149270534515380859e-01
4.602615833282470703e+00,-1.988991022109985352e+00,-4.386671781539916992e-01
4.608250617980957031e+00,-1.991425991058349609e+00,-2.630937099456787109e-01
4.613745212554931641e+00,-1.993800520896911621e+00,-8.773113042116165161e-02
4.619131088256835938e+00,-1.996127963066101074e+00,8.783353865146636963e-02
4.624854087829589844e+00,-1.998601198196411133e+00,2.640416622161865234e-01
4.630686283111572266e+00,-2.001121520996093750e+00,4.413425326347351074e-01
4.636478900909423828e+00,-2.003624677658081055e+00,6.201698780059814453e-01
4.642020702362060547e+00,-2.006019592285156250e+00,8.009366989135742188e-01
4.647053241729736328e+00,-2.008194446563720703e+00,9.840304255485534668e-01
4.653064250946044922e+00,-2.010792016983032227e+00,1.170258402824401855e+00
3.695084095001220703e+00,-1.534426450729370117e+00,-1.072066664695739746e+00
4.381023883819580078e+00,-1.819270849227905273e+00,-1.095178127288818359e+00
4.814079761505126953e+00,-1.999102234840393066e+00,-1.013235926628112793e+00
4.819737911224365234e+00,-2.001451969146728516e+00,-8.265725970268249512e-01
4.825988769531250000e+00,-2.004047632217407227e+00,-6.416159272193908691e-01
4.831434249877929688e+00,-2.006308794021606445e+00,-4.576915800571441650e-01
4.837272167205810547e+00,-2.008733272552490234e+00,-2.744993865489959717e-01
4.843033790588378906e+00,-2.011125802993774414e+00,-9.153433889150619507e-02
4.848749160766601562e+00,-2.013499259948730469e+00,9.164235740900039673e-02
4.854897022247314453e+00,-2.016052246093750000e+00,2.754995226860046387e-01
4.860316276550292969e+00,-2.018302679061889648e+00,4.604276418685913086e-01
4.866419792175292969e+00,-2.020837068557739258e+00,6.469912528991699219e-01
4.872334957122802734e+00,-2.023293495178222656e+00,8.355928659439086914e-01
4.877786159515380859e+00,-2.025557041168212891e+00,1.026644468307495117e+00
4.884342670440673828e+00,-2.028279781341552734e+00,1.220998883247375488e+00
3.695971012115478516e+00,-1.473136425018310547e+00,-1.066097140312194824e+00
4.415760993957519531e+00,-1.760029673576354980e+00,-1.097451806068420410e+00
5.065022945404052734e+00,-2.018811941146850586e+00,-1.059862375259399414e+00
5.071917533874511719e+00,-2.021559953689575195e+00,-8.647697567939758301e-01
5.077569484710693359e+00,-2.023812770843505859e+00,-6.711435914039611816e-01
5.083845138549804688e+00,-2.026314020156860352e+00,-4.788063764572143555e-01
5.089907169342041016e+00,-2.028730392456054688e+00,-2.871583700180053711e-01
5.095962047576904297e+00,-2.031143665313720703e+00,-9.575544297695159912e-02
5.102039337158203125e+00,-2.033565759658813477e+00,9.586963802576065063e-02
5.107959747314453125e+00,-2.035925626754760742e+00,2.881768345832824707e-01
5.114563465118408203e+00,-2.038557767868041992e+00,4.816994667053222656e-01
5.120035171508789062e+00,-2.040738582611083984e+00,6.767566204071044922e-01
5.126349449157714844e+00,-2.043255329132080078e+00,8.740504980087280273e-01
5.134009838104248047e+00,-2.046308755874633789e+00,1.074298024177551270e+00
5.139390945434570312e+00,-2.048453569412231445e+00,1.277296066284179688e+00
3.720466852188110352e+00,-1.421537399291992188e+00,-1.067184567451477051e+00
4.416186809539794922e+00,-1.687362074851989746e+00,-1.091443419456481934e+00
5.344639301300048828e+00,-2.042110443115234375e+00,-1.112142205238342285e+00
5.350582122802734375e+00,-2.044381141662597656e+00,-9.072003364562988281e-01
5.357341766357421875e+00,-2.046963930130004883e+00,-7.041785717010498047e-01
5.363807201385498047e+00,-2.049434423446655273e+00,-5.023595094680786133e-01
5.370119571685791016e+00,-2.051846027374267578e+00,-3.012793660163879395e-01
5.376498699188232422e+00,-2.054283380508422852e+00,-1.004640534520149231e-01
5.382975578308105469e+00,-2.056758165359497070e+00,1.005850732326507568e-01
5.389362335205078125e+00,-2.059198617935180664e+00,3.023589551448822021e-01
5.395523548126220703e+00,-2.061552762985229492e+00,5.053299665451049805e-01
5.402607917785644531e+00,-2.064259290695190430e+00,7.101283669471740723e-01
5.409634590148925781e+00,-2.066944360733032227e+00,9.172128438949584961e-01
5.416287422180175781e+00,-2.069486141204833984e+00,1.127051115036010742e+00
5.422195434570312500e+00,-2.071743488311767578e+00,1.340074419975280762e+00
3.747012138366699219e+00,-1.370551705360412598e+00,-1.069062352180480957e+00
4.453271389007568359e+00,-1.628881454467773438e+00,-1.094734311103820801e+00
5.483915805816650391e+00,-2.005862236022949219e+00,-1.135033011436462402e+00
5.632740020751953125e+00,-2.060297966003417969e+00,-9.499433636665344238e-01
5.639645099639892578e+00,-2.062823772430419922e+00,-7.373285293579101562e-01
5.646304130554199219e+00,-2.065259456634521484e+00,-5.259948968887329102e-01
5.652704715728759766e+00,-2.067600488662719727e+00,-3.154405653476715088e-01
5.659426212310791016e+00,-2.070059061050415039e+00,-1.051863431930541992e-01
5.666453838348388672e+00,-2.072629451751708984e+00,1.053169593214988708e-01
5.673295974731445312e+00,-2.075132131576538086e+00,3.165896236896514893e-01
5.679986476898193359e+00,-2.077579498291015625e+00,5.291326642036437988e-01
5.686323642730712891e+00,-2.079897403717041016e+00,7.434312701225280762e-01
5.693753719329833984e+00,-2.082615137100219727e+00,9.602330923080444336e-01
5.700864791870117188e+00,-2.085216045379638672e+00,1.179936051368713379e+00
5.707259654998779297e+00,-2.087555170059204102e+00,1.402998447418212891e+00
3.771713256835937500e+00,-1.318696498870849609e+00,-1.070614933967590332e+00
4.488319873809814453e+00,-1.569242119789123535e+00,-1.097716093063354492e+00
5.483419895172119141e+00,-1.917156934738159180e+00,-1.129135131835937500e+00
5.977957248687744141e+00,-2.090060949325561523e+00,-1.003015041351318359e+00
5.985363960266113281e+00,-2.092650651931762695e+00,-7.785320878028869629e-01
5.992594242095947266e+00,-2.095178604125976562e+00,-5.554037690162658691e-01
5.999804496765136719e+00,-2.097699403762817383e+00,-3.331003189086914062e-01
6.006926536560058594e+00,-2.100189685821533203e+00,-1.110749095678329468e-01
6.013959884643554688e+00,-2.102648735046386719e+00,1.112049669027328491e-01
6.021034240722656250e+00,-2.105121850967407227e+00,3.342789411544799805e-01
6.028030872344970703e+00,-2.107568025588989258e+00,5.586881041526794434e-01
6.036210536956787109e+00,-2.110427856445312500e+00,7.851457595825195312e-01
6.042678833007812500e+00,-2.112689495086669922e+00,1.013874530792236328e+00
6.050367355346679688e+00,-2.115377664566040039e+00,1.245879888534545898e+00
3.798414707183837891e+00,-1.267321348190307617e+00,-1.072935223579406738e+00
4.490218639373779297e+00,-1.498138189315795898e+00,-1.092824101448059082e+00
5.539509296417236328e+00,-1.848228573799133301e+00,-1.135121226310729980e+00
6.331147193908691406e+00,-2.112354516983032227e+00,-1.057093977928161621e+00
6.338765621185302734e+00,-2.114896297454833984e+00,-8.204783797264099121e-01
6.346265316009521484e+00,-2.117398500442504883e+00,-5.853137373924255371e-01
6.353818416595458984e+00,-2.119918584823608398e+00,-3.510340750217437744e-01
6.361348628997802734e+00,-2.122431039810180664e+00,-1.170548349618911743e-01
6.368854999542236328e+00,-2.124935388565063477e+00,1.171929612755775452e-01
6.376473903656005859e+00,-2.127477407455444336e+00,3.522857129573822021e-01
6.384087562561035156e+00,-2.130017757415771484e+00,5.888020396232604980e-01
6.391455650329589844e+00,-2.132476091384887695e+00,8.272985219955444336e-01
6.400221824645996094e+00,-2.135400772094726562e+00,1.068627238273620605e+00
6.406535148620605469e+00,-2.137507438659667969e+00,1.312786698341369629e+00
3.798245429992675781e+00,-1.207134008407592773e+00,-1.067897439002990723e+00
4.525469779968261719e+00,-1.438255906105041504e+00,-1.096280932426452637e+00
5.538592338562011719e+00,-1.760239958763122559e+00,-1.129654765129089355e+00
6.771754741668701172e+00,-2.152155637741088867e+00,-1.125402331352233887e+00
6.779639720916748047e+00,-2.154661655426025391e+00,-8.734629154205322266e-01
6.787478446960449219e+00,-2.157153129577636719e+00,-6.230950951576232910e-01
6.795455455780029297e+00,-2.159688234329223633e+00,-3.736873865127563477e-01
6.803493022918701172e+00,-2.162242650985717773e+00,-1.246084570884704590e-01
6.811586856842041016e+00,-2.164814949035644531e+00,1.247566938400268555e-01
6.819881439208984375e+00,-2.167451143264770508e+00,3.750305771827697754e-01
6.828255653381347656e+00,-2.170112371444702148e+00,6.268384456634521484e-01
6.836446762084960938e+00,-2.172715902328491211e+00,8.807817101478576660e-01
6.844161033630371094e+00,-2.175167560577392578e+00,1.137435674667358398e+00
6.853432178497314453e+00,-2.178113937377929688e+00,1.397830367088317871e+00
3.824872970581054688e+00,-1.155592679977416992e+00,-1.070623755455017090e+00
4.526893615722656250e+00,-1.367691159248352051e+00,-1.091771602630615234e+00
5.595216751098632812e+00,-1.690459132194519043e+00,-1.136152386665344238e+00
7.224053382873535156e+00,-2.182572603225708008e+00,-1.195255875587463379e+00
7.235665321350097656e+00,-2.186080932617187500e+00,-9.280890822410583496e-01
7.243858337402343750e+00,-2.188556194305419922e+00,-6.620475053787231445e-01
7.252275466918945312e+00,-2.191099405288696289e+00,-3.970429599285125732e-01
7.260834693908691406e+00,-2.193685293197631836e+00,-1.323961913585662842e-01
7.269530296325683594e+00,-2.196312427520751953e+00,1.325547397136688232e-01
7.278518676757812500e+00,-2.199028015136718750e+00,3.984797000885009766e-01
7.286249160766601562e+00,-2.201363563537597656e+00,6.659218072891235352e-01
7.294877052307128906e+00,-2.203970432281494141e+00,9.356839656829833984e-01
7.305280208587646484e+00,-2.207113504409790039e+00,1.208695292472839355e+00
3.826091527938842773e+00,-1.096454739570617676e+00,-1.066462755203247070e+00
4.564430713653564453e+00,-1.308042764663696289e+00,-1.096196889877319336e+00
5.596439838409423828e+00,-1.603788733482360840e+00,-1.131623625755310059e+00
7.225424766540527344e+00,-2.070611953735351562e+00,-1.190457224845886230e+00
7.755789279937744141e+00,-2.222600221633911133e+00,-9.906212687492370605e-01
7.765502929687500000e+00,-2.225383758544921875e+00,-7.067393064498901367e-01
7.774423122406005859e+00,-2.227940082550048828e+00,-4.238398671150207520e-01
7.783577442169189453e+00,-2.230563402175903320e+00,-1.413313895463943481e-01
7.792954444885253906e+00,-2.233250617980957031e+00,1.415016502141952515e-01
7.801637649536132812e+00,-2.235738992691040039e+00,4.253235459327697754e-01
7.811216354370117188e+00,-2.238483905792236328e+00,7.108997106552124023e-01
7.820754528045654297e+00,-2.241217374801635742e+00,9.989190697669982910e-01
7.829906940460205078e+00,-2.243840217590332031e+00,1.290051341056823730e+00
3.852702617645263672e+00,-1.044650197029113770e+00,-1.069602727890014648e+00
4.565413951873779297e+00,-1.237900018692016602e+00,-1.092065930366516113e+00
5.597410678863525391e+00,-1.517723202705383301e+00,-1.127311706542968750e+00
7.226459503173828125e+00,-1.959435462951660156e+00,-1.185885310173034668e+00
8.357354164123535156e+00,-2.266074657440185547e+00,-1.063205361366271973e+00
8.367635726928710938e+00,-2.268862485885620117e+00,-7.585062384605407715e-01
8.377137184143066406e+00,-2.271438837051391602e+00,-4.548791348934173584e-01
8.386972427368164062e+00,-2.274105548858642578e+00,-1.516810357570648193e-01
8.397131919860839844e+00,-2.276859998703002930e+00,1.518647670745849609e-01
8.406616210937500000e+00,-2.279431819915771484e+00,4.564798176288604736e-01
8.417134284973144531e+00,-2.282283782958984375e+00,7.629931569099426270e-01
8.427724838256835938e+00,-2.285155296325683594e+00,1.072157740592956543e+00
3.879501819610595703e+00,-9.925355315208435059e-01,-1.072988867759704590e+00
4.603175640106201172e+00,-1.177680969238281250e+00,-1.096954107284545898e+00
5.654458522796630859e+00,-1.446642160415649414e+00,-1.134514570236206055e+00
7.322162628173828125e+00,-1.873309135437011719e+00,-1.197067618370056152e+00
9.059645652770996094e+00,-2.317828655242919922e+00,-1.148211240768432617e+00
9.069798469543457031e+00,-2.320425987243652344e+00,-8.190609812736511230e-01
9.080772399902343750e+00,-2.323233842849731445e+00,-4.912305772304534912e-01
9.091398239135742188e+00,-2.325952053070068359e+00,-1.638019084930419922e-01
9.101702690124511719e+00,-2.328588485717773438e+00,1.639875769615173340e-01
9.112870216369628906e+00,-2.331445455551147461e+00,4.929668903350830078e-01
9.122694015502929688e+00,-2.333958864212036133e+00,8.238378167152404785e-01
9.133965492248535156e+00,-2.336842536926269531e+00,1.157630443572998047e+00
3.880231618881225586e+00,-9.337632656097412109e-01,-1.069384574890136719e+00
4.603824138641357422e+00,-1.107893109321594238e+00,-1.093217611312866211e+00
5.655035972595214844e+00,-1.360863327980041504e+00,-1.130606412887573242e+00
7.322720050811767578e+00,-1.762185335159301758e+00,-1.192913055419921875e+00
9.890434265136718750e+00,-2.380095958709716797e+00,-1.249058961868286133e+00
9.901292800903320312e+00,-2.382709026336669922e+00,-8.909791111946105957e-01
9.913145065307617188e+00,-2.385561466217041016e+00,-5.343564748764038086e-01
9.924698829650878906e+00,-2.388341903686523438e+00,-1.781815141439437866e-01
9.935984611511230469e+00,-2.391057729721069336e+00,1.783841401338577271e-01
9.948307991027832031e+00,-2.394023418426513672e+00,5.362519025802612305e-01
9.959236145019531250e+00,-2.396653175354003906e+00,8.961932659149169922e-01
9.971837997436523438e+00,-2.399685859680175781e+00,1.259339570999145508e+00
3.907156229019165039e+00,-8.812820911407470703e-01,-1.073218584060668945e+00
4.641922950744628906e+00,-1.047013163566589355e+00,-1.098593473434448242e+00
5.655475139617919922e+00,-1.275625705718994141e+00,-1.126928448677062988e+00
7.323109149932861328e+00,-1.651770353317260742e+00,-1.189003109931945801e+00
1.018515396118164062e+01,-2.297321319580078125e+00,-1.281994938850402832e+00
1.090039443969726562e+01,-2.458648204803466797e+00,-9.776175618171691895e-01
1.091329574584960938e+01,-2.461558103561401367e+00,-5.863091349601745605e-01
1.092595577239990234e+01,-2.464413642883300781e+00,-1.955041140317916870e-01
1.093840885162353516e+01,-2.467222452163696289e+00,1.957269310951232910e-01
1.095209598541259766e+01,-2.470309734344482422e+00,5.883936882019042969e-01
1.096433258056640625e+01,-2.473069906234741211e+00,9.833519458770751953e-01
3.907673597335815430e+00,-8.228099942207336426e-01,-1.070016026496887207e+00
4.642352104187011719e+00,-9.775059223175048828e-01,-1.095271468162536621e+00
5.713254451751708984e+00,-1.202997803688049316e+00,-1.134894251823425293e+00
7.323348045349121094e+00,-1.542023420333862305e+00,-1.185336828231811523e+00
1.037598133087158203e+01,-2.184793949127197266e+00,-1.301944732666015625e+00
1.196814823150634766e+01,-2.520044803619384766e+00,-1.070035934448242188e+00
1.198221874237060547e+01,-2.523007631301879883e+00,-6.417304277420043945e-01
1.199611759185791016e+01,-2.525934219360351562e+00,-2.139842510223388672e-01
1.200988006591796875e+01,-2.528831958770751953e+00,2.142297327518463135e-01
1.202340030670166016e+01,-2.531678915023803711e+00,6.439359784126281738e-01
1.203857994079589844e+01,-2.534875154495239258e+00,1.076332926750183105e+00
3.908119916915893555e+00,-7.646607160568237305e-01,-1.067031979560852051e+00
4.642690181732177734e+00,-9.083863496780395508e-01,-1.092171669006347656e+00
5.713494777679443359e+00,-1.117899417877197266e+00,-1.131647706031799316e+00
7.323488712310791016e+00,-1.432909965515136719e+00,-1.181918859481811523e+00
1.037611007690429688e+01,-2.030184268951416016e+00,-1.298181653022766113e+00
1.320738410949707031e+01,-2.584149837493896484e+00,-1.177404642105102539e+00
1.322273445129394531e+01,-2.587153434753417969e+00,-7.061129808425903320e-01
1.323799037933349609e+01,-2.590138435363769531e+00,-2.354510873556137085e-01
1.325317478179931641e+01,-2.593109369277954102e+00,2.357211560010910034e-01
1.326739978790283203e+01,-2.595892667770385742e+00,7.084981799125671387e-01
3.935172796249389648e+00,-7.116349339485168457e-01,-1.071527361869812012e+00
4.681213378906250000e+00,-8.465485572814941406e-01,-1.098271131515502930e+00
5.713701725006103516e+00,-1.033263325691223145e+00,-1.128643751144409180e+00
7.421104907989501953e+00,-1.342029452323913574e+00,-1.194450497627258301e+00
1.037616539001464844e+01,-1.876421332359313965e+00,-1.294695734977722168e+00
1.473297882080078125e+01,-2.664305448532104492e+00,-1.309873580932617188e+00
1.474989128112792969e+01,-2.667363882064819336e+00,-7.855460047721862793e-01
1.476622390747070312e+01,-2.670317411422729492e+00,-2.619256079196929932e-01
1.478211212158203125e+01,-2.673190832138061523e+00,2.622074484825134277e-01
1.479988574981689453e+01,-2.676404714584350586e+00,7.882086038589477539e-01
3.936506509780883789e+00,-6.538386940956115723e-01,-1.069232702255249023e+00
4.682667255401611328e+00,-7.777730822563171387e-01,-1.095888137817382812e+00
5.774042129516601562e+00,-9.590463042259216309e-01,-1.137734889984130859e+00
7.423145294189453125e+00,-1.232956051826477051e+00,-1.191816329956054688e+00
1.037897014617919922e+01,-1.723907232284545898e+00,-1.291834473609924316e+00
1.642333984375000000e+01,-2.727853775024414062e+00,-1.456538915634155273e+00
1.644078636169433594e+01,-2.730751752853393555e+00,-8.734281659126281738e-01
1.645818710327148438e+01,-2.733641862869262695e+00,-2.912140190601348877e-01
1.647781181335449219e+01,-2.736901521682739258e+00,2.915612757205963135e-01
1.649781227111816406e+01,-2.740223407745361328e+00,8.764576911926269531e-01
3.936712503433227539e+00,-5.961077213287353516e-01,-1.066861867904663086e+00
4.682769298553466797e+00,-7.090776562690734863e-01,-1.093424797058105469e+00
5.774039268493652344e+00,-8.743206858634948730e-01,-1.135152101516723633e+00
7.423052310943603516e+00,-1.124018788337707520e+00,-1.189096450805664062e+00
1.037883472442626953e+01,-1.571591377258300781e+00,-1.288885712623596191e+00
1.721710395812988281e+01,-2.607060670852661133e+00,-1.523470163345336914e+00
1.886692619323730469e+01,-2.856881141662597656e+00,-1.000043630599975586e+00
1.888908386230468750e+01,-2.860236406326293945e+00,-3.334681987762451172e-01
1.891213226318359375e+01,-2.863726615905761719e+00,3.338751196861267090e-01
3.963972330093383789e+00,-5.423218607902526855e-01,-1.072035908699035645e+00
4.682867050170898438e+00,-6.406758427619934082e-01,-1.091194510459899902e+00
5.774057388305664062e+00,-7.899645566940307617e-01,-1.132816672325134277e+00
7.422996044158935547e+00,-1.015560388565063477e+00,-1.186637401580810547e+00
1.037876224517822266e+01,-1.419946789741516113e+00,-1.286221027374267578e+00
1.721743774414062500e+01,-2.355564594268798828e+00,-1.520360469818115234e+00
2.213734817504882812e+01,-3.028671264648437500e+00,-1.170975089073181152e+00
2.216404151916503906e+01,-3.032323360443115234e+00,-3.904781341552734375e-01
2.219116210937500000e+01,-3.036033630371093750e+00,3.909559249877929688e-01
3.964912652969360352e+00,-4.847496747970581055e-01,-1.070304155349731445e+00
4.722775936126708984e+00,-5.774059295654296875e-01,-1.098455667495727539e+00
5.775214195251464844e+00,-7.060768604278564453e-01,-1.130944967269897461e+00
7.424434661865234375e+00,-9.077103137969970703e-01,-1.184669017791748047e+00
1.038079738616943359e+01,-1.269154906272888184e+00,-1.284090518951416016e+00
1.722124862670898438e+01,-2.105467319488525391e+00,-1.517880439758300781e+00
2.617939376831054688e+01,-3.200689077377319336e+00,-1.382217764854431152e+00
2.620883941650390625e+01,-3.204288959503173828e+00,-4.608826935291290283e-01
2.624037170410156250e+01,-3.208144187927246094e+00,4.614371955394744873e-01
3.965006351470947266e+00,-4.272604584693908691e-01,-1.068569064140319824e+00
4.722802162170410156e+00,-5.089188814163208008e-01,-1.096655249595642090e+00
5.775141716003417969e+00,-6.223167181015014648e-01,-1.129070878028869629e+00
7.424286365509033203e+00,-8.000249862670898438e-01,-1.182697057723999023e+00
1.038067722320556641e+01,-1.118599176406860352e+00,-1.281963706016540527e+00
1.722155761718750000e+01,-1.855757474899291992e+00,-1.515411138534545898e+00
4.216397857666015625e+01,-4.543498992919921875e+00,-2.222509622573852539e+00
4.220686340332031250e+01,-4.548120021820068359e+00,-7.409874796867370605e-01
3.965712308883666992e+00,-3.700027763843536377e-01,-1.067222714424133301e+00
4.723561286926269531e+00,-4.407104253768920898e-01,-1.095254540443420410e+00
5.776007652282714844e+00,-5.389041900634765625e-01,-1.127616643905639648e+00
7.525591373443603516e+00,-7.021411657333374023e-01,-1.197111487388610840e+00
1.058047389984130859e+01,-9.871631264686584473e-01,-1.304759025573730469e+00
1.722462654113769531e+01,-1.607065558433532715e+00,-1.513502120971679688e+00
5.029259872436523438e+01,-4.692322731018066406e+00,-2.647166728973388672e+00
7.782500457763671875e+01,-7.261108875274658203e+00,-1.364338278770446777e+00
3.993248462677001953e+00,-3.149940371513366699e-01,-1.073309779167175293e+00
4.723553657531738281e+00,-3.726017475128173828e-01,-1.093904137611389160e+00
5.835896015167236328e+00,-4.603451490402221680e-01,-1.137905359268188477e+00
7.525485992431640625e+00,-5.936228036880493164e-01,-1.195620656013488770e+00
1.058037948608398438e+01,-8.345978856086730957e-01,-1.303140759468078613e+00
1.722493743896484375e+01,-1.358731627464294434e+00,-1.511665701866149902e+00
5.030273818969726562e+01,-3.967963457107543945e+00,-2.644439935684204102e+00
3.993746280670166016e+00,-2.575781643390655518e-01,-1.072342753410339355e+00
4.724090099334716797e+00,-3.046819865703582764e-01,-1.092906475067138672e+00
5.836520195007324219e+00,-3.764285743236541748e-01,-1.136860013008117676e+00
7.526276588439941406e+00,-4.854100346565246582e-01,-1.194519996643066406e+00
1.058155632019042969e+01,-6.824615001678466797e-01,-1.301949262619018555e+00
1.722731781005859375e+01,-1.111082315444946289e+00,-1.510324120521545410e+00
5.031743240356445312e+01,-3.245241880416870117e+00,-2.642499923706054688e+00
3.993784904479980469e+00,-2.002309262752532959e-01,-1.071473836898803711e+00
4.724097728729248047e+00,-2.368456423282623291e-01,-1.092012047767639160e+00
5.836508750915527344e+00,-2.926170825958251953e-01,-1.135925650596618652e+00
7.526258945465087891e+00,-3.773337602615356445e-01,-1.193537712097167969e+00
1.058154392242431641e+01,-5.305123925209045410e-01,-1.300880074501037598e+00
1.722795486450195312e+01,-8.637344241142272949e-01,-1.509141564369201660e+00
5.032559967041015625e+01,-2.523105859756469727e+00,-2.640761613845825195e+00
6.010758590698242188e+01,-3.013531923294067383e+00,-1.050498008728027344e+00
3.994110822677612305e+00,-1.429751217365264893e-01,-1.070902585983276367e+00
4.724455356597900391e+00,-1.691189110279083252e-01,-1.091423392295837402e+00
5.836919784545898438e+00,-2.089412212371826172e-01,-1.135307312011718750e+00
7.526811122894287109e+00,-2.694333791732788086e-01,-1.192891478538513184e+00
1.058236694335937500e+01,-3.788115382194519043e-01,-1.300181508064270020e+00
1.722986984252929688e+01,-6.167687773704528809e-01,-1.508381485939025879e+00
3.279918289184570312e+01,-1.174095511436462402e+00,-1.720030665397644043e+00
3.284376525878906250e+01,-1.175691366195678711e+00,-5.736563801765441895e-01
3.994165182113647461e+00,-8.576280623674392700e-02,-1.070478439331054688e+00
4.724506855010986328e+00,-1.014447212219238281e-01,-1.090988039970397949e+00
5.836990833282470703e+00,-1.253320127725601196e-01,-1.134855866432189941e+00
7.526889801025390625e+00,-1.616175621747970581e-01,-1.192415237426757812e+00
1.058265209197998047e+01,-2.272309511899948120e-01,-1.299683809280395508e+00
1.723091125488281250e+01,-3.699825108051300049e-01,-1.507854580879211426e+00
2.383789825439453125e+01,-5.118479132652282715e-01,-1.249577403068542480e+00
2.387325668334960938e+01,-5.126070976257324219e-01,-4.168046712875366211e-01
2.390963172912597656e+01,-5.133881568908691406e-01,4.174397289752960205e-01
3.994312047958374023e+00,-2.858475036919116974e-02,-1.070298433303833008e+00
4.764282226562500000e+00,-3.409493342041969299e-02,-1.099947690963745117e+00
5.837228775024414062e+00,-4.177333042025566101e-02,-1.134669661521911621e+00
7.527200222015380859e+00,-5.386738106608390808e-02,-1.192220091819763184e+00
1.058327674865722656e+01,-7.573777437210083008e-02,-1.299494266510009766e+00
1.661929321289062500e+01,-1.189337000250816345e-01,-1.454034805297851562e+00
1.664429664611816406e+01,-1.191126331686973572e-01,-8.723116517066955566e-01
1.667000961303710938e+01,-1.192966476082801819e-01,-2.909831106662750244e-01
1.669644165039062500e+01,-1.194858103990554810e-01,2.914445102214813232e-01
1.672071266174316406e+01,-1.196594983339309692e-01,8.763165473937988281e-01
3.994382143020629883e+00,2.858525142073631287e-02,-1.070317149162292480e+00
4.764394760131835938e+00,3.409573808312416077e-02,-1.099973678588867188e+00
5.837382793426513672e+00,4.177443310618400574e-02,-1.134699583053588867e+00
7.527442455291748047e+00,5.386911705136299133e-02,-1.192258477210998535e+00
1.058384037017822266e+01,7.574181258678436279e-02,-1.299563527107238770e+00
1.241344261169433594e+01,8.883510529994964600e-02,-1.086061716079711914e+00
1.242990303039550781e+01,8.895290642976760864e-02,-6.514393091201782227e-01
1.244700717926025391e+01,8.907530456781387329e-02,-2.172685563564300537e-01
1.246571826934814453e+01,8.920921385288238525e-02,2.175951749086380005e-01
1.248285770416259766e+01,8.933187276124954224e-02,6.542146801948547363e-01
1.250140285491943359e+01,8.946458250284194946e-02,1.093757390975952148e+00
3.994382619857788086e+00,8.576747775077819824e-02,-1.070536613464355469e+00
4.724814414978027344e+00,1.014513224363327026e-01,-1.091059088706970215e+00
5.837415218353271484e+00,1.253411173820495605e-01,-1.134938478469848633e+00
7.527560710906982422e+00,1.616319566965103149e-01,-1.192521452903747559e+00
1.011933708190917969e+01,2.172826379537582397e-01,-1.242782950401306152e+00
1.013371372222900391e+01,2.175913453102111816e-01,-8.867881298065185547e-01
1.014688873291015625e+01,2.178742289543151855e-01,-5.318976640701293945e-01
1.016045856475830078e+01,2.181656062602996826e-01,-1.773920804262161255e-01
1.017445373535156250e+01,2.184661179780960083e-01,1.776364296674728394e-01
1.018756961822509766e+01,2.187477350234985352e-01,5.340301990509033203e-01
1.020223712921142578e+01,2.190626710653305054e-01,8.927844762802124023e-01
1.021668720245361328e+01,2.193729430437088013e-01,1.254738688468933105e+00
3.994477987289428711e+00,1.429882794618606567e-01,-1.071001052856445312e+00
4.724967479705810547e+00,1.691372245550155640e-01,-1.091541647911071777e+00
5.837654113769531250e+00,2.089674919843673706e-01,-1.135450005531311035e+00
7.527987003326416016e+00,2.694754600524902344e-01,-1.193077921867370605e+00
8.387043952941894531e+00,3.002267181873321533e-01,-1.030457615852355957e+00
8.398816108703613281e+00,3.006481230258941650e-01,-7.352707386016845703e-01
8.409576416015625000e+00,3.010332882404327393e-01,-4.410088360309600830e-01
8.420653343200683594e+00,3.014297783374786377e-01,-1.470769643783569336e-01
8.432072639465332031e+00,3.018385767936706543e-01,1.472764313220977783e-01
8.442473411560058594e+00,3.022108972072601318e-01,4.427340328693389893e-01
8.453748703002929688e+00,3.026145100593566895e-01,7.400798201560974121e-01
8.465158462524414062e+00,3.030229210853576660e-01,1.040054917335510254e+00
8.478998184204101562e+00,3.035183250904083252e-01,1.343799471855163574e+00
3.994295358657836914e+00,2.002565264701843262e-01,-1.071610808372497559e+00
4.724791526794433594e+00,2.368804216384887695e-01,-1.092172503471374512e+00
5.837515354156494141e+00,2.926675379276275635e-01,-1.136121511459350586e+00
7.269417762756347656e+00,3.644568622112274170e-01,-1.152807116508483887e+00
7.278993129730224609e+00,3.649369180202484131e-01,-8.948691487312316895e-01
7.289139747619628906e+00,3.654456436634063721e-01,-6.385171413421630859e-01
7.298395156860351562e+00,3.659096658229827881e-01,-3.829725086688995361e-01
7.307914257049560547e+00,3.663869202136993408e-01,-1.277201473712921143e-01
7.317719936370849609e+00,3.668785393238067627e-01,1.278915256261825562e-01
7.326637268066406250e+00,3.673256039619445801e-01,3.844544887542724609e-01
7.336297035217285156e+00,3.678098917007446289e-01,6.426480412483215332e-01
7.345782279968261719e+00,3.682854473590850830e-01,9.030801057815551758e-01
7.357125282287597656e+00,3.688541352748870850e-01,1.166715979576110840e+00
3.994398593902587891e+00,2.576202452182769775e-01,-1.072517871856689453e+00
4.724987030029296875e+00,3.047398030757904053e-01,-1.093113899230957031e+00
5.837847709655761719e+00,3.765141963958740234e-01,-1.137118577957153320e+00
6.409417152404785156e+00,4.133777916431427002e-01,-1.017259597778320312e+00
6.417222023010253906e+00,4.138811528682708740e-01,-7.895716428756713867e-01
6.425547599792480469e+00,4.144181311130523682e-01,-5.633297562599182129e-01
6.433040142059326172e+00,4.149013459682464600e-01,-3.378413319587707520e-01
6.440750122070312500e+00,4.153985977172851562e-01,-1.126571223139762878e-01
6.448697090148925781e+00,4.159111678600311279e-01,1.127961277961730957e-01
6.455878257751464844e+00,4.163742959499359131e-01,3.390406966209411621e-01
6.463665962219238281e+00,4.168765842914581299e-01,5.666715502738952637e-01
6.471284866333007812e+00,4.173679649829864502e-01,7.962235212326049805e-01
6.480489730834960938e+00,4.179616272449493408e-01,1.028539657592773438e+00
6.487188339233398438e+00,4.183936715126037598e-01,1.263599634170532227e+00
3.994039535522460938e+00,3.150564432144165039e-01,-1.073522448539733887e+00
4.724623680114746094e+00,3.726861476898193359e-01,-1.094151973724365234e+00
5.837502479553222656e+00,4.604718387126922607e-01,-1.138218522071838379e+00
6.370180606842041016e+00,5.024904012680053711e-01,-1.012070059776306152e+00
6.377983093261718750e+00,5.031058788299560547e-01,-7.855492830276489258e-01
6.386287689208984375e+00,5.037609338760375977e-01,-5.604625344276428223e-01
6.393750667572021484e+00,5.043496489524841309e-01,-3.361226320266723633e-01
6.401414394378662109e+00,5.049541592597961426e-01,-1.120840311050415039e-01
6.409297943115234375e+00,5.055760145187377930e-01,1.122220680117607117e-01
6.416407585144042969e+00,5.061368346214294434e-01,3.373137414455413818e-01
6.424103260040283203e+00,5.067439079284667969e-01,5.637812018394470215e-01
6.431617259979248047e+00,5.073366165161132812e-01,7.921552062034606934e-01
6.440689563751220703e+00,5.080522894859313965e-01,1.023272275924682617e+00
6.447261810302734375e+00,5.085706710815429688e-01,1.257111787796020508e+00
3.966633558273315430e+00,3.700887262821197510e-01,-1.067470669746398926e+00
4.724833488464355469e+00,4.408291578292846680e-01,-1.095549583435058594e+00
5.777901172637939453e+00,5.390807986259460449e-01,-1.127986192703247070e+00
6.327449798583984375e+00,5.903539657592773438e-01,-1.006520509719848633e+00
6.335261344909667969e+00,5.910827517509460449e-01,-7.812494039535522461e-01
6.343548297882080078e+00,5.918560028076171875e-01,-5.573980808258056641e-01
6.350983142852783203e+00,5.925496816635131836e-01,-3.342859745025634766e-01
6.358596324920654297e+00,5.932599902153015137e-01,-1.114715859293937683e-01
6.366408348083496094e+00,5.939888358116149902e-01,1.116085276007652283e-01
6.373431682586669922e+00,5.946441292762756348e-01,3.354675471782684326e-01
6.381016731262207031e+00,5.953517556190490723e-01,5.606903433799743652e-01
6.390057563781738281e+00,5.961952805519104004e-01,7.880067825317382812e-01
6.397312164306640625e+00,5.968722105026245117e-01,1.017633676528930664e+00
6.406083106994628906e+00,5.976904630661010742e-01,1.250622510910034180e+00
3.966067790985107422e+00,4.273748397827148438e-01,-1.068855166435241699e+00
4.724259376525878906e+00,5.090758800506591797e-01,-1.096993565559387207e+00
5.777329444885253906e+00,6.225524544715881348e-01,-1.129498481750488281e+00
6.290247440338134766e+00,6.778233647346496582e-01,-1.002043366432189941e+00
6.297713279724121094e+00,6.786279082298278809e-01,-7.777373194694519043e-01
6.305066108703613281e+00,6.794201731681823730e-01,-5.548143386840820312e-01
6.312477588653564453e+00,6.802188754081726074e-01,-3.327375948429107666e-01
6.320045948028564453e+00,6.810343861579895020e-01,-1.109552830457687378e-01
6.327789306640625000e+00,6.818688511848449707e-01,1.110912337899208069e-01
6.335649490356445312e+00,6.827158331871032715e-01,3.339590430259704590e-01
6.343492984771728516e+00,6.835610270500183105e-01,5.581957697868347168e-01
6.351110458374023438e+00,6.843818426132202148e-01,7.843316197395324707e-01
6.358221530914306641e+00,6.851481199264526367e-01,1.012871742248535156e+00
6.366815090179443359e+00,6.860741376876831055e-01,1.244746088981628418e+00
3.966107845306396484e+00,4.848957657814025879e-01,-1.070626735687255859e+00
4.724461555480957031e+00,5.776119828224182129e-01,-1.098847746849060059e+00
