-1.248196125030517578e+00,-3.375030279159545898e+00,6.994662284851074219e-01
-1.249669313430786133e+00,-3.379013776779174805e+00,8.317462801933288574e-01
-1.168774127960205078e+00,-3.304917097091674805e+00,-9.392936825752258301e-01
-1.170269131660461426e+00,-3.309144496917724609e+00,-8.103417754173278809e-01
-1.171964645385742188e+00,-3.313938856124877930e+00,-6.832586526870727539e-01
-1.173267722129821777e+00,-3.317623615264892578e+00,-5.573499798774719238e-01
-1.174775838851928711e+00,-3.321888208389282227e+00,-4.326305389404296875e-01
-1.176232099533081055e+00,-3.326005697250366211e+00,-3.086477816104888916e-01
-1.177668094635009766e+00,-3.330066204071044922e+00,-1.851130425930023193e-01
-1.179100394248962402e+00,-3.334116458892822266e+00,-6.172919645905494690e-02
-1.180533766746520996e+00,-3.338169813156127930e+00,6.180424243211746216e-02
-1.181957125663757324e+00,-3.342194318771362305e+00,1.857872307300567627e-01
-1.183345913887023926e+00,-3.346121311187744141e+00,3.105144798755645752e-01
-1.184966206550598145e+00,-3.350703239440917969e+00,4.363833069801330566e-01
-1.186223626136779785e+00,-3.354258775711059570e+00,5.635046362876892090e-01
-1.187723636627197266e+00,-3.358500242233276367e+00,6.924461722373962402e-01
-1.189574480056762695e+00,-3.363734006881713867e+00,8.237096071243286133e-01
-1.109510660171508789e+00,-3.286226272583007812e+00,-9.293728470802307129e-01
-1.110915899276733398e+00,-3.290388345718383789e+00,-8.017727732658386230e-01
-1.112216353416442871e+00,-3.294239997863769531e+00,-6.758456826210021973e-01
-1.113707661628723145e+00,-3.298657178878784180e+00,-5.514292120933532715e-01
-1.114937782287597656e+00,-3.302300930023193359e+00,-4.279573261737823486e-01
-1.116335272789001465e+00,-3.306440114974975586e+00,-3.053180575370788574e-01
-1.117705702781677246e+00,-3.310498952865600586e+00,-1.831172555685043335e-01
-1.119065642356872559e+00,-3.314527034759521484e+00,-6.106369569897651672e-02
-1.120418310165405273e+00,-3.318533182144165039e+00,6.113750487565994263e-02
-1.121753811836242676e+00,-3.322489023208618164e+00,1.837804764509201050e-01
-1.123274207115173340e+00,-3.326992273330688477e+00,3.072158694267272949e-01
-1.124555706977844238e+00,-3.330787897109985352e+00,4.316490590572357178e-01
-1.126061081886291504e+00,-3.335246562957763672e+00,5.575457811355590820e-01
-1.127499461174011230e+00,-3.339506864547729492e+00,6.851326823234558105e-01
-1.128793120384216309e+00,-3.343338251113891602e+00,8.146751523017883301e-01
-1.051159858703613281e+00,-3.266945362091064453e+00,-9.195706844329833984e-01
-1.052536249160766602e+00,-3.271223306655883789e+00,-7.933505177497863770e-01
-1.053807258605957031e+00,-3.275173425674438477e+00,-6.687709689140319824e-01
-1.055250406265258789e+00,-3.279658555984497070e+00,-5.456724166870117188e-01
-1.056440114974975586e+00,-3.283356189727783203e+00,-4.234991967678070068e-01
-1.057779550552368164e+00,-3.287519216537475586e+00,-3.021418750286102295e-01
-1.059086084365844727e+00,-3.291579484939575195e+00,-1.812136769294738770e-01
-1.060374379158020020e+00,-3.295583724975585938e+00,-6.042889505624771118e-02
-1.061648368835449219e+00,-3.299542903900146484e+00,6.050149351358413696e-02
-1.062898516654968262e+00,-3.303428649902343750e+00,1.818660050630569458e-01
-1.064315080642700195e+00,-3.307831048965454102e+00,3.040086328983306885e-01
-1.065498828887939453e+00,-3.311510086059570312e+00,4.271306097507476807e-01
-1.066886186599731445e+00,-3.315821886062622070e+00,5.516892671585083008e-01
-1.068203330039978027e+00,-3.319915533065795898e+00,6.779069900512695312e-01
-1.069818377494812012e+00,-3.324934959411621094e+00,8.063769340515136719e-01
-9.944318532943725586e-01,-3.249423742294311523e+00,-9.105390310287475586e-01
-9.954202175140380859e-01,-3.252653360366821289e+00,-7.853109836578369141e-01
-9.969144463539123535e-01,-3.257535934448242188e+00,-6.621879339218139648e-01
-9.980558156967163086e-01,-3.261265516281127930e+00,-5.401799678802490234e-01
-9.993480443954467773e-01,-3.265487909317016602e+00,-4.193065464496612549e-01
-1.000487565994262695e+00,-3.269211530685424805e+00,-2.991125285625457764e-01
-1.001731038093566895e+00,-3.273274660110473633e+00,-1.793981641530990601e-01
-1.002949833869934082e+00,-3.277257204055786133e+00,-5.982349812984466553e-02
-1.004147171974182129e+00,-3.281169652938842773e+00,5.989491567015647888e-02
-1.005457520484924316e+00,-3.285451650619506836e+00,1.800655424594879150e-01
-1.006629586219787598e+00,-3.289281129837036133e+00,3.009487688541412354e-01
-1.007975101470947266e+00,-3.293677806854248047e+00,4.229262769222259521e-01
-1.008991837501525879e+00,-3.297000408172607422e+00,5.460988879203796387e-01
-1.010555863380432129e+00,-3.302111148834228516e+00,6.712490916252136230e-01
-1.011663675308227539e+00,-3.305730819702148438e+00,7.981258630752563477e-01
-9.385153055191040039e-01,-3.231272697448730469e+00,-9.015962481498718262e-01
-9.397839903831481934e-01,-3.235640764236450195e+00,-7.778761386871337891e-01
-9.409427046775817871e-01,-3.239630222320556641e+00,-6.557431221008300781e-01
-9.420521855354309082e-01,-3.243450164794921875e+00,-5.349408984184265137e-01
-9.432945251464843750e-01,-3.247727632522583008e+00,-4.152497649192810059e-01
-9.443866014480590820e-01,-3.251487493515014648e+00,-2.962237894535064697e-01
-9.455679059028625488e-01,-3.255554676055908203e+00,-1.776670217514038086e-01
-9.467186927795410156e-01,-3.259516716003417969e+00,-5.924623459577560425e-02
-9.478410482406616211e-01,-3.263381004333496094e+00,5.931647121906280518e-02
-9.490616321563720703e-01,-3.267583370208740234e+00,1.783234626054763794e-01
-9.501447677612304688e-01,-3.271312713623046875e+00,2.980299293994903564e-01
-9.513827562332153320e-01,-3.275574922561645508e+00,4.188103079795837402e-01
-9.525971412658691406e-01,-3.279756069183349609e+00,5.409287810325622559e-01
-9.537330865859985352e-01,-3.283667087554931641e+00,6.646567583084106445e-01
-9.551179409027099609e-01,-3.288435220718383789e+00,7.905683517456054688e-01
-8.840417265892028809e-01,-3.214803934097290039e+00,-8.933789134025573730e-01
-8.849641680717468262e-01,-3.218158245086669922e+00,-7.705489993095397949e-01
-8.860940337181091309e-01,-3.222267150878906250e+00,-6.495948433876037598e-01
-8.873453736305236816e-01,-3.226817607879638672e+00,-5.300486087799072266e-01
-8.883629441261291504e-01,-3.230517864227294922e+00,-4.113814532756805420e-01
-8.894834518432617188e-01,-3.234592676162719727e+00,-2.934946119785308838e-01
-8.905275464057922363e-01,-3.238389492034912109e+00,-1.760165989398956299e-01
-8.916113376617431641e-01,-3.242330551147460938e+00,-5.869587138295173645e-02
-8.927368521690368652e-01,-3.246423482894897461e+00,5.876996368169784546e-02
-8.937942385673522949e-01,-3.250268936157226562e+00,1.766622811555862427e-01
-8.949683904647827148e-01,-3.254538536071777344e+00,2.953044474124908447e-01
-8.959257006645202637e-01,-3.258019685745239258e+00,4.148835837841033936e-01
-8.970304131507873535e-01,-3.262036800384521484e+00,5.358338952064514160e-01
-8.983764052391052246e-01,-3.266931533813476562e+00,6.585990190505981445e-01
-8.993043899536132812e-01,-3.270306348800659180e+00,7.830352187156677246e-01
-8.302916288375854492e-01,-3.197667598724365234e+00,-8.852235674858093262e-01
-8.314579725265502930e-01,-3.202159404754638672e+00,-7.637904882431030273e-01
-8.325127959251403809e-01,-3.206222057342529297e+00,-6.438920497894287109e-01
-8.335080742835998535e-01,-3.210054874420166016e+00,-5.252816081047058105e-01
-8.344876170158386230e-01,-3.213827371597290039e+00,-4.076932370662689209e-01
-8.355554342269897461e-01,-3.217939853668212891e+00,-2.908686399459838867e-01
-8.365443944931030273e-01,-3.221748590469360352e+00,-1.744434237480163574e-01
-8.375623822212219238e-01,-3.225669145584106445e+00,-5.817126482725143433e-02
-8.386117219924926758e-01,-3.229710340499877930e+00,5.824414268136024475e-02
-8.395895957946777344e-01,-3.233476400375366211e+00,1.750784367322921753e-01
-8.406687974929809570e-01,-3.237632751464843750e+00,2.926487028598785400e-01
-8.417499661445617676e-01,-3.241796731948852539e+00,4.112413227558135986e-01
-8.427945971488952637e-01,-3.245819807052612305e+00,5.311340093612670898e-01
-8.437551856040954590e-01,-3.249519348144531250e+00,6.525872349739074707e-01
-8.449192047119140625e-01,-3.254002094268798828e+00,7.761561870574951172e-01
-7.778205275535583496e-01,-3.182135820388793945e+00,-8.777518272399902344e-01
-7.786795496940612793e-01,-3.185650348663330078e+00,-7.571166157722473145e-01
-7.797043323516845703e-01,-3.189842462539672852e+00,-6.382959485054016113e-01
-7.806668281555175781e-01,-3.193780183792114258e+00,-5.207366347312927246e-01
-7.816072702407836914e-01,-3.197627782821655273e+00,-4.041776359081268311e-01
-7.826222181320190430e-01,-3.201779842376708984e+00,-2.883658707141876221e-01
-7.835564613342285156e-01,-3.205602169036865234e+00,-1.729441881179809570e-01
-7.845100164413452148e-01,-3.209503173828125000e+00,-5.767131969332695007e-02
-7.854849696159362793e-01,-3.213491678237915039e+00,5.774298682808876038e-02
-7.863861918449401855e-01,-3.217178821563720703e+00,1.735687553882598877e-01
-7.873738408088684082e-01,-3.221219301223754883e+00,2.901166677474975586e-01
-7.883559465408325195e-01,-3.225237131118774414e+00,4.076674282550811768e-01
-7.892968058586120605e-01,-3.229086399078369141e+00,5.264931917190551758e-01
-7.904333472251892090e-01,-3.233736038208007812e+00,6.470791697502136230e-01
-7.915112972259521484e-01,-3.238146066665649414e+00,7.695930004119873047e-01
-7.259973287582397461e-01,-3.165901660919189453e+00,-8.703182935714721680e-01
-7.270629405975341797e-01,-3.170548677444458008e+00,-7.509772777557373047e-01
-7.280176877975463867e-01,-3.174711942672729492e+00,-6.331183314323425293e-01
-7.287634611129760742e-01,-3.177964210510253906e+00,-5.164042115211486816e-01
-7.297659516334533691e-01,-3.182335615158081055e+00,-4.008833467960357666e-01
-7.306255698204040527e-01,-3.186084508895874023e+00,-2.859811186790466309e-01
-7.315052151679992676e-01,-3.189920186996459961e+00,-1.715156883001327515e-01
-7.323954701423645020e-01,-3.193802595138549805e+00,-5.719496682286262512e-02
-7.332981228828430176e-01,-3.197738885879516602e+00,5.726545676589012146e-02
-7.342279553413391113e-01,-3.201793432235717773e+00,1.721540987491607666e-01
-7.350246906280517578e-01,-3.205267906188964844e+00,2.877030074596405029e-01
-7.360958456993103027e-01,-3.209939002990722656e+00,4.043605923652648926e-01
-7.369766235351562500e-01,-3.213779926300048828e+00,5.222241282463073730e-01
-7.377702593803405762e-01,-3.217240810394287109e+00,6.415995955467224121e-01
-7.387255430221557617e-01,-3.221406459808349609e+00,7.630234360694885254e-01
-6.747030019760131836e-01,-3.148391723632812500e+00,-8.627614974975585938e-01
-6.755008697509765625e-01,-3.152114868164062500e+00,-7.442446351051330566e-01
-6.764266490936279297e-01,-3.156434774398803711e+00,-6.274782419204711914e-01
-6.772838830947875977e-01,-3.160434961318969727e+00,-5.119280815124511719e-01
-6.781067252159118652e-01,-3.164274692535400391e+00,-3.973447978496551514e-01
-6.789216399192810059e-01,-3.168077230453491211e+00,-2.834635078907012939e-01
-6.797474622726440430e-01,-3.171931028366088867e+00,-1.700078994035720825e-01
-6.805746555328369141e-01,-3.175790786743164062e+00,-5.669215321540832520e-02
-6.814054846763610840e-01,-3.179667949676513672e+00,5.676136538386344910e-02
-6.822530031204223633e-01,-3.183622598648071289e+00,1.706345230340957642e-01
-6.831027865409851074e-01,-3.187588214874267578e+00,2.852092385292053223e-01
-6.839326024055480957e-01,-3.191460132598876953e+00,4.007585346698760986e-01
-6.847119331359863281e-01,-3.195096731185913086e+00,5.175426006317138672e-01
-6.856442093849182129e-01,-3.199447154998779297e+00,6.360288262367248535e-01
-6.865115761756896973e-01,-3.203494548797607422e+00,7.563759088516235352e-01
-6.248782873153686523e-01,-3.134172677993774414e+00,-8.563264012336730957e-01
-6.256257295608520508e-01,-3.137921810150146484e+00,-7.387035489082336426e-01
-6.263287663459777832e-01,-3.141448020935058594e+00,-6.226530075073242188e-01
-6.271497607231140137e-01,-3.145565748214721680e+00,-5.080134868621826172e-01
-6.279326081275939941e-01,-3.149492263793945312e+00,-3.943195044994354248e-01
-6.287012696266174316e-01,-3.153347492218017578e+00,-2.813115715980529785e-01
-6.294726729393005371e-01,-3.157216787338256836e+00,-1.687190532684326172e-01
-6.302388906478881836e-01,-3.161059856414794922e+00,-5.626238882541656494e-02
-6.310011744499206543e-01,-3.164883136749267578e+00,5.633043870329856873e-02
-6.317721009254455566e-01,-3.168749809265136719e+00,1.693353801965713501e-01
-6.325383782386779785e-01,-3.172593116760253906e+00,2.830284833908081055e-01
-6.332791447639465332e-01,-3.176308631896972656e+00,3.976769447326660156e-01
-6.341567039489746094e-01,-3.180710077285766602e+00,5.136893391609191895e-01
-6.350117325782775879e-01,-3.184998750686645508e+00,6.312850117683410645e-01
-6.357990503311157227e-01,-3.188947677612304688e+00,7.507155537605285645e-01
-5.756037235260009766e-01,-3.119199275970458984e+00,-8.498972058296203613e-01
-5.765033364295959473e-01,-3.124074220657348633e+00,-7.334259152412414551e-01
-5.771535634994506836e-01,-3.127597808837890625e+00,-6.182070970535278320e-01
-5.779054760932922363e-01,-3.131672382354736328e+00,-5.043821334838867188e-01
-5.785347819328308105e-01,-3.135082483291625977e+00,-3.914385437965393066e-01
-5.792562365531921387e-01,-3.138992071151733398e+00,-2.792626619338989258e-01
-5.799736976623535156e-01,-3.142880201339721680e+00,-1.674921363592147827e-01
-5.806795358657836914e-01,-3.146704912185668945e+00,-5.585323646664619446e-02
-5.813754796981811523e-01,-3.150476455688476562e+00,5.592017620801925659e-02
-5.820724368095397949e-01,-3.154253244400024414e+00,1.680982261896133423e-01
-5.828708410263061523e-01,-3.158579826354980469e+00,2.810052931308746338e-01
-5.835583209991455078e-01,-3.162305116653442383e+00,3.948374986648559570e-01
-5.843647718429565430e-01,-3.166675329208374023e+00,5.100196003913879395e-01
-5.849384069442749023e-01,-3.169783830642700195e+00,6.265457272529602051e-01
-5.858522653579711914e-01,-3.174736022949218750e+00,7.453196048736572266e-01
-5.268413424491882324e-01,-3.103194952011108398e+00,-8.433953523635864258e-01
-5.275209546089172363e-01,-3.107197761535644531e+00,-7.276167869567871094e-01
-5.281505584716796875e-01,-3.110906362533569336e+00,-6.133508086204528809e-01
-5.288658738136291504e-01,-3.115119695663452148e+00,-5.004457235336303711e-01
-5.295360684394836426e-01,-3.119067430496215820e+00,-3.884527981281280518e-01
-5.301812291145324707e-01,-3.122867584228515625e+00,-2.771246135234832764e-01
-5.308156609535217285e-01,-3.126604318618774414e+00,-1.662028282880783081e-01
-5.314614772796630859e-01,-3.130408287048339844e+00,-5.542327463626861572e-02
-5.321208834648132324e-01,-3.134292602539062500e+00,5.549204349517822266e-02
-5.327739715576171875e-01,-3.138139247894287109e+00,1.668159961700439453e-01
-5.334100127220153809e-01,-3.141885757446289062e+00,2.788122594356536865e-01
-5.340117812156677246e-01,-3.145430326461791992e+00,3.917360305786132812e-01
-5.347144603729248047e-01,-3.149569272994995117e+00,5.059800148010253906e-01
-5.353853702545166016e-01,-3.153520822525024414e+00,6.217526793479919434e-01
-5.361998081207275391e-01,-3.158318042755126953e+00,7.395876646041870117e-01
-4.788519144058227539e-01,-3.087703227996826172e+00,-8.372364044189453125e-01
-4.794834852218627930e-01,-3.091775655746459961e+00,-7.223242521286010742e-01
-4.800631999969482422e-01,-3.095513820648193359e+00,-6.088988184928894043e-01
-4.806219339370727539e-01,-3.099116563796997070e+00,-4.967187345027923584e-01
-4.812503457069396973e-01,-3.103168725967407227e+00,-3.855753540992736816e-01
-4.818498790264129639e-01,-3.107034683227539062e+00,-2.750793695449829102e-01
-4.824330210685729980e-01,-3.110794782638549805e+00,-1.649784594774246216e-01
-4.830201566219329834e-01,-3.114580631256103516e+00,-5.501500889658927917e-02
-4.836126267910003662e-01,-3.118401050567626953e+00,5.508249253034591675e-02
-4.841931164264678955e-01,-3.122144222259521484e+00,1.655803620815277100e-01
-4.847517609596252441e-01,-3.125746250152587891e+00,2.767359912395477295e-01
-4.853907525539398193e-01,-3.129866600036621094e+00,3.888926208019256592e-01
-4.860221147537231445e-01,-3.133937835693359375e+00,5.022997856140136719e-01
-4.866176843643188477e-01,-3.137778043746948242e+00,6.172123551368713379e-01
-4.871442615985870361e-01,-3.141173362731933594e+00,7.338649034500122070e-01
-4.318942427635192871e-01,-3.074893474578857422e+00,-8.320015668869018555e-01
-4.324742257595062256e-01,-3.079022645950317383e+00,-7.178250551223754883e-01
-4.330017566680908203e-01,-3.082778453826904297e+00,-6.051126122474670410e-01
-4.335046112537384033e-01,-3.086358547210693359e+00,-4.936288595199584961e-01
-4.340053796768188477e-01,-3.089923858642578125e+00,-3.831185400485992432e-01
-4.345568418502807617e-01,-3.093849897384643555e+00,-2.733333706855773926e-01
-4.350882768630981445e-01,-3.097633600234985352e+00,-1.639333963394165039e-01
-4.356177747249603271e-01,-3.101403236389160156e+00,-5.466651171445846558e-02
-4.361467361450195312e-01,-3.105169296264648438e+00,5.473288893699645996e-02
-4.366593360900878906e-01,-3.108818769454956055e+00,1.645253449678421021e-01
-4.372296333312988281e-01,-3.112879037857055664e+00,2.750145494937896729e-01
-4.378071129322052002e-01,-3.116990327835083008e+00,3.864745199680328369e-01
-4.383718669414520264e-01,-3.121011257171630859e+00,4.991711676120758057e-01
-4.388986527919769287e-01,-3.124761581420898438e+00,6.133534312248229980e-01
-4.393577873706817627e-01,-3.128030538558959961e+00,7.292504310607910156e-01
-3.852542936801910400e-01,-3.060203552246093750e+00,-8.264500498771667480e-01
-3.856718838214874268e-01,-3.063520669937133789e+00,-7.128510475158691406e-01
-3.861698806285858154e-01,-3.067476511001586914e+00,-6.009625196456909180e-01
-3.866407573223114014e-01,-3.071216821670532227e+00,-4.902717173099517822e-01
-3.871566951274871826e-01,-3.075314998626708984e+00,-3.805811107158660889e-01
-3.876071870326995850e-01,-3.078893423080444336e+00,-2.714940309524536133e-01
-3.880868554115295410e-01,-3.082703590393066406e+00,-1.628326177597045898e-01
-3.885591924190521240e-01,-3.086455583572387695e+00,-5.429944023489952087e-02
-3.890253603458404541e-01,-3.090158462524414062e+00,5.436458438634872437e-02
-3.895242214202880859e-01,-3.094120979309082031e+00,1.634356975555419922e-01
-3.899631202220916748e-01,-3.097607374191284180e+00,2.731442153453826904e-01
-3.904556035995483398e-01,-3.101519346237182617e+00,3.838240206241607666e-01
-3.909314870834350586e-01,-3.105299234390258789e+00,4.957124888896942139e-01
-3.915022909641265869e-01,-3.109833478927612305e+00,6.092608571052551270e-01
-3.918930292129516602e-01,-3.112937211990356445e+00,7.243497967720031738e-01
-3.392469584941864014e-01,-3.045918226242065430e+00,-8.211966156959533691e-01
-3.396277725696563721e-01,-3.049337387084960938e+00,-7.083469629287719727e-01
-3.400738239288330078e-01,-3.053342103958129883e+00,-5.971785783767700195e-01
-3.404908478260040283e-01,-3.057086467742919922e+00,-4.871881306171417236e-01
-3.408960103988647461e-01,-3.060724258422851562e+00,-3.781329095363616943e-01
-3.413031101226806641e-01,-3.064379453659057617e+00,-2.697558104991912842e-01
-3.417304754257202148e-01,-3.068216323852539062e+00,-1.617924422025680542e-01
-3.421463370323181152e-01,-3.071950197219848633e+00,-5.395257100462913513e-02
-3.425518274307250977e-01,-3.075591087341308594e+00,5.401651188731193542e-02
-3.429806828498840332e-01,-3.079441547393798828e+00,1.623843610286712646e-01
-3.434166014194488525e-01,-3.083355426788330078e+00,2.714262604713439941e-01
-3.438480496406555176e-01,-3.087229013442993164e+00,3.814073801040649414e-01
-3.442595005035400391e-01,-3.090923309326171875e+00,4.925805032253265381e-01
-3.447489738464355469e-01,-3.095318078994750977e+00,6.053882837295532227e-01
-3.452093899250030518e-01,-3.099451780319213867e+00,7.199883460998535156e-01
-2.938302457332611084e-01,-3.032003402709960938e+00,-8.162275552749633789e-01
-2.941721975803375244e-01,-3.035531759262084961e+00,-7.040897607803344727e-01
-2.944954633712768555e-01,-3.038867712020874023e+00,-5.934624075889587402e-01
-2.948743999004364014e-01,-3.042777776718139648e+00,-4.841856360435485840e-01
-2.952389121055603027e-01,-3.046539068222045898e+00,-3.758198022842407227e-01
-2.956243753433227539e-01,-3.050516843795776367e+00,-2.681355178356170654e-01
-2.959751486778259277e-01,-3.054136037826538086e+00,-1.608100980520248413e-01
-2.963353395462036133e-01,-3.057852983474731445e+00,-5.362499505281448364e-02
-2.967059016227722168e-01,-3.061676979064941406e+00,5.369205400347709656e-02
-2.970444560050964355e-01,-3.065170288085937500e+00,1.613910794258117676e-01
-2.974083125591278076e-01,-3.068924903869628906e+00,2.697535753250122070e-01
-2.977639436721801758e-01,-3.072594404220581055e+00,3.790340125560760498e-01
-2.981840372085571289e-01,-3.076929569244384766e+00,4.896200895309448242e-01
-2.985958456993103027e-01,-3.081178903579711914e+00,6.017253994941711426e-01
-2.989779114723205566e-01,-3.085121393203735352e+00,7.155920863151550293e-01
-2.488169670104980469e-01,-3.016630887985229492e+00,-8.110474348068237305e-01
-2.491195797920227051e-01,-3.020299911499023438e+00,-6.996579766273498535e-01
-2.494022101163864136e-01,-3.023726463317871094e+00,-5.897479057312011719e-01
-2.497272044420242310e-01,-3.027666568756103516e+00,-4.811629951000213623e-01
-2.500357031822204590e-01,-3.031406879425048828e+00,-3.734733760356903076e-01
-2.503373324871063232e-01,-3.035063505172729492e+00,-2.664349675178527832e-01
-2.506387531757354736e-01,-3.038717985153198242e+00,-1.597930341958999634e-01
-2.509437501430511475e-01,-3.042416095733642578e+00,-5.328582972288131714e-02
-2.512532472610473633e-01,-3.046168327331542969e+00,5.335154756903648376e-02
-2.515648007392883301e-01,-3.049945592880249023e+00,1.603834331035614014e-01
-2.518731653690338135e-01,-3.053683996200561523e+00,2.680695652961730957e-01
-2.521702051162719727e-01,-3.057285308837890625e+00,3.766616284847259521e-01
-2.525170743465423584e-01,-3.061490774154663086e+00,4.865383803844451904e-01
-2.528524994850158691e-01,-3.065557241439819336e+00,5.979065895080566406e-01
-2.531586289405822754e-01,-3.069268941879272461e+00,7.110017538070678711e-01
-2.044985294342041016e-01,-3.003449201583862305e+00,-8.066338300704956055e-01
-2.047566324472427368e-01,-3.007239818572998047e+00,-6.958824396133422852e-01
-2.049949467182159424e-01,-3.010740041732788086e+00,-5.865826606750488281e-01
-2.052268683910369873e-01,-3.014146327972412109e+00,-4.784984588623046875e-01
-2.054902017116546631e-01,-3.018013715744018555e+00,-3.714229166507720947e-01
-2.057446539402008057e-01,-3.021750926971435547e+00,-2.649806439876556396e-01
-2.059957534074783325e-01,-3.025438785552978516e+00,-1.589234024286270142e-01
-2.062464803457260132e-01,-3.029121160507202148e+00,-5.299584567546844482e-02
-2.064974606037139893e-01,-3.032807350158691406e+00,5.306033790111541748e-02
-2.067468911409378052e-01,-3.036470651626586914e+00,1.595028936862945557e-01
-2.069904655218124390e-01,-3.040048122406005859e+00,2.665851414203643799e-01
-2.072701454162597656e-01,-3.044155597686767578e+00,3.746401369571685791e-01
-2.075491100549697876e-01,-3.048252820968627930e+00,4.839129149913787842e-01
-2.078153192996978760e-01,-3.052162647247314453e+00,5.946530103683471680e-01
-2.080543190240859985e-01,-3.055672645568847656e+00,7.070899009704589844e-01
-1.605715900659561157e-01,-2.988931179046630859e+00,-8.020353317260742188e-01
-1.607380062341690063e-01,-2.992028951644897461e+00,-6.917593479156494141e-01
-1.609770357608795166e-01,-2.996478319168090820e+00,-5.832954049110412598e-01
-1.611625850200653076e-01,-2.999932050704956055e+00,-4.758270084857940674e-01
-1.613697409629821777e-01,-3.003788232803344727e+00,-3.693501055240631104e-01
-1.615541875362396240e-01,-3.007221460342407227e+00,-2.634767889976501465e-01
-1.617542505264282227e-01,-3.010945558547973633e+00,-1.580242812633514404e-01
-1.619511246681213379e-01,-3.014610290527343750e+00,-5.269601941108703613e-02
-1.621453315019607544e-01,-3.018225193023681641e+00,5.275920778512954712e-02
-1.623566150665283203e-01,-3.022158384323120117e+00,1.586127579212188721e-01
-1.625475287437438965e-01,-3.025712013244628906e+00,2.650968134403228760e-01
-1.627636849880218506e-01,-3.029735565185546875e+00,3.725406229496002197e-01
-1.629302948713302612e-01,-3.032836675643920898e+00,4.810461103916168213e-01
-1.631759852170944214e-01,-3.037410259246826172e+00,5.912632346153259277e-01
-1.633516252040863037e-01,-3.040679454803466797e+00,7.030074000358581543e-01
-1.172032579779624939e-01,-2.976338624954223633e+00,-7.981243729591369629e-01
-1.173307746648788452e-01,-2.979576587677001953e+00,-6.884215474128723145e-01
-1.174817234277725220e-01,-2.983410120010375977e+00,-5.803647637367248535e-01
-1.176463663578033447e-01,-2.987591028213500977e+00,-4.735539555549621582e-01
-1.177820190787315369e-01,-2.991035938262939453e+00,-3.675371110439300537e-01
-1.179299578070640564e-01,-2.994792938232421875e+00,-2.622131109237670898e-01
-1.180686727166175842e-01,-2.998315572738647461e+00,-1.572566032409667969e-01
-1.182124018669128418e-01,-3.001965284347534180e+00,-5.244003236293792725e-02
-1.183614358305931091e-01,-3.005749940872192383e+00,5.250614508986473083e-02
-1.185023486614227295e-01,-3.009328365325927734e+00,1.578342169523239136e-01
-1.186573728919029236e-01,-3.013265132904052734e+00,2.638304829597473145e-01
-1.187856793403625488e-01,-3.016523599624633789e+00,3.706690371036529541e-01
-1.189310401678085327e-01,-3.020215034484863281e+00,4.787250757217407227e-01
-1.191042587161064148e-01,-3.024613857269287109e+00,5.883801579475402832e-01
-1.192693561315536499e-01,-3.028806447982788086e+00,6.997959017753601074e-01
-7.421335577964782715e-02,-2.962519407272338867e+00,-7.940524816513061523e-01
-7.429881393909454346e-02,-2.965930938720703125e+00,-6.849528551101684570e-01
-7.439760863780975342e-02,-2.969874620437622070e+00,-5.774653553962707520e-01
-7.449016720056533813e-02,-2.973569631576538086e+00,-4.711142182350158691e-01
-7.458031922578811646e-02,-2.977168321609497070e+00,-3.656644523143768311e-01
-7.467674463987350464e-02,-2.981017589569091797e+00,-2.608866691589355469e-01
-7.476604729890823364e-02,-2.984582424163818359e+00,-1.564641743898391724e-01
-7.485704869031906128e-02,-2.988214969635009766e+00,-5.217577517032623291e-02
-7.494998723268508911e-02,-2.991925239562988281e+00,5.224055424332618713e-02
-7.503645122051239014e-02,-2.995376825332641602e+00,1.570300608873367310e-01
-7.513032853603363037e-02,-2.999124050140380859e+00,2.624712884426116943e-01
-7.522337883710861206e-02,-3.002838373184204102e+00,3.688173294067382812e-01
-7.531218975782394409e-02,-3.006383895874023438e+00,4.763130843639373779e-01
-7.541708648204803467e-02,-3.010571241378784180e+00,5.853784680366516113e-01
-7.551547139883041382e-02,-3.014498710632324219e+00,6.961691379547119141e-01
-3.165332600474357605e-02,-2.949036121368408203e+00,-7.902361750602722168e-01
-3.169186040759086609e-02,-2.952626228332519531e+00,-6.817057132720947266e-01
-3.173542022705078125e-02,-2.956684589385986328e+00,-5.747534632682800293e-01
-3.177573531866073608e-02,-2.960440874099731445e+00,-4.689140617847442627e-01
-3.181440010666847229e-02,-2.964043140411376953e+00,-3.639591634273529053e-01
-3.185265511274337769e-02,-2.967607021331787109e+00,-2.596465349197387695e-01
-3.189136087894439697e-02,-2.971213340759277344e+00,-1.557234227657318115e-01
-3.193018585443496704e-02,-2.974830389022827148e+00,-5.192876979708671570e-02
-3.196920827031135559e-02,-2.978465795516967773e+00,5.199223384261131287e-02
-3.200897201895713806e-02,-2.982170581817626953e+00,1.562977135181427002e-01
-3.204881027340888977e-02,-2.985882282257080078e+00,2.612454891204833984e-01
-3.208766505122184753e-02,-2.989502191543579102e+00,3.670853078365325928e-01
-3.212411329150199890e-02,-2.992897987365722656e+00,4.740550816059112549e-01
-3.216674923896789551e-02,-2.996870279312133789e+00,5.825652480125427246e-01
-3.220603615045547485e-02,-3.000530242919921875e+00,6.927658319473266602e-01
1.050764415413141251e-02,-2.935536861419677734e+00,-7.865785360336303711e-01
1.052076183259487152e-02,-2.939201354980468750e+00,-6.785714030265808105e-01
1.053291745483875275e-02,-2.942597389221191406e+00,-5.719857811927795410e-01
1.054666750133037567e-02,-2.946438550949096680e+00,-4.666723012924194336e-01
1.055830158293247223e-02,-2.949688911437988281e+00,-3.621780276298522949e-01
1.057144720107316971e-02,-2.953361272811889648e+00,-2.583869099617004395e-01
1.058451831340789795e-02,-2.957013130187988281e+00,-1.549712568521499634e-01
1.059740222990512848e-02,-2.960612535476684570e+00,-5.167793855071067810e-02
1.061012968420982361e-02,-2.964168310165405273e+00,5.174000188708305359e-02
1.062287669628858566e-02,-2.967729330062866211e+00,1.555328667163848877e-01
1.063730381429195404e-02,-2.971759796142578125e+00,2.599965631961822510e-01
1.064982917159795761e-02,-2.975259065628051758e+00,3.653176724910736084e-01
1.066425628960132599e-02,-2.979289770126342773e+00,4.718754291534423828e-01
1.067808270454406738e-02,-2.983152151107788086e+00,5.798688530921936035e-01
1.069056242704391479e-02,-2.986638784408569336e+00,6.895232796669006348e-01
5.229787528514862061e-02,-2.922674894332885742e+00,-7.832524776458740234e-01
5.236679688096046448e-02,-2.926526546478271484e+00,-6.757490038871765137e-01
5.242995545268058777e-02,-2.930056095123291016e+00,-5.696355104446411133e-01
5.249068886041641235e-02,-2.933450222015380859e+00,-4.646865427494049072e-01
5.255837738513946533e-02,-2.937232971191406250e+00,-3.607040643692016602e-01
5.262325331568717957e-02,-2.940858602523803711e+00,-2.573325932025909424e-01
5.268670246005058289e-02,-2.944404363632202148e+00,-1.543341726064682007e-01
5.275083333253860474e-02,-2.947988510131835938e+00,-5.146549269556999207e-02
5.281580984592437744e-02,-2.951619625091552734e+00,5.152888223528862000e-02
5.287982895970344543e-02,-2.955197334289550781e+00,1.548998951911926270e-01
5.294180661439895630e-02,-2.958661079406738281e+00,2.588903605937957764e-01
5.301190912723541260e-02,-2.962578535079956055e+00,3.638165891170501709e-01
5.308105424046516418e-02,-2.966443061828613281e+00,4.699129164218902588e-01
5.314617231488227844e-02,-2.970082044601440430e+00,5.774170160293579102e-01
5.320366099476814270e-02,-2.973294734954833984e+00,6.865479946136474609e-01
9.371290355920791626e-02,-2.908933639526367188e+00,-7.798495888710021973e-01
9.384406358003616333e-02,-2.913004875183105469e+00,-6.728680729866027832e-01
9.396294504404067993e-02,-2.916695356369018555e+00,-5.672413706779479980e-01
9.407547861337661743e-02,-2.920188426971435547e+00,-4.627516567707061768e-01
9.418654441833496094e-02,-2.923635959625244141e+00,-3.591630458831787109e-01
9.430687874555587769e-02,-2.927371263504028320e+00,-2.562442719936370850e-01
9.442267566919326782e-02,-2.930965662002563477e+00,-1.536848545074462891e-01
9.453760832548141479e-02,-2.934533357620239258e+00,-5.124896764755249023e-02
9.465197473764419556e-02,-2.938083410263061523e+00,5.131096392869949341e-02
9.476261585950851440e-02,-2.941517591476440430e+00,1.542381495237350464e-01
9.488397836685180664e-02,-2.945285081863403320e+00,2.578123509883880615e-01
9.500592201948165894e-02,-2.949070215225219727e+00,3.622876107692718506e-01
9.512405097484588623e-02,-2.952737092971801758e+00,4.679095149040222168e-01
9.523300826549530029e-02,-2.956119060516357422e+00,5.749085545539855957e-01
9.536056965589523315e-02,-2.960078954696655273e+00,6.837415695190429688e-01
1.348300129175186157e-01,-2.896425962448120117e+00,-7.769342660903930664e-01
1.349877864122390747e-01,-2.899815320968627930e+00,-6.701990365982055664e-01
1.351672112941741943e-01,-2.903669834136962891e+00,-5.650265812873840332e-01
1.353345960378646851e-01,-2.907265424728393555e+00,-4.609635472297668457e-01
1.354967653751373291e-01,-2.910749197006225586e+00,-3.577815592288970947e-01
1.356591135263442993e-01,-2.914237022399902344e+00,-2.552384138107299805e-01
1.358286738395690918e-01,-2.917879581451416016e+00,-1.530849486589431763e-01
1.359940171241760254e-01,-2.921431064605712891e+00,-5.104891583323478699e-02
1.361555457115173340e-01,-2.924901008605957031e+00,5.110954865813255310e-02
1.363255083560943604e-01,-2.928552389144897461e+00,1.536448895931243896e-01
1.364977061748504639e-01,-2.932251453399658203e+00,2.568161785602569580e-01
1.366675645112991333e-01,-2.935900449752807617e+00,3.608730733394622803e-01
1.368290036916732788e-01,-2.939368486404418945e+00,4.660536646842956543e-01
1.370171010494232178e-01,-2.943409204483032227e+00,5.727594494819641113e-01
1.371921002864837646e-01,-2.947168350219726562e+00,6.811432242393493652e-01
1.756051927804946899e-01,-2.883286714553833008e+00,-7.740046977996826172e-01
1.758260428905487061e-01,-2.886912822723388672e+00,-6.677303314208984375e-01
1.760709285736083984e-01,-2.890933752059936523e+00,-5.629810094833374023e-01
1.762963086366653442e-01,-2.894634246826171875e+00,-4.593138694763183594e-01
1.765110045671463013e-01,-2.898159503936767578e+00,-3.565081059932708740e-01
1.767218410968780518e-01,-2.901621103286743164e+00,-2.543289661407470703e-01
1.769336014986038208e-01,-2.905098199844360352e+00,-1.525316387414932251e-01
1.771489828824996948e-01,-2.908634662628173828e+00,-5.086440593004226685e-02
1.773685067892074585e-01,-2.912238836288452148e+00,5.092743784189224243e-02
1.775906085968017578e-01,-2.915885686874389648e+00,1.530980318784713745e-01
1.778114736080169678e-01,-2.919512033462524414e+00,2.558971345424652100e-01
1.780253350734710693e-01,-2.923023462295532227e+00,3.595666587352752686e-01
1.782243102788925171e-01,-2.926290512084960938e+00,4.643369913101196289e-01
1.784537136554718018e-01,-2.930057287216186523e+00,5.705999135971069336e-01
1.787253767251968384e-01,-2.934517621994018555e+00,6.787410974502563477e-01
2.161594927310943604e-01,-2.871269226074218750e+00,-7.715301513671875000e-01
2.164408266544342041e-01,-2.875006198883056641e+00,-6.656247377395629883e-01
2.166995704174041748e-01,-2.878443002700805664e+00,-5.610951185226440430e-01
2.169495671987533569e-01,-2.881763696670532227e+00,-4.577174484729766846e-01
2.172285467386245728e-01,-2.885469436645507812e+00,-3.552931547164916992e-01
2.174979448318481445e-01,-2.889047861099243164e+00,-2.534738183021545410e-01
2.177636176347732544e-01,-2.892576932907104492e+00,-1.520222872495651245e-01
2.180287092924118042e-01,-2.896097898483276367e+00,-5.069455504417419434e-02
2.182938605546951294e-01,-2.899620056152343750e+00,5.075620859861373901e-02
2.185572087764739990e-01,-2.903118133544921875e+00,1.525762975215911865e-01
2.188142091035842896e-01,-2.906531810760498047e+00,2.550078034400939941e-01
2.191049754619598389e-01,-2.910394191741943359e+00,3.583621680736541748e-01
2.193931192159652710e-01,-2.914221525192260742e+00,4.628728032112121582e-01
2.196658849716186523e-01,-2.917844772338867188e+00,5.687757134437561035e-01
2.199081629514694214e-01,-2.921062946319580078e+00,6.762878894805908203e-01
2.563949525356292725e-01,-2.858561038970947266e+00,-7.690227627754211426e-01
2.567517459392547607e-01,-2.862538814544677734e+00,-6.635211706161499023e-01
2.570762336254119873e-01,-2.866156578063964844e+00,-5.593600869178771973e-01
2.573845088481903076e-01,-2.869593381881713867e+00,-4.563228189945220947e-01
2.577208876609802246e-01,-2.873343706130981445e+00,-3.542180359363555908e-01
2.580213248729705811e-01,-2.876693487167358398e+00,-2.526880502700805664e-01
2.583424150943756104e-01,-2.880273103713989258e+00,-1.515544652938842773e-01
2.586568593978881836e-01,-2.883779048919677734e+00,-5.053854733705520630e-02
2.589655518531799316e-01,-2.887220621109008789e+00,5.059885978698730469e-02
2.592971920967102051e-01,-2.890918254852294922e+00,1.521145850419998169e-01
2.595966458320617676e-01,-2.894256591796875000e+00,2.542307674884796143e-01
2.599298357963562012e-01,-2.897971630096435547e+00,3.572540879249572754e-01
2.602539062500000000e-01,-2.901584386825561523e+00,4.614100158214569092e-01
2.605540752410888672e-01,-2.904931306838989258e+00,5.669273734092712402e-01
2.609028816223144531e-01,-2.908819913864135742e+00,6.742488741874694824e-01
2.963968217372894287e-01,-2.846114158630371094e+00,-7.667370438575744629e-01
2.968267798423767090e-01,-2.850242614746093750e+00,-6.615880131721496582e-01
2.971489131450653076e-01,-2.853335857391357422e+00,-5.576309561729431152e-01
2.975213229656219482e-01,-2.856912136077880859e+00,-4.549368321895599365e-01
2.978829443454742432e-01,-2.860384225845336914e+00,-3.531098663806915283e-01
2.982667386531829834e-01,-2.864069938659667969e+00,-2.519283890724182129e-01
2.986239790916442871e-01,-2.867500066757202148e+00,-1.510917991399765015e-01
2.989875376224517822e-01,-2.870990991592407227e+00,-5.038427561521530151e-02
2.993581891059875488e-01,-2.874550342559814453e+00,5.044674128293991089e-02
2.997049689292907715e-01,-2.877880096435546875e+00,1.516387462615966797e-01
3.000784218311309814e-01,-2.881466388702392578e+00,2.534585893154144287e-01
3.004474043846130371e-01,-2.885009288787841797e+00,3.561497628688812256e-01
3.008755445480346680e-01,-2.889120578765869141e+00,4.600657224655151367e-01
3.012049198150634766e-01,-2.892283439636230469e+00,5.652424693107604980e-01
3.015823066234588623e-01,-2.895906925201416016e+00,6.721874475479125977e-01
3.361873924732208252e-01,-2.833887577056884766e+00,-7.646612524986267090e-01
3.366096913814544678e-01,-2.837447166442871094e+00,-6.596687436103820801e-01
3.370027244091033936e-01,-2.840760231018066406e+00,-5.560590028762817383e-01
3.374435901641845703e-01,-2.844476699829101562e+00,-4.536792635917663574e-01
3.378638029098510742e-01,-2.848018646240234375e+00,-3.521442711353302002e-01
3.382762372493743896e-01,-2.851495265960693359e+00,-2.512224912643432617e-01
3.386901021003723145e-01,-2.854984045028686523e+00,-1.506723165512084961e-01
3.391024470329284668e-01,-2.858459949493408203e+00,-5.024439468979835510e-02
3.395141661167144775e-01,-2.861930608749389648e+00,5.030540004372596741e-02
3.399303555488586426e-01,-2.865438699722290039e+00,1.512240618467330933e-01
3.403438925743103027e-01,-2.868924617767333984e+00,2.527580261230468750e-01
3.407436907291412354e-01,-2.872294664382934570e+00,3.551459014415740967e-01
3.412012159824371338e-01,-2.876151561737060547e+00,4.587312042713165283e-01
3.416409790515899658e-01,-2.879858255386352539e+00,5.637121796607971191e-01
3.420391976833343506e-01,-2.883215188980102539e+00,6.703091859817504883e-01
3.757014274597167969e-01,-2.821200847625732422e+00,-7.626109123229980469e-01
3.762018978595733643e-01,-2.824958562850952148e+00,-6.579498052597045898e-01
3.766594231128692627e-01,-2.828394412994384766e+00,-5.546369552612304688e-01
3.770980536937713623e-01,-2.831688165664672852e+00,-4.524540901184082031e-01
3.775813579559326172e-01,-2.835317134857177734e+00,-3.512060642242431641e-01
3.780456483364105225e-01,-2.838803768157958984e+00,-2.505553960800170898e-01
3.785009384155273438e-01,-2.842222690582275391e+00,-1.502693593502044678e-01
3.789617121219635010e-01,-2.845682621002197266e+00,-5.011001229286193848e-02
3.794291317462921143e-01,-2.849192619323730469e+00,5.017181858420372009e-02
3.798908591270446777e-01,-2.852659702301025391e+00,1.508211642503738403e-01
3.803391456604003906e-01,-2.856025934219360352e+00,2.520754337310791016e-01
3.808405697345733643e-01,-2.859791040420532227e+00,3.542376160621643066e-01
3.813335597515106201e-01,-2.863493204116821289e+00,4.575359523296356201e-01
3.817960619926452637e-01,-2.866966247558593750e+00,5.622007250785827637e-01
3.823302090167999268e-01,-2.870977163314819336e+00,6.686678528785705566e-01
4.151234030723571777e-01,-2.809331893920898438e+00,-7.609307765960693359e-01
4.156003296375274658e-01,-2.812559366226196289e+00,-6.563801765441894531e-01
4.161406159400939941e-01,-2.816215991973876953e+00,-5.533601641654968262e-01
4.166495800018310547e-01,-2.819660186767578125e+00,-4.514389038085937500e-01
4.171967208385467529e-01,-2.823363065719604492e+00,-3.504291176795959473e-01
4.176830947399139404e-01,-2.826654434204101562e+00,-2.499851435422897339e-01
4.181970059871673584e-01,-2.830132484436035156e+00,-1.499312669038772583e-01
4.187061190605163574e-01,-2.833577871322631836e+00,-4.999727010726928711e-02
4.192116260528564453e-01,-2.836998939514160156e+00,5.005763471126556396e-02
4.197485744953155518e-01,-2.840632438659667969e+00,1.504875272512435913e-01
4.202307164669036865e-01,-2.843895435333251953e+00,2.515099048614501953e-01
4.207601249217987061e-01,-2.847478151321411133e+00,3.534222245216369629e-01
4.212694764137268066e-01,-2.850925207138061523e+00,4.564445614814758301e-01
4.218575656414031982e-01,-2.854905128479003906e+00,5.609622001647949219e-01
4.224083423614501953e-01,-2.858632564544677734e+00,6.671324968338012695e-01
4.543007314205169678e-01,-2.797024488449096680e+00,-7.592807412147521973e-01
4.548596143722534180e-01,-2.800465345382690430e+00,-6.550100445747375488e-01
4.553819298744201660e-01,-2.803681135177612305e+00,-5.521213412284851074e-01
4.559693932533264160e-01,-2.807297945022583008e+00,-4.504584074020385742e-01
4.565334022045135498e-01,-2.810770273208618164e+00,-3.496413826942443848e-01
4.571229219436645508e-01,-2.814399957656860352e+00,-2.494544684886932373e-01
4.576666653156280518e-01,-2.817747592926025391e+00,-1.496068835258483887e-01
4.582237899303436279e-01,-2.821177721023559570e+00,-4.988909512758255005e-02
4.587958157062530518e-01,-2.824699401855468750e+00,4.995137080550193787e-02
4.593259096145629883e-01,-2.827963113784790039e+00,1.501492559909820557e-01
4.598884880542755127e-01,-2.831426858901977539e+00,2.509636580944061279e-01
4.604370594024658203e-01,-2.834804296493530273e+00,3.526310622692108154e-01
4.610643088817596436e-01,-2.838666200637817383e+00,4.554917514324188232e-01
4.616704881191253662e-01,-2.842398166656494141e+00,5.597458481788635254e-01
4.622233211994171143e-01,-2.845801830291748047e+00,6.656140089035034180e-01
4.933334589004516602e-01,-2.784863233566284180e+00,-7.578186988830566406e-01
4.939810037612915039e-01,-2.788518667221069336e+00,-6.538026332855224609e-01
4.945750534534454346e-01,-2.791872262954711914e+00,-5.511335134506225586e-01
4.951473474502563477e-01,-2.795102834701538086e+00,-4.495927393436431885e-01
4.957794249057769775e-01,-2.798670768737792969e+00,-3.489832580089569092e-01
4.963912963867187500e-01,-2.802124977111816406e+00,-2.489707320928573608e-01
4.969959557056427002e-01,-2.805538177490234375e+00,-1.493210196495056152e-01
4.976010322570800781e-01,-2.808953762054443359e+00,-4.979377985000610352e-02
4.982078373432159424e-01,-2.812379121780395508e+00,4.985450208187103271e-02
4.988119602203369141e-01,-2.815789461135864258e+00,1.498666405677795410e-01
4.994032382965087891e-01,-2.819127321243286133e+00,2.504813969135284424e-01
5.000653266906738281e-01,-2.822864532470703125e+00,3.520001173019409180e-01
5.007193684577941895e-01,-2.826556682586669922e+00,4.546521306037902832e-01
5.013363957405090332e-01,-2.830039739608764648e+00,5.586680173873901367e-01
5.020448565483093262e-01,-2.834038972854614258e+00,6.644754409790039062e-01
5.321534276008605957e-01,-2.772378444671630859e+00,-7.564165592193603516e-01
5.329025387763977051e-01,-2.776281118392944336e+00,-6.526548862457275391e-01
5.334728360176086426e-01,-2.779252052307128906e+00,-5.500932335853576660e-01
5.342145562171936035e-01,-2.783116340637207031e+00,-4.488486647605895996e-01
5.348382592201232910e-01,-2.786365747451782227e+00,-3.483677804470062256e-01
5.354712605476379395e-01,-2.789663314819335938e+00,-2.485190480947494507e-01
5.361397266387939453e-01,-2.793146133422851562e+00,-1.490546464920043945e-01
5.367925167083740234e-01,-2.796546697616577148e+00,-4.970495030283927917e-02
5.374308824539184570e-01,-2.799872636795043945e+00,4.976406693458557129e-02
5.381097793579101562e-01,-2.803409337997436523e+00,1.496023386716842651e-01
5.388060808181762695e-01,-2.807036876678466797e+00,2.500667870044708252e-01
5.393949151039123535e-01,-2.810104608535766602e+00,3.513357341289520264e-01
5.401718616485595703e-01,-2.814152240753173828e+00,4.538540244102478027e-01
5.407862663269042969e-01,-2.817353248596191406e+00,5.576345324516296387e-01
5.414817333221435547e-01,-2.820976257324218750e+00,6.631619930267333984e-01
5.708597302436828613e-01,-2.760042428970336914e+00,-7.552028298377990723e-01
5.715824961662292480e-01,-2.763536930084228516e+00,-6.515155434608459473e-01
5.723690390586853027e-01,-2.767339706420898438e+00,-5.493007302284240723e-01
5.730964541435241699e-01,-2.770856857299804688e+00,-4.481485784053802490e-01
5.737935304641723633e-01,-2.774227142333984375e+00,-3.478413224220275879e-01
5.744825601577758789e-01,-2.777558565139770508e+00,-2.481478005647659302e-01
5.751792788505554199e-01,-2.780926942825317383e+00,-1.488266736268997192e-01
5.758795142173767090e-01,-2.784312486648559570e+00,-4.962892457842826843e-02
5.765849351882934570e-01,-2.787723302841186523e+00,4.968972131609916687e-02
5.773032903671264648e-01,-2.791196346282958984e+00,1.493762582540512085e-01
5.780223011970520020e-01,-2.794672727584838867e+00,2.496767938137054443e-01
5.787228941917419434e-01,-2.798059940338134766e+00,3.508296012878417969e-01
5.793796181678771973e-01,-2.801234960556030273e+00,4.530618488788604736e-01
5.801206231117248535e-01,-2.804817914962768555e+00,5.567398667335510254e-01
5.809763073921203613e-01,-2.808954954147338867e+00,6.622230410575866699e-01
6.096304655075073242e-01,-2.748557567596435547e+00,-7.543706297874450684e-01
6.102955341339111328e-01,-2.751555919647216797e+00,-6.506837606430053711e-01
6.111760735511779785e-01,-2.755526065826416016e+00,-5.486360192298889160e-01
6.118828058242797852e-01,-2.758712291717529297e+00,-4.475550353527069092e-01
6.126569509506225586e-01,-2.762202501296997070e+00,-3.473975956439971924e-01
6.134039163589477539e-01,-2.765570402145385742e+00,-2.478357851505279541e-01
6.141398549079895020e-01,-2.768888473510742188e+00,-1.486376225948333740e-01
6.148874759674072266e-01,-2.772258996963500977e+00,-4.956587776541709900e-02
6.156486868858337402e-01,-2.775691032409667969e+00,4.962724074721336365e-02
6.164044737815856934e-01,-2.779098749160766602e+00,1.491857171058654785e-01
6.171420812606811523e-01,-2.782423973083496094e+00,2.493461221456527710e-01
6.179607510566711426e-01,-2.786115169525146484e+00,3.504050374031066895e-01
6.186207532882690430e-01,-2.789090871810913086e+00,4.524834454059600830e-01
6.195201873779296875e-01,-2.793146133422851562e+00,5.561262965202331543e-01
6.203766465187072754e-01,-2.797007560729980469e+00,6.614320874214172363e-01
6.480804681777954102e-01,-2.736068487167358398e+00,-7.534117102622985840e-01
6.490114927291870117e-01,-2.739999294281005859e+00,-6.500810384750366211e-01
6.497243046760559082e-01,-2.743008613586425781e+00,-5.479392409324645996e-01
6.505336165428161621e-01,-2.746425151824951172e+00,-4.470264613628387451e-01
6.513924002647399902e-01,-2.750050783157348633e+00,-3.470063507556915283e-01
6.521592140197753906e-01,-2.753288269042968750e+00,-2.475462853908538818e-01
6.529633402824401855e-01,-2.756683111190795898e+00,-1.484689265489578247e-01
6.537581682205200195e-01,-2.760038614273071289e+00,-4.950962215662002563e-02
6.545459032058715820e-01,-2.763364315032958984e+00,4.956927895545959473e-02
6.553768515586853027e-01,-2.766872406005859375e+00,1.490176916122436523e-01
6.561251282691955566e-01,-2.770031452178955078e+00,2.490516602993011475e-01
6.569370627403259277e-01,-2.773459196090698242e+00,3.499600887298583984e-01
6.578648090362548828e-01,-2.777376174926757812e+00,4.520642757415771484e-01
6.585941314697265625e-01,-2.780455112457275391e+00,5.554194450378417969e-01
6.594088673591613770e-01,-2.783895015716552734e+00,6.604955196380615234e-01
6.866380572319030762e-01,-2.724391698837280273e+00,-7.528255581855773926e-01
6.875177025794982910e-01,-2.727881908416748047e+00,-6.494743824005126953e-01
6.883299350738525391e-01,-2.731104612350463867e+00,-5.474733114242553711e-01
6.892201900482177734e-01,-2.734637022018432617e+00,-4.466677010059356689e-01
6.900665163993835449e-01,-2.737994909286499023e+00,-3.466959595680236816e-01
