5.105128765106201172e+00,-3.292571902275085449e-01,2.681039273738861084e-01
5.111333847045898438e+00,-3.296574056148529053e-01,4.481122195720672607e-01
5.117405414581298828e+00,-3.300489783287048340e-01,6.296429038047790527e-01
5.124730110168457031e+00,-3.305214047431945801e-01,8.133626580238342285e-01
5.130136966705322266e+00,-3.308701217174530029e-01,9.992679953575134277e-01
5.136655807495117188e+00,-3.312905430793762207e-01,1.188352465629577637e+00
4.016130924224853516e+00,-2.013512551784515381e-01,-1.077468991279602051e+00
4.755164146423339844e+00,-2.384031563997268677e-01,-1.099193334579467773e+00
4.809313774108886719e+00,-2.411179840564727783e-01,-9.360085725784301758e-01
4.815408706665039062e+00,-2.414235770702362061e-01,-7.636426091194152832e-01
4.821283817291259766e+00,-2.417181134223937988e-01,-5.927218794822692871e-01
4.827564716339111328e+00,-2.420330196619033813e-01,-4.228870272636413574e-01
4.833231925964355469e+00,-2.423171401023864746e-01,-2.536167204380035400e-01
4.838950157165527344e+00,-2.426038384437561035e-01,-8.457015454769134521e-02
4.844974994659423828e+00,-2.429058849811553955e-01,8.467544615268707275e-02
4.850434780120849609e+00,-2.431796193122863770e-01,2.545194029808044434e-01
4.856364727020263672e+00,-2.434769272804260254e-01,4.254098832607269287e-01
4.862174987792968750e+00,-2.437682300806045532e-01,5.977489948272705078e-01
4.869190216064453125e+00,-2.441199421882629395e-01,7.721714377403259277e-01
4.874330997467041016e+00,-2.443776726722717285e-01,9.486625790596008301e-01
4.880655765533447266e+00,-2.446947693824768066e-01,1.128201603889465332e+00
4.016319751739501953e+00,-1.437701433897018433e-01,-1.076857328414916992e+00
4.600670814514160156e+00,-1.646878570318222046e-01,-1.062827229499816895e+00
4.605458259582519531e+00,-1.648592203855514526e-01,-8.957824707031250000e-01
4.611277103424072266e+00,-1.650675088167190552e-01,-7.308211922645568848e-01
4.616890430450439453e+00,-1.652684509754180908e-01,-5.672450661659240723e-01
4.622892856597900391e+00,-1.654833108186721802e-01,-4.047091603279113770e-01
4.628309726715087891e+00,-1.656772345304489136e-01,-2.427144348621368408e-01
4.633792400360107422e+00,-1.658734828233718872e-01,-8.093483000993728638e-02
4.639568328857421875e+00,-1.660802364349365234e-01,8.103571832180023193e-02
4.644813537597656250e+00,-1.662679910659790039e-01,2.435799092054367065e-01
4.650510311126708984e+00,-1.664719283580780029e-01,4.071269333362579346e-01
4.656105041503906250e+00,-1.666721999645233154e-01,5.720631480216979980e-01
4.662862777709960938e+00,-1.669141054153442383e-01,7.389968037605285645e-01
4.667822837829589844e+00,-1.670916527509689331e-01,9.079126119613647461e-01
4.673923492431640625e+00,-1.673100292682647705e-01,1.079749703407287598e+00
4.016226291656494141e+00,-8.623649924993515015e-02,-1.076390862464904785e+00
4.391006946563720703e+00,-9.428380429744720459e-02,-1.013975977897644043e+00
4.395558834075927734e+00,-9.438154101371765137e-02,-8.546056747436523438e-01
4.401094436645507812e+00,-9.450040757656097412e-02,-6.972244977951049805e-01
4.406438350677490234e+00,-9.461514651775360107e-02,-5.411664843559265137e-01
4.412158966064453125e+00,-9.473798424005508423e-02,-3.861023187637329102e-01
4.417328834533691406e+00,-9.484898298978805542e-02,-2.315554022789001465e-01
4.422564029693603516e+00,-9.496139734983444214e-02,-7.721382379531860352e-02
4.428090572357177734e+00,-9.508006274700164795e-02,7.731030881404876709e-02
4.433103561401367188e+00,-9.518770128488540649e-02,2.323823124170303345e-01
4.438559055328369141e+00,-9.530484676361083984e-02,3.884125351905822754e-01
4.443922519683837891e+00,-9.542000293731689453e-02,5.457699894905090332e-01
4.450391769409179688e+00,-9.555891901254653931e-02,7.050342559814453125e-01
4.455156803131103516e+00,-9.566123038530349731e-02,8.661930561065673828e-01
4.460963249206542969e+00,-9.578590840101242065e-02,1.030130386352539062e+00
4.016244411468505859e+00,-2.874170430004596710e-02,-1.076175332069396973e+00
4.218836307525634766e+00,-3.019152581691741943e-02,-9.740185141563415527e-01
4.224539756774902344e+00,-3.023234196007251740e-02,-8.211870789527893066e-01
4.229850769042968750e+00,-3.027034923434257507e-02,-6.699586510658264160e-01
4.234985351562500000e+00,-3.030709549784660339e-02,-5.200033783912658691e-01
4.240482330322265625e+00,-3.034643270075321198e-02,-3.710030913352966309e-01
4.245449542999267578e+00,-3.038198128342628479e-02,-2.224999517202377319e-01
4.250481128692626953e+00,-3.041798807680606842e-02,-7.419421523809432983e-02
4.255795478820800781e+00,-3.045601956546306610e-02,7.428697496652603149e-02
4.260622024536132812e+00,-3.049056045711040497e-02,2.232951223850250244e-01
4.265873432159423828e+00,-3.052814118564128876e-02,3.732245862483978271e-01
4.271034240722656250e+00,-3.056507185101509094e-02,5.244296789169311523e-01
4.275914669036865234e+00,-3.060000017285346985e-02,6.772546768188476562e-01
4.281859874725341797e+00,-3.064254485070705414e-02,8.323292732238769531e-01
4.287455558776855469e+00,-3.068259172141551971e-02,9.898610115051269531e-01
4.016168594360351562e+00,2.874116413295269012e-02,-1.076155066490173340e+00
4.041850090026855469e+00,2.892495132982730865e-02,-9.331571459770202637e-01
4.047319889068603516e+00,2.896409109234809875e-02,-7.867382168769836426e-01
4.052409172058105469e+00,2.900051325559616089e-02,-6.418540477752685547e-01
4.057330131530761719e+00,2.903572842478752136e-02,-4.981895089149475098e-01
4.062598228454589844e+00,2.907342836260795593e-02,-3.554398417472839355e-01
4.067358493804931641e+00,2.910749800503253937e-02,-2.131663709878921509e-01
4.072184085845947266e+00,2.914203144609928131e-02,-7.108195871114730835e-02
4.077278614044189453e+00,2.917848713696002960e-02,7.117087393999099731e-02
4.081898212432861328e+00,2.921154722571372986e-02,2.139283716678619385e-01
4.086934566497802734e+00,2.924759127199649811e-02,3.575690686702728271e-01
4.091878890991210938e+00,2.928297221660614014e-02,5.024316310882568359e-01
4.096559524536132812e+00,2.931647002696990967e-02,6.488469243049621582e-01
4.102253913879394531e+00,2.935722284018993378e-02,7.974166274070739746e-01
4.107618808746337891e+00,2.939561381936073303e-02,9.483413100242614746e-01
3.892036914825439453e+00,8.356990665197372437e-02,-1.043106913566589355e+00
3.897723197937011719e+00,8.369200676679611206e-02,-9.000663757324218750e-01
3.901762247085571289e+00,8.377873152494430542e-02,-7.585994005203247070e-01
3.906678915023803711e+00,8.388429880142211914e-02,-6.188988089561462402e-01
3.911434173583984375e+00,8.398640900850296021e-02,-4.803737103939056396e-01
3.916515827178955078e+00,8.409551531076431274e-02,-3.427292108535766602e-01
3.921106576919555664e+00,8.419409394264221191e-02,-2.055435478687286377e-01
3.925762653350830078e+00,8.429406583309173584e-02,-6.854013353586196899e-02
3.930671691894531250e+00,8.439947664737701416e-02,6.862584501504898071e-02
3.935126304626464844e+00,8.449511975049972534e-02,2.062784582376480103e-01
3.939974784851074219e+00,8.459923416376113892e-02,3.447820544242858887e-01
3.944735527038574219e+00,8.470145612955093384e-02,4.844635426998138428e-01
3.950490951538085938e+00,8.482503145933151245e-02,6.258395910263061523e-01
3.954721689224243164e+00,8.491587638854980469e-02,7.688960433006286621e-01
3.959882020950317383e+00,8.502668142318725586e-02,9.144201278686523438e-01
3.740773916244506836e+00,1.339065581560134888e-01,-1.002977728843688965e+00
3.746255636215209961e+00,1.341027766466140747e-01,-8.654438853263854980e-01
3.750166177749633789e+00,1.342427581548690796e-01,-7.294242382049560547e-01
3.754906892776489258e+00,1.344124674797058105e-01,-5.950988531112670898e-01
3.759482383728027344e+00,1.345762610435485840e-01,-4.619013667106628418e-01
3.764379978179931641e+00,1.347515732049942017e-01,-3.295510113239288330e-01
3.768801927566528320e+00,1.349098682403564453e-01,-1.976407617330551147e-01
3.773277044296264648e+00,1.350700557231903076e-01,-6.590488553047180176e-02
3.777989625930786133e+00,1.352387517690658569e-01,6.598719209432601929e-02
3.782269239425659180e+00,1.353919357061386108e-01,1.983469873666763306e-01
3.786914110183715820e+00,1.355582177639007568e-01,3.315237462520599365e-01
3.791479587554931641e+00,1.357216387987136841e-01,4.658326208591461182e-01
3.796988725662231445e+00,1.359188556671142578e-01,6.017681956291198730e-01
3.801035404205322266e+00,1.360637098550796509e-01,7.393185496330261230e-01
3.805966377258300781e+00,1.362402290105819702e-01,8.792380094528198242e-01
3.615614891052246094e+00,1.812711358070373535e-01,-9.700163602828979492e-01
3.620945215225219727e+00,1.815383732318878174e-01,-8.370097279548645020e-01
3.624748229980468750e+00,1.817290484905242920e-01,-7.054635286331176758e-01
3.629356384277343750e+00,1.819600760936737061e-01,-5.755546689033508301e-01
3.633800745010375977e+00,1.821829080581665039e-01,-4.467343688011169434e-01
3.638538360595703125e+00,1.824204176664352417e-01,-3.187302052974700928e-01
3.642817974090576172e+00,1.826349943876266479e-01,-1.911514997482299805e-01
3.647144317626953125e+00,1.828518807888031006e-01,-6.374100595712661743e-02
3.651698112487792969e+00,1.830801963806152344e-01,6.382059305906295776e-02
3.655823707580566406e+00,1.832870393991470337e-01,1.918339580297470093e-01
3.660303592681884766e+00,1.835116446018218994e-01,3.206368088722229004e-01
3.664693117141723633e+00,1.837317198514938354e-01,4.505322277545928955e-01
3.669994592666625977e+00,1.839975118637084961e-01,5.819992423057556152e-01
3.673875331878662109e+00,1.841920763254165649e-01,7.150248885154724121e-01
3.678611993789672852e+00,1.844295412302017212e-01,8.503398895263671875e-01
3.484714269638061523e+00,2.247479707002639771e-01,-9.356648921966552734e-01
3.489890336990356445e+00,2.250818014144897461e-01,-8.073774576187133789e-01
3.493599176406860352e+00,2.253209948539733887e-01,-6.804967522621154785e-01
3.498069763183593750e+00,2.256093323230743408e-01,-5.551900863647460938e-01
3.502369403839111328e+00,2.258866280317306519e-01,-4.309297204017639160e-01
3.506962060928344727e+00,2.261828482151031494e-01,-3.074564337730407715e-01
3.511094570159912109e+00,2.264493703842163086e-01,-1.843907088041305542e-01
3.515345573425292969e+00,2.267235368490219116e-01,-6.148798391222953796e-02
3.519647598266601562e+00,2.270009964704513550e-01,6.156323105096817017e-02
3.523610353469848633e+00,2.272565811872482300e-01,1.850479841232299805e-01
3.527902603149414062e+00,2.275334000587463379e-01,3.092922866344451904e-01
3.532110691070556641e+00,2.278048098087310791e-01,4.345890581607818604e-01
3.537183523178100586e+00,2.281319797039031982e-01,5.613979697227478027e-01
3.540881872177124023e+00,2.283705174922943115e-01,6.897066831588745117e-01
3.545396327972412109e+00,2.286616712808609009e-01,8.202186226844787598e-01
3.375680923461914062e+00,2.662793099880218506e-01,-9.073193073272705078e-01
3.380746603012084961e+00,2.666788995265960693e-01,-7.829301953315734863e-01
3.384376764297485352e+00,2.669652402400970459e-01,-6.598987579345703125e-01
3.388739347457885742e+00,2.673093676567077637e-01,-5.383899807929992676e-01
3.392934799194335938e+00,2.676403224468231201e-01,-4.178934693336486816e-01
3.397391080856323242e+00,2.679918408393859863e-01,-2.981560826301574707e-01
3.401403188705444336e+00,2.683083117008209229e-01,-1.788134574890136719e-01
3.405527830123901367e+00,2.686336934566497803e-01,-5.962827429175376892e-02
3.409688234329223633e+00,2.689618468284606934e-01,5.970111861824989319e-02
3.413511514663696289e+00,2.692634463310241699e-01,1.794500052928924561e-01
3.417649269104003906e+00,2.695898413658142090e-01,2.999339401721954346e-01
3.421693801879882812e+00,2.699088752269744873e-01,4.214356243610382080e-01
3.426565885543823242e+00,2.702932059764862061e-01,5.443997383117675781e-01
3.430107355117797852e+00,2.705725431442260742e-01,6.688154339790344238e-01
3.434422016143798828e+00,2.709129154682159424e-01,7.953606247901916504e-01
3.262487173080444336e+00,3.043915629386901855e-01,-8.779760599136352539e-01
3.266238689422607422e+00,3.047415614128112793e-01,-7.573444247245788574e-01
3.270653009414672852e+00,3.051534295082092285e-01,-6.385107040405273438e-01
3.274054765701293945e+00,3.054707944393157959e-01,-5.208106637001037598e-01
3.278139591217041016e+00,3.058519363403320312e-01,-4.042524397373199463e-01
3.282468557357788086e+00,3.062558174133300781e-01,-2.884255945682525635e-01
3.286359071731567383e+00,3.066188097000122070e-01,-1.729785352945327759e-01
3.290338754653930664e+00,3.069901168346405029e-01,-5.768242478370666504e-02
3.294352054595947266e+00,3.073645532131195068e-01,5.775278061628341675e-02
3.298025608062744141e+00,3.077073097229003906e-01,1.735925972461700439e-01
3.301994800567626953e+00,3.080776333808898926e-01,2.901413440704345703e-01
3.306717634201049805e+00,3.085182607173919678e-01,4.077765941619873047e-01
3.310516595840454102e+00,3.088727295398712158e-01,5.266107320785522461e-01
3.315100669860839844e+00,3.093004226684570312e-01,6.471879482269287109e-01
3.319378614425659180e+00,3.096995651721954346e-01,7.696660161018371582e-01
3.166568040847778320e+00,3.412224948406219482e-01,-8.533899784088134766e-01
3.170269012451171875e+00,3.416213095188140869e-01,-7.361503243446350098e-01
3.174604654312133789e+00,3.420884907245635986e-01,-6.206520199775695801e-01
3.178597211837768555e+00,3.425187170505523682e-01,-5.063540339469909668e-01
3.182411670684814453e+00,3.429297506809234619e-01,-3.930125236511230469e-01
3.186169624328613281e+00,3.433347046375274658e-01,-2.803670465946197510e-01
3.189957380294799805e+00,3.437428772449493408e-01,-1.681461483240127563e-01
3.193823814392089844e+00,3.441595137119293213e-01,-5.607105419039726257e-02
3.197706937789916992e+00,3.445779383182525635e-01,5.613922327756881714e-02
3.201723337173461914e+00,3.450107574462890625e-01,1.687663495540618896e-01
3.205724954605102539e+00,3.454419374465942383e-01,2.820878028869628906e-01
3.209619760513305664e+00,3.458616435527801514e-01,3.963726162910461426e-01
3.213253736495971680e+00,3.462532460689544678e-01,5.118748545646667480e-01
3.217643022537231445e+00,3.467262089252471924e-01,6.290662288665771484e-01
3.221722841262817383e+00,3.471658527851104736e-01,7.480980753898620605e-01
3.065677165985107422e+00,3.748092353343963623e-01,-8.275609016418457031e-01
3.069339990615844727e+00,3.752570748329162598e-01,-7.138882279396057129e-01
3.073600530624389648e+00,3.757779598236083984e-01,-6.018950939178466797e-01
3.077517509460449219e+00,3.762568533420562744e-01,-4.910595417022705078e-01
3.081253528594970703e+00,3.767136037349700928e-01,-3.811468482017517090e-01
3.084915399551391602e+00,3.771613240242004395e-01,-2.719043791294097900e-01
3.088597059249877930e+00,3.776114284992218018e-01,-1.630715280771255493e-01
3.092341661453247070e+00,3.780692517757415771e-01,-5.437885969877243042e-02
3.096089124679565430e+00,3.785274028778076172e-01,5.444475635886192322e-02
3.099948406219482422e+00,3.789992332458496094e-01,1.636708527803421021e-01
3.103793144226074219e+00,3.794693052768707275e-01,2.735682427883148193e-01
3.107507705688476562e+00,3.799234330654144287e-01,3.843944370746612549e-01
3.110966920852661133e+00,3.803463876247406006e-01,4.963968694210052490e-01
3.115140676498413086e+00,3.808566629886627197e-01,6.100298166275024414e-01
3.119001150131225586e+00,3.813286423683166504e-01,7.254387736320495605e-01
2.980615139007568359e+00,4.077861011028289795e-01,-8.060920238494873047e-01
2.985180377960205078e+00,4.084106981754302979e-01,-6.956021785736083984e-01
2.988448858261108398e+00,4.088578522205352783e-01,-5.863060355186462402e-01
2.992307424545288086e+00,4.093857705593109131e-01,-4.783491492271423340e-01
2.995976209640502930e+00,4.098877012729644775e-01,-3.712858557701110840e-01
2.999566316604614258e+00,4.103788733482360840e-01,-2.648722827434539795e-01
3.003157138824462891e+00,4.108701348304748535e-01,-1.588547080755233765e-01
3.006799221038818359e+00,4.113683998584747314e-01,-5.297270789742469788e-02
3.010432481765747070e+00,4.118655025959014893e-01,5.303671956062316895e-02
3.014161586761474609e+00,4.123756885528564453e-01,1.594367921352386475e-01
3.017858982086181641e+00,4.128815531730651855e-01,2.664875984191894531e-01
3.021421670913696289e+00,4.133689403533935547e-01,3.744392693042755127e-01
3.025675773620605469e+00,4.139509797096252441e-01,4.836834073066711426e-01
3.028707265853881836e+00,4.143657386302947998e-01,5.942043662071228027e-01
3.032378673553466797e+00,4.148680269718170166e-01,7.066002488136291504e-01
2.892040967941284180e+00,4.379207193851470947e-01,-7.837525010108947754e-01
2.895497322082519531e+00,4.384440779685974121e-01,-6.760974526405334473e-01
2.898741483688354492e+00,4.389353394508361816e-01,-5.698805451393127441e-01
2.902547359466552734e+00,4.395116269588470459e-01,-4.649581909179687500e-01
2.906149148941040039e+00,4.400569796562194824e-01,-3.608973622322082520e-01
2.909660816192626953e+00,4.405887424945831299e-01,-2.574638128280639648e-01
2.913159847259521484e+00,4.411185979843139648e-01,-1.544123888015747070e-01
2.916693925857543945e+00,4.416537284851074219e-01,-5.149136483669281006e-02
2.920205593109130859e+00,4.421854615211486816e-01,5.155335739254951477e-02
2.923793554306030273e+00,4.427287876605987549e-01,1.549760252237319946e-01
2.927334785461425781e+00,4.432649910449981689e-01,2.590277194976806641e-01
2.930733203887939453e+00,4.437795877456665039e-01,3.639503121376037598e-01
2.934780120849609375e+00,4.443923830986022949e-01,4.701215326786041260e-01
2.938712596893310547e+00,4.449878334999084473e-01,5.777386426925659180e-01
2.942322492599487305e+00,4.455344974994659424e-01,6.870311498641967773e-01
2.807590723037719727e+00,4.663300812244415283e-01,-7.625969648361206055e-01
2.811042308807373047e+00,4.669033586978912354e-01,-6.578703522682189941e-01
2.814270973205566406e+00,4.674396216869354248e-01,-5.545325279235839844e-01
2.818027019500732422e+00,4.680635035037994385e-01,-4.524457454681396484e-01
2.821573019027709961e+00,4.686524868011474609e-01,-3.511914312839508057e-01
2.825021743774414062e+00,4.692253172397613525e-01,-2.505430877208709717e-01
2.828436613082885742e+00,4.697925150394439697e-01,-1.502626687288284302e-01
2.831863164901733398e+00,4.703616499900817871e-01,-5.010748282074928284e-02
2.835259914398193359e+00,4.709258079528808594e-01,5.016758292913436890e-02
2.838711500167846680e+00,4.714991152286529541e-01,1.508085131645202637e-01
2.842102289199829102e+00,4.720623195171356201e-01,2.520579099655151367e-01
2.845337152481079102e+00,4.725996255874633789e-01,3.541492819786071777e-01
2.849188804626464844e+00,4.732393920421600342e-01,4.574489295482635498e-01
2.852906465530395508e+00,4.738568663597106934e-01,5.621453523635864258e-01
2.856302976608276367e+00,4.744209945201873779e-01,6.684627532958984375e-01
2.735754966735839844e+00,4.947327375411987305e-01,-7.449321150779724121e-01
2.739208221435546875e+00,4.953572452068328857e-01,-6.426525115966796875e-01
2.743134021759033203e+00,4.960671663284301758e-01,-5.418590903282165527e-01
2.746152162551879883e+00,4.966129958629608154e-01,-4.420019388198852539e-01
2.749654054641723633e+00,4.972462356090545654e-01,-3.430906534194946289e-01
2.753041028976440430e+00,4.978587329387664795e-01,-2.447662353515625000e-01
2.756385564804077148e+00,4.984635710716247559e-01,-1.467988938093185425e-01
2.759726285934448242e+00,4.990677237510681152e-01,-4.895246401429176331e-02
2.763022184371948242e+00,4.996637403964996338e-01,4.901092499494552612e-02
2.766355276107788086e+00,5.002664923667907715e-01,1.473298519849777222e-01
2.769611597061157227e+00,5.008553266525268555e-01,2.462394833564758301e-01
2.773420572280883789e+00,5.015441775321960449e-01,3.460561335086822510e-01
2.776381731033325195e+00,5.020796656608581543e-01,4.468674659729003906e-01
2.779918670654296875e+00,5.027192831039428711e-01,5.491252541542053223e-01
2.784286022186279297e+00,5.035090446472167969e-01,6.532282829284667969e-01
2.660893201828002930e+00,5.206289887428283691e-01,-7.265022993087768555e-01
2.664216518402099609e+00,5.212792158126831055e-01,-6.267448067665100098e-01
2.667293787002563477e+00,5.218813419342041016e-01,-5.282995700836181641e-01
2.670837640762329102e+00,5.225746631622314453e-01,-4.310395419597625732e-01
2.673756361007690430e+00,5.231457948684692383e-01,-3.345204889774322510e-01
2.677086830139160156e+00,5.237973928451538086e-01,-2.386554628610610962e-01
2.680355548858642578e+00,5.244370102882385254e-01,-1.431348323822021484e-01
2.683611392974853516e+00,5.250740051269531250e-01,-4.773074761033058167e-02
2.686794519424438477e+00,5.256968140602111816e-01,4.778736457228660583e-02
2.690000534057617188e+00,5.263240933418273926e-01,1.436498761177062988e-01
2.693655490875244141e+00,5.270392298698425293e-01,2.401325106620788574e-01
2.696745634078979492e+00,5.276438593864440918e-01,3.373967409133911133e-01
2.700377464294433594e+00,5.283544063568115234e-01,4.358069002628326416e-01
2.703855991363525391e+00,5.290350317955017090e-01,5.355412960052490234e-01
2.706990718841552734e+00,5.296484231948852539e-01,6.368072628974914551e-01
2.589073419570922852e+00,5.451621413230895996e-01,-7.089512944221496582e-01
2.592417716979980469e+00,5.458663105964660645e-01,-6.116298437118530273e-01
2.595507144927978516e+00,5.465167760848999023e-01,-5.155776143074035645e-01
2.599023580551147461e+00,5.472572445869445801e-01,-4.206707775592803955e-01
2.601925849914550781e+00,5.478683710098266602e-01,-3.264812827110290527e-01
2.605205535888671875e+00,5.485589504241943359e-01,-2.329235374927520752e-01
2.608406782150268555e+00,5.492329597473144531e-01,-1.396981626749038696e-01
2.611570835113525391e+00,5.498992204666137695e-01,-4.658465459942817688e-02
2.614650964736938477e+00,5.505478382110595703e-01,4.663959890604019165e-02
2.617735862731933594e+00,5.511973500251770020e-01,1.401977986097335815e-01
2.621237277984619141e+00,5.519345998764038086e-01,2.343568801879882812e-01
2.624170064926147461e+00,5.525521636009216309e-01,3.292724192142486572e-01
2.627612113952636719e+00,5.532769560813903809e-01,4.252980351448059082e-01
2.630884408950805664e+00,5.539659261703491211e-01,5.226050615310668945e-01
2.633810281753540039e+00,5.545820593833923340e-01,6.213955879211425781e-01
2.520964860916137695e+00,5.686184763908386230e-01,-6.924592256546020508e-01
2.524332523345947266e+00,5.693780779838562012e-01,-5.974280834197998047e-01
2.528081655502319336e+00,5.702236890792846680e-01,-5.037537813186645508e-01
2.530942440032958984e+00,5.708689689636230469e-01,-4.109317958354949951e-01
2.534191370010375977e+00,5.716018080711364746e-01,-3.189761042594909668e-01
2.537058115005493164e+00,5.722484588623046875e-01,-2.275397032499313354e-01
2.540193796157836914e+00,5.729556679725646973e-01,-1.364701241254806519e-01
2.543279170989990234e+00,5.736516118049621582e-01,-4.550828784704208374e-02
2.546263217926025391e+00,5.743246674537658691e-01,4.556167870759963989e-02
2.549589872360229492e+00,5.750749707221984863e-01,1.369749158620834351e-01
2.552574157714843750e+00,5.757481455802917480e-01,2.289312779903411865e-01
2.556007146835327148e+00,5.765224695205688477e-01,3.217220306396484375e-01
2.558609962463378906e+00,5.771095752716064453e-01,4.154240190982818604e-01
2.561683416366577148e+00,5.778027772903442383e-01,5.104494094848632812e-01
2.565457582473754883e+00,5.786540508270263672e-01,6.071610450744628906e-01
2.457158565521240234e+00,5.913060307502746582e-01,-6.771882772445678711e-01
2.460428237915039062e+00,5.920929312705993652e-01,-5.842499136924743652e-01
2.463420152664184570e+00,5.928128957748413086e-01,-4.925094842910766602e-01
2.466288089752197266e+00,5.935030579566955566e-01,-4.017724692821502686e-01
2.469515085220336914e+00,5.942795872688293457e-01,-3.118740916252136230e-01
2.472349643707275391e+00,5.949617028236389160e-01,-2.224771976470947266e-01
2.475426197052001953e+00,5.957021117210388184e-01,-1.334349513053894043e-01
2.478429317474365234e+00,5.964248180389404297e-01,-4.449609294533729553e-02
2.481321573257446289e+00,5.971208214759826660e-01,4.454801604151725769e-02
2.484523057937622070e+00,5.978912115097045898e-01,1.339253038167953491e-01
2.487372159957885742e+00,5.985768437385559082e-01,2.238290309906005859e-01
2.490634918212890625e+00,5.993620157241821289e-01,3.145413100719451904e-01
2.493839502334594727e+00,6.001331806182861328e-01,4.062607288360595703e-01
2.496849536895751953e+00,6.008575558662414551e-01,4.991929829120635986e-01
2.500515460968017578e+00,6.017397642135620117e-01,5.937689542770385742e-01
2.395584106445312500e+00,6.128885746002197266e-01,-6.625683307647705078e-01
2.398895978927612305e+00,6.137359142303466797e-01,-5.716659426689147949e-01
2.401914596557617188e+00,6.145081520080566406e-01,-4.819218516349792480e-01
2.404796123504638672e+00,6.152453422546386719e-01,-3.931493759155273438e-01
2.407999515533447266e+00,6.160649061203002930e-01,-3.051876723766326904e-01
2.410807371139526367e+00,6.167833209037780762e-01,-2.177113741636276245e-01
2.413832426071166992e+00,6.175572872161865234e-01,-1.305779069662094116e-01
2.416762113571166992e+00,6.183068156242370605e-01,-4.354338720440864563e-02
2.419559240341186523e+00,6.190223693847656250e-01,4.359378293156623840e-02
2.422637701034545898e+00,6.198100447654724121e-01,1.310542374849319458e-01
2.425355195999145508e+00,6.205052137374877930e-01,2.190251350402832031e-01
2.428454399108886719e+00,6.212981939315795898e-01,3.077801167964935303e-01
2.431477069854736328e+00,6.220715045928955078e-01,3.975113332271575928e-01
2.434288501739501953e+00,6.227907538414001465e-01,4.884173870086669922e-01
2.437719583511352539e+00,6.236685514450073242e-01,5.809177756309509277e-01
2.337756633758544922e+00,6.338765621185302734e-01,-6.490173339843750000e-01
2.340987682342529297e+00,6.347526311874389648e-01,-5.599738955497741699e-01
2.343917131423950195e+00,6.355469822883605957e-01,-4.720620810985565186e-01
2.346681118011474609e+00,6.362963914871215820e-01,-3.850979208946228027e-01
2.349409580230712891e+00,6.370362043380737305e-01,-2.988870441913604736e-01
2.352395296096801758e+00,6.378458142280578613e-01,-2.132390290498733521e-01
2.355162620544433594e+00,6.385961771011352539e-01,-1.278854906558990479e-01
2.358023166656494141e+00,6.393717527389526367e-01,-4.264559224247932434e-02
2.360932826995849609e+00,6.401607394218444824e-01,4.269821569323539734e-02
2.363693237304687500e+00,6.409091949462890625e-01,1.283486932516098022e-01
2.366747617721557617e+00,6.417373418807983398e-01,2.145400196313858032e-01
2.369815111160278320e+00,6.425691843032836914e-01,3.014830052852630615e-01
2.372785329818725586e+00,6.433745026588439941e-01,3.893817067146301270e-01
2.375526189804077148e+00,6.441176533699035645e-01,4.784280955791473389e-01
2.378847360610961914e+00,6.450182199478149414e-01,5.690301060676574707e-01
2.282563209533691406e+00,6.541211009025573730e-01,-6.362285614013671875e-01
2.285032272338867188e+00,6.548286080360412598e-01,-5.487750172615051270e-01
2.287997961044311523e+00,6.556785106658935547e-01,-4.626427590847015381e-01
2.290787458419799805e+00,6.564779281616210938e-01,-3.774289488792419434e-01
2.293516635894775391e+00,6.572600603103637695e-01,-2.929432988166809082e-01
2.296473741531372070e+00,6.581074595451354980e-01,-2.090023458003997803e-01
2.299199581146240234e+00,6.588885784149169922e-01,-1.253459453582763672e-01
2.301990747451782227e+00,6.596884131431579590e-01,-4.179871454834938049e-02
2.304852247238159180e+00,6.605084538459777832e-01,4.185067117214202881e-02
2.307465076446533203e+00,6.612572669982910156e-01,1.257965564727783203e-01
2.310378313064575195e+00,6.620920896530151367e-01,2.102677971124649048e-01
2.313281059265136719e+00,6.629239320755004883e-01,2.954677045345306396e-01
2.316075325012207031e+00,6.637247204780578613e-01,3.815953433513641357e-01
2.319450139999389648e+00,6.646918654441833496e-01,4.690025448799133301e-01
2.321713209152221680e+00,6.653404235839843750e-01,5.575843453407287598e-01
2.229023218154907227e+00,6.734453439712524414e-01,-6.239279508590698242e-01
2.232244729995727539e+00,6.744186878204345703e-01,-5.383607149124145508e-01
2.234575986862182617e+00,6.751230359077453613e-01,-4.537481367588043213e-01
2.237380743026733398e+00,6.759704351425170898e-01,-3.701859116554260254e-01
2.240436553955078125e+00,6.768936514854431152e-01,-2.873716056346893311e-01
2.243053913116455078e+00,6.776844263076782227e-01,-2.050024121999740601e-01
2.245738506317138672e+00,6.784954667091369629e-01,-1.229482591152191162e-01
2.248466491699218750e+00,6.793196797370910645e-01,-4.099919646978378296e-02
2.251240015029907227e+00,6.801576018333435059e-01,4.104976728558540344e-02
2.254060506820678711e+00,6.810097694396972656e-01,1.234038770198822021e-01
2.256522655487060547e+00,6.817536354064941406e-01,2.062333673238754272e-01
2.259272575378417969e+00,6.825844645500183105e-01,2.897876203060150146e-01
2.262575626373291016e+00,6.835823655128479004e-01,3.743544816970825195e-01
2.265046596527099609e+00,6.843289732933044434e-01,4.599354267120361328e-01
2.268027305603027344e+00,6.852294802665710449e-01,5.469905138015747070e-01
2.178559303283691406e+00,6.923757791519165039e-01,-6.125138401985168457e-01
2.181067705154418945e+00,6.931730508804321289e-01,-5.283568501472473145e-01
2.183999300003051758e+00,6.941046714782714844e-01,-4.454498887062072754e-01
2.186722040176391602e+00,6.949700117111206055e-01,-3.634127676486968994e-01
2.189340591430664062e+00,6.958022117614746094e-01,-2.820662856101989746e-01
2.191941499710083008e+00,6.966288685798645020e-01,-2.012217193841934204e-01
2.194592237472534180e+00,6.974712610244750977e-01,-1.206823289394378662e-01
2.197259902954101562e+00,6.983190774917602539e-01,-4.024361819028854370e-02
2.199946165084838867e+00,6.991727948188781738e-01,4.029281437397003174e-02
2.202656269073486328e+00,7.000341415405273438e-01,1.211257800459861755e-01
2.205429077148437500e+00,7.009153366088867188e-01,2.024598717689514160e-01
2.208142995834350586e+00,7.017778754234313965e-01,2.844887375831604004e-01
2.210703611373901367e+00,7.025917172431945801e-01,3.673982918262481689e-01
2.213774442672729492e+00,7.035676240921020508e-01,4.515228271484375000e-01
2.216639518737792969e+00,7.044782042503356934e-01,5.369739532470703125e-01
2.125242948532104492e+00,7.090762853622436523e-01,-6.003156900405883789e-01
2.128479003906250000e+00,7.101560235023498535e-01,-5.180267095565795898e-01
2.130825042724609375e+00,7.109386920928955078e-01,-4.366351962089538574e-01
2.133582115173339844e+00,7.118586301803588867e-01,-3.562382757663726807e-01
2.136216163635253906e+00,7.127375006675720215e-01,-2.765079736709594727e-01
2.138810157775878906e+00,7.136029601097106934e-01,-1.972616910934448242e-01
2.141419172286987305e+00,7.144734263420104980e-01,-1.183085590600967407e-01
2.144024133682250977e+00,7.153425812721252441e-01,-3.945207595825195312e-02
2.146618127822875977e+00,7.162080407142639160e-01,3.949980437755584717e-02
2.149214744567871094e+00,7.170743942260742188e-01,1.187392398715019226e-01
2.151837110519409180e+00,7.179492712020874023e-01,1.984631419181823730e-01
2.154382467269897461e+00,7.187985181808471680e-01,2.788593769073486328e-01
2.157404184341430664e+00,7.198066711425781250e-01,3.602157533168792725e-01
2.159597635269165039e+00,7.205385565757751465e-01,4.425310790538787842e-01
2.163081884384155273e+00,7.217010259628295898e-01,5.264483094215393066e-01
2.079079389572143555e+00,7.269043326377868652e-01,-5.901544690132141113e-01
2.081654310226440430e+00,7.278046011924743652e-01,-5.091137886047363281e-01
2.084578514099121094e+00,7.288269996643066406e-01,-4.292523860931396484e-01
2.086854457855224609e+00,7.296226620674133301e-01,-3.501441180706024170e-01
2.089502811431884766e+00,7.305486202239990234e-01,-2.717871367931365967e-01
2.092084169387817383e+00,7.314511537551879883e-01,-1.938979029655456543e-01
2.094661712646484375e+00,7.323522567749023438e-01,-1.162925288081169128e-01
2.097208738327026367e+00,7.332428693771362305e-01,-3.877978026866912842e-02
2.099721908569335938e+00,7.341215014457702637e-01,3.882624953985214233e-02
2.102215528488159180e+00,7.349933385848999023e-01,1.167119070887565613e-01
2.104712247848510742e+00,7.358662486076354980e-01,1.950682848691940308e-01
2.107628107070922852e+00,7.368857860565185547e-01,2.741447389125823975e-01
2.109943866729736328e+00,7.376953363418579102e-01,3.540181815624237061e-01
2.112689018249511719e+00,7.386551499366760254e-01,4.350408315658569336e-01
2.115197420120239258e+00,7.395321726799011230e-01,5.173174738883972168e-01
2.030988693237304688e+00,7.428786158561706543e-01,-5.794626474380493164e-01
2.033555269241333008e+00,7.438173294067382812e-01,-4.999027550220489502e-01
2.035937070846557617e+00,7.446885704994201660e-01,-4.213879406452178955e-01
2.038655757904052734e+00,7.456829547882080078e-01,-3.438126742839813232e-01
2.041211366653442383e+00,7.466176748275756836e-01,-2.668684422969818115e-01
2.043677806854248047e+00,7.475198507308959961e-01,-1.903836727142333984e-01
2.046054601669311523e+00,7.483892440795898438e-01,-1.141769587993621826e-01
2.048539400100708008e+00,7.492981553077697754e-01,-3.807424381375312805e-02
2.051136255264282227e+00,7.502479553222656250e-01,3.812250867486000061e-02
2.053632974624633789e+00,7.511612176895141602e-01,1.145998537540435791e-01
2.056105852127075195e+00,7.520657181739807129e-01,1.915414333343505859e-01
2.058451414108276367e+00,7.529236674308776855e-01,2.691224217414855957e-01
2.061196804046630859e+00,7.539278268814086914e-01,3.476141691207885742e-01
2.063826084136962891e+00,7.548896074295043945e-01,4.271602630615234375e-01
2.066198587417602539e+00,7.557573914527893066e-01,5.079274177551269531e-01
1.988494515419006348e+00,7.597754001617431641e-01,-5.703828930854797363e-01
1.991047263145446777e+00,7.607507705688476562e-01,-4.920795559883117676e-01
1.993396639823913574e+00,7.616484165191650391e-01,-4.147970378398895264e-01
1.995666146278381348e+00,7.625156044960021973e-01,-3.383686244487762451e-01
1.998238801956176758e+00,7.634986042976379395e-01,-2.626520693302154541e-01
2.000701427459716797e+00,7.644394636154174805e-01,-1.873802095651626587e-01
2.003106832504272461e+00,7.653585672378540039e-01,-1.123801320791244507e-01
2.005538702011108398e+00,7.662877440452575684e-01,-3.747504577040672302e-02
2.008005857467651367e+00,7.672303915023803711e-01,3.752114623785018921e-02
2.010401725769042969e+00,7.681457996368408203e-01,1.127893924713134766e-01
2.012744665145874023e+00,7.690410017967224121e-01,1.885081529617309570e-01
2.015441656112670898e+00,7.700715065002441406e-01,2.649132311344146729e-01
2.018114328384399414e+00,7.710927128791809082e-01,3.421747386455535889e-01
2.020647525787353516e+00,7.720606327056884766e-01,4.204675853252410889e-01
2.022902727127075195e+00,7.729223370552062988e-01,4.999525249004364014e-01
1.944235205650329590e+00,7.749313712120056152e-01,-5.608116984367370605e-01
1.946218013763427734e+00,7.757216691970825195e-01,-4.836947619915008545e-01
1.948647856712341309e+00,7.766901850700378418e-01,-4.077570140361785889e-01
1.951351284980773926e+00,7.777676582336425781e-01,-3.327084183692932129e-01
1.953570961952209473e+00,7.786523699760437012e-01,-2.582193315029144287e-01
1.956031441688537598e+00,7.796331048011779785e-01,-1.842228323221206665e-01
1.958412647247314453e+00,7.805821895599365234e-01,-1.104881688952445984e-01
1.960794210433959961e+00,7.815314531326293945e-01,-3.684421628713607788e-02
1.963175535202026367e+00,7.824805974960327148e-01,3.688896074891090393e-02
1.965463519096374512e+00,7.833925485610961914e-01,1.108859628438949585e-01
1.968053102493286133e+00,7.844246625900268555e-01,1.853550374507904053e-01
1.970201015472412109e+00,7.852808237075805664e-01,2.604174613952636719e-01
1.972679376602172852e+00,7.862685918807983398e-01,3.363448977470397949e-01
1.975676536560058594e+00,7.874632477760314941e-01,4.134128093719482422e-01
1.977793812751770020e+00,7.883071303367614746e-01,4.915423095226287842e-01
1.901138782501220703e+00,7.894698977470397949e-01,-5.515835881233215332e-01
1.903797626495361328e+00,7.905740141868591309e-01,-4.759156107902526855e-01
1.906210303306579590e+00,7.915759086608886719e-01,-4.012066721916198730e-01
1.908493995666503906e+00,7.925242185592651367e-01,-3.273017704486846924e-01
1.911014914512634277e+00,7.935710549354553223e-01,-2.540697157382965088e-01
1.913214445114135742e+00,7.944844365119934082e-01,-1.812426894903182983e-01
1.915570139884948730e+00,7.954626679420471191e-01,-1.087023392319679260e-01
1.917899131774902344e+00,7.964298129081726074e-01,-3.624868765473365784e-02
1.920202374458312988e+00,7.973862290382385254e-01,3.629222139716148376e-02
1.922646045684814453e+00,7.984010577201843262e-01,1.091038733720779419e-01
1.924833297729492188e+00,7.993092536926269531e-01,1.823433637619018555e-01
1.927294492721557617e+00,8.003313541412353516e-01,2.562341094017028809e-01
1.929679155349731445e+00,8.013215661048889160e-01,3.309349715709686279e-01
1.931885719299316406e+00,8.022378683090209961e-01,4.066106379032135010e-01
1.934525489807128906e+00,8.033340573310852051e-01,4.835969805717468262e-01
1.860382795333862305e+00,8.039525747299194336e-01,-5.430419445037841797e-01
1.863055348396301270e+00,8.051074743270874023e-01,-4.685634970664978027e-01
1.865455865859985352e+00,8.061448335647583008e-01,-3.950170576572418213e-01
1.867706537246704102e+00,8.071174621582031250e-01,-3.222550749778747559e-01
1.869896292686462402e+00,8.080637454986572266e-01,-2.501150965690612793e-01
1.872113347053527832e+00,8.090218305587768555e-01,-1.784278154373168945e-01
1.874442934989929199e+00,8.100285530090332031e-01,-1.070154830813407898e-01
1.876718997955322266e+00,8.110121488571166992e-01,-3.568612039089202881e-02
1.878947257995605469e+00,8.119750618934631348e-01,3.572849184274673462e-02
1.881282091140747070e+00,8.129840493202209473e-01,1.074059382081031799e-01
1.883696436882019043e+00,8.140273690223693848e-01,1.795317679643630981e-01
1.886094450950622559e+00,8.150636553764343262e-01,2.522817552089691162e-01
1.888386130332946777e+00,8.160540461540222168e-01,3.258231580257415771e-01
1.890475869178771973e+00,8.169571161270141602e-01,4.003151357173919678e-01
1.892962932586669922e+00,8.180318474769592285e-01,4.760853350162506104e-01
1.821184873580932617e+00,8.181414604187011719e-01,-5.349636077880859375e-01
1.823868513107299805e+00,8.193470239639282227e-01,-4.616101682186126709e-01
1.825825333595275879e+00,8.202261328697204590e-01,-3.890713453292846680e-01
1.828137636184692383e+00,8.212649226188659668e-01,-3.174235820770263672e-01
1.830368518829345703e+00,8.222671151161193848e-01,-2.463769465684890747e-01
1.832587838172912598e+00,8.232641220092773438e-01,-1.757657974958419800e-01
1.834901213645935059e+00,8.243033289909362793e-01,-1.054207757115364075e-01
1.837128639221191406e+00,8.253039717674255371e-01,-3.515432775020599365e-02
1.839284658432006836e+00,8.262724876403808594e-01,3.519558534026145935e-02
1.841514229774475098e+00,8.272741436958312988e-01,1.058007180690765381e-01
1.843790769577026367e+00,8.282968401908874512e-01,1.768402755260467529e-01
1.846025586128234863e+00,8.293007612228393555e-01,2.484844624996185303e-01
1.848669886589050293e+00,8.304887413978576660e-01,3.209886252880096436e-01
1.850641727447509766e+00,8.313745260238647461e-01,3.943595588207244873e-01
1.852980494499206543e+00,8.324251770973205566e-01,4.689782559871673584e-01
1.783425927162170410e+00,8.320560455322265625e-01,-5.273165106773376465e-01
1.785613059997558594e+00,8.330764174461364746e-01,-4.548993110656738281e-01
1.788089752197265625e+00,8.342319130897521973e-01,-3.835353553295135498e-01
1.790375709533691406e+00,8.352984189987182617e-01,-3.129107654094696045e-01
1.792547345161437988e+00,8.363115787506103516e-01,-2.428724318742752075e-01
1.794682383537292480e+00,8.373076915740966797e-01,-1.732619553804397583e-01
1.796827554702758789e+00,8.383085131645202637e-01,-1.039120703935623169e-01
1.799012660980224609e+00,8.393279910087585449e-01,-3.465129807591438293e-02
1.801238536834716797e+00,8.403664827346801758e-01,3.469417244195938110e-02
1.803463339805603027e+00,8.414044976234436035e-01,1.042958274483680725e-01
1.805704236030578613e+00,8.424499034881591797e-01,1.743260174989700317e-01
1.807873845100402832e+00,8.434621691703796387e-01,2.449490278959274292e-01
1.809896707534790039e+00,8.444059491157531738e-01,3.163225352764129639e-01
1.812273979187011719e+00,8.455150723457336426e-01,3.887227475643157959e-01
1.814459323883056641e+00,8.465346097946166992e-01,4.622481167316436768e-01
1.744580149650573730e+00,8.445433378219604492e-01,-5.193517804145812988e-01
1.746811151504516602e+00,8.456233739852905273e-01,-4.480518698692321777e-01
1.749299168586730957e+00,8.468278050422668457e-01,-3.777762055397033691e-01
1.751240015029907227e+00,8.477673530578613281e-01,-3.081600964069366455e-01
1.753459215164184570e+00,8.488416671752929688e-01,-2.391980737447738647e-01
1.755609035491943359e+00,8.498823642730712891e-01,-1.706466823816299438e-01
1.757740378379821777e+00,8.509141206741333008e-01,-1.023454964160919189e-01
1.759875297546386719e+00,8.519476652145385742e-01,-3.412884473800659180e-02
1.762023210525512695e+00,8.529874086380004883e-01,3.417050093412399292e-02
1.764136314392089844e+00,8.540104031562805176e-01,1.027178987860679626e-01
1.766238808631896973e+00,8.550282120704650879e-01,1.716798990964889526e-01
1.768657326698303223e+00,8.561989665031433105e-01,2.412713170051574707e-01
1.770570635795593262e+00,8.571251630783081055e-01,3.115616440773010254e-01
1.772804737091064453e+00,8.582066893577575684e-01,3.828524053096771240e-01
1.775490045547485352e+00,8.595066666603088379e-01,4.554078876972198486e-01
1.709532618522644043e+00,8.579913973808288574e-01,-5.125217437744140625e-01
1.711800217628479004e+00,8.591294884681701660e-01,-4.421805143356323242e-01
1.713886022567749023e+00,8.601763248443603516e-01,-3.727491199970245361e-01
1.716216444969177246e+00,8.613459467887878418e-01,-3.041354417800903320e-01
1.718158364295959473e+00,8.623205423355102539e-01,-2.360420674085617065e-01
1.720320224761962891e+00,8.634055256843566895e-01,-1.684005558490753174e-01
1.722436189651489258e+00,8.644675016403198242e-01,-1.009999960660934448e-01
1.724531888961791992e+00,8.655193448066711426e-01,-3.368023782968521118e-02
1.726605892181396484e+00,8.665602803230285645e-01,3.372074291110038757e-02
1.728623986244201660e+00,8.675730824470520020e-01,1.013628318905830383e-01
1.730914473533630371e+00,8.687226772308349609e-01,1.694376170635223389e-01
1.732854843139648438e+00,8.696965575218200684e-01,2.380610853433609009e-01
1.735085129737854004e+00,8.708158731460571289e-01,3.074792027473449707e-01
1.737191319465637207e+00,8.718729019165039062e-01,3.778177499771118164e-01
1.739711880683898926e+00,8.731379508972167969e-01,4.493904709815979004e-01
1.673487901687622070e+00,8.701050877571105957e-01,-5.053974986076354980e-01
1.675806760787963867e+00,8.713107109069824219e-01,-4.360598325729370117e-01
1.677916526794433594e+00,8.724076151847839355e-01,-3.676043450832366943e-01
1.679926753044128418e+00,8.734527826309204102e-01,-2.998892366886138916e-01
1.682140350341796875e+00,8.746038079261779785e-01,-2.327898591756820679e-01
1.684101104736328125e+00,8.756232261657714844e-01,-1.660649627447128296e-01
1.686204671859741211e+00,8.767169117927551270e-01,-9.960108995437622070e-02
1.688251614570617676e+00,8.777812123298645020e-01,-3.321365639567375183e-02
1.690253019332885742e+00,8.788218498229980469e-01,3.325303271412849426e-02
1.692387104034423828e+00,8.799314498901367188e-01,9.996628016233444214e-02
1.694316387176513672e+00,8.809344768524169922e-01,1.670722514390945435e-01
1.696489095687866211e+00,8.820641636848449707e-01,2.347755581140518188e-01
1.698601126670837402e+00,8.831622600555419922e-01,3.032228648662567139e-01
1.700566768646240234e+00,8.841843008995056152e-01,3.725666701793670654e-01
1.702899098396301270e+00,8.853969573974609375e-01,4.431094825267791748e-01
1.639293074607849121e+00,8.823565244674682617e-01,-4.988336265087127686e-01
1.641126394271850586e+00,8.833432793617248535e-01,-4.302816092967987061e-01
1.643265962600708008e+00,8.844948410987854004e-01,-3.627494573593139648e-01
1.645271778106689453e+00,8.855745196342468262e-01,-2.959353327751159668e-01
1.647234082221984863e+00,8.866307139396667480e-01,-2.296919375658035278e-01
1.649347186088562012e+00,8.877681493759155273e-01,-1.638741791248321533e-01
1.651305794715881348e+00,8.888223767280578613e-01,-9.828108549118041992e-02
1.653313994407653809e+00,8.899032473564147949e-01,-3.277355059981346130e-02
1.655370354652404785e+00,8.910101652145385742e-01,3.281431272625923157e-02
1.657268762588500977e+00,8.920319676399230957e-01,9.863598644733428955e-02
1.659366011619567871e+00,8.931608200073242188e-01,1.648696213960647583e-01
1.661453008651733398e+00,8.942841291427612305e-01,2.316746413707733154e-01
1.663454651832580566e+00,8.953615427017211914e-01,2.992058992385864258e-01
1.665819764137268066e+00,8.966345787048339844e-01,3.677282035350799561e-01
1.668050050735473633e+00,8.978350162506103516e-01,4.373406171798706055e-01
1.605762362480163574e+00,8.941814303398132324e-01,-4.924744665622711182e-01
1.607664227485656738e+00,8.952404856681823730e-01,-4.248244166374206543e-01
1.609829664230346680e+00,8.964464068412780762e-01,-3.581642508506774902e-01
1.611837744712829590e+00,8.975645899772644043e-01,-2.922024726867675781e-01
1.613770127296447754e+00,8.986406326293945312e-01,-2.267960309982299805e-01
1.615691781044006348e+00,8.997107744216918945e-01,-1.617932319641113281e-01
1.617643237113952637e+00,9.007974267005920410e-01,-9.703502804040908813e-02
1.619608283042907715e+00,9.018916487693786621e-01,-3.235798701643943787e-02
1.621594667434692383e+00,9.029978513717651367e-01,3.239767253398895264e-02
1.623604178428649902e+00,9.041168093681335449e-01,9.739260375499725342e-02
1.625647664070129395e+00,9.052547812461853027e-01,1.627901941537857056e-01
1.627647519111633301e+00,9.063683748245239258e-01,2.287463396787643433e-01
1.629537463188171387e+00,9.074208140373229980e-01,2.954111695289611816e-01
1.631746649742126465e+00,9.086509943008422852e-01,3.630404472351074219e-01
1.633795499801635742e+00,9.097918868064880371e-01,4.317295849323272705e-01
1.573351621627807617e+00,9.058737158775329590e-01,-4.864611625671386719e-01
1.575322031974792480e+00,9.070081710815429688e-01,-4.196656048297882080e-01
1.577516317367553711e+00,9.082716107368469238e-01,-3.538311719894409180e-01
1.579247236251831055e+00,9.092681407928466797e-01,-2.886241078376770020e-01
1.581233620643615723e+00,9.104118943214416504e-01,-2.240318506956100464e-01
1.583176016807556152e+00,9.115301966667175293e-01,-1.598272919654846191e-01
1.585120558738708496e+00,9.126498103141784668e-01,-9.585792571306228638e-02
1.587047457695007324e+00,9.137592315673828125e-01,-3.196548670530319214e-02
1.588960886001586914e+00,9.148609638214111328e-01,3.200402855873107910e-02
1.590888738632202148e+00,9.159709215164184570e-01,9.620674699544906616e-02
1.592778801918029785e+00,9.170591235160827637e-01,1.607967317104339600e-01
1.594981551170349121e+00,9.183273911476135254e-01,2.259796857833862305e-01
1.596755743026733398e+00,9.193488359451293945e-01,2.918239533901214600e-01
1.598816752433776855e+00,9.205355048179626465e-01,3.586087822914123535e-01
1.600687026977539062e+00,9.216123819351196289e-01,4.264228641986846924e-01
1.541982769966125488e+00,9.174446463584899902e-01,-4.807732701301574707e-01
1.544015765190124512e+00,9.186542630195617676e-01,-4.147860705852508545e-01
1.546241760253906250e+00,9.199786782264709473e-01,-3.497341275215148926e-01
1.547986149787902832e+00,9.210165143013000488e-01,-2.852908968925476074e-01
1.549946784973144531e+00,9.221830368041992188e-01,-2.214465290307998657e-01
1.551833152770996094e+00,9.233054518699645996e-01,-1.579811125993728638e-01
1.553688764572143555e+00,9.244094491004943848e-01,-9.474758058786392212e-02
1.555578351020812988e+00,9.255337119102478027e-01,-3.159524500370025635e-02
1.557503700256347656e+00,9.266792535781860352e-01,3.163434937596321106e-02
1.559410214424133301e+00,9.278135895729064941e-01,9.509649127721786499e-02
1.561249971389770508e+00,9.289081692695617676e-01,1.589397639036178589e-01
1.563358426094055176e+00,9.301626682281494141e-01,2.233627140522003174e-01
1.565026164054870605e+00,9.311549663543701172e-01,2.884313464164733887e-01
