-1.643375968933105469e+01,-1.557464218139648438e+01,-1.186589479446411133e+00
-1.645397758483886719e+01,-1.559380340576171875e+01,-3.956946432590484619e-01
-1.647460365295410156e+01,-1.561335086822509766e+01,3.961906433105468750e-01
-2.880157470703125000e+00,-2.808918237686157227e+00,-1.077984571456909180e+00
-3.416448831558227539e+00,-3.331944942474365234e+00,-1.101749658584594727e+00
-4.194839000701904297e+00,-4.091082096099853516e+00,-1.138967752456665039e+00
-5.428132534027099609e+00,-5.293870449066162109e+00,-1.200899958610534668e+00
-7.680794239044189453e+00,-7.490814208984375000e+00,-1.317327618598937988e+00
-1.270143127441406250e+01,-1.238726902008056641e+01,-1.552202343940734863e+00
-1.624225807189941406e+01,-1.584051513671875000e+01,-1.189011573791503906e+00
-1.626224327087402344e+01,-1.586000537872314453e+01,-3.965024054050445557e-01
-1.628279495239257812e+01,-1.588004875183105469e+01,3.970034718513488770e-01
-2.829350233078002930e+00,-2.839503526687622070e+00,-1.074070334434509277e+00
-3.383378505706787109e+00,-3.395519971847534180e+00,-1.106644868850708008e+00
-4.162282943725585938e+00,-4.177219390869140625e+00,-1.146244883537292480e+00
-5.331856727600097656e+00,-5.350990295410156250e+00,-1.196422457695007324e+00
-7.544627189636230469e+00,-7.571701526641845703e+00,-1.312426924705505371e+00
-1.247700881958007812e+01,-1.252178287506103516e+01,-1.546521067619323730e+00
-1.385418987274169922e+01,-1.390390586853027344e+01,-1.028656721115112305e+00
-1.387414932250976562e+01,-1.392393684387207031e+01,-3.431005477905273438e-01
-1.389487457275390625e+01,-1.394473648071289062e+01,3.436130881309509277e-01
-2.797605991363525391e+00,-2.889191627502441406e+00,-1.077608108520507812e+00
-3.322775125503540039e+00,-3.431552886962890625e+00,-1.102774977684020996e+00
-4.087597846984863281e+00,-4.221414089202880859e+00,-1.142200350761413574e+00
-5.305601596832275391e+00,-5.479291439056396484e+00,-1.208005785942077637e+00
-7.409209251403808594e+00,-7.651765346527099609e+00,-1.307788491249084473e+00
-1.240731143951416016e+01,-1.281349086761474609e+01,-1.560455322265625000e+00
-1.242542934417724609e+01,-1.283220195770263672e+01,-9.361146688461303711e-01
-1.244310188293457031e+01,-1.285045242309570312e+01,-3.122281134128570557e-01
-1.246036815643310547e+01,-1.286828422546386719e+01,3.126613795757293701e-01
-1.247901439666748047e+01,-1.288754081726074219e+01,9.401516914367675781e-01
-2.746954202651977539e+00,-2.919353723526000977e+00,-1.074083089828491211e+00
-3.262482404708862305e+00,-3.467236757278442383e+00,-1.099123001098632812e+00
-4.013309001922607422e+00,-4.265185356140136719e+00,-1.138384342193603516e+00
-5.209102630615234375e+00,-5.536027431488037109e+00,-1.203952789306640625e+00
-6.787774085998535156e+00,-7.213777065277099609e+00,-1.216200470924377441e+00
-6.796922206878662109e+00,-7.223498821258544922e+00,-8.677569627761840820e-01
-6.806673049926757812e+00,-7.233861923217773438e+00,-5.205526947975158691e-01
-6.816241264343261719e+00,-7.244030952453613281e+00,-1.736202985048294067e-01
-6.825649738311767578e+00,-7.254029273986816406e+00,1.738599240779876709e-01
-6.835872173309326172e+00,-7.264894008636474609e+00,5.227857828140258789e-01
-6.845080852508544922e+00,-7.274680614471435547e+00,8.739053606986999512e-01
-6.855512619018554688e+00,-7.285767078399658203e+00,1.228337645530700684e+00
-2.714935064315795898e+00,-2.969354391098022461e+00,-1.078071475028991699e+00
-3.228817224502563477e+00,-3.531393051147460938e+00,-1.104697108268737793e+00
-3.979770421981811523e+00,-4.352718830108642578e+00,-1.146425843238830566e+00
-5.113118648529052734e+00,-5.592274665832519531e+00,-1.200145959854125977e+00
-6.159902572631835938e+00,-6.737153530120849609e+00,-1.120864987373352051e+00
-6.168853282928466797e+00,-6.746942996978759766e+00,-7.998193502426147461e-01
-6.177592277526855469e+00,-6.756501197814941406e+00,-4.797894358634948730e-01
-6.186190128326416016e+00,-6.765904903411865234e+00,-1.600222736597061157e-01
-6.194691181182861328e+00,-6.775202274322509766e+00,1.602421700954437256e-01
-6.203039646148681641e+00,-6.784333229064941406e+00,4.817658364772796631e-01
-6.212397575378417969e+00,-6.794568061828613281e+00,8.054650425910949707e-01
-6.220336437225341797e+00,-6.803250312805175781e+00,1.131861567497253418e+00
-2.664422750473022461e+00,-2.999197483062744141e+00,-1.074950098991394043e+00
-3.168632268905639648e+00,-3.566759109497070312e+00,-1.101459741592407227e+00
-3.905491828918457031e+00,-4.396202564239501953e+00,-1.143038153648376465e+00
-5.017638206481933594e+00,-5.648086071014404297e+00,-1.196587920188903809e+00
-5.621271610260009766e+00,-6.327563285827636719e+00,-1.039228558540344238e+00
-5.629287242889404297e+00,-6.336585998535156250e+00,-7.415456771850585938e-01
-5.637156486511230469e+00,-6.345444202423095703e+00,-4.448243677616119385e-01
-5.644959449768066406e+00,-6.354227542877197266e+00,-1.483593881130218506e-01
-5.652689933776855469e+00,-6.362929344177246094e+00,1.485625505447387695e-01
-5.660323619842529297e+00,-6.371521949768066406e+00,4.466524720191955566e-01
-5.668923377990722656e+00,-6.381202697753906250e+00,7.467669844627380371e-01
-5.676263809204101562e+00,-6.389465332031250000e+00,1.049395203590393066e+00
-2.614145040512084961e+00,-3.028820276260375977e+00,-1.072046518325805664e+00
-3.108739376068115234e+00,-3.601870536804199219e+00,-1.098448991775512695e+00
-3.831584930419921875e+00,-4.439379215240478516e+00,-1.139888048171997070e+00
-4.988899230957031250e+00,-5.780275344848632812e+00,-1.209340810775756836e+00
-5.153631687164306641e+00,-5.971138954162597656e+00,-9.684755206108093262e-01
-5.160853385925292969e+00,-5.979506015777587891e+00,-6.910425424575805664e-01
-5.167975902557373047e+00,-5.987758636474609375e+00,-4.145221412181854248e-01
-5.175075531005859375e+00,-5.995984554290771484e+00,-1.382514387369155884e-01
-5.182168006896972656e+00,-6.004201889038085938e+00,1.384409219026565552e-01
-5.189185619354248047e+00,-6.012332916259765625e+00,4.162233769893646240e-01
-5.196042060852050781e+00,-6.020276546478271484e+00,6.957543492317199707e-01
-5.203942775726318359e+00,-6.029430866241455078e+00,9.779300093650817871e-01
-5.211863994598388672e+00,-6.038608551025390625e+00,1.263388991355895996e+00
-2.582397699356079102e+00,-3.080079793930053711e+00,-1.076996445655822754e+00
-3.075244665145874023e+00,-3.667908668518066406e+00,-1.105051279067993164e+00
-3.759066343307495117e+00,-4.483517169952392578e+00,-1.137289285659790039e+00
-4.771048069000244141e+00,-5.690528392791748047e+00,-1.176156163215637207e+00
-4.777838230133056641e+00,-5.698627471923828125e+00,-9.130906462669372559e-01
-4.784436702728271484e+00,-5.706497669219970703e+00,-6.515102982521057129e-01
-4.790971279144287109e+00,-5.714292049407958984e+00,-3.908031284809112549e-01
-4.797512531280517578e+00,-5.722093582153320312e+00,-1.303395777940750122e-01
-4.804075241088867188e+00,-5.729920864105224609e+00,1.305178701877593994e-01
-4.810615539550781250e+00,-5.737721920013427734e+00,3.924055397510528564e-01
-4.817017078399658203e+00,-5.745357036590576172e+00,6.559468507766723633e-01
-4.824414253234863281e+00,-5.754179954528808594e+00,9.219918251037597656e-01
-4.830314636230468750e+00,-5.761217117309570312e+00,1.190766453742980957e+00
-2.532145977020263672e+00,-3.109472036361694336e+00,-1.074490547180175781e+00
-3.015321493148803711e+00,-3.702811002731323242e+00,-1.102450728416442871e+00
-3.723930358886718750e+00,-4.572981834411621094e+00,-1.146344780921936035e+00
-4.405336380004882812e+00,-5.409747600555419922e+00,-1.104976534843444824e+00
-4.411489963531494141e+00,-5.417304039001464844e+00,-8.578088879585266113e-01
-4.417491912841796875e+00,-5.424674510955810547e+00,-6.120529770851135254e-01
-4.423460483551025391e+00,-5.432003974914550781e+00,-3.671295940876007080e-01
-4.429462432861328125e+00,-5.439374446868896484e+00,-1.224430054426193237e-01
-4.435511112213134766e+00,-5.446802139282226562e+00,1.226102039217948914e-01
-4.441566944122314453e+00,-5.454238414764404297e+00,3.686323165893554688e-01
-4.447536468505859375e+00,-5.461568832397460938e+00,6.162157058715820312e-01
-4.453263282775878906e+00,-5.468601703643798828e+00,8.659316301345825195e-01
-4.459983348846435547e+00,-5.476853847503662109e+00,1.118683457374572754e+00
-4.466515064239501953e+00,-5.484875202178955078e+00,1.374936223030090332e+00
-2.482103347778320312e+00,-3.138715982437133789e+00,-1.072209477424621582e+00
-2.955659389495849609e+00,-3.737546205520629883e+00,-1.100083947181701660e+00
-3.650193214416503906e+00,-4.615811347961425781e+00,-1.143866896629333496e+00
-4.080248832702636719e+00,-5.159633159637451172e+00,-1.041853189468383789e+00
-4.085849285125732422e+00,-5.166715145111083984e+00,-8.087857365608215332e-01
-4.091331481933593750e+00,-5.173647880554199219e+00,-5.770637989044189453e-01
-4.096805572509765625e+00,-5.180570125579833984e+00,-3.461374044418334961e-01
-4.102334022521972656e+00,-5.187560558319091797e+00,-1.154409423470497131e-01
-4.107927799224853516e+00,-5.194634437561035156e+00,1.155983656644821167e-01
-4.113550662994384766e+00,-5.201745033264160156e+00,3.475521802902221680e-01
-4.119116306304931641e+00,-5.208783149719238281e+00,5.809827446937561035e-01
-4.124492168426513672e+00,-5.215580463409423828e+00,8.164349794387817383e-01
-4.130804538726806641e+00,-5.223562717437744141e+00,1.054762125015258789e+00
-4.136958122253417969e+00,-5.231344223022460938e+00,1.296405196189880371e+00
-2.449583768844604492e+00,-3.190402030944824219e+00,-1.077777981758117676e+00
-2.921071529388427734e+00,-3.804479837417602539e+00,-1.107365131378173828e+00
-3.577508211135864258e+00,-4.659440040588378906e+00,-1.141872048377990723e+00
-3.812310695648193359e+00,-4.965252876281738281e+00,-9.914832115173339844e-01
-3.817469358444213867e+00,-4.971971988677978516e+00,-7.696688175201416016e-01
-3.822533607482910156e+00,-4.978567600250244141e+00,-5.491458177566528320e-01
-3.827607631683349609e+00,-4.985176086425781250e+00,-3.293879926204681396e-01
-3.832749128341674805e+00,-4.991872787475585938e+00,-1.098541393876075745e-01
-3.837970018386840820e+00,-4.998672485351562500e+00,1.100037842988967896e-01
-3.843235492706298828e+00,-5.005530357360839844e+00,3.307328522205352783e-01
-3.848463773727416992e+00,-5.012340068817138672e+00,5.528709292411804199e-01
-3.853530168533325195e+00,-5.018938541412353516e+00,7.769393324851989746e-01
-3.858265876770019531e+00,-5.025106430053710938e+00,1.003435015678405762e+00
-3.863889217376708984e+00,-5.032430648803710938e+00,1.233279466629028320e+00
-2.399507761001586914e+00,-3.219546556472778320e+00,-1.075910806655883789e+00
-2.861306428909301758e+00,-3.839166164398193359e+00,-1.105427145957946777e+00
-3.504280090332031250e+00,-4.701877593994140625e+00,-1.139863252639770508e+00
-3.547917366027832031e+00,-4.760428428649902344e+00,-9.403460621833801270e-01
-3.552647590637207031e+00,-4.766775131225585938e+00,-7.299575209617614746e-01
-3.557305812835693359e+00,-4.773025512695312500e+00,-5.208044648170471191e-01
-3.561989784240722656e+00,-4.779310226440429688e+00,-3.123849630355834961e-01
-3.566752195358276367e+00,-4.785699844360351562e+00,-1.041828170418739319e-01
-3.571605682373046875e+00,-4.792212009429931641e+00,1.043245866894721985e-01
-3.576516628265380859e+00,-4.798801422119140625e+00,3.136589527130126953e-01
-3.581408739089965820e+00,-4.805365562438964844e+00,5.243332386016845703e-01
-3.586166143417358398e+00,-4.811748504638671875e+00,7.368444800376892090e-01
-3.590629816055297852e+00,-4.817738056182861328e+00,9.516665935516357422e-01
-3.595945119857788086e+00,-4.824869632720947266e+00,1.169679880142211914e+00
-3.600901126861572266e+00,-4.831519603729248047e+00,1.391159653663635254e+00
-2.349604845046997070e+00,-3.248610019683837891e+00,-1.074274539947509766e+00
-2.801757812500000000e+00,-3.873765468597412109e+00,-1.103729486465454102e+00
-3.304366588592529297e+00,-4.568682193756103516e+00,-1.095994710922241211e+00
-3.308902978897094727e+00,-4.574954509735107422e+00,-8.942614793777465820e-01
-3.313256263732910156e+00,-4.580973148345947266e+00,-6.941714882850646973e-01
-3.317555189132690430e+00,-4.586917400360107422e+00,-4.952653348445892334e-01
-3.321891069412231445e+00,-4.592912197113037109e+00,-2.970634102821350098e-01
-3.326314210891723633e+00,-4.599027633666992188e+00,-9.907241165637969971e-02
-3.330835342407226562e+00,-4.605278491973876953e+00,9.920707345008850098e-02
-3.335423707962036133e+00,-4.611622810363769531e+00,2.982735633850097656e-01
-3.340008020401000977e+00,-4.617960929870605469e+00,4.986172318458557129e-01
-3.344478845596313477e+00,-4.624142646789550781e+00,7.007130384445190430e-01
-3.348688125610351562e+00,-4.629962444305419922e+00,9.050137996673583984e-01
-3.353705406188964844e+00,-4.636899471282958984e+00,1.112359523773193359e+00
-3.358405113220214844e+00,-4.643397331237792969e+00,1.323016166687011719e+00
-2.300168037414550781e+00,-3.278053998947143555e+00,-1.073013901710510254e+00
-2.742778539657592773e+00,-3.908834457397460938e+00,-1.102422833442687988e+00
-3.251109838485717773e+00,-4.633275985717773438e+00,-1.100214242935180664e+00
-3.254545450210571289e+00,-4.638172149658203125e+00,-8.974210023880004883e-01
-3.258658885955810547e+00,-4.644034385681152344e+00,-6.965880393981933594e-01
-3.263016462326049805e+00,-4.650244712829589844e+00,-4.970091879367828369e-01
-3.266943931579589844e+00,-4.655841827392578125e+00,-2.980786263942718506e-01
-3.270967483520507812e+00,-4.661575794219970703e+00,-9.940107166767120361e-02
-3.275096416473388672e+00,-4.667460441589355469e+00,9.952654689550399780e-02
-3.278818845748901367e+00,-4.672765254974365234e+00,2.991620898246765137e-01
-3.282839059829711914e+00,-4.678494453430175781e+00,5.000284910202026367e-01
-3.287618160247802734e+00,-4.685305595397949219e+00,7.027785778045654297e-01
-3.291476011276245117e+00,-4.690803527832031250e+00,9.076043367385864258e-01
-3.296123504638671875e+00,-4.697426795959472656e+00,1.115447402000427246e+00
-3.300466060638427734e+00,-4.703615665435791016e+00,1.326577782630920410e+00
-2.266191482543945312e+00,-3.329997301101684570e+00,-1.079288482666015625e+00
-2.683530092239379883e+00,-3.943244934082031250e+00,-1.101181864738464355e+00
-3.200471639633178711e+00,-4.702851295471191406e+00,-1.105744361877441406e+00
-3.204648971557617188e+00,-4.708989620208740234e+00,-9.021555781364440918e-01
-3.208670854568481445e+00,-4.714899539947509766e+00,-7.002569437026977539e-01
-3.212943553924560547e+00,-4.721178054809570312e+00,-4.996241033077239990e-01
-3.216801404953002930e+00,-4.726846694946289062e+00,-2.996460199356079102e-01
-3.220762968063354492e+00,-4.732667922973632812e+00,-9.992374479770660400e-02
-3.224838733673095703e+00,-4.738656997680664062e+00,1.000502035021781921e-01
-3.228523015975952148e+00,-4.744070529937744141e+00,3.007378578186035156e-01
-3.232510805130004883e+00,-4.749930381774902344e+00,5.026668310165405273e-01
-3.236410140991210938e+00,-4.755660533905029297e+00,7.063107490539550781e-01
-3.241102218627929688e+00,-4.762555122375488281e+00,9.124177694320678711e-01
-3.244533300399780273e+00,-4.767596721649169922e+00,1.120967388153076172e+00
-3.248705148696899414e+00,-4.773726940155029297e+00,1.333100438117980957e+00
-2.216499805450439453e+00,-3.359360694885253906e+00,-1.078412294387817383e+00
-2.624674797058105469e+00,-3.977997064590454102e+00,-1.100282788276672363e+00
-3.148255586624145508e+00,-4.771543979644775391e+00,-1.111186504364013672e+00
-3.152337789535522461e+00,-4.777730941772460938e+00,-9.065880179405212402e-01
-3.156273841857910156e+00,-4.783696651458740234e+00,-7.036928534507751465e-01
-3.160463809967041016e+00,-4.790046691894531250e+00,-5.020735263824462891e-01
-3.164251327514648438e+00,-4.795787334442138672e+00,-3.011143505573272705e-01
-3.168148756027221680e+00,-4.801694393157958984e+00,-1.004134193062782288e-01
-3.172165393829345703e+00,-4.807781696319580078e+00,1.005407199263572693e-01
-3.175802946090698242e+00,-4.813294887542724609e+00,3.022136092185974121e-01
-3.179746150970458984e+00,-4.819271564483642578e+00,5.051367282867431641e-01
-3.183609485626220703e+00,-4.825127124786376953e+00,7.097873687744140625e-01
-3.188261032104492188e+00,-4.832176685333251953e+00,9.169192314147949219e-01
-3.191676139831542969e+00,-4.837352752685546875e+00,1.126511931419372559e+00
-3.195827484130859375e+00,-4.843644618988037109e+00,1.339714050292968750e+00
-2.166658878326416016e+00,-3.388339281082153320e+00,-1.077648997306823730e+00
-2.565649986267089844e+00,-4.012303352355957031e+00,-1.099501609802246094e+00
-3.097479104995727539e+00,-4.844006538391113281e+00,-1.117622137069702148e+00
-3.101472377777099609e+00,-4.850251197814941406e+00,-9.118318557739257812e-01
-3.105327129364013672e+00,-4.856279850006103516e+00,-7.077590823173522949e-01
-3.109437942504882812e+00,-4.862708091735839844e+00,-5.049728155136108398e-01
-3.113158702850341797e+00,-4.868526935577392578e+00,-3.028526306152343750e-01
-3.116992950439453125e+00,-4.874523162841796875e+00,-1.009930819272994995e-01
-3.120951414108276367e+00,-4.880713462829589844e+00,1.011213436722755432e-01
-3.124541997909545898e+00,-4.886328697204589844e+00,3.039600253105163574e-01
-3.128440141677856445e+00,-4.892425060272216797e+00,5.080587863922119141e-01
-3.132265329360961914e+00,-4.898406982421875000e+00,7.138987779617309570e-01
-3.136872768402099609e+00,-4.905612468719482422e+00,9.222395420074462891e-01
-3.140267372131347656e+00,-4.910921096801757812e+00,1.133060812950134277e+00
-3.144392728805541992e+00,-4.917372226715087891e+00,1.347519874572753906e+00
-2.116999626159667969e+00,-3.417478322982788086e+00,-1.077168941497802734e+00
-2.506847143173217773e+00,-4.046810150146484375e+00,-1.099012255668640137e+00
-3.044102191925048828e+00,-4.914102077484130859e+00,-1.123626708984375000e+00
-3.048011541366577148e+00,-4.920413017272949219e+00,-9.167263507843017578e-01
-3.051788568496704102e+00,-4.926510810852050781e+00,-7.115555405616760254e-01
-3.055821418762207031e+00,-4.933020591735839844e+00,-5.076803565025329590e-01
-3.059474229812622070e+00,-4.938917160034179688e+00,-3.044760525226593018e-01
-3.063243150711059570e+00,-4.945001602172851562e+00,-1.015344783663749695e-01
-3.067137002944946289e+00,-4.951287269592285156e+00,1.016635447740554810e-01
-3.070673227310180664e+00,-4.956995964050292969e+00,3.055905699729919434e-01
-3.074516057968139648e+00,-4.963199615478515625e+00,5.107861757278442383e-01
-3.078290224075317383e+00,-4.969292163848876953e+00,7.177346944808959961e-01
-3.082838296890258789e+00,-4.976634502410888672e+00,9.272009134292602539e-01
-3.086196660995483398e+00,-4.982055664062500000e+00,1.139164566993713379e+00
-3.090277433395385742e+00,-4.988643169403076172e+00,1.354790568351745605e+00
-2.067263603210449219e+00,-3.446412324905395508e+00,-1.076851963996887207e+00
-2.468629837036132812e+00,-4.115545272827148438e+00,-1.107969522476196289e+00
-2.992198467254638672e+00,-4.988406181335449219e+00,-1.130707859992980957e+00
-2.996031284332275391e+00,-4.994795799255371094e+00,-9.225004911422729492e-01
-2.999736309051513672e+00,-5.000972747802734375e+00,-7.160355448722839355e-01
-3.003695487976074219e+00,-5.007573127746582031e+00,-5.108759403228759766e-01
-3.007283210754394531e+00,-5.013554573059082031e+00,-3.063923120498657227e-01
-3.010987997055053711e+00,-5.019731044769287109e+00,-1.021734923124313354e-01
-3.014818668365478516e+00,-5.026117324829101562e+00,1.023034825921058655e-01
-3.018300056457519531e+00,-5.031921386718750000e+00,3.075147271156311035e-01
-3.022085189819335938e+00,-5.038231372833251953e+00,5.140036940574645996e-01
-3.025805950164794922e+00,-5.044434547424316406e+00,7.222583889961242676e-01
-3.029328107833862305e+00,-5.050306320190429688e+00,9.327528476715087891e-01
-3.033606529235839844e+00,-5.057439327239990234e+00,1.146355390548706055e+00
-3.037635803222656250e+00,-5.064156532287597656e+00,1.363350629806518555e+00
-2.017571210861206055e+00,-3.475378513336181641e+00,-1.076769113540649414e+00
-2.409304618835449219e+00,-4.150160789489746094e+00,-1.107891082763671875e+00
-2.937518358230590820e+00,-5.060038089752197266e+00,-1.137297511100769043e+00
-2.941277503967285156e+00,-5.066513061523437500e+00,-9.278755784034729004e-01
-2.944912433624267578e+00,-5.072774887084960938e+00,-7.202070951461791992e-01
-2.948797702789306641e+00,-5.079467296600341797e+00,-5.138519406318664551e-01
-2.952319383621215820e+00,-5.085533618927001953e+00,-3.081770837306976318e-01
-2.955956459045410156e+00,-5.091798782348632812e+00,-1.027686744928359985e-01
-2.959718227386474609e+00,-5.098278522491455078e+00,1.028994619846343994e-01
-2.963138103485107422e+00,-5.104169368743896484e+00,3.093063831329345703e-01
-2.966856956481933594e+00,-5.110575675964355469e+00,5.169989466667175293e-01
-2.970513820648193359e+00,-5.116874694824218750e+00,7.264681458473205566e-01
-2.973975896835327148e+00,-5.122838020324707031e+00,9.381908178329467773e-01
-2.978181838989257812e+00,-5.130083560943603516e+00,1.153040885925292969e+00
-2.982145071029663086e+00,-5.136910438537597656e+00,1.371305108070373535e+00
-1.967863440513610840e+00,-3.504322528839111328e+00,-1.076899528503417969e+00
-2.349970340728759766e+00,-4.184768676757812500e+00,-1.108036994934082031e+00
-2.883923053741455078e+00,-5.135618686676025391e+00,-1.144889831542968750e+00
-2.888019561767578125e+00,-5.142913341522216797e+00,-9.342011809349060059e-01
-2.891590356826782227e+00,-5.149272441864013672e+00,-7.251173853874206543e-01
-2.895406484603881836e+00,-5.156067848205566406e+00,-5.173555612564086914e-01
-2.898864984512329102e+00,-5.162227153778076172e+00,-3.102784156799316406e-01
-2.902436733245849609e+00,-5.168587207794189453e+00,-1.034694239497184753e-01
-2.906130075454711914e+00,-5.175164699554443359e+00,1.036010906100273132e-01
-2.909487009048461914e+00,-5.181142330169677734e+00,3.114153146743774414e-01
-2.913137197494506836e+00,-5.187642574310302734e+00,5.205237269401550293e-01
-2.916725635528564453e+00,-5.194032669067382812e+00,7.314205169677734375e-01
-2.920122861862182617e+00,-5.200082302093505859e+00,9.445858001708984375e-01
-2.924249649047851562e+00,-5.207431316375732422e+00,1.160899162292480469e+00
-2.928138971328735352e+00,-5.214356899261474609e+00,1.380649805068969727e+00
-1.918068885803222656e+00,-3.533160448074340820e+00,-1.077214479446411133e+00
-2.271353006362915039e+00,-4.183924198150634766e+00,-1.099092602729797363e+00
-2.811032772064208984e+00,-5.178036212921142578e+00,-1.145259022712707520e+00
-2.831814765930175781e+00,-5.216317653656005859e+00,-9.400758743286132812e-01
-2.835321903228759766e+00,-5.222777843475341797e+00,-7.296787500381469727e-01
-2.839067697525024414e+00,-5.229677677154541016e+00,-5.206106901168823242e-01
-2.842461347579956055e+00,-5.235929012298583984e+00,-3.122308850288391113e-01
-2.845963478088378906e+00,-5.242379665374755859e+00,-1.041205227375030518e-01
-2.849583148956298828e+00,-5.249047279357910156e+00,1.042529493570327759e-01
-2.852871656417846680e+00,-5.255105018615722656e+00,3.133744001388549805e-01
-2.856445550918579102e+00,-5.261688232421875000e+00,5.237973332405090332e-01
-2.859957456588745117e+00,-5.268157482147216797e+00,7.360187172889709473e-01
-2.864188432693481445e+00,-5.275951385498046875e+00,9.508229494094848633e-01
-2.867315292358398438e+00,-5.281711101531982422e+00,1.168189406394958496e+00
-2.871117591857910156e+00,-5.288715362548828125e+00,1.389314651489257812e+00
-1.868175506591796875e+00,-3.561908245086669922e+00,-1.077716112136840820e+00
-2.212301015853881836e+00,-4.218026161193847656e+00,-1.099619865417480469e+00
-2.738005399703979492e+00,-5.220346927642822266e+00,-1.145831704139709473e+00
-2.774806022644042969e+00,-5.290511608123779297e+00,-9.461923241615295410e-01
-2.778251647949218750e+00,-5.297080993652343750e+00,-7.344287037849426270e-01
-2.781927824020385742e+00,-5.304090499877929688e+00,-5.240008234977722168e-01
-2.785256385803222656e+00,-5.310436725616455078e+00,-3.142644166946411133e-01
-2.788688421249389648e+00,-5.316980361938476562e+00,-1.047986671328544617e-01
-2.792232513427734375e+00,-5.323737144470214844e+00,1.049318537116050720e-01
-2.795449018478393555e+00,-5.329870223999023438e+00,3.154144883155822754e-01
-2.798942089080810547e+00,-5.336530208587646484e+00,5.272055864334106445e-01
-2.802371025085449219e+00,-5.343067646026611328e+00,7.408046126365661621e-01
-2.806502103805541992e+00,-5.350944042205810547e+00,9.570004940032958984e-01
-2.809548854827880859e+00,-5.356753349304199219e+00,1.175772070884704590e+00
-2.813255548477172852e+00,-5.363820075988769531e+00,1.398323178291320801e+00
-1.818334460258483887e+00,-3.590903997421264648e+00,-1.078503966331481934e+00
-2.153319120407104492e+00,-4.252442359924316406e+00,-1.100444316864013672e+00
-2.665075540542602539e+00,-5.263074398040771484e+00,-1.146719813346862793e+00
-2.719269275665283203e+00,-5.370098114013671875e+00,-9.533673524856567383e-01
-2.722660064697265625e+00,-5.376794338226318359e+00,-7.400017976760864258e-01
-2.726272344589233398e+00,-5.383928298950195312e+00,-5.279789566993713379e-01
-2.729539394378662109e+00,-5.390379905700683594e+00,-3.166508674621582031e-01
-2.732903003692626953e+00,-5.397022247314453125e+00,-1.055944859981536865e-01
-2.736371517181396484e+00,-5.403872013092041016e+00,1.057285070419311523e-01
-2.739514589309692383e+00,-5.410079479217529297e+00,3.178080916404724121e-01
-2.742923498153686523e+00,-5.416811466217041016e+00,5.312036275863647461e-01
-2.746265649795532227e+00,-5.423411369323730469e+00,7.464175820350646973e-01
-2.750289678573608398e+00,-5.431358337402343750e+00,9.642430543899536133e-01
-2.753248214721679688e+00,-5.437201023101806641e+00,1.184658527374267578e+00
-2.756849288940429688e+00,-5.444312572479248047e+00,1.408875703811645508e+00
-1.768227219581604004e+00,-3.619573354721069336e+00,-1.079402565956115723e+00
-2.094021320343017578e+00,-4.286476135253906250e+00,-1.101382493972778320e+00
-2.591748476028442383e+00,-5.305326938629150391e+00,-1.147725582122802734e+00
-2.660546064376831055e+00,-5.446156024932861328e+00,-9.600111246109008789e-01
-2.663880348205566406e+00,-5.452981472015380859e+00,-7.451632618904113770e-01
-2.667425155639648438e+00,-5.460237503051757812e+00,-5.316636562347412109e-01
-2.670627355575561523e+00,-5.466792583465576172e+00,-3.188614547252655029e-01
-2.673918724060058594e+00,-5.473530292510986328e+00,-1.063316687941551208e-01
-2.677306890487670898e+00,-5.480465412139892578e+00,1.064664050936698914e-01
-2.680371999740600586e+00,-5.486739635467529297e+00,3.200249075889587402e-01
-2.683691501617431641e+00,-5.493534564971923828e+00,5.349057912826538086e-01
-2.686939716339111328e+00,-5.500184059143066406e+00,7.516136169433593750e-01
-2.690849542617797852e+00,-5.508187770843505859e+00,9.709455370903015137e-01
-2.693713665008544922e+00,-5.514050483703613281e+00,1.192879676818847656e+00
-2.697201490402221680e+00,-5.521189689636230469e+00,1.418634176254272461e+00
-1.706298947334289551e+00,-3.623393297195434570e+00,-1.073148608207702637e+00
-2.034831285476684570e+00,-4.321044445037841797e+00,-1.102668046951293945e+00
-2.492430686950683594e+00,-5.292775154113769531e+00,-1.137175917625427246e+00
-2.603252887725830078e+00,-5.528110504150390625e+00,-9.677901268005371094e-01
-2.606537342071533203e+00,-5.535085201263427734e+00,-7.512077093124389648e-01
-2.610020160675048828e+00,-5.542480945587158203e+00,-5.359792113304138184e-01
-2.613161325454711914e+00,-5.549151420593261719e+00,-3.214506208896636963e-01
-2.616381883621215820e+00,-5.555990219116210938e+00,-1.071950867772102356e-01
-2.619689702987670898e+00,-5.563014984130859375e+00,1.073306202888488770e-01
-2.622674942016601562e+00,-5.569354057312011719e+00,3.226209282875061035e-01
-2.625901460647583008e+00,-5.576205253601074219e+00,5.392404794692993164e-01
-2.629738092422485352e+00,-5.584352970123291016e+00,7.578941583633422852e-01
-2.632839918136596680e+00,-5.590939521789550781e+00,9.787893891334533691e-01
-2.636576175689697266e+00,-5.598873615264892578e+00,1.202942490577697754e+00
-1.656511545181274414e+00,-3.652393341064453125e+00,-1.074605107307434082e+00
-1.975514411926269531e+00,-4.355753421783447266e+00,-1.104196310043334961e+00
-2.419843196868896484e+00,-5.335441112518310547e+00,-1.138784408569335938e+00
-2.545011281967163086e+00,-5.611420154571533203e+00,-9.758976101875305176e-01
-2.548618793487548828e+00,-5.619374752044677734e+00,-7.576186656951904297e-01
-2.551669359207153320e+00,-5.626100063323974609e+00,-5.404782295227050781e-01
-2.554749250411987305e+00,-5.632891178131103516e+00,-3.241500258445739746e-01
-2.557898044586181641e+00,-5.639833927154541016e+00,-1.080952808260917664e-01
-2.561123371124267578e+00,-5.646944999694824219e+00,1.082315742969512939e-01
-2.564402103424072266e+00,-5.654174327850341797e+00,3.253747820854187012e-01
-2.567154645919799805e+00,-5.660243511199951172e+00,5.437582135200500488e-01
-2.570869922637939453e+00,-5.668435096740722656e+00,7.642331719398498535e-01
-2.573860883712768555e+00,-5.675029754638671875e+00,9.869600534439086914e-01
-2.577462434768676758e+00,-5.682971000671386719e+00,1.212960481643676758e+00
-1.606291770935058594e+00,-3.680821180343627930e+00,-1.076094388961791992e+00
-1.915678262710571289e+00,-4.389780998229980469e+00,-1.105758070945739746e+00
-2.346613645553588867e+00,-5.377270221710205078e+00,-1.140426516532897949e+00
-2.483850955963134766e+00,-5.691750049591064453e+00,-9.835841655731201172e-01
-2.486892700195312500e+00,-5.698719978332519531e+00,-7.634388804435729980e-01
-2.489886760711669922e+00,-5.705581188201904297e+00,-5.446341633796691895e-01
-2.492900848388671875e+00,-5.712487697601318359e+00,-3.266436755657196045e-01
-2.495973825454711914e+00,-5.719529628753662109e+00,-1.089268624782562256e-01
-2.499112606048583984e+00,-5.726721763610839844e+00,1.090638414025306702e-01
-2.502294540405273438e+00,-5.734013080596923828e+00,3.278745114803314209e-01
-2.505466461181640625e+00,-5.741281986236572266e+00,5.480420589447021484e-01
-2.508546113967895508e+00,-5.748338699340820312e+00,7.700861692428588867e-01
-2.511423110961914062e+00,-5.754931449890136719e+00,9.945024847984313965e-01
-2.514886140823364258e+00,-5.762866973876953125e+00,1.222205042839050293e+00
-1.556181073188781738e+00,-3.709950447082519531e+00,-1.077988028526306152e+00
-1.855980992317199707e+00,-4.424676418304443359e+00,-1.107742905616760254e+00
-2.273562669754028320e+00,-5.420195102691650391e+00,-1.142511487007141113e+00
-2.423495054244995117e+00,-5.777635574340820312e+00,-9.923297762870788574e-01
-2.426494836807250977e+00,-5.784787178039550781e+00,-7.702372670173645020e-01
-2.429437875747680664e+00,-5.791803359985351562e+00,-5.494889616966247559e-01
-2.432390213012695312e+00,-5.798841476440429688e+00,-3.295568823814392090e-01
-2.435388565063476562e+00,-5.805989265441894531e+00,-1.098983287811279297e-01
-2.438440561294555664e+00,-5.813265800476074219e+00,1.100360602140426636e-01
-2.441523551940917969e+00,-5.820615291595458984e+00,3.307943344116210938e-01
-2.444586753845214844e+00,-5.827918052673339844e+00,5.529152750968933105e-01
-2.447549581527709961e+00,-5.834981441497802734e+00,7.769205570220947266e-01
-2.450305223464965820e+00,-5.841550827026367188e+00,1.003307461738586426e+00
-2.453621149063110352e+00,-5.849456310272216797e+00,1.232994556427001953e+00
-1.505541682243347168e+00,-3.738340139389038086e+00,-1.079864859580993652e+00
-1.780730724334716797e+00,-4.421649456024169922e+00,-1.100491166114807129e+00
-2.199722290039062500e+00,-5.462027549743652344e+00,-1.144575119018554688e+00
-2.359577655792236328e+00,-5.858957290649414062e+00,-1.000393867492675781e+00
-2.362529277801513672e+00,-5.866285800933837891e+00,-7.765066623687744141e-01
-2.365415573120117188e+00,-5.873452663421630859e+00,-5.539664626121520996e-01
-2.368300676345825195e+00,-5.880616664886474609e+00,-3.322437703609466553e-01
-2.371220350265502930e+00,-5.887866497039794922e+00,-1.107943505048751831e-01
-2.374181747436523438e+00,-5.895219326019287109e+00,1.109327152371406555e-01
-2.377162933349609375e+00,-5.902622222900390625e+00,3.334870338439941406e-01
-2.380114555358886719e+00,-5.909951210021972656e+00,5.574088692665100098e-01
-2.382958889007568359e+00,-5.917014122009277344e+00,7.832213640213012695e-01
-2.386341810226440430e+00,-5.925413608551025391e+00,1.011741042137145996e+00
-2.388760805130004883e+00,-5.931420326232910156e+00,1.242937088012695312e+00
-1.445001721382141113e+00,-3.741682529449462891e+00,-1.074745774269104004e+00
-1.721033692359924316e+00,-4.456439018249511719e+00,-1.102905869483947754e+00
-2.126062870025634766e+00,-5.505219936370849609e+00,-1.147131800651550293e+00
-2.296873569488525391e+00,-5.947516918182373047e+00,-1.009798169136047363e+00
-2.299783945083618164e+00,-5.955052852630615234e+00,-7.838189601898193359e-01
-2.302618980407714844e+00,-5.962394237518310547e+00,-5.591892600059509277e-01
-2.305440187454223633e+00,-5.969699382781982422e+00,-3.353780210018157959e-01
-2.308282613754272461e+00,-5.977059364318847656e+00,-1.118395552039146423e-01
-2.311152696609497070e+00,-5.984491348266601562e+00,1.119786128401756287e-01
-2.314030170440673828e+00,-5.991941928863525391e+00,3.366276323795318604e-01
-2.316866397857666016e+00,-5.999286174774169922e+00,5.626492500305175781e-01
-2.319586515426635742e+00,-6.006329536437988281e+00,7.905681133270263672e-01
-2.322816610336303711e+00,-6.014693737030029297e+00,1.021203756332397461e+00
-2.325954914093017578e+00,-6.022819995880126953e+00,1.254984974861145020e+00
-1.394584178924560547e+00,-3.770853042602539062e+00,-1.077280640602111816e+00
-1.661057710647583008e+00,-4.491377830505371094e+00,-1.105555415153503418e+00
-2.030988454818725586e+00,-5.491643428802490234e+00,-1.138128757476806641e+00
-2.232897043228149414e+00,-6.037589550018310547e+00,-1.019560217857360840e+00
-2.235765695571899414e+00,-6.045345783233642578e+00,-7.914103865623474121e-01
-2.238548278808593750e+00,-6.052869796752929688e+00,-5.646117925643920898e-01
-2.241304636001586914e+00,-6.060322761535644531e+00,-3.386322557926177979e-01
-2.244068145751953125e+00,-6.067794799804687500e+00,-1.129247620701789856e-01
-2.246845483779907227e+00,-6.075304508209228516e+00,1.130645200610160828e-01
-2.249616146087646484e+00,-6.082796573638916016e+00,3.398880362510681152e-01
-2.252334117889404297e+00,-6.090146064758300781e+00,5.680888891220092773e-01
-2.255509614944458008e+00,-6.098731994628906250e+00,7.983992695808410645e-01
-2.258000612258911133e+00,-6.105467796325683594e+00,1.031022787094116211e+00
-2.260974168777465820e+00,-6.113507747650146484e+00,1.267008543014526367e+00
-1.343510866165161133e+00,-3.799016475677490234e+00,-1.079722166061401367e+00
-1.600291728973388672e+00,-4.525109767913818359e+00,-1.108106732368469238e+00
-1.956762790679931641e+00,-5.533095836639404297e+00,-1.140798211097717285e+00
-2.165167808532714844e+00,-6.122397899627685547e+00,-1.028542995452880859e+00
-2.167985677719116211e+00,-6.130366325378417969e+00,-7.983964085578918457e-01
-2.170709133148193359e+00,-6.138066768646240234e+00,-5.696023702621459961e-01
-2.173394441604614258e+00,-6.145659923553466797e+00,-3.416273891925811768e-01
-2.176074266433715820e+00,-6.153237819671630859e+00,-1.139235645532608032e-01
-2.178755044937133789e+00,-6.160818099975585938e+00,1.140639111399650574e-01
-2.181417703628540039e+00,-6.168347358703613281e+00,3.428885340690612793e-01
-2.184016704559326172e+00,-6.175696372985839844e+00,5.730943083763122559e-01
-2.187044858932495117e+00,-6.184259414672851562e+00,8.054152727127075195e-01
-2.189401388168334961e+00,-6.190922737121582031e+00,1.040054917335510254e+00
-2.192212581634521484e+00,-6.198871612548828125e+00,1.278066039085388184e+00
-1.283700942993164062e+00,-3.802155256271362305e+00,-1.075281858444213867e+00
-1.526962041854858398e+00,-4.522663116455078125e+00,-1.102042555809020996e+00
-1.882690429687500000e+00,-5.576284408569335938e+00,-1.144029498100280762e+00
-2.098856925964355469e+00,-6.216541290283203125e+00,-1.039205431938171387e+00
-2.101211547851562500e+00,-6.223515510559082031e+00,-8.065282702445983887e-01
-2.103879690170288086e+00,-6.231418132781982422e+00,-5.754117965698242188e-01
-2.106497049331665039e+00,-6.239170551300048828e+00,-3.451140820980072021e-01
-2.109094381332397461e+00,-6.246863365173339844e+00,-1.150862798094749451e-01
-2.111678600311279297e+00,-6.254517078399658203e+00,1.152272894978523254e-01
-2.114230394363403320e+00,-6.262075424194335938e+00,3.463810682296752930e-01
-2.117132663726806641e+00,-6.270671844482421875e+00,5.790364742279052734e-01
-2.119582891464233398e+00,-6.277928829193115234e+00,8.135799169540405273e-01
-2.122457265853881836e+00,-6.286442279815673828e+00,1.050890564918518066e+00
-2.125211238861083984e+00,-6.294599056243896484e+00,1.291398882865905762e+00
-1.232758045196533203e+00,-3.831342458724975586e+00,-1.078435659408569336e+00
-1.466441750526428223e+00,-4.557618141174316406e+00,-1.105332255363464355e+00
-1.808159947395324707e+00,-5.619658946990966797e+00,-1.147500991821289062e+00
-2.030617475509643555e+00,-6.311044692993164062e+00,-1.050037026405334473e+00
-2.032941818237304688e+00,-6.318268299102783203e+00,-8.149532079696655273e-01
-2.035552978515625000e+00,-6.326384067535400391e+00,-5.814309716224670410e-01
-2.038100719451904297e+00,-6.334301948547363281e+00,-3.487268090248107910e-01
-2.040614128112792969e+00,-6.342113494873046875e+00,-1.162910535931587219e-01
-2.043099641799926758e+00,-6.349837779998779297e+00,1.164326965808868408e-01
-2.045538902282714844e+00,-6.357419013977050781e+00,3.499995172023773193e-01
-2.048300504684448242e+00,-6.366002082824707031e+00,5.850721597671508789e-01
-2.050612688064575195e+00,-6.373188018798828125e+00,8.220369815826416016e-01
-2.053318500518798828e+00,-6.381597518920898438e+00,1.061775684356689453e+00
-2.055895328521728516e+00,-6.389606475830078125e+00,1.304719686508178711e+00
-1.173465013504028320e+00,-3.834435701370239258e+00,-1.074468493461608887e+00
-1.405518889427185059e+00,-4.592699050903320312e+00,-1.108847618103027344e+00
-1.715513586997985840e+00,-5.605643749237060547e+00,-1.139508366584777832e+00
-1.960805177688598633e+00,-6.407162666320800781e+00,-1.061250925064086914e+00
-1.963376283645629883e+00,-6.415564537048339844e+00,-8.237935900688171387e-01
-1.965649008750915527e+00,-6.422990798950195312e+00,-5.876637101173400879e-01
-1.968124389648437500e+00,-6.431079387664794922e+00,-3.524677753448486328e-01
-1.970551729202270508e+00,-6.439011096954345703e+00,-1.175385788083076477e-01
-1.972936749458312988e+00,-6.446804046630859375e+00,1.176808401942253113e-01
-1.975545644760131836e+00,-6.455329418182373047e+00,3.537968397140502930e-01
-1.977881312370300293e+00,-6.462961196899414062e+00,5.913207530975341797e-01
-1.980559587478637695e+00,-6.471712589263916016e+00,8.310033679008483887e-01
-1.982590079307556152e+00,-6.478347778320312500e+00,1.073041558265686035e+00
-1.985707402229309082e+00,-6.488533496856689453e+00,1.318981289863586426e+00
-1.122171521186828613e+00,-3.863594293594360352e+00,-1.078027844429016113e+00
-1.333180785179138184e+00,-4.590091228485107422e+00,-1.103497743606567383e+00
-1.640708327293395996e+00,-5.648896694183349609e+00,-1.143409967422485352e+00
-1.889337539672851562e+00,-6.504918098449707031e+00,-1.072853446006774902e+00
-1.891861438751220703e+00,-6.513607978820800781e+00,-8.328205347061157227e-01
-1.894084215164184570e+00,-6.521260738372802734e+00,-5.941134691238403320e-01
-1.896485209465026855e+00,-6.529527187347412109e+00,-3.563391566276550293e-01
-1.898824334144592285e+00,-6.537580966949462891e+00,-1.188295930624008179e-01
-1.901107072830200195e+00,-6.545440196990966797e+00,1.189724430441856384e-01
-1.903588533401489258e+00,-6.553983688354492188e+00,3.576738238334655762e-01
-1.905792951583862305e+00,-6.561573505401611328e+00,5.977861285209655762e-01
-1.908309340476989746e+00,-6.570237159729003906e+00,8.400610685348510742e-01
-1.910778641700744629e+00,-6.578738689422607422e+00,1.085028648376464844e+00
-1.913099169731140137e+00,-6.586728572845458984e+00,1.333239197731018066e+00
-1.063281893730163574e+00,-3.866607904434204102e+00,-1.074512124061584473e+00
-1.271860003471374512e+00,-4.625099182128906250e+00,-1.107423901557922363e+00
-1.565329909324645996e+00,-5.692297935485839844e+00,-1.147542119026184082e+00
-1.816489577293395996e+00,-6.605636119842529297e+00,-1.085065484046936035e+00
-1.818604350090026855e+00,-6.613326072692871094e+00,-8.421558737754821777e-01
-1.820928335189819336e+00,-6.621777534484863281e+00,-6.008349061012268066e-01
-1.823097944259643555e+00,-6.629667282104492188e+00,-3.603431582450866699e-01
-1.825346708297729492e+00,-6.637844562530517578e+00,-1.201648190617561340e-01
-1.827683091163635254e+00,-6.646340847015380859e+00,1.203186288475990295e-01
-1.829878211021423340e+00,-6.654323577880859375e+00,3.616832792758941650e-01
-1.832314133644104004e+00,-6.663181304931640625e+00,6.045917272567749023e-01
-1.834304928779602051e+00,-6.670421123504638672e+00,8.494264483451843262e-01
-1.836599826812744141e+00,-6.678766250610351562e+00,1.097078084945678711e+00
-1.839397907257080078e+00,-6.688941955566406250e+00,1.348461151123046875e+00
-1.011539936065673828e+00,-3.895701646804809570e+00,-1.078463196754455566e+00
-1.200243234634399414e+00,-4.622446537017822266e+00,-1.102562427520751953e+00
-1.474353790283203125e+00,-5.678117275238037109e+00,-1.140312314033508301e+00
-1.741441130638122559e+00,-6.706739902496337891e+00,-1.097466230392456055e+00
-1.743517994880676270e+00,-6.714738368988037109e+00,-8.518047332763671875e-01
-1.745778203010559082e+00,-6.723442554473876953e+00,-6.077300310134887695e-01
-1.747875094413757324e+00,-6.731518745422363281e+00,-3.644819557666778564e-01
-1.750031352043151855e+00,-6.739822864532470703e+00,-1.215450167655944824e-01
-1.752254605293273926e+00,-6.748384952545166016e+00,1.216994300484657288e-01
-1.754327416419982910e+00,-6.756368160247802734e+00,3.658274412155151367e-01
-1.756613492965698242e+00,-6.765172481536865234e+00,6.115019917488098145e-01
-1.758903384208679199e+00,-6.773991107940673828e+00,8.593213558197021484e-01
-1.761119365692138672e+00,-6.782526016235351562e+00,1.109867572784423828e+00
-1.763165354728698730e+00,-6.790405273437500000e+00,1.363688468933105469e+00
-9.529466629028320312e-01,-3.898592948913574219e+00,-1.075377464294433594e+00
-1.138408064842224121e+00,-4.657332897186279297e+00,-1.106883645057678223e+00
-1.398479938507080078e+00,-5.721310615539550781e+00,-1.144849419593811035e+00
-1.664479970932006836e+00,-6.809541702270507812e+00,-1.110276103019714355e+00
-1.666514039039611816e+00,-6.817863464355468750e+00,-8.617725372314453125e-01
-1.668706178665161133e+00,-6.826831340789794922e+00,-6.148533821105957031e-01
-1.670727491378784180e+00,-6.835100650787353516e+00,-3.687578439712524414e-01
-1.672788619995117188e+00,-6.843533515930175781e+00,-1.229709312319755554e-01
-1.674897193908691406e+00,-6.852159500122070312e+00,1.231259331107139587e-01
-1.676846981048583984e+00,-6.860136032104492188e+00,3.701085448265075684e-01
-1.678982734680175781e+00,-6.868874073028564453e+00,6.186398863792419434e-01
-1.681106567382812500e+00,-6.877562522888183594e+00,8.693184852600097656e-01
-1.683145523071289062e+00,-6.885904312133789062e+00,1.122726798057556152e+00
-1.685608029365539551e+00,-6.895978450775146484e+00,1.379903554916381836e+00
-9.006627202033996582e-01,-3.927576065063476562e+00,-1.079705476760864258e+00
-1.067377805709838867e+00,-4.654580593109130859e+00,-1.102485537528991699e+00
-1.308759927749633789e+00,-5.707190990447998047e+00,-1.138159036636352539e+00
-1.585515379905700684e+00,-6.914055347442626953e+00,-1.123501420021057129e+00
-1.587723016738891602e+00,-6.923682212829589844e+00,-8.721861243247985840e-01
-1.589621305465698242e+00,-6.931960582733154297e+00,-6.222087740898132324e-01
-1.591563344001770020e+00,-6.940429210662841797e+00,-3.731731474399566650e-01
-1.593527197837829590e+00,-6.948993206024169922e+00,-1.244433298707008362e-01
-1.595519423484802246e+00,-6.957680702209472656e+00,1.245989128947257996e-01
-1.597570300102233887e+00,-6.966624259948730469e+00,3.745815753936767578e-01
-1.599331498146057129e+00,-6.974304199218750000e+00,6.260095238685607910e-01
-1.601691842079162598e+00,-6.984597206115722656e+00,8.798596858978271484e-01
-1.603640794754028320e+00,-6.993096351623535156e+00,1.136345267295837402e+00
-8.426667451858520508e-01,-3.932167291641235352e+00,-1.077541470527648926e+00
-1.005402684211730957e+00,-4.691547870635986328e+00,-1.107719540596008301e+00
-1.232856512069702148e+00,-5.752924442291259766e+00,-1.143643140792846680e+00
-1.506788372993469238e+00,-7.031182765960693359e+00,-1.138912796974182129e+00
-1.508645892143249512e+00,-7.039850234985351562e+00,-8.840091824531555176e-01
-1.510485768318176270e+00,-7.048435688018798828e+00,-6.306583285331726074e-01
-1.512349367141723633e+00,-7.057132244110107422e+00,-3.782453536987304688e-01
-1.514215707778930664e+00,-7.065840721130371094e+00,-1.261347979307174683e-01
-1.516090989112854004e+00,-7.074591636657714844e+00,1.262910068035125732e-01
-1.518003702163696289e+00,-7.083517074584960938e+00,3.796595335006713867e-01
-1.519921660423278809e+00,-7.092467308044433594e+00,6.345980167388916016e-01
-1.521795034408569336e+00,-7.101208686828613281e+00,8.917140960693359375e-01
-1.523560762405395508e+00,-7.109447956085205078e+00,1.151590347290039062e+00
-7.845335006713867188e-01,-3.934947967529296875e+00,-1.075116157531738281e+00
-9.348160624504089355e-01,-4.688713550567626953e+00,-1.103778004646301270e+00
-1.155585527420043945e+00,-5.796016216278076172e+00,-1.148803710937500000e+00
-1.423444151878356934e+00,-7.139502048492431641e+00,-1.153040051460266113e+00
-1.425246119499206543e+00,-7.148540496826171875e+00,-8.950042724609375000e-01
-1.427016258239746094e+00,-7.157418727874755859e+00,-6.385166049003601074e-01
-1.428792834281921387e+00,-7.166329860687255859e+00,-3.829627335071563721e-01
-1.430556178092956543e+00,-7.175173759460449219e+00,-1.277079284191131592e-01
-1.432312130928039551e+00,-7.183981418609619141e+00,1.278646886348724365e-01
-1.434087514877319336e+00,-7.192886352539062500e+00,3.843818902969360352e-01
-1.435852169990539551e+00,-7.201736927032470703e+00,6.424702405929565430e-01
-1.437559723854064941e+00,-7.210301399230957031e+00,9.027367830276489258e-01
-1.439584136009216309e+00,-7.220455169677734375e+00,1.166114091873168945e+00
-7.314338088035583496e-01,-3.963643074035644531e+00,-1.079985260963439941e+00
-8.647223711013793945e-01,-4.685934543609619141e+00,-1.100097417831420898e+00
-1.066902399063110352e+00,-5.781548976898193359e+00,-1.142792344093322754e+00
-1.338063478469848633e+00,-7.250972270965576172e+00,-1.167829871177673340e+00
-1.339545726776123047e+00,-7.259004116058349609e+00,-9.063410758972167969e-01
-1.341240167617797852e+00,-7.268186092376708984e+00,-6.466193199157714844e-01
-1.342925310134887695e+00,-7.277318477630615234e+00,-3.878269493579864502e-01
-1.344582796096801758e+00,-7.286300182342529297e+00,-1.293300241231918335e-01
-1.346218109130859375e+00,-7.295162200927734375e+00,1.294873207807540894e-01
-1.347856283187866211e+00,-7.304039001464843750e+00,3.892509639263153076e-01
-1.349730491638183594e+00,-7.314195156097412109e+00,6.507125496864318848e-01
-1.351346611976623535e+00,-7.322953701019287109e+00,9.143255949020385742e-01
-1.353245496749877930e+00,-7.333243370056152344e+00,1.181080341339111328e+00
-6.737039089202880859e-01,-3.968243122100830078e+00,-1.078500628471374512e+00
-8.017942905426025391e-01,-4.722719669342041016e+00,-1.105925798416137695e+00
-9.893396496772766113e-01,-5.827397346496582031e+00,-1.148938059806823730e+00
-1.251807212829589844e+00,-7.373380661010742188e+00,-1.184537768363952637e+00
-1.253416180610656738e+00,-7.382857799530029297e+00,-9.194709062576293945e-01
-1.254965901374816895e+00,-7.391985893249511719e+00,-6.559679508209228516e-01
-1.256489992141723633e+00,-7.400963306427001953e+00,-3.934175372123718262e-01
-1.258042693138122559e+00,-7.410109043121337891e+00,-1.311945468187332153e-01
-1.259625911712646484e+00,-7.419434547424316406e+00,1.313596516847610474e-01
-1.261194825172424316e+00,-7.428675651550292969e+00,3.948906660079956055e-01
-1.262723207473754883e+00,-7.437678337097167969e+00,6.600227355957031250e-01
