9.298826456069946289e-01,9.741734862327575684e-01,1.178238838911056519e-01
9.309535622596740723e-01,9.752954244613647461e-01,1.655484735965728760e-01
9.321431517601013184e-01,9.765416383743286133e-01,2.138200998306274414e-01
9.332596659660339355e-01,9.777113795280456543e-01,2.627291083335876465e-01
9.345131516456604004e-01,9.790245890617370605e-01,3.124661147594451904e-01
8.991646766662597656e-01,9.693989157676696777e-01,-3.542837500572204590e-01
9.004620909690856934e-01,9.707977175712585449e-01,-3.056955337524414062e-01
9.014668464660644531e-01,9.718809127807617188e-01,-2.576686441898345947e-01
9.025902152061462402e-01,9.730920195579528809e-01,-2.102145105600357056e-01
9.037730693817138672e-01,9.743672609329223633e-01,-1.631784141063690186e-01
9.048350453376770020e-01,9.755122065544128418e-01,-1.164074465632438660e-01
9.059463143348693848e-01,9.767102599143981934e-01,-6.981645524501800537e-02
9.070456624031066895e-01,9.778954982757568359e-01,-2.328145876526832581e-02
9.081378579139709473e-01,9.790730476379394531e-01,2.330949343740940094e-02
9.092864394187927246e-01,9.803112745285034180e-01,7.007385790348052979e-02
9.103255867958068848e-01,9.814316034317016602e-01,1.171138063073158264e-01
9.114423394203186035e-01,9.826355576515197754e-01,1.645631194114685059e-01
9.127070307731628418e-01,9.839990735054016113e-01,2.125707417726516724e-01
9.137070775032043457e-01,9.850772619247436523e-01,2.611673176288604736e-01
9.150675535202026367e-01,9.865440130233764648e-01,3.106538951396942139e-01
8.802835345268249512e-01,9.767150282859802246e-01,-3.523166179656982422e-01
8.814578056335449219e-01,9.780179858207702637e-01,-3.039651215076446533e-01
8.825365900993347168e-01,9.792149066925048828e-01,-2.562377452850341797e-01
8.836961388587951660e-01,9.805014729499816895e-01,-2.090612649917602539e-01
8.847951889038085938e-01,9.817209243774414062e-01,-1.622723937034606934e-01
8.858657479286193848e-01,9.829087853431701660e-01,-1.157651469111442566e-01
8.869333863258361816e-01,9.840933680534362793e-01,-6.942963600158691406e-02
8.880097270011901855e-01,9.852876067161560059e-01,-2.315246872603893280e-02
8.890984058380126953e-01,9.864954948425292969e-01,2.318085357546806335e-02
8.901919722557067871e-01,9.877089262008666992e-01,6.968472152948379517e-02
8.912713527679443359e-01,9.889065027236938477e-01,1.164715439081192017e-01
8.923021554946899414e-01,9.900502562522888184e-01,1.636491715908050537e-01
8.934455513954162598e-01,9.913188815116882324e-01,2.113677412271499634e-01
8.945206403732299805e-01,9.925117492675781250e-01,2.597172260284423828e-01
8.957228064537048340e-01,9.938456416130065918e-01,3.088842928409576416e-01
8.613845705986022949e-01,9.836977124214172363e-01,-3.503520786762237549e-01
8.624342083930969238e-01,9.848963618278503418e-01,-3.022353351116180420e-01
8.635665178298950195e-01,9.861894249916076660e-01,-2.548022270202636719e-01
8.646260499954223633e-01,9.873994588851928711e-01,-2.078720033168792725e-01
8.656560182571411133e-01,9.885756373405456543e-01,-1.613408327102661133e-01
8.667405247688293457e-01,9.898142218589782715e-01,-1.151055023074150085e-01
8.677697777748107910e-01,9.909896254539489746e-01,-6.903279572725296021e-02
8.688238263130187988e-01,9.921933412551879883e-01,-2.302016317844390869e-02
8.699041604995727539e-01,9.934270381927490234e-01,2.304878644645214081e-02
8.709369897842407227e-01,9.946065545082092285e-01,6.928475201129913330e-02
8.720376491546630859e-01,9.958634972572326660e-01,1.158089712262153625e-01
8.731233477592468262e-01,9.971033334732055664e-01,1.627325862646102905e-01
8.741637468338012695e-01,9.982914328575134277e-01,2.101650387048721313e-01
8.753178119659423828e-01,9.996093511581420898e-01,2.582695484161376953e-01
8.763741850852966309e-01,1.000815749168395996e+00,3.071205317974090576e-01
8.428915739059448242e-01,9.908396601676940918e-01,-3.485631048679351807e-01
8.440200090408325195e-01,9.921661615371704102e-01,-3.007281422615051270e-01
8.450528979301452637e-01,9.933803081512451172e-01,-2.535090148448944092e-01
8.461562395095825195e-01,9.946773052215576172e-01,-2.068332284688949585e-01
8.471167087554931641e-01,9.958063960075378418e-01,-1.605255901813507080e-01
8.481624722480773926e-01,9.970357418060302734e-01,-1.145217791199684143e-01
8.492028713226318359e-01,9.982587099075317383e-01,-6.868540495634078979e-02
8.502329587936401367e-01,9.994696378707885742e-01,-2.290428057312965393e-02
8.512577414512634277e-01,1.000674247741699219e+00,2.293188683688640594e-02
8.522840738296508789e-01,1.001880764961242676e+00,6.893461942672729492e-02
8.534079194068908691e-01,1.003201842308044434e+00,1.152300387620925903e-01
8.544046878814697266e-01,1.004373550415039062e+00,1.619066298007965088e-01
8.554987311363220215e-01,1.005659699440002441e+00,2.091169059276580811e-01
8.565253019332885742e-01,1.006866455078125000e+00,2.569506466388702393e-01
8.576608896255493164e-01,1.008201360702514648e+00,3.055884540081024170e-01
8.244203329086303711e-01,9.977139234542846680e-01,-3.467946648597717285e-01
8.254462480545043945e-01,9.989554286003112793e-01,-2.991742193698883057e-01
8.265398144721984863e-01,1.000278830528259277e+00,-2.522245049476623535e-01
8.275583386421203613e-01,1.001511573791503906e+00,-2.057701647281646729e-01
8.285431861877441406e-01,1.002703428268432617e+00,-1.597092896699905396e-01
8.295278549194335938e-01,1.003895044326782227e+00,-1.139341816306114197e-01
8.305478096008300781e-01,1.005129456520080566e+00,-6.833318620920181274e-02
8.315564990043640137e-01,1.006350040435791016e+00,-2.278686128556728363e-02
8.325549960136413574e-01,1.007558465003967285e+00,2.281422354280948639e-02
8.335984945297241211e-01,1.008821368217468262e+00,6.858418136835098267e-02
8.346527814865112305e-01,1.010097265243530273e+00,1.146380826830863953e-01
8.356876373291015625e-01,1.011349678039550781e+00,1.610864549875259399e-01
8.366725444793701172e-01,1.012541532516479492e+00,2.080363929271697998e-01
8.377563953399658203e-01,1.013853192329406738e+00,2.556473314762115479e-01
8.387392163276672363e-01,1.015042662620544434e+00,3.039921224117279053e-01
8.062636852264404297e-01,1.004684448242187500e+00,-3.451708555221557617e-01
8.071952462196350098e-01,1.005845308303833008e+00,-2.977469265460968018e-01
8.082140088081359863e-01,1.007114768028259277e+00,-2.510055005550384521e-01
8.092870712280273438e-01,1.008451938629150391e+00,-2.047951668500900269e-01
8.102183938026428223e-01,1.009612441062927246e+00,-1.589463204145431519e-01
8.112193942070007324e-01,1.010859727859497070e+00,-1.133952066302299500e-01
8.122065067291259766e-01,1.012089848518371582e+00,-6.800907105207443237e-02
8.131935596466064453e-01,1.013319730758666992e+00,-2.267879620194435120e-02
8.141804933547973633e-01,1.014549612998962402e+00,2.270632050931453705e-02
8.151620030403137207e-01,1.015772700309753418e+00,6.825654208660125732e-02
8.162243962287902832e-01,1.017096519470214844e+00,1.140948235988616943e-01
8.171594142913818359e-01,1.018261551856994629e+00,1.603079736232757568e-01
8.181747198104858398e-01,1.019526720046997070e+00,2.070442438125610352e-01
8.193055987358093262e-01,1.020935893058776855e+00,2.544501721858978271e-01
8.203608393669128418e-01,1.022250890731811523e+00,3.026032447814941406e-01
7.881884574890136719e-01,1.011483430862426758e+00,-3.435955643653869629e-01
7.891984581947326660e-01,1.012779593467712402e+00,-2.964253723621368408e-01
7.901283502578735352e-01,1.013972878456115723e+00,-2.498704940080642700e-01
7.911303043365478516e-01,1.015258669853210449e+00,-2.038569897413253784e-01
7.920889854431152344e-01,1.016489028930664062e+00,-1.582278162240982056e-01
7.930363416671752930e-01,1.017704725265502930e+00,-1.128781661391258240e-01
7.939933538436889648e-01,1.018932938575744629e+00,-6.769829243421554565e-02
7.949578166007995605e-01,1.020170569419860840e+00,-2.257514931261539459e-02
7.959303855895996094e-01,1.021418690681457520e+00,2.260276675224304199e-02
7.969217896461486816e-01,1.022691011428833008e+00,6.794797629117965698e-02
7.979120612144470215e-01,1.023961782455444336e+00,1.135721579194068909e-01
7.988734245300292969e-01,1.025195479393005371e+00,1.595830619335174561e-01
7.999324202537536621e-01,1.026554465293884277e+00,2.061250954866409302e-01
8.009386062622070312e-01,1.027845740318298340e+00,2.532891333103179932e-01
8.018379807472229004e-01,1.028999924659729004e+00,3.011728227138519287e-01
7.702107429504394531e-01,1.018138647079467773e+00,-3.420763313770294189e-01
7.711531519889831543e-01,1.019384384155273438e+00,-2.950976490974426270e-01
7.721565365791320801e-01,1.020710825920104980e+00,-2.487818449735641479e-01
7.730989456176757812e-01,1.021956562995910645e+00,-2.029591500759124756e-01
7.740186452865600586e-01,1.023172259330749512e+00,-1.575274467468261719e-01
7.749870419502258301e-01,1.024452447891235352e+00,-1.123847216367721558e-01
7.759296298027038574e-01,1.025698423385620117e+00,-6.740298867225646973e-02
7.768719196319580078e-01,1.026944041252136230e+00,-2.247666940093040466e-02
7.778158783912658691e-01,1.028191804885864258e+00,2.250397950410842896e-02
7.787413001060485840e-01,1.029415130615234375e+00,6.764723360538482666e-02
7.797268033027648926e-01,1.030717849731445312e+00,1.130720600485801697e-01
7.807036638259887695e-01,1.032009243965148926e+00,1.588879674673080444e-01
7.816414833068847656e-01,1.033248901367187500e+00,2.052017897367477417e-01
7.826697826385498047e-01,1.034608244895935059e+00,2.521691024303436279e-01
7.836098074913024902e-01,1.035850763320922852e+00,2.998644411563873291e-01
7.523387074470520020e-01,1.024669885635375977e+00,-3.406178057193756104e-01
7.533699274063110352e-01,1.026074528694152832e+00,-2.938826084136962891e-01
7.543079257011413574e-01,1.027351975440979004e+00,-2.477436065673828125e-01
7.552017569541931152e-01,1.028569340705871582e+00,-2.021049857139587402e-01
7.561538219451904297e-01,1.029865980148315430e+00,-1.568756103515625000e-01
7.570793628692626953e-01,1.031126618385314941e+00,-1.119166538119316101e-01
7.579964995384216309e-01,1.032375812530517578e+00,-6.712193787097930908e-02
7.589160203933715820e-01,1.033628106117248535e+00,-2.238291874527931213e-02
7.598422765731811523e-01,1.034889698028564453e+00,2.241023629903793335e-02
7.607679367065429688e-01,1.036150336265563965e+00,6.736735254526138306e-02
7.616757750511169434e-01,1.037386775016784668e+00,1.125961244106292725e-01
7.626576423645019531e-01,1.038724184036254883e+00,1.582249253988265991e-01
7.636172771453857422e-01,1.040031075477600098e+00,2.043571174144744873e-01
7.645097374916076660e-01,1.041246652603149414e+00,2.510942518711090088e-01
7.654735445976257324e-01,1.042559385299682617e+00,2.986041307449340820e-01
7.348788976669311523e-01,1.031517744064331055e+00,-3.393628001213073730e-01
7.358338236808776855e-01,1.032858133316040039e+00,-2.927789688110351562e-01
7.367118597030639648e-01,1.034090518951416016e+00,-2.468004375696182251e-01
7.376479506492614746e-01,1.035404562950134277e+00,-2.013528048992156982e-01
7.385430335998535156e-01,1.036661028861999512e+00,-1.562843918800354004e-01
7.394268512725830078e-01,1.037901520729064941e+00,-1.114918291568756104e-01
7.403196096420288086e-01,1.039154648780822754e+00,-6.686688214540481567e-02
7.412182688713073730e-01,1.040416002273559570e+00,-2.229788154363632202e-02
7.421259284019470215e-01,1.041690111160278320e+00,2.232518605887889862e-02
7.430490851402282715e-01,1.042985916137695312e+00,6.711340695619583130e-02
7.439717650413513184e-01,1.044281005859375000e+00,1.121771112084388733e-01
7.448671460151672363e-01,1.045537829399108887e+00,1.576226502656936646e-01
7.458438277244567871e-01,1.046908736228942871e+00,2.035899907350540161e-01
7.467682957649230957e-01,1.048206329345703125e+00,2.501693665981292725e-01
7.477724552154541016e-01,1.049615859985351562e+00,2.975291907787322998e-01
7.173675298690795898e-01,1.038061738014221191e+00,-3.381029963493347168e-01
7.182686328887939453e-01,1.039365649223327637e+00,-2.916794419288635254e-01
7.191051840782165527e-01,1.040576219558715820e+00,-2.458665966987609863e-01
7.200058102607727051e-01,1.041879415512084961e+00,-2.005872577428817749e-01
7.209406495094299316e-01,1.043232202529907227e+00,-1.557034105062484741e-01
7.217907309532165527e-01,1.044462323188781738e+00,-1.110754162073135376e-01
7.226737737655639648e-01,1.045740127563476562e+00,-6.661820411682128906e-02
7.235513925552368164e-01,1.047010064125061035e+00,-2.221496775746345520e-02
7.244254946708679199e-01,1.048274874687194824e+00,2.224180661141872406e-02
7.253388762474060059e-01,1.049596548080444336e+00,6.686387956142425537e-02
7.261790633201599121e-01,1.050812363624572754e+00,1.117507293820381165e-01
7.270652651786804199e-01,1.052094817161560059e+00,1.570261567831039429e-01
7.280398607254028320e-01,1.053505063056945801e+00,2.028254866600036621e-01
7.289736270904541016e-01,1.054856181144714355e+00,2.492406666278839111e-01
7.298165559768676758e-01,1.056075930595397949e+00,2.963688969612121582e-01
6.999610662460327148e-01,1.044527173042297363e+00,-3.369110822677612305e-01
7.008212804794311523e-01,1.045810818672180176e+00,-2.906433343887329102e-01
7.017275691032409668e-01,1.047163248062133789e+00,-2.450246512889862061e-01
7.025804519653320312e-01,1.048435926437377930e+00,-1.998929828405380249e-01
7.034150958061218262e-01,1.049681425094604492e+00,-1.551473736763000488e-01
7.042942643165588379e-01,1.050993442535400391e+00,-1.106865704059600830e-01
7.051575779914855957e-01,1.052281737327575684e+00,-6.638514995574951172e-02
7.060139775276184082e-01,1.053559660911560059e+00,-2.213725447654724121e-02
7.068656086921691895e-01,1.054830551147460938e+00,2.216395735740661621e-02
7.077071070671081543e-01,1.056086301803588867e+00,6.662516295909881592e-02
7.086037993431091309e-01,1.057424426078796387e+00,1.113638579845428467e-01
7.094959020614624023e-01,1.058755636215209961e+00,1.564885824918746948e-01
7.103547453880310059e-01,1.060037255287170410e+00,2.021048665046691895e-01
7.112858891487121582e-01,1.061426758766174316e+00,2.483621686697006226e-01
7.121358513832092285e-01,1.062695145606994629e+00,2.953356802463531494e-01
6.826577186584472656e-01,1.050924301147460938e+00,-3.357883989810943604e-01
6.836056709289550781e-01,1.052383661270141602e+00,-2.897210419178009033e-01
6.843668222427368164e-01,1.053555369377136230e+00,-2.442032545804977417e-01
6.852778792381286621e-01,1.054957985877990723e+00,-1.992459446191787720e-01
6.861351728439331055e-01,1.056277751922607422e+00,-1.546549052000045776e-01
6.869327425956726074e-01,1.057505607604980469e+00,-1.103255972266197205e-01
6.877768039703369141e-01,1.058804988861083984e+00,-6.616884469985961914e-02
6.886122226715087891e-01,1.060091137886047363e+00,-2.206512913107872009e-02
6.894403100013732910e-01,1.061365962028503418e+00,2.209166437387466431e-02
6.903215050697326660e-01,1.062722444534301758e+00,6.641366332769393921e-02
6.911525130271911621e-01,1.064001679420471191e+00,1.110033094882965088e-01
6.919437646865844727e-01,1.065219879150390625e+00,1.559641659259796143e-01
6.929056048393249512e-01,1.066700577735900879e+00,2.014637142419815063e-01
6.937028765678405762e-01,1.067927956581115723e+00,2.475346624851226807e-01
6.945464015007019043e-01,1.069226503372192383e+00,2.943578660488128662e-01
6.655850410461425781e-01,1.057469844818115234e+00,-3.348015248775482178e-01
6.663756370544433594e-01,1.058725953102111816e+00,-2.888116240501403809e-01
6.672166585922241211e-01,1.060062170028686523e+00,-2.434728741645812988e-01
6.680915355682373047e-01,1.061452031135559082e+00,-1.986460387706756592e-01
6.689198613166809082e-01,1.062768101692199707e+00,-1.541875451803207397e-01
6.697283387184143066e-01,1.064052581787109375e+00,-1.099972724914550781e-01
6.705343723297119141e-01,1.065333247184753418e+00,-6.597027182579040527e-02
6.713486909866333008e-01,1.066627025604248047e+00,-2.199890650808811188e-02
6.721733212471008301e-01,1.067937135696411133e+00,2.202592790126800537e-02
6.730008721351623535e-01,1.069251894950866699e+00,6.621293723583221436e-02
6.738192439079284668e-01,1.070552110671997070e+00,1.106691658496856689e-01
6.746035814285278320e-01,1.071798324584960938e+00,1.554976552724838257e-01
6.754418015480041504e-01,1.073130011558532715e+00,2.008315175771713257e-01
6.763538718223571777e-01,1.074579119682312012e+00,2.468071281909942627e-01
6.771984100341796875e-01,1.075920820236206055e+00,2.935022413730621338e-01
6.485939025878906250e-01,1.063953518867492676e+00,-3.338808715343475342e-01
6.493568420410156250e-01,1.065205097198486328e+00,-2.880141139030456543e-01
6.501679420471191406e-01,1.066535592079162598e+00,-2.427974045276641846e-01
6.510134935379028320e-01,1.067922592163085938e+00,-1.980928182601928711e-01
6.518184542655944824e-01,1.069243073463439941e+00,-1.537576168775558472e-01
6.526076197624206543e-01,1.070537686347961426e+00,-1.096907928586006165e-01
6.533988714218139648e-01,1.071835637092590332e+00,-6.578704714775085449e-02
6.541928052902221680e-01,1.073137998580932617e+00,-2.193782106041908264e-02
6.549901962280273438e-01,1.074445962905883789e+00,2.196455933153629303e-02
6.557952165603637695e-01,1.075766563415527344e+00,6.602831929922103882e-02
6.565948128700256348e-01,1.077078223228454590e+00,1.103609651327133179e-01
6.573663353919982910e-01,1.078343868255615234e+00,1.550663113594055176e-01
6.581915020942687988e-01,1.079697489738464355e+00,2.002769708633422852e-01
6.590883135795593262e-01,1.081168532371520996e+00,2.461286038160324097e-01
6.599215269088745117e-01,1.082535386085510254e+00,2.926999330520629883e-01
6.316061615943908691e-01,1.070256710052490234e+00,-3.329877555370330811e-01
6.324585080146789551e-01,1.071701049804687500e+00,-2.872933745384216309e-01
6.332357525825500488e-01,1.073018074035644531e+00,-2.421849668025970459e-01
6.339792609214782715e-01,1.074277877807617188e+00,-1.975681930780410767e-01
6.347681283950805664e-01,1.075614690780639648e+00,-1.533516198396682739e-01
6.355437040328979492e-01,1.076928973197937012e+00,-1.094023659825325012e-01
6.363322734832763672e-01,1.078265190124511719e+00,-6.561592221260070801e-02
6.371046900749206543e-01,1.079573988914489746e+00,-2.188072726130485535e-02
6.378637552261352539e-01,1.080860137939453125e+00,2.190679684281349182e-02
6.386415958404541016e-01,1.082178354263305664e+00,6.585404276847839355e-02
6.394146680831909180e-01,1.083488225936889648e+00,1.100687086582183838e-01
6.402469873428344727e-01,1.084898591041564941e+00,1.546752303838729858e-01
6.410633921623229980e-01,1.086282014846801758e+00,1.997758597135543823e-01
6.418260931968688965e-01,1.087574362754821777e+00,2.454703748226165771e-01
6.426296830177307129e-01,1.088936090469360352e+00,2.919135987758636475e-01
6.146981120109558105e-01,1.076514482498168945e+00,-3.321632444858551025e-01
6.155641078948974609e-01,1.078031063079833984e+00,-2.865989804267883301e-01
6.162645816802978516e-01,1.079257845878601074e+00,-2.415776550769805908e-01
6.170819997787475586e-01,1.080689311027526855e+00,-1.971027404069900513e-01
6.178044080734252930e-01,1.081954479217529297e+00,-1.529790759086608887e-01
6.185650825500488281e-01,1.083286643028259277e+00,-1.091376096010208130e-01
6.193171143531799316e-01,1.084603667259216309e+00,-6.545549631118774414e-02
6.200691461563110352e-01,1.085920691490173340e+00,-2.182724326848983765e-02
6.208232045173645020e-01,1.087241291999816895e+00,2.185378596186637878e-02
6.215735077857971191e-01,1.088555335998535156e+00,6.569397449493408203e-02
6.223722100257873535e-01,1.089954018592834473e+00,1.098093315958976746e-01
6.230886578559875488e-01,1.091208696365356445e+00,1.542875468730926514e-01
6.239393949508666992e-01,1.092698574066162109e+00,1.992930620908737183e-01
6.246442198753356934e-01,1.093932986259460449e+00,2.448624968528747559e-01
6.255096793174743652e-01,1.095448732376098633e+00,2.912295162677764893e-01
5.979786515235900879e-01,1.082939028739929199e+00,-3.314706683158874512e-01
5.987188220024108887e-01,1.084279417991638184e+00,-2.859525382518768311e-01
5.994912981986999512e-01,1.085678458213806152e+00,-2.410694360733032227e-01
6.002193093299865723e-01,1.086996912956237793e+00,-1.966660767793655396e-01
6.009790301322937012e-01,1.088372707366943359e+00,-1.526546627283096313e-01
6.017130017280578613e-01,1.089702010154724121e+00,-1.089050918817520142e-01
6.024269461631774902e-01,1.090994954109191895e+00,-6.531412899494171143e-02
6.031585335731506348e-01,1.092319846153259277e+00,-2.178010344505310059e-02
6.039089560508728027e-01,1.093678832054138184e+00,2.180720120668411255e-02
6.046454310417175293e-01,1.095012545585632324e+00,6.555465608835220337e-02
6.053645610809326172e-01,1.096314907073974609e+00,1.095659881830215454e-01
6.061294078826904297e-01,1.097699999809265137e+00,1.539628952741622925e-01
6.068650484085083008e-01,1.099032282829284668e+00,1.988435983657836914e-01
6.076542139053344727e-01,1.100461483001708984e+00,2.443519234657287598e-01
6.083735823631286621e-01,1.101764202117919922e+00,2.905637323856353760e-01
5.812787413597106934e-01,1.089250802993774414e+00,-3.308220505714416504e-01
5.819991827011108398e-01,1.090600848197937012e+00,-2.853934764862060547e-01
5.827522277832031250e-01,1.092011928558349609e+00,-2.405989766120910645e-01
5.834597945213317871e-01,1.093337893486022949e+00,-1.962822526693344116e-01
5.841522216796875000e-01,1.094635367393493652e+00,-1.523447036743164062e-01
5.848796963691711426e-01,1.095998644828796387e+00,-1.086865812540054321e-01
5.855947136878967285e-01,1.097338438034057617e+00,-6.518542021512985229e-02
5.863057971000671387e-01,1.098670959472656250e+00,-2.173718251287937164e-02
5.870144367218017578e-01,1.099998831748962402e+00,2.176345512270927429e-02
5.877161622047424316e-01,1.101313710212707520e+00,6.542157381772994995e-02
5.884616374969482422e-01,1.102710723876953125e+00,1.093522012233734131e-01
5.892048478126525879e-01,1.104103446006774902e+00,1.536624133586883545e-01
5.899180173873901367e-01,1.105439901351928711e+00,1.984548717737197876e-01
5.906840562820434570e-01,1.106875300407409668e+00,2.438737601041793823e-01
5.913807153701782227e-01,1.108180761337280273e+00,2.899938821792602539e-01
5.645997524261474609e-01,1.095459938049316406e+00,-3.302195966243743896e-01
5.653088688850402832e-01,1.096835732460021973e+00,-2.848784625530242920e-01
5.660490989685058594e-01,1.098271965980529785e+00,-2.401685267686843872e-01
5.667417645454406738e-01,1.099615931510925293e+00,-1.959329396486282349e-01
5.674166679382324219e-01,1.100925326347351074e+00,-1.520742028951644897e-01
5.681227445602416992e-01,1.102295279502868652e+00,-1.084934845566749573e-01
5.688122510910034180e-01,1.103633165359497070e+00,-6.506904214620590210e-02
5.695030093193054199e-01,1.104973316192626953e+00,-2.169837430119514465e-02
5.701962113380432129e-01,1.106318354606628418e+00,2.172478474676609039e-02
5.708783864974975586e-01,1.107641935348510742e+00,6.530539691448211670e-02
5.716004371643066406e-01,1.109042882919311523e+00,1.091576144099235535e-01
5.723166465759277344e-01,1.110432505607604980e+00,1.533874422311782837e-01
5.730006098747253418e-01,1.111759543418884277e+00,1.980967372655868530e-01
5.737357139587402344e-01,1.113185763359069824e+00,2.434298396110534668e-01
5.745320320129394531e-01,1.114730954170227051e+00,2.895263135433197021e-01
5.480632185935974121e-01,1.101818919181823730e+00,-3.297379612922668457e-01
5.487582683563232422e-01,1.103216290473937988e+00,-2.844664454460144043e-01
5.494007468223571777e-01,1.104507803916931152e+00,-2.397879511117935181e-01
5.500882863998413086e-01,1.105890035629272461e+00,-1.956278830766677856e-01
5.507526397705078125e-01,1.107225656509399414e+00,-1.518400013446807861e-01
5.514421463012695312e-01,1.108611822128295898e+00,-1.083272174000740051e-01
5.520997047424316406e-01,1.109933853149414062e+00,-6.496795266866683960e-02
5.527702569961547852e-01,1.111281871795654297e+00,-2.166466787457466125e-02
5.534547567367553711e-01,1.112657904624938965e+00,2.169149369001388550e-02
5.541125535964965820e-01,1.113980412483215332e+00,6.520480662584304810e-02
5.548040866851806641e-01,1.115370631217956543e+00,1.089876592159271240e-01
5.554839968681335449e-01,1.116737604141235352e+00,1.531444191932678223e-01
5.562248229980468750e-01,1.118226885795593262e+00,1.978102326393127441e-01
5.569311380386352539e-01,1.119646787643432617e+00,2.430746257305145264e-01
5.575649738311767578e-01,1.120921134948730469e+00,2.890316545963287354e-01
5.314282178878784180e-01,1.107862114906311035e+00,-3.292363882064819336e-01
5.321329236030578613e-01,1.109331250190734863e+00,-2.840501368045806885e-01
5.327810645103454590e-01,1.110682368278503418e+00,-2.394483387470245361e-01
5.334680676460266113e-01,1.112114548683166504e+00,-1.953582316637039185e-01
5.341256856918334961e-01,1.113485574722290039e+00,-1.516344994306564331e-01
5.347743034362792969e-01,1.114837646484375000e+00,-1.081765368580818176e-01
5.354377031326293945e-01,1.116220593452453613e+00,-6.488069146871566772e-02
5.360878109931945801e-01,1.117575883865356445e+00,-2.163556218147277832e-02
5.367264747619628906e-01,1.118907332420349121e+00,2.166133746504783630e-02
5.373843312263488770e-01,1.120278716087341309e+00,6.511656939983367920e-02
5.380415916442871094e-01,1.121648907661437988e+00,1.088374629616737366e-01
5.386804938316345215e-01,1.122980833053588867e+00,1.529275625944137573e-01
5.393732190132141113e-01,1.124424934387207031e+00,1.975207179784774780e-01
5.400271415710449219e-01,1.125788211822509766e+00,2.427049428224563599e-01
5.407340526580810547e-01,1.127261877059936523e+00,2.886413633823394775e-01
5.149170756340026855e-01,1.114054203033447266e+00,-3.288525640964508057e-01
5.156224370002746582e-01,1.115580201148986816e+00,-2.837313711643218994e-01
5.162653326988220215e-01,1.116971135139465332e+00,-2.391865253448486328e-01
5.169398784637451172e-01,1.118430614471435547e+00,-1.951479762792587280e-01
5.175331830978393555e-01,1.119714260101318359e+00,-1.514584273099899292e-01
5.181705951690673828e-01,1.121093273162841797e+00,-1.080527976155281067e-01
5.188046693801879883e-01,1.122465133666992188e+00,-6.480538845062255859e-02
5.194347500801086426e-01,1.123828291893005371e+00,-2.161045558750629425e-02
5.200619697570800781e-01,1.125185370445251465e+00,2.163655124604701996e-02
5.206906795501708984e-01,1.126545667648315430e+00,6.504097580909729004e-02
5.213714838027954102e-01,1.128018617630004883e+00,1.087202727794647217e-01
5.219818353652954102e-01,1.129339098930358887e+00,1.527603417634963989e-01
5.226379632949829102e-01,1.130758762359619141e+00,1.972990334033966064e-01
5.232488512992858887e-01,1.132080435752868652e+00,2.424219846725463867e-01
5.240342020988464355e-01,1.133779525756835938e+00,2.883601188659667969e-01
4.985229969024658203e-01,1.120417237281799316e+00,-3.285908699035644531e-01
4.991267919540405273e-01,1.121774315834045410e+00,-2.834606766700744629e-01
4.997705221176147461e-01,1.123221039772033691e+00,-2.389685511589050293e-01
5.003767013549804688e-01,1.124583363533020020e+00,-1.949518769979476929e-01
5.010142922401428223e-01,1.126016378402709961e+00,-1.513253748416900635e-01
5.015993714332580566e-01,1.127331256866455078e+00,-1.079509854316711426e-01
5.022147893905639648e-01,1.128714442253112793e+00,-6.474453210830688477e-02
5.028246045112609863e-01,1.130084991455078125e+00,-2.159015834331512451e-02
5.034302473068237305e-01,1.131446242332458496e+00,2.161616459488868713e-02
5.040709376335144043e-01,1.132886052131652832e+00,6.498382240533828735e-02
5.046662688255310059e-01,1.134224057197570801e+00,1.086110249161720276e-01
5.053041577339172363e-01,1.135657787322998047e+00,1.526210755109786987e-01
5.059179067611694336e-01,1.137037158012390137e+00,1.971108019351959229e-01
5.065892934799194336e-01,1.138546109199523926e+00,2.422290146350860596e-01
5.072055459022521973e-01,1.139931082725524902e+00,2.880487143993377686e-01
4.820228517055511475e-01,1.126470565795898438e+00,-3.283090889453887939e-01
4.826414883136749268e-01,1.127916336059570312e+00,-2.832380533218383789e-01
4.832912385463714600e-01,1.129434823989868164e+00,-2.387943565845489502e-01
4.838948249816894531e-01,1.130845308303833008e+00,-1.948167681694030762e-01
4.844764173030853271e-01,1.132204532623291016e+00,-1.512095630168914795e-01
4.850552380084991455e-01,1.133557200431823730e+00,-1.078712865710258484e-01
4.856530427932739258e-01,1.134954214096069336e+00,-6.469708681106567383e-02
4.862428307533264160e-01,1.136332511901855469e+00,-2.157434076070785522e-02
4.868257939815521240e-01,1.137694954872131348e+00,2.160020731389522552e-02
4.874322116374969482e-01,1.139112114906311035e+00,6.493410468101501465e-02
4.880430400371551514e-01,1.140539646148681641e+00,1.085357442498207092e-01
4.886423349380493164e-01,1.141940116882324219e+00,1.525097936391830444e-01
4.892083108425140381e-01,1.143262743949890137e+00,1.969559937715530396e-01
4.898222684860229492e-01,1.144697546958923340e+00,2.420213371515274048e-01
4.904981851577758789e-01,1.146277189254760742e+00,2.878487408161163330e-01
4.656272828578948975e-01,1.132708668708801270e+00,-3.281511366367340088e-01
4.662514328956604004e-01,1.134226918220520020e+00,-2.831178903579711914e-01
4.668219089508056641e-01,1.135614752769470215e+00,-2.386637926101684570e-01
4.673684239387512207e-01,1.136944174766540527e+00,-1.946950554847717285e-01
4.679571390151977539e-01,1.138376355171203613e+00,-1.511238068342208862e-01
4.685316979885101318e-01,1.139774084091186523e+00,-1.078136637806892395e-01
4.691044986248016357e-01,1.141167521476745605e+00,-6.466189771890640259e-02
4.696742296218872070e-01,1.142553448677062988e+00,-2.156260795891284943e-02
4.702419638633728027e-01,1.143934607505798340e+00,2.158867195248603821e-02
4.708122014999389648e-01,1.145321726799011230e+00,6.489728391170501709e-02
4.713751077651977539e-01,1.146691083908081055e+00,1.084679588675498962e-01
4.719905853271484375e-01,1.148188352584838867e+00,1.524263769388198853e-01
4.725950956344604492e-01,1.149658918380737305e+00,1.968723684549331665e-01
4.731613099575042725e-01,1.151036262512207031e+00,2.419048249721527100e-01
4.737794101238250732e-01,1.152539849281311035e+00,2.876890301704406738e-01
4.492354094982147217e-01,1.138919830322265625e+00,-3.280541002750396729e-01
4.497767090797424316e-01,1.140292167663574219e+00,-2.829958796501159668e-01
4.503597319126129150e-01,1.141770243644714355e+00,-2.385782748460769653e-01
4.509088099002838135e-01,1.143162250518798828e+00,-1.946347057819366455e-01
4.514884352684020996e-01,1.144631743431091309e+00,-1.510808616876602173e-01
4.520173966884613037e-01,1.145972847938537598e+00,-1.077769771218299866e-01
4.525739550590515137e-01,1.147383809089660645e+00,-6.464044749736785889e-02
4.531234800815582275e-01,1.148777008056640625e+00,-2.155544981360435486e-02
4.536673426628112793e-01,1.150155901908874512e+00,2.158132381737232208e-02
4.542429149150848389e-01,1.151615023612976074e+00,6.487882882356643677e-02
4.547743797302246094e-01,1.152962446212768555e+00,1.084343418478965759e-01
4.553462266921997070e-01,1.154412150382995605e+00,1.523717939853668213e-01
4.558962583541870117e-01,1.155806660652160645e+00,1.967875361442565918e-01
4.565041363239288330e-01,1.157347798347473145e+00,2.418332695960998535e-01
4.570638835430145264e-01,1.158766865730285645e+00,2.875809073448181152e-01
4.328154921531677246e-01,1.145037651062011719e+00,-3.279982507228851318e-01
4.333749413490295410e-01,1.146517753601074219e+00,-2.829724550247192383e-01
4.338919520378112793e-01,1.147885560989379883e+00,-2.385339438915252686e-01
4.344507455825805664e-01,1.149363756179809570e+00,-1.946118772029876709e-01
4.349860846996307373e-01,1.150780200958251953e+00,-1.510551124811172485e-01
4.355149269104003906e-01,1.152179241180419922e+00,-1.077633649110794067e-01
4.360571205615997314e-01,1.153613567352294922e+00,-6.463316828012466431e-02
4.365865886211395264e-01,1.155014395713806152e+00,-2.155302278697490692e-02
4.371047019958496094e-01,1.156385064125061035e+00,2.157860063016414642e-02
4.376399517059326172e-01,1.157801032066345215e+00,6.486777961254119873e-02
4.381752014160156250e-01,1.159217119216918945e+00,1.084216237068176270e-01
4.386961460113525391e-01,1.160595297813415527e+00,1.523434817790985107e-01
4.392712414264678955e-01,1.162116646766662598e+00,1.967712193727493286e-01
4.398185014724731445e-01,1.163564562797546387e+00,2.417920827865600586e-01
4.404255449771881104e-01,1.165170431137084961e+00,2.875761687755584717e-01
4.163916409015655518e-01,1.151137709617614746e+00,-3.280047476291656494e-01
4.169688522815704346e-01,1.152733325958251953e+00,-2.830045223236083984e-01
4.174931049346923828e-01,1.154182791709899902e+00,-2.385762929916381836e-01
4.179908335208892822e-01,1.155558705329895020e+00,-1.946278512477874756e-01
4.185232222080230713e-01,1.157030582427978516e+00,-1.510737538337707520e-01
4.190358519554138184e-01,1.158447742462158203e+00,-1.077776402235031128e-01
4.195397198200225830e-01,1.159840703010559082e+00,-6.463899463415145874e-02
4.200491011142730713e-01,1.161248922348022461e+00,-2.155496180057525635e-02
4.205653369426727295e-01,1.162676095962524414e+00,2.158145233988761902e-02
4.210765957832336426e-01,1.164089441299438477e+00,6.487577408552169800e-02
4.215742051601409912e-01,1.165465116500854492e+00,1.084305122494697571e-01
4.221156835556030273e-01,1.166962146759033203e+00,1.523705273866653442e-01
4.226418137550354004e-01,1.168416619300842285e+00,1.967934668064117432e-01
4.231288731098175049e-01,1.169763207435607910e+00,2.417968511581420898e-01
4.237790405750274658e-01,1.171560525894165039e+00,2.876267433166503906e-01
4.000385105609893799e-01,1.157455444335937500e+00,-3.281397819519042969e-01
4.005403816699981689e-01,1.158907532691955566e+00,-2.830837965011596680e-01
4.010071158409118652e-01,1.160257935523986816e+00,-2.386211752891540527e-01
4.015183150768280029e-01,1.161736965179443359e+00,-1.946805268526077271e-01
4.020113050937652588e-01,1.163163423538208008e+00,-1.511077284812927246e-01
4.025248885154724121e-01,1.164649367332458496e+00,-1.078075468540191650e-01
4.030077457427978516e-01,1.166046500205993652e+00,-6.465674191713333130e-02
4.034971892833709717e-01,1.167462587356567383e+00,-2.156088687479496002e-02
4.039940536022186279e-01,1.168900251388549805e+00,2.158743701875209808e-02
4.044639766216278076e-01,1.170259833335876465e+00,6.489036977291107178e-02
4.049605131149291992e-01,1.171696543693542480e+00,1.084598749876022339e-01
4.054471850395202637e-01,1.173104643821716309e+00,1.523991972208023071e-01
4.059897959232330322e-01,1.174674630165100098e+00,1.968485713005065918e-01
4.065110087394714355e-01,1.176182746887207031e+00,2.418963015079498291e-01
4.069824516773223877e-01,1.177546739578247070e+00,2.876367568969726562e-01
3.836451172828674316e-01,1.163708567619323730e+00,-3.283221125602722168e-01
3.840799629688262939e-01,1.165027499198913574e+00,-2.832068502902984619e-01
3.845627009868621826e-01,1.166491866111755371e+00,-2.387467473745346069e-01
3.850753605365753174e-01,1.168046951293945312e+00,-1.947943270206451416e-01
3.855178356170654297e-01,1.169389009475708008e+00,-1.511841565370559692e-01
3.859955668449401855e-01,1.170838117599487305e+00,-1.078579425811767578e-01
3.864662647247314453e-01,1.172265887260437012e+00,-6.468825042247772217e-02
3.869354724884033203e-01,1.173689126968383789e+00,-2.157138660550117493e-02
3.874045014381408691e-01,1.175111889839172363e+00,2.159753441810607910e-02
3.878698945045471191e-01,1.176523447036743164e+00,6.492318958044052124e-02
3.883764743804931641e-01,1.178060054779052734e+00,1.085232347249984741e-01
3.888206779956817627e-01,1.179407477378845215e+00,1.524793952703475952e-01
3.893055021762847900e-01,1.180878043174743652e+00,1.969341635704040527e-01
3.898523151874542236e-01,1.182536840438842773e+00,2.420306801795959473e-01
3.903657793998718262e-01,1.184094309806823730e+00,2.878417968750000000e-01
3.671412467956542969e-01,1.169686675071716309e+00,-3.284924924373626709e-01
3.676048517227172852e-01,1.171163797378540039e+00,-2.833904325962066650e-01
3.681026101112365723e-01,1.172749519348144531e+00,-2.389246672391891479e-01
3.685649633407592773e-01,1.174222588539123535e+00,-1.949244886636734009e-01
3.690104186534881592e-01,1.175641775131225586e+00,-1.512941718101501465e-01
3.694534003734588623e-01,1.177053093910217285e+00,-1.079322621226310730e-01
3.699115812778472900e-01,1.178512811660766602e+00,-6.473416090011596680e-02
3.703606724739074707e-01,1.179943561553955078e+00,-2.158669568598270416e-02
3.708019554615020752e-01,1.181349396705627441e+00,2.161241695284843445e-02
3.712616264820098877e-01,1.182813882827758789e+00,6.497041881084442139e-02
3.717245459556579590e-01,1.184288740158081055e+00,1.085957512259483337e-01
3.721783161163330078e-01,1.185734510421752930e+00,1.525930166244506836e-01
3.726061880588531494e-01,1.187097668647766113e+00,1.970617771148681641e-01
3.730813860893249512e-01,1.188611507415771484e+00,2.421562373638153076e-01
3.736189603805541992e-01,1.190324306488037109e+00,2.880267500877380371e-01
3.506789207458496094e-01,1.175880432128906250e+00,-3.287886083126068115e-01
3.511609435081481934e-01,1.177496790885925293e+00,-2.836775481700897217e-01
3.515994250774383545e-01,1.178967118263244629e+00,-2.391415834426879883e-01
3.520166873931884766e-01,1.180366158485412598e+00,-1.950879395008087158e-01
3.524663746356964111e-01,1.181874036788940430e+00,-1.514314711093902588e-01
3.528988957405090332e-01,1.183324337005615234e+00,-1.080330759286880493e-01
3.533234298229217529e-01,1.184747815132141113e+00,-6.479221582412719727e-02
3.537523746490478516e-01,1.186186194419860840e+00,-2.160605601966381073e-02
3.541868925094604492e-01,1.187643170356750488e+00,2.163259498775005341e-02
3.546167612075805664e-01,1.189084649085998535e+00,6.502939015626907349e-02
3.550344109535217285e-01,1.190485000610351562e+00,1.086868196725845337e-01
3.554923534393310547e-01,1.192020654678344727e+00,1.527315229177474976e-01
3.559383749961853027e-01,1.193516135215759277e+00,1.972613334655761719e-01
3.563526868820190430e-01,1.194905400276184082e+00,2.423745095729827881e-01
3.568144738674163818e-01,1.196453928947448730e+00,2.882446050643920898e-01
3.341908752918243408e-01,1.182112693786621094e+00,-3.291599750518798828e-01
3.346157073974609375e-01,1.183615326881408691e+00,-2.839686572551727295e-01
3.350721597671508789e-01,1.185230016708374023e+00,-2.394146025180816650e-01
3.354945182800292969e-01,1.186723947525024414e+00,-1.953250616788864136e-01
3.358994424343109131e-01,1.188156366348266602e+00,-1.516048461198806763e-01
3.363002836704254150e-01,1.189574241638183594e+00,-1.081531196832656860e-01
3.367059528827667236e-01,1.191009163856506348e+00,-6.486442685127258301e-02
3.371148705482482910e-01,1.192455530166625977e+00,-2.163014374673366547e-02
3.375277221202850342e-01,1.193915843963623047e+00,2.165663242340087891e-02
3.379486799240112305e-01,1.195404887199401855e+00,6.510382890701293945e-02
3.383705019950866699e-01,1.196897029876708984e+00,1.088188961148262024e-01
3.387820720672607422e-01,1.198352932929992676e+00,1.529058963060379028e-01
3.391679525375366211e-01,1.199717760086059570e+00,1.974637359380722046e-01
3.395977318286895752e-01,1.201238036155700684e+00,2.426481992006301880e-01
3.400862812995910645e-01,1.202966094017028809e+00,2.886112034320831299e-01
3.177184462547302246e-01,1.188570976257324219e+00,-3.296582400798797607e-01
3.180810213088989258e-01,1.189927339553833008e+00,-2.843615710735321045e-01
3.184854388236999512e-01,1.191440224647521973e+00,-2.397236526012420654e-01
3.188680112361907959e-01,1.192871332168579102e+00,-1.955656260251998901e-01
3.192785680294036865e-01,1.194407224655151367e+00,-1.518037766218185425e-01
3.196501135826110840e-01,1.195797204971313477e+00,-1.082918345928192139e-01
3.200445175170898438e-01,1.197272658348083496e+00,-6.494940817356109619e-02
3.204330801963806152e-01,1.198726177215576172e+00,-2.165847457945346832e-02
3.208169043064117432e-01,1.200162053108215332e+00,2.168441750109195709e-02
3.212263584136962891e-01,1.201693892478942871e+00,6.518924981355667114e-02
3.216015994548797607e-01,1.203097701072692871e+00,1.089529618620872498e-01
3.220116198062896729e-01,1.204631447792053223e+00,1.531032174825668335e-01
3.224083483219146729e-01,1.206115603446960449e+00,1.977369487285614014e-01
3.228586912155151367e-01,1.207800269126892090e+00,2.430153936147689819e-01
3.232798874378204346e-01,1.209375977516174316e+00,2.890093028545379639e-01
3.011238873004913330e-01,1.194777131080627441e+00,-3.301502764225006104e-01
3.015086054801940918e-01,1.196303486824035645e+00,-2.848248183727264404e-01
3.018637001514434814e-01,1.197712540626525879e+00,-2.400917261838912964e-01
3.022531867027282715e-01,1.199257850646972656e+00,-1.958833187818527222e-01
3.026233911514282227e-01,1.200726747512817383e+00,-1.520408540964126587e-01
3.029859066009521484e-01,1.202165007591247559e+00,-1.084646582603454590e-01
3.033489882946014404e-01,1.203605651855468750e+00,-6.505075097084045410e-02
3.037173151969909668e-01,1.205067157745361328e+00,-2.169227413833141327e-02
3.040917813777923584e-01,1.206552863121032715e+00,2.171901799738407135e-02
3.044694960117340088e-01,1.208051562309265137e+00,6.529103964567184448e-02
3.048443198204040527e-01,1.209538698196411133e+00,1.091299429535865784e-01
3.052060008049011230e-01,1.210973739624023438e+00,1.533383727073669434e-01
3.056102991104125977e-01,1.212577939033508301e+00,1.980589926242828369e-01
3.059955835342407227e-01,1.214106678962707520e+00,2.433780729770660400e-01
3.063403367996215820e-01,1.215474486351013184e+00,2.893891930580139160e-01
2.844457328319549561e-01,1.200873970985412598e+00,-3.306761384010314941e-01
2.848534584045410156e-01,1.202595353126525879e+00,-2.853228449821472168e-01
2.851652801036834717e-01,1.203911781311035156e+00,-2.404915839433670044e-01
2.855194807052612305e-01,1.205407142639160156e+00,-1.962001174688339233e-01
2.858954071998596191e-01,1.206994295120239258e+00,-1.523007154464721680e-01
2.862311005592346191e-01,1.208411455154418945e+00,-1.086474657058715820e-01
2.865830063819885254e-01,1.209897160530090332e+00,-6.516242027282714844e-02
2.869310081005096436e-01,1.211366295814514160e+00,-2.172951027750968933e-02
2.872757613658905029e-01,1.212821841239929199e+00,2.175562083721160889e-02
2.876395583152770996e-01,1.214357733726501465e+00,6.540265679359436035e-02
2.879671156406402588e-01,1.215740680694580078e+00,1.093064248561859131e-01
2.883225083351135254e-01,1.217241048812866211e+00,1.535936743021011353e-01
2.887281775474548340e-01,1.218953728675842285e+00,1.984050273895263672e-01
2.890475690364837646e-01,1.220302104949951172e+00,2.437656968832015991e-01
2.894041240215301514e-01,1.221807360649108887e+00,2.898810207843780518e-01
2.677940428256988525e-01,1.207366466522216797e+00,-3.313744664192199707e-01
2.680852413177490234e-01,1.208679318428039551e+00,-2.858266234397888184e-01
2.684711217880249023e-01,1.210419058799743652e+00,-2.409991621971130371e-01
2.687807083129882812e-01,1.211814761161804199e+00,-1.965967267751693726e-01
2.691199183464050293e-01,1.213344216346740723e+00,-1.526002734899520874e-01
2.694469988346099854e-01,1.214818835258483887e+00,-1.088656410574913025e-01
2.697695493698120117e-01,1.216273188591003418e+00,-6.529116630554199219e-02
2.700969278812408447e-01,1.217749118804931641e+00,-2.177242562174797058e-02
2.704304754734039307e-01,1.219252943992614746e+00,2.179931290447711945e-02
2.707616388797760010e-01,1.220745921134948730e+00,6.553126871585845947e-02
2.710847258567810059e-01,1.222202658653259277e+00,1.095273420214653015e-01
2.714436352252960205e-01,1.223820805549621582e+00,1.539178937673568726e-01
2.717320919036865234e-01,1.225121378898620605e+00,1.987554877996444702e-01
2.721263468265533447e-01,1.226898789405822754e+00,2.442803531885147095e-01
2.725016772747039795e-01,1.228591084480285645e+00,2.905353307723999023e-01
2.509660720825195312e-01,1.213392615318298340e+00,-3.320085108280181885e-01
2.512828707695007324e-01,1.214924454689025879e+00,-2.864235639572143555e-01
2.516277730464935303e-01,1.216591954231262207e+00,-2.414863705635070801e-01
2.519467175006866455e-01,1.218133926391601562e+00,-1.970166712999343872e-01
2.522524893283843994e-01,1.219612360000610352e+00,-1.529188305139541626e-01
2.525544464588165283e-01,1.221072196960449219e+00,-1.090909093618392944e-01
2.528598308563232422e-01,1.222548723220825195e+00,-6.542705744504928589e-02
2.531670331954956055e-01,1.224034070968627930e+00,-2.181777171790599823e-02
2.534760832786560059e-01,1.225528240203857422e+00,2.184440568089485168e-02
2.537911832332611084e-01,1.227051854133605957e+00,6.566804647445678711e-02
2.541065216064453125e-01,1.228576302528381348e+00,1.097613275051116943e-01
2.544137537479400635e-01,1.230061888694763184e+00,1.542290449142456055e-01
2.547010183334350586e-01,1.231450796127319336e+00,1.991704851388931274e-01
2.550258934497833252e-01,1.233021497726440430e+00,2.447475343942642212e-01
2.554014325141906738e-01,1.234837055206298828e+00,2.911180853843688965e-01
2.341445088386535645e-01,1.219830870628356934e+00,-3.328190445899963379e-01
2.344732731580734253e-01,1.221543669700622559e+00,-2.871634662151336670e-01
2.347233593463897705e-01,1.222846508026123047e+00,-2.420361936092376709e-01
2.350488901138305664e-01,1.224542498588562012e+00,-1.974887996912002563e-01
2.353225201368331909e-01,1.225968003273010254e+00,-1.532777100801467896e-01
2.356003522872924805e-01,1.227415442466735840e+00,-1.093451380729675293e-01
2.358934879302978516e-01,1.228942632675170898e+00,-6.558181345462799072e-02
2.361800819635391235e-01,1.230435729026794434e+00,-2.186938188970088959e-02
2.364601790904998779e-01,1.231894850730895996e+00,2.189531736075878143e-02
2.367581576108932495e-01,1.233447313308715820e+00,6.582220643758773804e-02
2.370637059211730957e-01,1.235039114952087402e+00,1.100242957472801208e-01
2.373222112655639648e-01,1.236385822296142578e+00,1.545802056789398193e-01
2.376626580953598022e-01,1.238159537315368652e+00,1.996848881244659424e-01
2.379321306943893433e-01,1.239563465118408203e+00,2.453449368476867676e-01
2.382373064756393433e-01,1.241153240203857422e+00,2.917733192443847656e-01
2.172499299049377441e-01,1.226374149322509766e+00,-3.337216973304748535e-01
2.175343483686447144e-01,1.227979660034179688e+00,-2.879149913787841797e-01
2.177952975034713745e-01,1.229452729225158691e+00,-2.427018582820892334e-01
2.180466353893280029e-01,1.230871438980102539e+00,-1.979858875274658203e-01
2.183242142200469971e-01,1.232438445091247559e+00,-1.536802351474761963e-01
2.185928821563720703e-01,1.233955025672912598e+00,-1.096377521753311157e-01
2.188585400581359863e-01,1.235454678535461426e+00,-6.575542688369750977e-02
2.191241979598999023e-01,1.236954331398010254e+00,-2.192725054919719696e-02
2.193906754255294800e-01,1.238458633422851562e+00,2.195391617715358734e-02
2.196559756994247437e-01,1.239956259727478027e+00,6.599501520395278931e-02
2.199157923460006714e-01,1.241422891616821289e+00,1.103012710809707642e-01
2.202064841985702515e-01,1.243063807487487793e+00,1.550051718950271606e-01
2.204933017492294312e-01,1.244682908058166504e+00,2.002074569463729858e-01
2.207644134759902954e-01,1.246213316917419434e+00,2.460105121135711670e-01
2.210756689310073853e-01,1.247970342636108398e+00,2.926020622253417969e-01
2.002259343862533569e-01,1.232744693756103516e+00,-3.346410989761352539e-01
2.004714310169219971e-01,1.234256148338317871e+00,-2.886842489242553711e-01
2.007009983062744141e-01,1.235669612884521484e+00,-2.433370798826217651e-01
2.009592056274414062e-01,1.237259268760681152e+00,-1.985303610563278198e-01
2.012071907520294189e-01,1.238785982131958008e+00,-1.540968418121337891e-01
2.014663219451904297e-01,1.240381479263305664e+00,-1.099412664771080017e-01
2.017052471637725830e-01,1.241852521896362305e+00,-6.593552976846694946e-02
2.019500881433486938e-01,1.243359923362731934e+00,-2.198730781674385071e-02
2.022014707326889038e-01,1.244907617568969727e+00,2.201467566192150116e-02
2.024345397949218750e-01,1.246342539787292480e+00,6.617391854524612427e-02
2.026819139719009399e-01,1.247865557670593262e+00,1.106046214699745178e-01
2.029229998588562012e-01,1.249349951744079590e+00,1.554109305143356323e-01
2.031982988119125366e-01,1.251044869422912598e+00,2.007423788309097290e-01
2.034648060798645020e-01,1.252685666084289551e+00,2.466880232095718384e-01
2.037077844142913818e-01,1.254181623458862305e+00,2.933446764945983887e-01
