-1.732500195503234863e-01,-8.084430694580078125e-01,-4.333060979843139648e-02
-1.734623759984970093e-01,-8.094339370727539062e-01,-1.444948837161064148e-02
-1.736757308244705200e-01,-8.104295134544372559e-01,1.446726080030202866e-02
-1.738933771848678589e-01,-8.114451169967651367e-01,4.349151253700256348e-02
-1.741116493940353394e-01,-8.124637007713317871e-01,7.269512861967086792e-02
-1.743246614933013916e-01,-8.134576678276062012e-01,1.021476387977600098e-01
-1.745249778032302856e-01,-8.143923878669738770e-01,1.319154947996139526e-01
-1.747643202543258667e-01,-8.155092000961303711e-01,1.621178090572357178e-01
-1.749870926141738892e-01,-8.165488243103027344e-01,1.927950233221054077e-01
-1.601772159337997437e-01,-8.033934235572814941e-01,-2.195051163434982300e-01
-1.603702455759048462e-01,-8.043615818023681641e-01,-1.893561333417892456e-01
-1.605519652366638184e-01,-8.052729964256286621e-01,-1.596097201108932495e-01
-1.607639193534851074e-01,-8.063360452651977539e-01,-1.302244514226913452e-01
-1.609660387039184570e-01,-8.073498606681823730e-01,-1.010809913277626038e-01
-1.611645668745040894e-01,-8.083456158638000488e-01,-7.211288064718246460e-02
-1.613637953996658325e-01,-8.093448281288146973e-01,-4.325071722269058228e-02
-1.615615934133529663e-01,-8.103369474411010742e-01,-1.442284975200891495e-02
-1.617584824562072754e-01,-8.113244771957397461e-01,1.444042660295963287e-02
-1.619575768709182739e-01,-8.123230934143066406e-01,4.340987280011177063e-02
-1.621555238962173462e-01,-8.133159279823303223e-01,7.255627959966659546e-02
-1.623468846082687378e-01,-8.142756819725036621e-01,1.019481122493743896e-01
-1.625735014677047729e-01,-8.154123425483703613e-01,1.316902935504913330e-01
-1.627942174673080444e-01,-8.165193796157836914e-01,1.618388295173645020e-01
-1.629976630210876465e-01,-8.175397515296936035e-01,1.924584358930587769e-01
-1.483838856220245361e-01,-8.040929436683654785e-01,-2.190935164690017700e-01
-1.486171185970306396e-01,-8.053568005561828613e-01,-1.890702843666076660e-01
-1.487860828638076782e-01,-8.062725067138671875e-01,-1.593693941831588745e-01
-1.489812731742858887e-01,-8.073301911354064941e-01,-1.300272941589355469e-01
-1.491448879241943359e-01,-8.082168102264404297e-01,-1.009119227528572083e-01
-1.493322104215621948e-01,-8.092319369316101074e-01,-7.199388742446899414e-02
-1.495185345411300659e-01,-8.102416396141052246e-01,-4.317985475063323975e-02
-1.497017890214920044e-01,-8.112346529960632324e-01,-1.439921464771032333e-02
-1.498825252056121826e-01,-8.122141361236572266e-01,1.441659964621067047e-02
-1.500635892152786255e-01,-8.131952285766601562e-01,4.333725944161415100e-02
-1.502708643674850464e-01,-8.143184781074523926e-01,7.244641333818435669e-02
-1.504494696855545044e-01,-8.152863979339599609e-01,1.017946153879165649e-01
-1.506588757038116455e-01,-8.164211511611938477e-01,1.314914822578430176e-01
-1.508080959320068359e-01,-8.172297477722167969e-01,1.615352332592010498e-01
-1.510452181100845337e-01,-8.185147047042846680e-01,1.921593099832534790e-01
-1.366537362337112427e-01,-8.049163222312927246e-01,-2.187625020742416382e-01
-1.368312686681747437e-01,-8.059620261192321777e-01,-1.887332350015640259e-01
-1.369958519935607910e-01,-8.069313764572143555e-01,-1.590957492589950562e-01
-1.371825933456420898e-01,-8.080313801765441895e-01,-1.298106908798217773e-01
-1.373576372861862183e-01,-8.090624213218688965e-01,-1.007617041468620300e-01
-1.375262588262557983e-01,-8.100556135177612305e-01,-7.188467681407928467e-02
-1.376920044422149658e-01,-8.110318779945373535e-01,-4.311252012848854065e-02
-1.378608494997024536e-01,-8.120264410972595215e-01,-1.437677163630723953e-02
-1.380331367254257202e-01,-8.130412697792053223e-01,1.439473871141672134e-02
-1.382038146257400513e-01,-8.140465617179870605e-01,4.327277466654777527e-02
-1.383700519800186157e-01,-8.150257468223571777e-01,7.232572883367538452e-02
-1.385273933410644531e-01,-8.159524798393249512e-01,1.016198024153709412e-01
-1.387110203504562378e-01,-8.170340657234191895e-01,1.312569677829742432e-01
-1.388863325119018555e-01,-8.180667161941528320e-01,1.612912118434906006e-01
-1.390990018844604492e-01,-8.193193674087524414e-01,1.918611377477645874e-01
-1.249591857194900513e-01,-8.057541251182556152e-01,-2.184817045927047729e-01
-1.251251548528671265e-01,-8.068243265151977539e-01,-1.884964555501937866e-01
-1.252775937318801880e-01,-8.078072071075439453e-01,-1.588986068964004517e-01
-1.254245489835739136e-01,-8.087548017501831055e-01,-1.296252161264419556e-01
-1.255896240472793579e-01,-8.098192214965820312e-01,-1.006217747926712036e-01
-1.257472038269042969e-01,-8.108353614807128906e-01,-7.178679853677749634e-02
-1.259004771709442139e-01,-8.118237257003784180e-01,-4.305440932512283325e-02
-1.260548830032348633e-01,-8.128193020820617676e-01,-1.435739360749721527e-02
-1.262106448411941528e-01,-8.138236403465270996e-01,1.437513437122106552e-02
-1.263632476329803467e-01,-8.148077130317687988e-01,4.321265965700149536e-02
-1.265101581811904907e-01,-8.157550096511840820e-01,7.222235947847366333e-02
-1.266781240701675415e-01,-8.168380856513977051e-01,1.014938801527023315e-01
-1.268440783023834229e-01,-8.179081082344055176e-01,1.310922950506210327e-01
-1.270007342100143433e-01,-8.189182877540588379e-01,1.610842049121856689e-01
-1.271393299102783203e-01,-8.198119997978210449e-01,1.915307343006134033e-01
-1.133086457848548889e-01,-8.067067861557006836e-01,-2.182779014110565186e-01
-1.134618371725082397e-01,-8.077974319458007812e-01,-1.883250921964645386e-01
-1.136012673377990723e-01,-8.087900876998901367e-01,-1.587558388710021973e-01
-1.137342453002929688e-01,-8.097368478775024414e-01,-1.295084357261657715e-01
-1.138666197657585144e-01,-8.106793165206909180e-01,-1.005158349871635437e-01
-1.140123382210731506e-01,-8.117167949676513672e-01,-7.171300798654556274e-02
-1.141527742147445679e-01,-8.127166032791137695e-01,-4.301070049405097961e-02
-1.142927259206771851e-01,-8.137129545211791992e-01,-1.434281375259160995e-02
-1.144325137138366699e-01,-8.147082328796386719e-01,1.436035614460706711e-02
-1.145680248737335205e-01,-8.156729936599731445e-01,4.316715896129608154e-02
-1.147186905145645142e-01,-8.167456388473510742e-01,7.215729355812072754e-02
-1.148713082075119019e-01,-8.178322315216064453e-01,1.014027222990989685e-01
-1.150205433368682861e-01,-8.188947439193725586e-01,1.309731304645538330e-01
-1.151598468422889709e-01,-8.198865056037902832e-01,1.609339416027069092e-01
-1.152813881635665894e-01,-8.207518458366394043e-01,1.913452148437500000e-01
-1.016627028584480286e-01,-8.075408339500427246e-01,-2.180875092744827271e-01
-1.017738506197929382e-01,-8.084236979484558105e-01,-1.881122142076492310e-01
-1.019062027335166931e-01,-8.094750046730041504e-01,-1.585877239704132080e-01
-1.020313724875450134e-01,-8.104693293571472168e-01,-1.293787509202957153e-01
-1.021683961153030396e-01,-8.115577101707458496e-01,-1.004331409931182861e-01
-1.022882312536239624e-01,-8.125095963478088379e-01,-7.164636254310607910e-02
-1.024156957864761353e-01,-8.135221004486083984e-01,-4.297135025262832642e-02
-1.025412604212760925e-01,-8.145194649696350098e-01,-1.432969048619270325e-02
-1.026651859283447266e-01,-8.155038356781005859e-01,1.434700842946767807e-02
-1.027977690100669861e-01,-8.165570497512817383e-01,4.313165694475173950e-02
-1.029145121574401855e-01,-8.174843788146972656e-01,7.208503782749176025e-02
-1.030454412102699280e-01,-8.185243606567382812e-01,1.012952849268913269e-01
-1.031719669699668884e-01,-8.195294141769409180e-01,1.308250576257705688e-01
-1.033236160874366760e-01,-8.207340240478515625e-01,1.607935279607772827e-01
-1.034277305006980896e-01,-8.215609788894653320e-01,1.911691278219223022e-01
-9.003473818302154541e-02,-8.083741068840026855e-01,-2.179421782493591309e-01
-9.013663232326507568e-02,-8.092889189720153809e-01,-1.879940778017044067e-01
-9.025581926107406616e-02,-8.103590607643127441e-01,-1.584915965795516968e-01
-9.036728739738464355e-02,-8.113598823547363281e-01,-1.293011903762817383e-01
-9.047565609216690063e-02,-8.123328685760498047e-01,-1.003585308790206909e-01
-9.058449417352676392e-02,-8.133100867271423340e-01,-7.159528881311416626e-02
-9.069870412349700928e-02,-8.143355250358581543e-01,-4.294134303927421570e-02
-9.080991148948669434e-02,-8.153339624404907227e-01,-1.431968621909618378e-02
-9.091832488775253296e-02,-8.163073062896728516e-01,1.433678157627582550e-02
-9.103296697139739990e-02,-8.173366785049438477e-01,4.309960082173347473e-02
-9.114947915077209473e-02,-8.183827996253967285e-01,7.204183191061019897e-02
-9.126482903957366943e-02,-8.194184303283691406e-01,1.012338995933532715e-01
-9.137487411499023438e-02,-8.204064965248107910e-01,1.307428926229476929e-01
-9.150566160678863525e-02,-8.215807676315307617e-01,1.606863588094711304e-01
-9.162876009941101074e-02,-8.226860165596008301e-01,1.911061555147171021e-01
-7.841936498880386353e-02,-8.092010617256164551e-01,-2.178402096033096313e-01
-7.851132750511169434e-02,-8.101500272750854492e-01,-1.879138201475143433e-01
-7.859832793474197388e-02,-8.110477924346923828e-01,-1.583900451660156250e-01
-7.870016247034072876e-02,-8.120986223220825195e-01,-1.292261630296707153e-01
-7.879814505577087402e-02,-8.131096959114074707e-01,-1.003048792481422424e-01
-7.890168577432632446e-02,-8.141781687736511230e-01,-7.156495749950408936e-02
-7.899600267410278320e-02,-8.151513934135437012e-01,-4.292034730315208435e-02
-7.909285277128219604e-02,-8.161507844924926758e-01,-1.431268267333507538e-02
-7.919248938560485840e-02,-8.171789050102233887e-01,1.433071214705705643e-02
-7.928351312875747681e-02,-8.181181550025939941e-01,4.307655617594718933e-02
-7.938134670257568359e-02,-8.191276788711547852e-01,7.200001180171966553e-02
-7.947698980569839478e-02,-8.201146721839904785e-01,1.011690124869346619e-01
-7.958988100290298462e-02,-8.212795257568359375e-01,1.306870877742767334e-01
-7.970053702592849731e-02,-8.224213719367980957e-01,1.606111973524093628e-01
-7.980328798294067383e-02,-8.234816789627075195e-01,1.910060793161392212e-01
-6.680817157030105591e-02,-8.099752664566040039e-01,-2.177688926458358765e-01
-6.689003854990005493e-02,-8.109678626060485840e-01,-1.878621876239776611e-01
-6.696651875972747803e-02,-8.118950724601745605e-01,-1.583521068096160889e-01
-6.705438345670700073e-02,-8.129603266716003418e-01,-1.291973292827606201e-01
-6.713781505823135376e-02,-8.139718770980834961e-01,-1.002824231982231140e-01
-6.721937656402587891e-02,-8.149607181549072266e-01,-7.154184579849243164e-02
-6.730090826749801636e-02,-8.159492611885070801e-01,-4.290723800659179688e-02
-6.738341599702835083e-02,-8.169495463371276855e-01,-1.430831104516983032e-02
-6.746710836887359619e-02,-8.179641962051391602e-01,1.432608161121606827e-02
-6.755137443542480469e-02,-8.189858198165893555e-01,4.306691512465476990e-02
-6.763478368520736694e-02,-8.199971318244934082e-01,7.198396325111389160e-02
-6.771514564752578735e-02,-8.209713697433471680e-01,1.011447682976722717e-01
-6.780894100666046143e-02,-8.221085071563720703e-01,1.306511759757995605e-01
-6.789964437484741211e-02,-8.232081532478332520e-01,1.605586111545562744e-01
-6.798249483108520508e-02,-8.242126703262329102e-01,1.909303814172744751e-01
-5.520488694310188293e-02,-8.107885718345642090e-01,-2.177527993917465210e-01
-5.527505278587341309e-02,-8.118190765380859375e-01,-1.878568530082702637e-01
-5.533989518880844116e-02,-8.127714395523071289e-01,-1.583523005247116089e-01
-5.540299788117408752e-02,-8.136982321739196777e-01,-1.291753351688385010e-01
-5.547456443309783936e-02,-8.147493600845336914e-01,-1.002701073884963989e-01
-5.554375424981117249e-02,-8.157655000686645508e-01,-7.153537124395370483e-02
-5.561202019453048706e-02,-8.167681097984313965e-01,-4.290404543280601501e-02
-5.568019300699234009e-02,-8.177694082260131836e-01,-1.430724561214447021e-02
-5.574844405055046082e-02,-8.187717795372009277e-01,1.432478334754705429e-02
-5.581627041101455688e-02,-8.197679519653320312e-01,4.306162148714065552e-02
-5.588253214955329895e-02,-8.207411170005798340e-01,7.197168469429016113e-02
-5.595855414867401123e-02,-8.218576312065124512e-01,1.011449173092842102e-01
-5.603439733386039734e-02,-8.229715228080749512e-01,1.306474804878234863e-01
-5.610678717494010925e-02,-8.240346908569335938e-01,1.605467349290847778e-01
-5.617184191942214966e-02,-8.249901533126831055e-01,1.909046769142150879e-01
-4.359911382198333740e-02,-8.115679621696472168e-01,-2.177722156047821045e-01
-4.364471137523651123e-02,-8.124166727066040039e-01,-1.878313422203063965e-01
-4.370998218655586243e-02,-8.136316537857055664e-01,-1.583817899227142334e-01
-4.376075416803359985e-02,-8.145767450332641602e-01,-1.292021274566650391e-01
-4.381738230586051941e-02,-8.156307935714721680e-01,-1.002911329269409180e-01
-4.386785626411437988e-02,-8.165704011917114258e-01,-7.154355943202972412e-02
-4.392256215214729309e-02,-8.175886869430541992e-01,-4.290973022580146790e-02
-4.397640749812126160e-02,-8.185909986495971680e-01,-1.430914178490638733e-02
-4.402951523661613464e-02,-8.195796012878417969e-01,1.432642247527837753e-02
-4.408729448914527893e-02,-8.206550478935241699e-01,4.307066276669502258e-02
-4.413953050971031189e-02,-8.216273784637451172e-01,7.198663055896759033e-02
-4.419863224029541016e-02,-8.227275609970092773e-01,1.011637598276138306e-01
-4.424426332116127014e-02,-8.235769271850585938e-01,1.306296736001968384e-01
-4.431140422821044922e-02,-8.248267173767089844e-01,1.605610251426696777e-01
-4.435950517654418945e-02,-8.257220983505249023e-01,1.909075677394866943e-01
-3.198873624205589294e-02,-8.123434782028198242e-01,-2.178351432085037231e-01
-3.202383220195770264e-02,-8.132347464561462402e-01,-1.878952682018280029e-01
-3.206531703472137451e-02,-8.142883181571960449e-01,-1.584040373563766479e-01
-3.211052715778350830e-02,-8.154363632202148438e-01,-1.292523294687271118e-01
-3.214783594012260437e-02,-8.163838386535644531e-01,-1.003168672323226929e-01
-3.218849003314971924e-02,-8.174161911010742188e-01,-7.156996428966522217e-02
-3.222664073109626770e-02,-8.183850646018981934e-01,-4.292291775345802307e-02
-3.226614743471145630e-02,-8.193883299827575684e-01,-1.431354042142629623e-02
-3.230711817741394043e-02,-8.204287290573120117e-01,1.433171425014734268e-02
-3.234585747122764587e-02,-8.214125037193298340e-01,4.308170452713966370e-02
-3.238846734166145325e-02,-8.224945664405822754e-01,7.201461493968963623e-02
-3.242377191781997681e-02,-8.233911395072937012e-01,1.011779233813285828e-01
-3.246374800801277161e-02,-8.244062662124633789e-01,1.306741237640380859e-01
-3.251133859157562256e-02,-8.256148695945739746e-01,1.606074124574661255e-01
-3.255672007799148560e-02,-8.267672657966613770e-01,1.910219043493270874e-01
-2.036881074309349060e-02,-8.131015896797180176e-01,-2.179379314184188843e-01
-2.039245329797267914e-02,-8.140454292297363281e-01,-1.879958659410476685e-01
-2.041974849998950958e-02,-8.151350021362304688e-01,-1.584956645965576172e-01
-2.044533379375934601e-02,-8.161563277244567871e-01,-1.293068230152130127e-01
-2.047025598585605621e-02,-8.171511888504028320e-01,-1.003648787736892700e-01
-2.049689553678035736e-02,-8.182146549224853516e-01,-7.160685956478118896e-02
-2.052158489823341370e-02,-8.192002177238464355e-01,-4.294586926698684692e-02
-2.054673992097377777e-02,-8.202043771743774414e-01,-1.432119123637676239e-02
-2.057243511080741882e-02,-8.212300539016723633e-01,1.433909963816404343e-02
-2.059634402394294739e-02,-8.221845030784606934e-01,4.310231655836105347e-02
-2.062229812145233154e-02,-8.232206106185913086e-01,7.204495370388031006e-02
-2.064802311360836029e-02,-8.242474794387817383e-01,1.012364625930786133e-01
-2.067259140312671661e-02,-8.252282142639160156e-01,1.307441145181655884e-01
-2.070157602429389954e-02,-8.263852596282958984e-01,1.606831699609756470e-01
-2.072878368198871613e-02,-8.274713754653930664e-01,1.910964548587799072e-01
-8.735374547541141510e-03,-8.138461709022521973e-01,-2.180816382169723511e-01
-8.746087551116943359e-03,-8.148441910743713379e-01,-1.881321519613265991e-01
-8.758184500038623810e-03,-8.159712553024291992e-01,-1.586176455020904541e-01
-8.769388310611248016e-03,-8.170150518417358398e-01,-1.294097304344177246e-01
-8.780134841799736023e-03,-8.180162906646728516e-01,-1.004454046487808228e-01
-8.790768682956695557e-03,-8.190070390701293945e-01,-7.165785133838653564e-02
-8.801529183983802795e-03,-8.200094699859619141e-01,-4.297728836536407471e-02
-8.812316693365573883e-03,-8.210145235061645508e-01,-1.433166675269603729e-02
-8.823163807392120361e-03,-8.220251798629760742e-01,1.434930786490440369e-02
-8.834219537675380707e-03,-8.230551481246948242e-01,4.313691332936286926e-02
-8.845293894410133362e-03,-8.240869045257568359e-01,7.210230827331542969e-02
-8.856093510985374451e-03,-8.250930905342102051e-01,1.013143807649612427e-01
-8.866232819855213165e-03,-8.260377645492553711e-01,1.308388710021972656e-01
-8.878085762262344360e-03,-8.271420001983642578e-01,1.607891321182250977e-01
-8.889012038707733154e-03,-8.281599879264831543e-01,1.912065148353576660e-01
2.916818484663963318e-03,-8.148760795593261719e-01,-2.183464467525482178e-01
2.920486265793442726e-03,-8.159006834030151367e-01,-1.883664429187774658e-01
2.923886291682720184e-03,-8.168506026268005371e-01,-1.587804406881332397e-01
2.927728230133652687e-03,-8.179239034652709961e-01,-1.295470595359802246e-01
2.930984599515795708e-03,-8.188336491584777832e-01,-1.005406230688095093e-01
2.934659132733941078e-03,-8.198602199554443359e-01,-7.172882556915283203e-02
2.938313176855444908e-03,-8.208810687065124512e-01,-4.302076622843742371e-02
2.941914368420839310e-03,-8.218871355056762695e-01,-1.434616371989250183e-02
2.945473650470376015e-03,-8.228815197944641113e-01,1.436352077871561050e-02
2.949037821963429451e-03,-8.238771557807922363e-01,4.317778721451759338e-02
2.953070681542158127e-03,-8.250038623809814453e-01,7.217884063720703125e-02
2.956573385745286942e-03,-8.259824514389038086e-01,1.014183908700942993e-01
2.960606710985302925e-03,-8.271092176437377930e-01,1.310018748044967651e-01
2.964471699669957161e-03,-8.281889557838439941e-01,1.609844118356704712e-01
2.967964159324765205e-03,-8.291646838188171387e-01,1.914286911487579346e-01
1.459390111267566681e-02,-8.155824542045593262e-01,-2.185692936182022095e-01
1.461326330900192261e-02,-8.166644573211669922e-01,-1.885717362165451050e-01
1.463101711124181747e-02,-8.176566362380981445e-01,-1.589615494012832642e-01
1.464809197932481766e-02,-8.186108469963073730e-01,-1.296757906675338745e-01
1.466710865497589111e-02,-8.196735978126525879e-01,-1.006592288613319397e-01
1.468533836305141449e-02,-8.206923604011535645e-01,-7.181266695261001587e-02
1.470317225903272629e-02,-8.216890692710876465e-01,-4.306972771883010864e-02
1.472119987010955811e-02,-8.226965665817260742e-01,-1.436249911785125732e-02
1.473945844918489456e-02,-8.237168788909912109e-01,1.438031252473592758e-02
1.475745532661676407e-02,-8.247227072715759277e-01,4.322873800992965698e-02
1.477487757802009583e-02,-8.256962895393371582e-01,7.225052267313003540e-02
1.479458063840866089e-02,-8.267974257469177246e-01,1.015340536832809448e-01
1.481401454657316208e-02,-8.278834819793701172e-01,1.311446577310562134e-01
1.483232714235782623e-02,-8.289068937301635742e-01,1.611487269401550293e-01
1.484850607812404633e-02,-8.298110365867614746e-01,1.916073560714721680e-01
2.629832923412322998e-02,-8.163240551948547363e-01,-2.188464999198913574e-01
2.633534930646419525e-02,-8.174731731414794922e-01,-1.888261735439300537e-01
2.636895142495632172e-02,-8.185162544250488281e-01,-1.591857373714447021e-01
2.640076167881488800e-02,-8.195036649703979492e-01,-1.298637688159942627e-01
2.643216028809547424e-02,-8.204782605171203613e-01,-1.007941737771034241e-01
2.646616101264953613e-02,-8.215336799621582031e-01,-7.191206514835357666e-02
2.649888209998607635e-02,-8.225493431091308594e-01,-4.313028603792190552e-02
2.653137221932411194e-02,-8.235579133033752441e-01,-1.438269298523664474e-02
2.656369283795356750e-02,-8.245611786842346191e-01,1.440021395683288574e-02
2.659497410058975220e-02,-8.255321979522705078e-01,4.328668862581253052e-02
2.662927843630313873e-02,-8.265970349311828613e-01,7.235527783632278442e-02
2.666374482214450836e-02,-8.276668787002563477e-01,1.016772836446762085e-01
2.669713646173477173e-02,-8.287034034729003906e-01,1.313216239213943481e-01
2.672795392572879791e-02,-8.296599984169006348e-01,1.613529771566390991e-01
2.676402218639850616e-02,-8.307796120643615723e-01,1.918997913599014282e-01
3.804574534296989441e-02,-8.173009157180786133e-01,-2.192319184541702271e-01
3.809061646461486816e-02,-8.182647824287414551e-01,-1.891155838966369629e-01
3.814157471060752869e-02,-8.193594813346862793e-01,-1.594395786523818970e-01
3.818913549184799194e-02,-8.203811645507812500e-01,-1.300761252641677856e-01
3.823524713516235352e-02,-8.213717341423034668e-01,-1.009608283638954163e-01
3.828138485550880432e-02,-8.223628401756286621e-01,-7.202523201704025269e-02
3.832956030964851379e-02,-8.233977556228637695e-01,-4.319911450147628784e-02
3.837653994560241699e-02,-8.244070410728454590e-01,-1.440563984215259552e-02
3.842245042324066162e-02,-8.253933191299438477e-01,1.442287396639585495e-02
3.847075998783111572e-02,-8.264310956001281738e-01,4.335825517773628235e-02
3.851969540119171143e-02,-8.274822831153869629e-01,7.247360795736312866e-02
3.856797516345977783e-02,-8.285194039344787598e-01,1.018394008278846741e-01
3.861388191580772400e-02,-8.295056223869323730e-01,1.315228492021560669e-01
3.866731747984886169e-02,-8.306534886360168457e-01,1.616372913122177124e-01
3.871706873178482056e-02,-8.317222595214843750e-01,1.922258585691452026e-01
4.981950297951698303e-02,-8.179935812950134277e-01,-2.195865064859390259e-01
4.988261312246322632e-02,-8.190297484397888184e-01,-1.894380003213882446e-01
4.995251446962356567e-02,-8.201774954795837402e-01,-1.597215235233306885e-01
5.001688748598098755e-02,-8.212344050407409668e-01,-1.303115785121917725e-01
5.007823184132575989e-02,-8.222416639328002930e-01,-1.011455059051513672e-01
5.013846233487129211e-02,-8.232305645942687988e-01,-7.215669006109237671e-02
5.019900575280189514e-02,-8.242247104644775391e-01,-4.327576234936714172e-02
5.026054382324218750e-02,-8.252350687980651855e-01,-1.443120092153549194e-02
5.032327026128768921e-02,-8.262649774551391602e-01,1.444921176880598068e-02
5.038671568036079407e-02,-8.273066878318786621e-01,4.343758150935173035e-02
5.044981837272644043e-02,-8.283427953720092773e-01,7.260478287935256958e-02
5.051096156239509583e-02,-8.293467164039611816e-01,1.020195037126541138e-01
5.056788399815559387e-02,-8.302813768386840820e-01,1.317471265792846680e-01
5.063343793153762817e-02,-8.313576579093933105e-01,1.618987470865249634e-01
5.071102455258369446e-02,-8.326315283775329590e-01,1.925840377807617188e-01
6.164981052279472351e-02,-8.189008831977844238e-01,-2.200444042682647705e-01
6.173061206936836243e-02,-8.199741244316101074e-01,-1.898413598537445068e-01
6.180494651198387146e-02,-8.209615945816040039e-01,-1.600300967693328857e-01
6.187679246068000793e-02,-8.219158649444580078e-01,-1.305468678474426270e-01
6.195688620209693909e-02,-8.229797482490539551e-01,-1.013350114226341248e-01
6.203426420688629150e-02,-8.240075707435607910e-01,-7.229521870613098145e-02
6.211057305335998535e-02,-8.250212073326110840e-01,-4.335981979966163635e-02
6.218668818473815918e-02,-8.260322809219360352e-01,-1.445922721177339554e-02
6.226285919547080994e-02,-8.270440101623535156e-01,1.447693724185228348e-02
6.233852729201316833e-02,-8.280491232872009277e-01,4.351895675063133240e-02
6.241237744688987732e-02,-8.290300965309143066e-01,7.273587584495544434e-02
6.249589100480079651e-02,-8.301394581794738770e-01,1.022165939211845398e-01
6.257864087820053101e-02,-8.312386274337768555e-01,1.320276260375976562e-01
6.265701353549957275e-02,-8.322796821594238281e-01,1.622363477945327759e-01
6.272670626640319824e-02,-8.332054018974304199e-01,1.929046809673309326e-01
7.350496947765350342e-02,-8.195108175277709961e-01,-2.204684317111968994e-01
7.360789179801940918e-02,-8.206583261489868164e-01,-1.902242004871368408e-01
7.370157539844512939e-02,-8.217027187347412109e-01,-1.603637784719467163e-01
7.379062473773956299e-02,-8.226955533027648926e-01,-1.308250725269317627e-01
7.388768345117568970e-02,-8.237776756286621094e-01,-1.015530750155448914e-01
7.397445291280746460e-02,-8.247451186180114746e-01,-7.244540750980377197e-02
7.406713068485260010e-02,-8.257783651351928711e-01,-4.345087707042694092e-02
7.415796071290969849e-02,-8.267909884452819824e-01,-1.448960416018962860e-02
7.424706965684890747e-02,-8.277845382690429688e-01,1.450701616704463959e-02
7.434283941984176636e-02,-8.288522362709045410e-01,4.361262172460556030e-02
7.442930340766906738e-02,-8.298162221908569336e-01,7.289084792137145996e-02
7.452552020549774170e-02,-8.308889865875244141e-01,1.024297401309013367e-01
7.461914420127868652e-02,-8.319328427314758301e-01,1.322939693927764893e-01
7.470588386058807373e-02,-8.328998088836669922e-01,1.625490039587020874e-01
7.480660080909729004e-02,-8.340227603912353516e-01,1.933220028877258301e-01
8.544134348630905151e-02,-8.204399943351745605e-01,-2.210247814655303955e-01
8.556602895259857178e-02,-8.216373324394226074e-01,-1.907154768705368042e-01
8.565965294837951660e-02,-8.225363492965698242e-01,-1.607492864131927490e-01
8.576774597167968750e-02,-8.235743045806884766e-01,-1.311465799808502197e-01
8.587273955345153809e-02,-8.245824575424194336e-01,-1.017933860421180725e-01
8.598410338163375854e-02,-8.256517648696899414e-01,-7.262571156024932861e-02
8.608783781528472900e-02,-8.266478776931762695e-01,-4.355700686573982239e-02
8.619337528944015503e-02,-8.276613354682922363e-01,-1.452499069273471832e-02
8.630102127790451050e-02,-8.286949992179870605e-01,1.454313006252050400e-02
8.640170842409133911e-02,-8.296618461608886719e-01,4.371581599116325378e-02
8.651011437177658081e-02,-8.307027220726013184e-01,7.307000458240509033e-02
8.661729097366333008e-02,-8.317319154739379883e-01,1.026759743690490723e-01
8.674154430627822876e-02,-8.329250216484069824e-01,1.326356083154678345e-01
8.683728426694869995e-02,-8.338444232940673828e-01,1.629592329263687134e-01
8.694690465927124023e-02,-8.348970413208007812e-01,1.937932670116424561e-01
9.743454307317733765e-02,-8.213232755661010742e-01,-2.216157317161560059e-01
9.755777567625045776e-02,-8.223620653152465820e-01,-1.911882460117340088e-01
9.767254441976547241e-02,-8.233295083045959473e-01,-1.611610054969787598e-01
9.780116379261016846e-02,-8.244137167930603027e-01,-1.314897090196609497e-01
9.792382270097732544e-02,-8.254476189613342285e-01,-1.020627617835998535e-01
9.804417192935943604e-02,-8.264621496200561523e-01,-7.281297445297241211e-02
9.816502034664154053e-02,-8.274808526039123535e-01,-4.367045685648918152e-02
9.828530251979827881e-02,-8.284947872161865234e-01,-1.456281356513500214e-02
9.840551018714904785e-02,-8.295080065727233887e-01,1.458062324672937393e-02
9.852703660726547241e-02,-8.305324316024780273e-01,4.383150488138198853e-02
9.864775836467742920e-02,-8.315500617027282715e-01,7.326123118400573730e-02
9.876450151205062866e-02,-8.325341343879699707e-01,1.029389798641204834e-01
9.889806807041168213e-02,-8.336600661277770996e-01,1.329644471406936646e-01
9.902644902467727661e-02,-8.347422480583190918e-01,1.633949726819992065e-01
9.914280474185943604e-02,-8.357230424880981445e-01,1.942944973707199097e-01
1.095056906342506409e-01,-8.222953081130981445e-01,-2.222781777381896973e-01
1.096525415778160095e-01,-8.233980536460876465e-01,-1.917743533849716187e-01
1.097868531942367554e-01,-8.244065642356872559e-01,-1.616628766059875488e-01
1.099156811833381653e-01,-8.253740072250366211e-01,-1.318802833557128906e-01
1.100574806332588196e-01,-8.264387845993041992e-01,-1.023696064949035645e-01
1.101938188076019287e-01,-8.274626135826110840e-01,-7.303259521722793579e-02
1.103274598717689514e-01,-8.284661173820495605e-01,-4.380131140351295471e-02
1.104627549648284912e-01,-8.294820785522460938e-01,-1.460646279156208038e-02
1.105998605489730835e-01,-8.305116295814514160e-01,1.462459284812211990e-02
1.107354834675788879e-01,-8.315300345420837402e-01,4.396330192685127258e-02
1.108671277761459351e-01,-8.325185775756835938e-01,7.347884029150009155e-02
1.110143139958381653e-01,-8.336238265037536621e-01,1.032596006989479065e-01
1.111590266227722168e-01,-8.347104191780090332e-01,1.333720833063125610e-01
1.112948730587959290e-01,-8.357305526733398438e-01,1.638834625482559204e-01
1.114516630768775940e-01,-8.369079232215881348e-01,1.949208676815032959e-01
1.216210499405860901e-01,-8.230658769607543945e-01,-2.229342013597488403e-01
1.217618510127067566e-01,-8.240187168121337891e-01,-1.923051178455352783e-01
1.219212114810943604e-01,-8.250972032546997070e-01,-1.621239036321640015e-01
1.220714077353477478e-01,-8.261136412620544434e-01,-1.322641074657440186e-01
1.222327575087547302e-01,-8.272055387496948242e-01,-1.026707887649536133e-01
1.223763003945350647e-01,-8.281769752502441406e-01,-7.324274629354476929e-02
1.225278899073600769e-01,-8.292028903961181641e-01,-4.392848536372184753e-02
1.226781457662582397e-01,-8.302197456359863281e-01,-1.464887242764234543e-02
1.228272616863250732e-01,-8.312288522720336914e-01,1.466667838394641876e-02
1.229857504367828369e-01,-8.323013782501220703e-01,4.409263655543327332e-02
1.231280416250228882e-01,-8.332643508911132812e-01,7.369267195463180542e-02
1.232843026518821716e-01,-8.343218564987182617e-01,1.035540401935577393e-01
1.234346777200698853e-01,-8.353395462036132812e-01,1.337411999702453613e-01
1.236081570386886597e-01,-8.365135192871093750e-01,1.643671095371246338e-01
1.237707212567329407e-01,-8.376137018203735352e-01,1.954778432846069336e-01
1.338239908218383789e-01,-8.239232897758483887e-01,-2.236623615026473999e-01
1.339897960424423218e-01,-8.249441385269165039e-01,-1.929489076137542725e-01
1.341447979211807251e-01,-8.258984684944152832e-01,-1.626419574022293091e-01
1.343190819025039673e-01,-8.269714713096618652e-01,-1.326956599950790405e-01
1.344863176345825195e-01,-8.280010819435119629e-01,-1.029978990554809570e-01
1.346610635519027710e-01,-8.290770053863525391e-01,-7.348527759313583374e-02
1.348224580287933350e-01,-8.300706148147583008e-01,-4.407217726111412048e-02
1.349878013134002686e-01,-8.310886025428771973e-01,-1.469679083675146103e-02
1.351574212312698364e-01,-8.321329355239868164e-01,1.471525803208351135e-02
1.353147625923156738e-01,-8.331016302108764648e-01,4.423310607671737671e-02
1.354817152023315430e-01,-8.341295719146728516e-01,7.393311709165573120e-02
1.356445699930191040e-01,-8.351322412490844727e-01,1.038849651813507080e-01
1.358306556940078735e-01,-8.362778425216674805e-01,1.341889649629592896e-01
1.360104829072952271e-01,-8.373849987983703613e-01,1.649039834737777710e-01
1.361746191978454590e-01,-8.383955955505371094e-01,1.960951089859008789e-01
1.460961550474166870e-01,-8.247115612030029297e-01,-2.244210243225097656e-01
1.462891548871994019e-01,-8.258010745048522949e-01,-1.936192512512207031e-01
1.464663892984390259e-01,-8.268015980720520020e-01,-1.632159352302551270e-01
1.466371268033981323e-01,-8.277654051780700684e-01,-1.331462115049362183e-01
1.468255817890167236e-01,-8.288292288780212402e-01,-1.033517494797706604e-01
1.470080912113189697e-01,-8.298594951629638672e-01,-7.373359054327011108e-02
1.471883952617645264e-01,-8.308773040771484375e-01,-4.422233253717422485e-02
1.473689079284667969e-01,-8.318962454795837402e-01,-1.474686339497566223e-02
1.475499123334884644e-01,-8.329180479049682617e-01,1.476497668772935867e-02
1.477301269769668579e-01,-8.339353203773498535e-01,4.438509419560432434e-02
1.479065716266632080e-01,-8.349313735961914062e-01,7.418423146009445190e-02
1.481039822101593018e-01,-8.360457420349121094e-01,1.042516231536865234e-01
1.482991278171539307e-01,-8.371473550796508789e-01,1.346552968025207520e-01
1.484831869602203369e-01,-8.381863832473754883e-01,1.654633730649948120e-01
1.486945003271102905e-01,-8.393791913986206055e-01,1.968028098344802856e-01
1.584721505641937256e-01,-8.255979418754577637e-01,-2.252563983201980591e-01
1.586966067552566528e-01,-8.267672657966613770e-01,-1.943584680557250977e-01
1.588679105043411255e-01,-8.276597261428833008e-01,-1.638174653053283691e-01
1.590900123119354248e-01,-8.288167715072631836e-01,-1.336679011583328247e-01
1.592771857976913452e-01,-8.297919631004333496e-01,-1.037454530596733093e-01
1.594671458005905151e-01,-8.307815790176391602e-01,-7.401073724031448364e-02
1.596675366163253784e-01,-8.318255543708801270e-01,-4.438989609479904175e-02
1.598632633686065674e-01,-8.328452706336975098e-01,-1.480273343622684479e-02
1.600547879934310913e-01,-8.338430523872375488e-01,1.482046674937009811e-02
1.602584719657897949e-01,-8.349041938781738281e-01,4.455418512225151062e-02
1.604672819375991821e-01,-8.359920382499694824e-01,7.447491586208343506e-02
1.606440097093582153e-01,-8.369126915931701660e-01,1.046357303857803345e-01
1.608769297599792480e-01,-8.381262421607971191e-01,1.351692974567413330e-01
1.610614359378814697e-01,-8.390874266624450684e-01,1.660793274641036987e-01
1.612700521945953369e-01,-8.401742577552795410e-01,1.975102126598358154e-01
1.709261238574981689e-01,-8.264085650444030762e-01,-2.261219173669815063e-01
1.711440384387969971e-01,-8.274621367454528809e-01,-1.950777024030685425e-01
1.713810861110687256e-01,-8.286082148551940918e-01,-1.644738763570785522e-01
1.716002970933914185e-01,-8.296681046485900879e-01,-1.341875791549682617e-01
1.718105971813201904e-01,-8.306849002838134766e-01,-1.041538938879966736e-01
1.720183938741683960e-01,-8.316895961761474609e-01,-7.430336624383926392e-02
1.722285747528076172e-01,-8.327057957649230957e-01,-4.456385597586631775e-02
1.724395900964736938e-01,-8.337259888648986816e-01,-1.486073248088359833e-02
1.726523935794830322e-01,-8.347548842430114746e-01,1.487907208502292633e-02
1.728690117597579956e-01,-8.358021378517150879e-01,4.472956433892250061e-02
1.730858534574508667e-01,-8.368505835533142090e-01,7.476445287466049194e-02
1.732971519231796265e-01,-8.378722071647644043e-01,1.050550639629364014e-01
1.734954267740249634e-01,-8.388308882713317871e-01,1.356695294380187988e-01
1.737189441919326782e-01,-8.399115800857543945e-01,1.667175143957138062e-01
1.739768832921981812e-01,-8.411586284637451172e-01,1.983067095279693604e-01
1.835082918405532837e-01,-8.273587822914123535e-01,-2.270773649215698242e-01
1.837103068828582764e-01,-8.282696008682250977e-01,-1.958679258823394775e-01
1.839768737554550171e-01,-8.294714093208312988e-01,-1.651510000228881836e-01
1.841912716627120972e-01,-8.304380178451538086e-01,-1.347247064113616943e-01
1.844258457422256470e-01,-8.314956426620483398e-01,-1.045758128166198730e-01
1.846522837877273560e-01,-8.325164914131164551e-01,-7.460572570562362671e-02
1.848754584789276123e-01,-8.335227370262145996e-01,-4.474461078643798828e-02
1.851020902395248413e-01,-8.345445394515991211e-01,-1.492101978510618210e-02
1.853330284357070923e-01,-8.355857133865356445e-01,1.493963506072759628e-02
1.855620741844177246e-01,-8.366184234619140625e-01,4.491078853607177734e-02
1.857858300209045410e-01,-8.376271724700927734e-01,7.506371289491653442e-02
1.860338598489761353e-01,-8.387454748153686523e-01,1.054876148700714111e-01
1.862343400716781616e-01,-8.396493792533874512e-01,1.362190991640090942e-01
1.865068972110748291e-01,-8.408781886100769043e-01,1.674221307039260864e-01
1.867664903402328491e-01,-8.420485258102416992e-01,1.991263478994369507e-01
1.961669027805328369e-01,-8.281781673431396484e-01,-2.280495315790176392e-01
1.964505761861801147e-01,-8.293758034706115723e-01,-1.967743188142776489e-01
1.966680884361267090e-01,-8.302940726280212402e-01,-1.658582836389541626e-01
1.969147175550460815e-01,-8.313353061676025391e-01,-1.353136748075485229e-01
1.971763968467712402e-01,-8.324400186538696289e-01,-1.050387844443321228e-01
1.974102705717086792e-01,-8.334274291992187500e-01,-7.493289560079574585e-02
1.976553350687026978e-01,-8.344619870185852051e-01,-4.494230076670646667e-02
1.978977322578430176e-01,-8.354853391647338867e-01,-1.498695090413093567e-02
1.981377750635147095e-01,-8.364987969398498535e-01,1.500513032078742981e-02
1.983912289142608643e-01,-8.375688195228576660e-01,4.510962590575218201e-02
1.986194998025894165e-01,-8.385325670242309570e-01,7.539189606904983521e-02
1.988670527935028076e-01,-8.395776152610778809e-01,1.059394180774688721e-01
1.991498023271560669e-01,-8.407713174819946289e-01,1.368495523929595947e-01
1.993724107742309570e-01,-8.417112231254577637e-01,1.681389510631561279e-01
1.996209621429443359e-01,-8.427605032920837402e-01,1.999499201774597168e-01
2.089664638042449951e-01,-8.291217088699340820e-01,-2.291094809770584106e-01
2.092360407114028931e-01,-8.301913142204284668e-01,-1.976581066846847534e-01
2.094851285219192505e-01,-8.311796188354492188e-01,-1.666170656681060791e-01
2.097578942775726318e-01,-8.322618603706359863e-01,-1.359392404556274414e-01
2.100172340869903564e-01,-8.332908749580383301e-01,-1.055146455764770508e-01
2.102713733911514282e-01,-8.342992067337036133e-01,-7.527416944503784180e-02
2.105258703231811523e-01,-8.353089690208435059e-01,-4.514558240771293640e-02
2.107841968536376953e-01,-8.363339304924011230e-01,-1.505475025624036789e-02
2.110467106103897095e-01,-8.373755216598510742e-01,1.507349964231252670e-02
2.113113403320312500e-01,-8.384255170822143555e-01,4.531402140855789185e-02
2.115739434957504272e-01,-8.394674658775329590e-01,7.574047148227691650e-02
2.118275016546249390e-01,-8.404734730720520020e-01,1.064241379499435425e-01
2.121111154556274414e-01,-8.415987491607666016e-01,1.374643146991729736e-01
2.123811393976211548e-01,-8.426702022552490234e-01,1.689204573631286621e-01
2.126231193542480469e-01,-8.436303138732910156e-01,2.008577585220336914e-01
2.219102829694747925e-01,-8.301567435264587402e-01,-2.302496135234832764e-01
2.221661508083343506e-01,-8.311139345169067383e-01,-1.986145377159118652e-01
2.224514335393905640e-01,-8.321811556816101074e-01,-1.674389541149139404e-01
2.227214425802230835e-01,-8.331912755966186523e-01,-1.365977674722671509e-01
2.230108231306076050e-01,-8.342738151550292969e-01,-1.060324385762214661e-01
2.232730984687805176e-01,-8.352549672126770020e-01,-7.564099878072738647e-02
2.235511839389801025e-01,-8.362952470779418945e-01,-4.536718130111694336e-02
2.238251715898513794e-01,-8.373202085494995117e-01,-1.512862462550401688e-02
2.240959703922271729e-01,-8.383333086967468262e-01,1.514692883938550949e-02
2.243848294019699097e-01,-8.394139409065246582e-01,4.553636163473129272e-02
2.246495634317398071e-01,-8.404042124748229980e-01,7.610731571912765503e-02
2.249389141798019409e-01,-8.414866924285888672e-01,1.069491729140281677e-01
2.252192199230194092e-01,-8.425353169441223145e-01,1.381296813488006592e-01
2.255366742610931396e-01,-8.437228798866271973e-01,1.697612106800079346e-01
2.258337289094924927e-01,-8.448341488838195801e-01,2.018933147192001343e-01
2.348894625902175903e-01,-8.308599591255187988e-01,-2.313534468412399292e-01
2.351908385753631592e-01,-8.319259881973266602e-01,-1.995926350355148315e-01
2.355146259069442749e-01,-8.330712914466857910e-01,-1.682790815830230713e-01
2.358141690492630005e-01,-8.341308832168579102e-01,-1.372911185026168823e-01
2.361016720533370972e-01,-8.351477980613708496e-01,-1.065621152520179749e-01
2.363861948251724243e-01,-8.361542820930480957e-01,-7.602106034755706787e-02
2.366744577884674072e-01,-8.371738791465759277e-01,-4.559394717216491699e-02
2.369646728038787842e-01,-8.382004499435424805e-01,-1.520425360649824142e-02
2.372576445341110229e-01,-8.392367959022521973e-01,1.522305142134428024e-02
2.375565022230148315e-01,-8.402938842773437500e-01,4.576386511325836182e-02
2.378558516502380371e-01,-8.413527607917785645e-01,7.649369537830352783e-02
2.381480783224105835e-01,-8.423864245414733887e-01,1.074857413768768311e-01
2.384226024150848389e-01,-8.433575034141540527e-01,1.388097405433654785e-01
2.387278079986572266e-01,-8.444370627403259277e-01,1.705749630928039551e-01
2.390742599964141846e-01,-8.456625342369079590e-01,2.028882652521133423e-01
2.480843812227249146e-01,-8.318651318550109863e-01,-2.325982898473739624e-01
2.484285235404968262e-01,-8.330190777778625488e-01,-2.006874382495880127e-01
2.487417161464691162e-01,-8.340693116188049316e-01,-1.691825389862060547e-01
2.490400224924087524e-01,-8.350695967674255371e-01,-1.380181908607482910e-01
2.493611872196197510e-01,-8.361464142799377441e-01,-1.071339845657348633e-01
2.496701031923294067e-01,-8.371822834014892578e-01,-7.643160969018936157e-02
2.499735951423645020e-01,-8.381999135017395020e-01,-4.583999514579772949e-02
2.502800822257995605e-01,-8.392276763916015625e-01,-1.528630126267671585e-02
2.505908012390136719e-01,-8.402695655822753906e-01,1.530527975410223007e-02
2.508978247642517090e-01,-8.412989974021911621e-01,4.600947722792625427e-02
2.511962652206420898e-01,-8.422997593879699707e-01,7.689880579710006714e-02
2.515234053134918213e-01,-8.433967232704162598e-01,1.080629527568817139e-01
2.518423199653625488e-01,-8.444661498069763184e-01,1.395712345838546753e-01
2.521386742591857910e-01,-8.454597592353820801e-01,1.714929789304733276e-01
2.524687349796295166e-01,-8.465664982795715332e-01,2.039512246847152710e-01
2.613796889781951904e-01,-8.327376246452331543e-01,-2.338643819093704224e-01
2.617131471633911133e-01,-8.338000178337097168e-01,-2.017574012279510498e-01
2.620704472064971924e-01,-8.349383473396301270e-01,-1.701022684574127197e-01
2.624030113220214844e-01,-8.359978795051574707e-01,-1.387781649827957153e-01
2.627234160900115967e-01,-8.370186686515808105e-01,-1.077165380120277405e-01
2.630419135093688965e-01,-8.380333781242370605e-01,-7.684516906738281250e-02
2.633714973926544189e-01,-8.390833735466003418e-01,-4.608974978327751160e-02
2.636942267417907715e-01,-8.401116132736206055e-01,-1.536957733333110809e-02
2.640115022659301758e-01,-8.411224484443664551e-01,1.538807060569524765e-02
2.643420994281768799e-01,-8.421756625175476074e-01,4.625960439443588257e-02
2.646751999855041504e-01,-8.432369232177734375e-01,7.732231914997100830e-02
2.650012373924255371e-01,-8.442756533622741699e-01,1.086504384875297546e-01
2.653096318244934082e-01,-8.452582359313964844e-01,1.403154134750366211e-01
2.656514346599578857e-01,-8.463470935821533203e-01,1.724265962839126587e-01
2.660377323627471924e-01,-8.475778698921203613e-01,2.050912529230117798e-01
2.749124467372894287e-01,-8.338903784751892090e-01,-2.352690994739532471e-01
2.752276957035064697e-01,-8.348466157913208008e-01,-2.029430866241455078e-01
2.755770385265350342e-01,-8.359062671661376953e-01,-1.710855513811111450e-01
2.759474813938140869e-01,-8.370298743247985840e-01,-1.395908594131469727e-01
2.762682139873504639e-01,-8.380028009414672852e-01,-1.083409711718559265e-01
2.766139805316925049e-01,-8.390516042709350586e-01,-7.729367911815643311e-02
2.769545018672943115e-01,-8.400844931602478027e-01,-4.635773599147796631e-02
2.772940397262573242e-01,-8.411144614219665527e-01,-1.545895263552665710e-02
2.776337862014770508e-01,-8.421450257301330566e-01,1.547789294272661209e-02
2.779704928398132324e-01,-8.431662917137145996e-01,4.652779549360275269e-02
2.783369123935699463e-01,-8.442777991294860840e-01,7.777511328458786011e-02
2.786586880683898926e-01,-8.452538251876831055e-01,1.092784181237220764e-01
2.790098190307617188e-01,-8.463188409805297852e-01,1.411399692296981812e-01
2.794054448604583740e-01,-8.475188612937927246e-01,1.734623163938522339e-01
2.797771096229553223e-01,-8.486462235450744629e-01,2.062976509332656860e-01
2.884815335273742676e-01,-8.346809148788452148e-01,-2.366328835487365723e-01
2.888472080230712891e-01,-8.357389569282531738e-01,-2.041441351175308228e-01
2.891876399517059326e-01,-8.367239832878112793e-01,-1.720824688673019409e-01
2.895595729351043701e-01,-8.378000259399414062e-01,-1.403961032629013062e-01
2.899188101291656494e-01,-8.388394713401794434e-01,-1.089744791388511658e-01
2.902926206588745117e-01,-8.399209976196289062e-01,-7.774856686592102051e-02
2.906442582607269287e-01,-8.409384489059448242e-01,-4.662965238094329834e-02
2.910008132457733154e-01,-8.419701457023620605e-01,-1.554964017122983932e-02
2.913630902767181396e-01,-8.430182933807373047e-01,1.556899771094322205e-02
2.917051017284393311e-01,-8.440079092979431152e-01,4.679984971880912781e-02
2.920666933059692383e-01,-8.450540900230407715e-01,7.822372019290924072e-02
2.924214005470275879e-01,-8.460803627967834473e-01,1.099151521921157837e-01
2.928167581558227539e-01,-8.472242951393127441e-01,1.419753879308700562e-01
2.931963205337524414e-01,-8.483224511146545410e-01,1.744678467512130737e-01
2.935402691364288330e-01,-8.493176698684692383e-01,2.074609696865081787e-01
3.022300004959106445e-01,-8.355315327644348145e-01,-2.380760610103607178e-01
3.026528358459472656e-01,-8.367004990577697754e-01,-2.054161280393600464e-01
3.030372560024261475e-01,-8.377631902694702148e-01,-1.731705218553543091e-01
3.034021854400634766e-01,-8.387721180915832520e-01,-1.412722766399383545e-01
3.037924170494079590e-01,-8.398509025573730469e-01,-1.096595376729965210e-01
3.041679859161376953e-01,-8.408891558647155762e-01,-7.823318243026733398e-02
3.045376539230346680e-01,-8.419111967086791992e-01,-4.692048579454421997e-02
3.049112260341644287e-01,-8.429439067840576172e-01,-1.564662158489227295e-02
3.052895367145538330e-01,-8.439897298812866211e-01,1.566603407263755798e-02
3.056643903255462646e-01,-8.450260758399963379e-01,4.709408059716224670e-02
3.060292303562164307e-01,-8.460347056388854980e-01,7.871190458536148071e-02
3.064261972904205322e-01,-8.471320867538452148e-01,1.106102466583251953e-01
3.068124055862426758e-01,-8.481997847557067871e-01,1.428601592779159546e-01
3.071696460247039795e-01,-8.491874337196350098e-01,1.755319833755493164e-01
3.076457977294921875e-01,-8.505038022994995117e-01,2.088049501180648804e-01
3.162403404712677002e-01,-8.366315960884094238e-01,-2.396547347307205200e-01
3.166529238224029541e-01,-8.377230763435363770e-01,-2.067587524652481079e-01
3.170346915721893311e-01,-8.387330770492553711e-01,-1.742911636829376221e-01
3.174468278884887695e-01,-8.398234248161315918e-01,-1.422000825405120850e-01
3.178420066833496094e-01,-8.408688306808471680e-01,-1.103751584887504578e-01
3.182319998741149902e-01,-8.419006466865539551e-01,-7.874300330877304077e-02
3.186323344707489014e-01,-8.429597020149230957e-01,-4.722825810313224792e-02
3.190231919288635254e-01,-8.439937829971313477e-01,-1.574925705790519714e-02
3.194056451320648193e-01,-8.450055718421936035e-01,1.576813682913780212e-02
3.198005557060241699e-01,-8.460503220558166504e-01,4.740141332149505615e-02
3.201956748962402344e-01,-8.470956087112426758e-01,7.922888547182083130e-02
3.205802440643310547e-01,-8.481130599975585938e-01,1.113260611891746521e-01
3.210051655769348145e-01,-8.492372035980224609e-01,1.437940299510955811e-01
3.214089572429656982e-01,-8.503053784370422363e-01,1.766959279775619507e-01
3.218570351600646973e-01,-8.514907956123352051e-01,2.101567685604095459e-01
3.303594291210174561e-01,-8.375406265258789062e-01,-2.412449270486831665e-01
3.307613730430603027e-01,-8.385596275329589844e-01,-2.081123888492584229e-01
3.311947286128997803e-01,-8.396583199501037598e-01,-1.754505634307861328e-01
3.316024839878082275e-01,-8.406920433044433594e-01,-1.431361585855484009e-01
3.320328891277313232e-01,-8.417832851409912109e-01,-1.111076474189758301e-01
3.324261009693145752e-01,-8.427801132202148438e-01,-7.926217466592788696e-02
3.328391313552856445e-01,-8.438272476196289062e-01,-4.753891006112098694e-02
3.332473635673522949e-01,-8.448622226715087891e-01,-1.585284620523452759e-02
3.336515724658966064e-01,-8.458870053291320801e-01,1.587207615375518799e-02
3.340790867805480957e-01,-8.469708561897277832e-01,4.771601036190986633e-02
3.344744443893432617e-01,-8.479731678962707520e-01,7.975056767463684082e-02
3.348989188671112061e-01,-8.490493297576904297e-01,1.120667010545730591e-01
3.353073596954345703e-01,-8.500848412513732910e-01,1.447353661060333252e-01
3.357591331005096436e-01,-8.512301445007324219e-01,1.778685450553894043e-01
3.361754417419433594e-01,-8.522856235504150391e-01,2.115188688039779663e-01
