-2.408133983612060547e+00,-4.929466724395751953e+00,9.576240926980972290e-02
-2.411277294158935547e+00,-4.935901165008544922e+00,2.878961563110351562e-01
-2.414669752120971680e+00,-4.942845821380615234e+00,4.812851846218109131e-01
-2.417999505996704102e+00,-4.949661731719970703e+00,6.763833761215209961e-01
-2.421944856643676758e+00,-4.957737922668457031e+00,8.739160895347595215e-01
-2.424931049346923828e+00,-4.963850498199462891e+00,1.073852419853210449e+00
-2.428493022918701172e+00,-4.971142292022705078e+00,1.277302980422973633e+00
-1.719020605087280273e+00,-3.650408267974853516e+00,-1.081149697303771973e+00
-2.053540706634521484e+00,-4.360774517059326172e+00,-1.112806558609008789e+00
-2.351254463195800781e+00,-4.992981433868408203e+00,-1.072763919830322266e+00
-2.354151248931884766e+00,-4.999133110046386719e+00,-8.751835823059082031e-01
-2.357522726058959961e+00,-5.006292819976806641e+00,-6.794413328170776367e-01
-2.361056089401245117e+00,-5.013795852661132812e+00,-4.848532974720001221e-01
-2.364300251007080078e+00,-5.020685195922851562e+00,-2.908377051353454590e-01
-2.367617845535278320e+00,-5.027729988098144531e+00,-9.700304269790649414e-02
-2.371015548706054688e+00,-5.034945487976074219e+00,9.714225679636001587e-02
-2.374102830886840820e+00,-5.041501522064208984e+00,2.920435369014739990e-01
-2.377428770065307617e+00,-5.048563957214355469e+00,4.882155656814575195e-01
-2.381328105926513672e+00,-5.056844234466552734e+00,6.863020658493041992e-01
-2.384543657302856445e+00,-5.063673019409179688e+00,8.864823579788208008e-01
-2.388354539871215820e+00,-5.071765422821044922e+00,1.089691042900085449e+00
-2.391949415206909180e+00,-5.079399108886718750e+00,1.296189188957214355e+00
-1.668532490730285645e+00,-3.678897857666015625e+00,-1.082403302192687988e+00
-1.993208765983581543e+00,-4.394767284393310547e+00,-1.114086508750915527e+00
-2.313225269317626953e+00,-5.100362300872802734e+00,-1.088609695434570312e+00
-2.316113233566284180e+00,-5.106729984283447266e+00,-8.881254792213439941e-01
-2.319777965545654297e+00,-5.114809989929199219e+00,-6.895920038223266602e-01
-2.322955846786499023e+00,-5.121816635131835938e+00,-4.920335710048675537e-01
-2.326161623001098633e+00,-5.128885269165039062e+00,-2.951465249061584473e-01
-2.329431056976318359e+00,-5.136093616485595703e+00,-9.844039380550384521e-02
-2.332771778106689453e+00,-5.143459320068359375e+00,9.858156740665435791e-02
-2.336161851882934570e+00,-5.150934219360351562e+00,2.964153587818145752e-01
-2.339054346084594727e+00,-5.157311916351318359e+00,4.954434931278228760e-01
-2.342864513397216797e+00,-5.165712356567382812e+00,6.964548230171203613e-01
-2.345995664596557617e+00,-5.172616481781005859e+00,8.995840549468994141e-01
-2.349704504013061523e+00,-5.180793762207031250e+00,1.105776906013488770e+00
-2.353196382522583008e+00,-5.188492774963378906e+00,1.315298318862915039e+00
-1.617664098739624023e+00,-3.706880807876586914e+00,-1.083712935447692871e+00
-1.932432770729064941e+00,-4.428174018859863281e+00,-1.115429043769836426e+00
-2.270139455795288086e+00,-5.202029228210449219e+00,-1.103260993957519531e+00
-2.273452281951904297e+00,-5.209620952606201172e+00,-9.002680778503417969e-01
-2.276634454727172852e+00,-5.216912746429443359e+00,-6.988927721977233887e-01
-2.279774188995361328e+00,-5.224107265472412109e+00,-4.986744225025177002e-01
-2.282933473587036133e+00,-5.231347084045410156e+00,-2.991317510604858398e-01
-2.286147594451904297e+00,-5.238712310791015625e+00,-9.976982325315475464e-02
-2.289423227310180664e+00,-5.246218204498291016e+00,9.991277754306793213e-02
-2.292739391326904297e+00,-5.253817558288574219e+00,3.004166185855865479e-01
-2.296047687530517578e+00,-5.261398315429687500e+00,5.022341012954711914e-01
-2.299272537231445312e+00,-5.268788337707519531e+00,7.058423757553100586e-01
-2.302312850952148438e+00,-5.275754928588867188e+00,9.116965532302856445e-01
-2.305910825729370117e+00,-5.283999443054199219e+00,1.120645403861999512e+00
-2.309291601181030273e+00,-5.291746616363525391e+00,1.332957625389099121e+00
-1.566889405250549316e+00,-3.735479354858398438e+00,-1.085405826568603516e+00
-1.871773004531860352e+00,-4.462324619293212891e+00,-1.117168426513671875e+00
-2.229571104049682617e+00,-5.315318584442138672e+00,-1.120404839515686035e+00
-2.232869386672973633e+00,-5.323181629180908203e+00,-9.142757058143615723e-01
-2.236029624938964844e+00,-5.330716133117675781e+00,-7.097782492637634277e-01
-2.239139080047607422e+00,-5.338129043579101562e+00,-5.064472556114196777e-01
-2.242257833480834961e+00,-5.345563888549804688e+00,-3.037964403629302979e-01
-2.245420217514038086e+00,-5.353103160858154297e+00,-1.013259068131446838e-01
-2.248633146286010742e+00,-5.360763072967529297e+00,1.014708876609802246e-01
-2.251876354217529297e+00,-5.368494510650634766e+00,3.050996363162994385e-01
-2.255101680755615234e+00,-5.376183986663818359e+00,5.100576877593994141e-01
-2.258236169815063477e+00,-5.383656501770019531e+00,7.168272137641906738e-01
-2.261180400848388672e+00,-5.390675544738769531e+00,9.258680343627929688e-01
-2.264661312103271484e+00,-5.398974418640136719e+00,1.138038396835327148e+00
-2.267923831939697266e+00,-5.406752109527587891e+00,1.353611111640930176e+00
-1.515635371208190918e+00,-3.763403415679931641e+00,-1.087104797363281250e+00
-1.795354485511779785e+00,-4.457961082458496094e+00,-1.109528660774230957e+00
-2.183728218078613281e+00,-5.422313690185546875e+00,-1.136253118515014648e+00
-2.187000989913940430e+00,-5.430439949035644531e+00,-9.272262454032897949e-01
-2.190130233764648438e+00,-5.438210010528564453e+00,-7.198432087898254395e-01
-2.193199872970581055e+00,-5.445831775665283203e+00,-5.136345028877258301e-01
-2.196269750595092773e+00,-5.453454971313476562e+00,-3.081099092960357666e-01
-2.199372291564941406e+00,-5.461158752441406250e+00,-1.027648150920867920e-01
-2.202514886856079102e+00,-5.468961715698242188e+00,1.029116511344909668e-01
-2.205677270889282227e+00,-5.476814270019531250e+00,3.094296753406524658e-01
-2.208813190460205078e+00,-5.484601020812988281e+00,5.172910690307617188e-01
-2.211850881576538086e+00,-5.492143630981445312e+00,7.269822955131530762e-01
-2.215408325195312500e+00,-5.500976562500000000e+00,9.392701387405395508e-01
-2.218051910400390625e+00,-5.507541179656982422e+00,1.154112577438354492e+00
-2.222141504287719727e+00,-5.517695426940917969e+00,1.373282909393310547e+00
-1.454317569732666016e+00,-3.765805006027221680e+00,-1.081674695014953613e+00
-1.734761953353881836e+00,-4.491987228393554688e+00,-1.111703515052795410e+00
-2.140264987945556641e+00,-5.541995048522949219e+00,-1.154794692993164062e+00
-2.143523216247558594e+00,-5.550432205200195312e+00,-9.423791766166687012e-01
-2.146630525588989258e+00,-5.558477878570556641e+00,-7.316207885742187500e-01
-2.149668216705322266e+00,-5.566343784332275391e+00,-5.220453143119812012e-01
-2.152694940567016602e+00,-5.574181079864501953e+00,-3.131577968597412109e-01
-2.155741930007934570e+00,-5.582070827484130859e+00,-1.044487357139587402e-01
-2.158816337585449219e+00,-5.590031623840332031e+00,1.045977026224136353e-01
-2.161898374557495117e+00,-5.598012447357177734e+00,3.144966363906860352e-01
-2.164942979812622070e+00,-5.605896472930908203e+00,5.257548093795776367e-01
-2.167880535125732422e+00,-5.613502979278564453e+00,7.388632893562316895e-01
-2.171314716339111328e+00,-5.622395515441894531e+00,9.545974731445312500e-01
-2.174661636352539062e+00,-5.631062030792236328e+00,1.173353672027587891e+00
-2.177781105041503906e+00,-5.639138698577880859e+00,1.395607352256774902e+00
-1.403299927711486816e+00,-3.794419765472412109e+00,-1.084013342857360840e+00
-1.673917293548583984e+00,-4.526149272918701172e+00,-1.114114403724670410e+00
-2.050926685333251953e+00,-5.545555114746093750e+00,-1.149301767349243164e+00
-2.098458290100097656e+00,-5.674077033996582031e+00,-9.581744074821472168e-01
-2.101542711257934570e+00,-5.682416915893554688e+00,-7.438985109329223633e-01
-2.104547977447509766e+00,-5.690542697906494141e+00,-5.308138728141784668e-01
-2.107529163360595703e+00,-5.698603630065917969e+00,-3.184204995632171631e-01
-2.110518217086791992e+00,-5.706686019897460938e+00,-1.062043458223342896e-01
-2.113521575927734375e+00,-5.714806556701660156e+00,1.063554733991622925e-01
-2.116519927978515625e+00,-5.722913742065429688e+00,3.197788894176483154e-01
-2.119469404220581055e+00,-5.730889320373535156e+00,5.345774292945861816e-01
-2.122869253158569336e+00,-5.740082263946533203e+00,7.514475584030151367e-01
-2.125607967376708984e+00,-5.747487545013427734e+00,9.705711007118225098e-01
-2.128817796707153320e+00,-5.756166458129882812e+00,1.192950487136840820e+00
-2.131794691085815430e+00,-5.764215946197509766e+00,1.418865203857421875e+00
-1.351672053337097168e+00,-3.822093486785888672e+00,-1.086280822753906250e+00
-1.612346291542053223e+00,-4.559196472167968750e+00,-1.116453886032104492e+00
-1.975465774536132812e+00,-5.585981369018554688e+00,-1.151702046394348145e+00
-2.047771692276000977e+00,-5.790439605712890625e+00,-9.727750420570373535e-01
-2.050821542739868164e+00,-5.799063205718994141e+00,-7.552487254142761230e-01
-2.053782463073730469e+00,-5.807435989379882812e+00,-5.389203429222106934e-01
-2.056708574295043945e+00,-5.815710067749023438e+00,-3.232860267162322998e-01
-2.059630870819091797e+00,-5.823973655700683594e+00,-1.078274324536323547e-01
-2.062555074691772461e+00,-5.832242012023925781e+00,1.079805195331573486e-01
-2.065463066101074219e+00,-5.840465068817138672e+00,3.246620893478393555e-01
-2.068312168121337891e+00,-5.848521232604980469e+00,5.427330136299133301e-01
-2.071587324142456055e+00,-5.857781887054443359e+00,7.628960609436035156e-01
-2.074208974838256836e+00,-5.865195751190185547e+00,9.853338599205017090e-01
-2.077279806137084961e+00,-5.873878955841064453e+00,1.211059927940368652e+00
-1.291176438331604004e+00,-3.824296712875366211e+00,-1.081543684005737305e+00
-1.537989258766174316e+00,-4.555324077606201172e+00,-1.110001206398010254e+00
-1.900139093399047852e+00,-5.627964973449707031e+00,-1.154632329940795898e+00
-1.999570250511169434e+00,-5.922466754913330078e+00,-9.900456666946411133e-01
-2.002212524414062500e+00,-5.930293083190917969e+00,-7.685284614562988281e-01
-2.005136251449584961e+00,-5.938952922821044922e+00,-5.484054088592529297e-01
-2.008013010025024414e+00,-5.947473526000976562e+00,-3.289791345596313477e-01
-2.010872125625610352e+00,-5.955941677093505859e+00,-1.097266152501106262e-01
-2.013719081878662109e+00,-5.964374542236328125e+00,1.098819673061370850e-01
-2.016536712646484375e+00,-5.972719669342041016e+00,3.303756117820739746e-01
-2.019708156585693359e+00,-5.982112884521484375e+00,5.523908138275146484e-01
-2.022431135177612305e+00,-5.990177631378173828e+00,7.762891650199890137e-01
-2.025578022003173828e+00,-5.999498844146728516e+00,1.002922892570495605e+00
-2.028612136840820312e+00,-6.008484840393066406e+00,1.232699751853942871e+00
-1.239695787429809570e+00,-3.852904558181762695e+00,-1.084504961967468262e+00
-1.476690173149108887e+00,-4.589469432830810547e+00,-1.113057017326354980e+00
-1.824398040771484375e+00,-5.670125961303710938e+00,-1.157806038856506348e+00
-1.949038147926330566e+00,-6.057500362396240234e+00,-1.007852077484130859e+00
-1.951664328575134277e+00,-6.065662384033203125e+00,-7.823711633682250977e-01
-1.954548716545104980e+00,-6.074626922607421875e+00,-5.582930445671081543e-01
-1.957373261451721191e+00,-6.083405494689941406e+00,-3.349140286445617676e-01
-1.960166096687316895e+00,-6.092085361480712891e+00,-1.117064654827117920e-01
-1.962933063507080078e+00,-6.100685119628906250e+00,1.118641495704650879e-01
-1.965656995773315430e+00,-6.109150886535644531e+00,3.363314270973205566e-01
-1.968709588050842285e+00,-6.118638515472412109e+00,5.623379945755004883e-01
-1.971313595771789551e+00,-6.126730918884277344e+00,7.902480363845825195e-01
-1.974314928054809570e+00,-6.136059284210205078e+00,1.020922780036926270e+00
-1.977195739746093750e+00,-6.145012855529785156e+00,1.254775047302246094e+00
-1.179780483245849609e+00,-3.855072259902954102e+00,-1.080251216888427734e+00
-1.415014624595642090e+00,-4.623727798461914062e+00,-1.116339087486267090e+00
-1.730243682861328125e+00,-5.653776168823242188e+00,-1.149292707443237305e+00
-1.896436214447021484e+00,-6.196829795837402344e+00,-1.026412367820739746e+00
-1.899295687675476074e+00,-6.206173419952392578e+00,-7.969066500663757324e-01
-1.901885390281677246e+00,-6.214635372161865234e+00,-5.686004757881164551e-01
-1.904654502868652344e+00,-6.223684310913085938e+00,-3.411010801792144775e-01
-1.907378077507019043e+00,-6.232583522796630859e+00,-1.137704253196716309e-01
-1.910061717033386230e+00,-6.241352558135986328e+00,1.139304935932159424e-01
-1.912981152534484863e+00,-6.250892162322998047e+00,3.425922989845275879e-01
-1.915619373321533203e+00,-6.259512901306152344e+00,5.727065205574035645e-01
-1.918608307838439941e+00,-6.269279956817626953e+00,8.050098419189453125e-01
-1.920952916145324707e+00,-6.276941299438476562e+00,1.039681553840637207e+00
-1.924391388893127441e+00,-6.288176536560058594e+00,1.278252840042114258e+00
-1.127993345260620117e+00,-3.883638381958007812e+00,-1.083620667457580566e+00
-1.341785430908203125e+00,-4.619716644287109375e+00,-1.110620021820068359e+00
-1.654329895973205566e+00,-5.695795536041259766e+00,-1.152902841567993164e+00
-1.841623544692993164e+00,-6.340640544891357422e+00,-1.045759201049804688e+00
-1.844451308250427246e+00,-6.350376129150390625e+00,-8.119499683380126953e-01
-1.847004175186157227e+00,-6.359165668487548828e+00,-5.793459415435791016e-01
-1.849714517593383789e+00,-6.368497371673583984e+00,-3.475511968135833740e-01
-1.852365612983703613e+00,-6.377624988555908203e+00,-1.159221678972244263e-01
-1.854962587356567383e+00,-6.386566162109375000e+00,1.160846874117851257e-01
-1.857772231101989746e+00,-6.396239757537841797e+00,3.490651845932006836e-01
-1.860294818878173828e+00,-6.404925346374511719e+00,5.835148096084594727e-01
-1.863140940666198730e+00,-6.414723873138427734e+00,8.201773762702941895e-01
-1.865942358970642090e+00,-6.424369335174560547e+00,1.059568524360656738e+00
-1.868604183197021484e+00,-6.433533668518066406e+00,1.302230596542358398e+00
-1.068542122840881348e+00,-3.885736703872680664e+00,-1.079828023910522461e+00
-1.279775619506835938e+00,-4.653883934020996094e+00,-1.114316105842590332e+00
-1.577882051467895508e+00,-5.737943172454833984e+00,-1.156744122505187988e+00
-1.784785270690917969e+00,-6.490343570709228516e+00,-1.066127061843872070e+00
-1.787242531776428223e+00,-6.499279022216796875e+00,-8.276329040527343750e-01
-1.789889097213745117e+00,-6.508903980255126953e+00,-5.905931591987609863e-01
-1.792402386665344238e+00,-6.518043041229248047e+00,-3.542760312557220459e-01
-1.794977188110351562e+00,-6.527406215667724609e+00,-1.181655600666999817e-01
-1.797656416893005371e+00,-6.537149429321289062e+00,1.183419302105903625e-01
-1.800180673599243164e+00,-6.546328544616699219e+00,3.558134436607360840e-01
-1.802960276603698730e+00,-6.556436538696289062e+00,5.949060916900634766e-01
-1.805285453796386719e+00,-6.564892292022705078e+00,8.359882235527038574e-01
-1.807929873466491699e+00,-6.574508666992187500e+00,1.079952359199523926e+00
-1.811092019081115723e+00,-6.586007595062255859e+00,1.327710151672363281e+00
-1.016349673271179199e+00,-3.914225339889526367e+00,-1.083591103553771973e+00
-1.207359671592712402e+00,-4.649853706359863281e+00,-1.109099745750427246e+00
-1.485616683959960938e+00,-5.721493721008300781e+00,-1.149023413658142090e+00
-1.725079894065856934e+00,-6.643728733062744141e+00,-1.087155342102050781e+00
-1.727509975433349609e+00,-6.653087139129638672e+00,-8.439839482307434082e-01
-1.730105757713317871e+00,-6.663084030151367188e+00,-6.022742390632629395e-01
-1.732557773590087891e+00,-6.672527790069580078e+00,-3.612878322601318359e-01
-1.735052704811096191e+00,-6.682136058807373047e+00,-1.205047070980072021e-01
-1.737632036209106445e+00,-6.692070007324218750e+00,1.206838488578796387e-01
-1.740046262741088867e+00,-6.701367378234863281e+00,3.628493845462799072e-01
-1.742690086364746094e+00,-6.711549758911132812e+00,6.066550016403198242e-01
-1.745338916778564453e+00,-6.721751213073730469e+00,8.526943922042846680e-01
-1.747918725013732910e+00,-6.731686592102050781e+00,1.101548433303833008e+00
-1.750332474708557129e+00,-6.740982532501220703e+00,1.353763103485107422e+00
-9.572528600692749023e-01,-3.916209936141967773e+00,-1.080236911773681641e+00
-1.144897580146789551e+00,-4.683881759643554688e+00,-1.113193392753601074e+00
-1.408770680427551270e+00,-5.763411521911621094e+00,-1.153273940086364746e+00
-1.662688136100769043e+00,-6.802211284637451172e+00,-1.109080910682678223e+00
-1.665085315704345703e+00,-6.812018394470214844e+00,-8.610337376594543457e-01
-1.667624831199645996e+00,-6.822407722473144531e+00,-6.144549250602722168e-01
-1.670011162757873535e+00,-6.832170486450195312e+00,-3.685997724533081055e-01
-1.672421932220458984e+00,-6.842032909393310547e+00,-1.229439675807952881e-01
-1.674897670745849609e+00,-6.852161407470703125e+00,1.231259703636169434e-01
-1.677199006080627441e+00,-6.861576557159423828e+00,3.701862394809722900e-01
-1.679704308509826660e+00,-6.871825695037841797e+00,6.189057826995849609e-01
-1.682198405265808105e+00,-6.882029533386230469e+00,8.698830604553222656e-01
-1.684613108634948730e+00,-6.891908168792724609e+00,1.123705744743347168e+00
-9.045605659484863281e-01,-3.944573640823364258e+00,-1.084378123283386230e+00
-1.073155760765075684e+00,-4.679776668548583984e+00,-1.108453512191772461e+00
-1.317907094955444336e+00,-5.747079372406005859e+00,-1.146113753318786621e+00
-1.597431302070617676e+00,-6.966018199920654297e+00,-1.131945133209228516e+00
-1.599996209144592285e+00,-6.977202892303466797e+00,-8.789281845092773438e-01
-1.602266430854797363e+00,-6.987102985382080078e+00,-6.271583437919616699e-01
-1.604582071304321289e+00,-6.997200489044189453e+00,-3.762256205081939697e-01
-1.606904387474060059e+00,-7.007327556610107422e+00,-1.254879981279373169e-01
-1.609272599220275879e+00,-7.017655372619628906e+00,1.256729364395141602e-01
-1.611701369285583496e+00,-7.028246402740478516e+00,3.778948783874511719e-01
-1.613821983337402344e+00,-7.037494182586669922e+00,6.316814422607421875e-01
-1.616581320762634277e+00,-7.049526691436767578e+00,8.880388736724853516e-01
-1.618915677070617676e+00,-7.059706211090087891e+00,1.147168993949890137e+00
-8.461004495620727539e-01,-3.948189973831176758e+00,-1.081932187080383301e+00
-1.010591983795166016e+00,-4.715763092041015625e+00,-1.113436937332153320e+00
-1.241092562675476074e+00,-5.791356563568115234e+00,-1.151283144950866699e+00
-1.532989144325256348e+00,-7.153444290161132812e+00,-1.158716797828674316e+00
-1.535228013992309570e+00,-7.163891792297363281e+00,-8.995853662490844727e-01
-1.537449955940246582e+00,-7.174259662628173828e+00,-6.419163942337036133e-01
-1.539697170257568359e+00,-7.184746265411376953e+00,-3.850851655006408691e-01
-1.541931867599487305e+00,-7.195174217224121094e+00,-1.284435689449310303e-01
-1.544192910194396973e+00,-7.205724716186523438e+00,1.286319196224212646e-01
-1.546493172645568848e+00,-7.216458797454833984e+00,3.867848813533782959e-01
-1.548799753189086914e+00,-7.227221965789794922e+00,6.466552019119262695e-01
-1.551061987876892090e+00,-7.237778186798095703e+00,9.088634252548217773e-01
-1.553222060203552246e+00,-7.247858047485351562e+00,1.174009919166564941e+00
-7.875496149063110352e-01,-3.950075864791870117e+00,-1.079249382019042969e+00
-9.393788576126098633e-01,-4.711598873138427734e+00,-1.109165430068969727e+00
-1.162984371185302734e+00,-5.833126544952392578e+00,-1.156159162521362305e+00
-1.461311936378479004e+00,-7.329433917999267578e+00,-1.183714389801025391e+00
-1.463500380516052246e+00,-7.340410232543945312e+00,-9.190265536308288574e-01
-1.465657114982604980e+00,-7.351228237152099609e+00,-6.558064222335815430e-01
-1.467821598052978516e+00,-7.362084388732910156e+00,-3.934237062931060791e-01
-1.469957828521728516e+00,-7.372798919677734375e+00,-1.312253773212432861e-01
-1.472103118896484375e+00,-7.383558750152587891e+00,1.314168870449066162e-01
-1.474269390106201172e+00,-7.394424438476562500e+00,3.951519131660461426e-01
-1.476425528526306152e+00,-7.405238628387451172e+00,6.606246829032897949e-01
-1.478525638580322266e+00,-7.415771961212158203e+00,9.284619092941284180e-01
-1.480972766876220703e+00,-7.428046226501464844e+00,1.199640393257141113e+00
-7.341079711914062500e-01,-3.978134632110595703e+00,-1.083933711051940918e+00
-8.687051534652709961e-01,-4.707517147064208984e+00,-1.105164289474487305e+00
-1.073353886604309082e+00,-5.816509723663330078e+00,-1.149702668190002441e+00
-1.384996056556701660e+00,-7.505299568176269531e+00,-1.208791494369506836e+00
-1.388278603553771973e+00,-7.523087978363037109e+00,-9.393138885498046875e-01
-1.390362024307250977e+00,-7.534378051757812500e+00,-6.703012585639953613e-01
-1.392437100410461426e+00,-7.545622825622558594e+00,-4.021255970001220703e-01
-1.394469380378723145e+00,-7.556635856628417969e+00,-1.341284215450286865e-01
-1.396494507789611816e+00,-7.567609786987304688e+00,1.343232095241546631e-01
-1.398523569107055664e+00,-7.578605651855468750e+00,4.038833081722259521e-01
-1.400813698768615723e+00,-7.591015815734863281e+00,6.753400564193725586e-01
-1.402825951576232910e+00,-7.601920127868652344e+00,9.491567015647888184e-01
-1.405148744583129883e+00,-7.614507198333740234e+00,1.226380228996276855e+00
-6.760028004646301270e-01,-3.981784105300903320e+00,-1.082180857658386230e+00
-8.052889108657836914e-01,-4.743303775787353516e+00,-1.110745906829833984e+00
-9.950199127197265625e-01,-5.860855102539062500e+00,-1.155534625053405762e+00
-1.283904552459716797e+00,-7.562440395355224609e+00,-1.214910268783569336e+00
-1.312782049179077148e+00,-7.732533931732177734e+00,-9.630200266838073730e-01
-1.314721107482910156e+00,-7.743955612182617188e+00,-6.872019171714782715e-01
-1.316634178161621094e+00,-7.755224227905273438e+00,-4.122492074966430664e-01
-1.318592667579650879e+00,-7.766759395599365234e+00,-1.375089734792709351e-01
-1.320569872856140137e+00,-7.778405666351318359e+00,1.377151608467102051e-01
-1.322532773017883301e+00,-7.789968013763427734e+00,4.140961170196533203e-01
-1.324454188346862793e+00,-7.801284790039062500e+00,6.922893524169921875e-01
-1.326297283172607422e+00,-7.812141418457031250e+00,9.729344248771667480e-01
-1.328412890434265137e+00,-7.824603080749511719e+00,1.257026791572570801e+00
-6.180872321128845215e-01,-3.985511779785156250e+00,-1.080678820610046387e+00
-7.353357076644897461e-01,-4.741546154022216797e+00,-1.107756257057189941e+00
-9.068239331245422363e-01,-5.847326278686523438e+00,-1.150190234184265137e+00
-1.181700229644775391e+00,-7.619766235351562500e+00,-1.221277236938476562e+00
-1.232865333557128906e+00,-7.949686527252197266e+00,-9.877655506134033203e-01
-1.234726309776306152e+00,-7.961686134338378906e+00,-7.048828601837158203e-01
-1.236546516418457031e+00,-7.973423004150390625e+00,-4.228639602661132812e-01
-1.238392353057861328e+00,-7.985324859619140625e+00,-1.410503536462783813e-01
-1.240238547325134277e+00,-7.997229099273681641e+00,1.412606239318847656e-01
-1.242054581642150879e+00,-8.008939743041992188e+00,4.247475564479827881e-01
-1.243815422058105469e+00,-8.020294189453125000e+00,7.100716829299926758e-01
-1.245806694030761719e+00,-8.033133506774902344e+00,9.981340765953063965e-01
-1.247781872749328613e+00,-8.045869827270507812e+00,1.289572119712829590e+00
-5.600247383117675781e-01,-3.987125158309936523e+00,-1.078832268714904785e+00
-6.654018163681030273e-01,-4.737362861633300781e+00,-1.104440569877624512e+00
-8.190184831619262695e-01,-5.831044197082519531e+00,-1.144564390182495117e+00
-1.064011573791503906e+00,-7.575285911560058594e+00,-1.211583018302917480e+00
-1.145377635955810547e+00,-8.154575347900390625e+00,-1.011082887649536133e+00
-1.147140622138977051e+00,-8.167127609252929688e+00,-7.215439081192016602e-01
-1.148851871490478516e+00,-8.179309844970703125e+00,-4.328666031360626221e-01
-1.150572538375854492e+00,-8.191560745239257812e+00,-1.443875581026077271e-01
-1.152278661727905273e+00,-8.203707695007324219e+00,1.446016579866409302e-01
-1.153942704200744629e+00,-8.215555191040039062e+00,4.347847402095794678e-01
-1.155773997306823730e+00,-8.228592872619628906e+00,7.269741892814636230e-01
-1.157635211944580078e+00,-8.241844177246093750e+00,1.021903276443481445e+00
-1.159464001655578613e+00,-8.254863739013671875e+00,1.320273995399475098e+00
-5.024158954620361328e-01,-3.990857124328613281e+00,-1.077785849571228027e+00
-6.008607745170593262e-01,-4.772838115692138672e+00,-1.110592365264892578e+00
-7.395989894866943359e-01,-5.874882221221923828e+00,-1.150973439216613770e+00
-9.608264565467834473e-01,-7.632165431976318359e+00,-1.218355894088745117e+00
-1.056288361549377441e+00,-8.390451431274414062e+00,-1.038348078727722168e+00
-1.057819962501525879e+00,-8.402617454528808594e+00,-7.409352660179138184e-01
-1.059418916702270508e+00,-8.415318489074707031e+00,-4.445086419582366943e-01
-1.061011910438537598e+00,-8.427971839904785156e+00,-1.482717543840408325e-01
-1.062575817108154297e+00,-8.440394401550292969e+00,1.484903097152709961e-01
-1.064242959022521973e+00,-8.453638076782226562e+00,4.465326964855194092e-01
-1.065735459327697754e+00,-8.465493202209472656e+00,7.464795708656311035e-01
-1.067396640777587891e+00,-8.478688240051269531e+00,1.049267649650573730e+00
-4.449078738689422607e-01,-3.994591712951660156e+00,-1.076964259147644043e+00
-5.313916802406311035e-01,-4.771083831787109375e+00,-1.108300685882568359e+00
-6.528724431991577148e-01,-5.861795425415039062e+00,-1.146461248397827148e+00
-8.456254601478576660e-01,-7.592421531677246094e+00,-1.209955334663391113e+00
-9.617977142333984375e-01,-8.635471343994140625e+00,-1.066857099533081055e+00
-9.632273316383361816e-01,-8.648306846618652344e+00,-7.613061666488647461e-01
-9.647030234336853027e-01,-8.661556243896484375e+00,-4.567390680313110352e-01
-9.661592841148376465e-01,-8.674631118774414062e+00,-1.523522883653640747e-01
-9.675747752189636230e-01,-8.687339782714843750e+00,1.525754928588867188e-01
-9.690694212913513184e-01,-8.700759887695312500e+00,4.588063359260559082e-01
-9.705877900123596191e-01,-8.714392662048339844e+00,7.671236991882324219e-01
-9.721000194549560547e-01,-8.727970123291015625e+00,1.078284859657287598e+00
-3.874737918376922607e-01,-3.998301029205322266e+00,-1.076358795166015625e+00
-4.622009992599487305e-01,-4.769402980804443359e+00,-1.106260180473327637e+00
-5.722848176956176758e-01,-5.905346393585205078e+00,-1.153258800506591797e+00
-7.412416338920593262e-01,-7.648794174194335938e+00,-1.217123508453369141e+00
-8.616477251052856445e-01,-8.891251564025878906e+00,-1.096821188926696777e+00
-8.630188703536987305e-01,-8.905400276184082031e+00,-7.827703952789306641e-01
-8.643004894256591797e-01,-8.918625831604003906e+00,-4.695943593978881836e-01
-8.656107187271118164e-01,-8.932145118713378906e+00,-1.566413491964340210e-01
-8.669521212577819824e-01,-8.945987701416015625e+00,1.568841040134429932e-01
-8.681890964508056641e-01,-8.958751678466796875e+00,4.717071056365966797e-01
-8.695165514945983887e-01,-8.972449302673339844e+00,7.886639237403869629e-01
-8.708242774009704590e-01,-8.985943794250488281e+00,1.108502388000488281e+00
-3.302877247333526611e-01,-4.004374027252197266e+00,-1.076610684394836426e+00
-3.934937417507171631e-01,-4.770677089691162109e+00,-1.105136036872863770e+00
-4.862965643405914307e-01,-5.895808696746826172e+00,-1.149919152259826660e+00
-6.280314326286315918e-01,-7.614187717437744141e+00,-1.210062265396118164e+00
-7.576643824577331543e-01,-9.185843467712402344e+00,-1.131708264350891113e+00
-7.588098645210266113e-01,-9.199731826782226562e+00,-8.076042532920837402e-01
-7.599557042121887207e-01,-9.213624000549316406e+00,-4.845045804977416992e-01
-7.611132264137268066e-01,-9.227657318115234375e+00,-1.616160869598388672e-01
-7.622847557067871094e-01,-9.241860389709472656e+00,1.618648469448089600e-01
-7.634634375572204590e-01,-9.256151199340820312e+00,4.867409169673919678e-01
-7.646387219429016113e-01,-9.270400047302246094e+00,8.138079643249511719e-01
-7.657818198204040527e-01,-9.284258842468261719e+00,1.143833160400390625e+00
-2.728969752788543701e-01,-4.008010387420654297e+00,-1.076427936553955078e+00
-3.247184753417968750e-01,-4.769107341766357422e+00,-1.103582739830017090e+00
-4.005590379238128662e-01,-5.882969856262207031e+00,-1.146179437637329102e+00
-5.222342014312744141e-01,-7.670001029968261719e+00,-1.217619657516479492e+00
-6.445605754852294922e-01,-9.466595649719238281e+00,-1.165041208267211914e+00
-6.455603837966918945e-01,-9.481280326843261719e+00,-8.314238190650939941e-01
-6.465500593185424805e-01,-9.495815277099609375e+00,-4.988060891628265381e-01
-6.475391983985900879e-01,-9.510343551635742188e+00,-1.663877516984939575e-01
-6.485299468040466309e-01,-9.524893760681152344e+00,1.666423231363296509e-01
-6.495163440704345703e-01,-9.539381027221679688e+00,5.010945200920104980e-01
-6.504909396171569824e-01,-9.553694725036621094e+00,8.377739787101745605e-01
-6.515889763832092285e-01,-9.569821357727050781e+00,1.177745103836059570e+00
-2.156443297863006592e-01,-4.014072895050048828e+00,-1.077116847038269043e+00
-2.582224011421203613e-01,-4.806634902954101562e+00,-1.111297607421875000e+00
-3.155691623687744141e-01,-5.874105930328369141e+00,-1.143455266952514648e+00
-4.102193713188171387e-01,-7.635955333709716797e+00,-1.211158633232116699e+00
-5.259855389595031738e-01,-9.790863990783691406e+00,-1.203898549079895020e+00
-5.267625451087951660e-01,-9.805327415466308594e+00,-8.590907454490661621e-01
-5.275838375091552734e-01,-9.820615768432617188e+00,-5.154180526733398438e-01
-5.283952355384826660e-01,-9.835719108581542969e+00,-1.719304174184799194e-01
-5.291983485221862793e-01,-9.850667953491210938e+00,1.721917241811752319e-01
-5.300663709640502930e-01,-9.866826057434082031e+00,5.178433060646057129e-01
-5.308650135993957520e-01,-9.881692886352539062e+00,8.657814264297485352e-01
-5.317543148994445801e-01,-9.898245811462402344e+00,1.217102527618408203e+00
-1.582034826278686523e-01,-4.017525672912597656e+00,-1.077325463294982910e+00
-1.892018765211105347e-01,-4.804719924926757812e+00,-1.110114932060241699e+00
-2.329789698123931885e-01,-5.916424751281738281e+00,-1.150926113128662109e+00
-2.991937994956970215e-01,-7.597929000854492188e+00,-1.204324603080749512e+00
-3.977244198322296143e-01,-1.010008144378662109e+01,-1.241093397140502930e+00
-3.983544409275054932e-01,-1.011608123779296875e+01,-8.857270479202270508e-01
-3.989594876766204834e-01,-1.013144588470458984e+01,-5.313773155212402344e-01
-3.995760977268218994e-01,-1.014710521697998047e+01,-1.772553771734237671e-01
-4.002168774604797363e-01,-1.016337680816650391e+01,1.775396317243576050e-01
-4.008263349533081055e-01,-1.017885398864746094e+01,5.338637828826904297e-01
-4.014923572540283203e-01,-1.019576740264892578e+01,8.927040100097656250e-01
-4.020624756813049316e-01,-1.021024513244628906e+01,1.254630208015441895e+00
-1.007904782891273499e-01,-4.023450851440429688e+00,-1.078416943550109863e+00
-1.203914880752563477e-01,-4.805902004241943359e+00,-1.109876275062561035e+00
-1.479846090078353882e-01,-5.907391071319580078e+00,-1.148638963699340820e+00
-1.918194293975830078e-01,-7.657230854034423828e+00,-1.213164925575256348e+00
-2.619580328464508057e-01,-1.045709133148193359e+01,-1.284370183944702148e+00
-2.623850107192993164e-01,-1.047413444519042969e+01,-9.166541695594787598e-01
-2.627910077571868896e-01,-1.049034214019775391e+01,-5.499472022056579590e-01
-2.631995081901550293e-01,-1.050664901733398438e+01,-1.834515035152435303e-01
-2.636188566684722900e-01,-1.052338981628417969e+01,1.837438046932220459e-01
-2.640134692192077637e-01,-1.053914165496826172e+01,5.525054931640625000e-01
-2.644395828247070312e-01,-1.055615234375000000e+01,9.238319993019104004e-01
-4.324806481599807739e-02,-4.029280185699462891e+00,-1.079702854156494141e+00
-5.159637704491615295e-02,-4.807064533233642578e+00,-1.109860539436340332e+00
-6.331168115139007568e-02,-5.898541450500488281e+00,-1.146624565124511719e+00
-8.183549344539642334e-02,-7.624343395233154297e+00,-1.207645058631896973e+00
-1.155537366867065430e-01,-1.076576137542724609e+01,-1.321943402290344238e+00
-1.164804846048355103e-01,-1.085210323333740234e+01,-9.494892954826354980e-01
-1.166641265153884888e-01,-1.086921310424804688e+01,-5.696632862091064453e-01
-1.168465316295623779e-01,-1.088620758056640625e+01,-1.900301128625869751e-01
-1.170315891504287720e-01,-1.090344810485839844e+01,1.903310716152191162e-01
-1.172205209732055664e-01,-1.092105007171630859e+01,5.723801255226135254e-01
-1.174100860953330994e-01,-1.093871116638183594e+01,9.570669531822204590e-01
1.436578948050737381e-02,-4.013392448425292969e+00,-1.075390577316284180e+00
1.509549096226692200e-02,-4.217250347137451172e+00,-9.736337661743164062e-01
1.511290576308965683e-02,-4.222115516662597656e+00,-8.207001686096191406e-01
1.513260602951049805e-02,-4.227619647979736328e+00,-6.695924401283264160e-01
1.514927204698324203e-02,-4.232275485992431641e+00,-5.196606516838073730e-01
1.516810711473226547e-02,-4.237537384033203125e+00,-3.707382977008819580e-01
1.518683880567550659e-02,-4.242770195007324219e+00,-2.223552614450454712e-01
1.520530227571725845e-02,-4.247928619384765625e+00,-7.414823770523071289e-02
1.522353850305080414e-02,-4.253023147583007812e+00,7.423716038465499878e-02
1.524180267006158829e-02,-4.258125782012939453e+00,2.231600135564804077e-01
1.526247803121805191e-02,-4.263901710510253906e+00,3.730449080467224121e-01
1.528042554855346680e-02,-4.268915653228759766e+00,5.241594910621643066e-01
1.530110184103250504e-02,-4.274692058563232422e+00,6.770480275154113770e-01
1.532090175896883011e-02,-4.280223846435546875e+00,8.319952487945556641e-01
1.533875614404678345e-02,-4.285211563110351562e+00,9.893239140510559082e-01
7.191718369722366333e-02,-4.019103050231933594e+00,-1.077086091041564941e+00
7.498653233051300049e-02,-4.190633773803710938e+00,-9.676374197006225586e-01
7.507682591676712036e-02,-4.195680141448974609e+00,-8.156868815422058105e-01
7.516366243362426758e-02,-4.200532913208007812e+00,-6.654045581817626953e-01
7.526046782732009888e-02,-4.205942630767822266e+00,-5.165067315101623535e-01
7.535323500633239746e-02,-4.211127281188964844e+00,-3.684843182563781738e-01
7.544393092393875122e-02,-4.216195583343505859e+00,-2.209964990615844727e-01
7.553549110889434814e-02,-4.221312522888183594e+00,-7.369497418403625488e-02
7.562828809022903442e-02,-4.226498603820800781e+00,7.378550618886947632e-02
7.571971416473388672e-02,-4.231607913970947266e+00,2.218043357133865356e-01
7.580820471048355103e-02,-4.236553192138671875e+00,3.707091808319091797e-01
7.590831816196441650e-02,-4.242148399353027344e+00,5.209529399871826172e-01
7.600708305835723877e-02,-4.247667312622070312e+00,6.728711128234863281e-01
7.610008120536804199e-02,-4.252864837646484375e+00,8.268042206764221191e-01
7.618213444948196411e-02,-4.257450103759765625e+00,9.830656647682189941e-01
1.297466754913330078e-01,-4.027454376220703125e+00,-1.079711437225341797e+00
1.340929120779037476e-01,-4.162365436553955078e+00,-9.614548683166503906e-01
1.342623233795166016e-01,-4.167624473571777344e+00,-8.105231523513793945e-01
1.344226300716400146e-01,-4.172600746154785156e+00,-6.612169146537780762e-01
1.345808506011962891e-01,-4.177511692047119141e+00,-5.131992697715759277e-01
1.347523629665374756e-01,-4.182835578918457031e+00,-3.661400079727172852e-01
1.349173635244369507e-01,-4.187957286834716797e+00,-2.195950895547866821e-01
1.350811123847961426e-01,-4.193040370941162109e+00,-7.322765141725540161e-02
1.352440714836120605e-01,-4.198099136352539062e+00,7.331600040197372437e-02
1.354017108678817749e-01,-4.202992439270019531e+00,2.203834354877471924e-01
1.355746835470199585e-01,-4.208361625671386719e+00,3.683743774890899658e-01
1.357484757900238037e-01,-4.213756084442138672e+00,5.176517963409423828e-01
1.359167993068695068e-01,-4.218980789184570312e+00,6.685665845870971680e-01
1.360720247030258179e-01,-4.223799705505371094e+00,8.214481472969055176e-01
1.362538486719131470e-01,-4.229443073272705078e+00,9.769489765167236328e-01
1.867576539516448975e-01,-4.011938571929931641e+00,-1.076158165931701660e+00
1.924809366464614868e-01,-4.134886741638183594e+00,-9.556460976600646973e-01
1.927361339330673218e-01,-4.140368461608886719e+00,-8.056764006614685059e-01
1.929741054773330688e-01,-4.145481109619140625e+00,-6.572896838188171387e-01
1.932047009468078613e-01,-4.150434494018554688e+00,-5.101603269577026367e-01
1.934355199337005615e-01,-4.155392646789550781e+00,-3.639428913593292236e-01
1.936766356229782104e-01,-4.160572528839111328e+00,-2.182821631431579590e-01
1.939117461442947388e-01,-4.165623188018798828e+00,-7.278985530138015747e-02
1.941414326429367065e-01,-4.170557498931884766e+00,7.287607342004776001e-02
1.943831443786621094e-01,-4.175749778747558594e+00,2.190784364938735962e-01
1.946280300617218018e-01,-4.181010723114013672e+00,3.661865890026092529e-01
1.948696076869964600e-01,-4.186200141906738281e+00,5.145565271377563477e-01
1.950991302728652954e-01,-4.191130638122558594e+00,6.645277142524719238e-01
1.953666806221008301e-01,-4.196877956390380859e+00,8.166726231575012207e-01
1.956155300140380859e-01,-4.202223777770996094e+00,9.712089300155639648e-01
2.448396533727645874e-01,-4.020057201385498047e+00,-1.079165339469909668e+00
2.502048909664154053e-01,-4.108150005340576172e+00,-9.501971006393432617e-01
2.505525052547454834e-01,-4.113857269287109375e+00,-8.011333346366882324e-01
2.508723735809326172e-01,-4.119109153747558594e+00,-6.536107063293457031e-01
2.511770427227020264e-01,-4.124111652374267578e+00,-5.073148012161254883e-01
2.514761984348297119e-01,-4.129023551940917969e+00,-3.619115948677062988e-01
2.517766654491424561e-01,-4.133956909179687500e+00,-2.170526236295700073e-01
2.520822882652282715e-01,-4.138975620269775391e+00,-7.237984985113143921e-02
2.523938417434692383e-01,-4.144090652465820312e+00,7.246930152177810669e-02
2.527090609073638916e-01,-4.149266242980957031e+00,2.178564518690109253e-01
2.530225217342376709e-01,-4.154413223266601562e+00,3.641369938850402832e-01
2.533260285854339600e-01,-4.159396171569824219e+00,5.116552114486694336e-01
2.536083757877349854e-01,-4.164031982421875000e+00,6.607389450073242188e-01
2.539339661598205566e-01,-4.169378280639648438e+00,8.119454979896545410e-01
2.543196678161621094e-01,-4.175711154937744141e+00,9.658237099647521973e-01
3.014890253543853760e-01,-4.004710197448730469e+00,-1.076093792915344238e+00
3.073939085006713867e-01,-4.083145141601562500e+00,-9.453344941139221191e-01
3.077602386474609375e-01,-4.088011264801025391e+00,-7.968763709068298340e-01
3.081142306327819824e-01,-4.092713832855224609e+00,-6.500555276870727539e-01
3.085093498229980469e-01,-4.097961902618408203e+00,-5.045895576477050781e-01
3.088909983634948730e-01,-4.103031158447265625e+00,-3.599839806556701660e-01
3.092672228813171387e-01,-4.108028411865234375e+00,-2.159015685319900513e-01
3.096426427364349365e-01,-4.113015651702880859e+00,-7.199600338935852051e-02
3.100182712078094482e-01,-4.118004798889160156e+00,7.208334654569625854e-02
3.103912174701690674e-01,-4.122959136962890625e+00,2.166862487792968750e-01
3.107551634311676025e-01,-4.127793312072753906e+00,3.621565401554107666e-01
3.111671507358551025e-01,-4.133265495300292969e+00,5.089365839958190918e-01
3.115753233432769775e-01,-4.138687133789062500e+00,6.573576331138610840e-01
3.119616508483886719e-01,-4.143818855285644531e+00,8.077549338340759277e-01
3.123047351837158203e-01,-4.148376464843750000e+00,9.604368209838867188e-01
3.598895668983459473e-01,-4.012427806854248047e+00,-1.079441070556640625e+00
3.639450669288635254e-01,-4.057642936706542969e+00,-9.405398368835449219e-01
3.644036650657653809e-01,-4.062755584716796875e+00,-7.928887605667114258e-01
3.648394048213958740e-01,-4.067613601684570312e+00,-6.468320488929748535e-01
3.653149902820587158e-01,-4.072916030883789062e+00,-5.020980238914489746e-01
3.657396137714385986e-01,-4.077650547027587891e+00,-3.581797778606414795e-01
3.661935031414031982e-01,-4.082710742950439453e+00,-2.148244380950927734e-01
3.666381239891052246e-01,-4.087667465209960938e+00,-7.163683325052261353e-02
3.670744597911834717e-01,-4.092532634735107422e+00,7.172209024429321289e-02
3.675433397293090820e-01,-4.097760200500488281e+00,2.156163007020950317e-01
3.679665923118591309e-01,-4.102478981018066406e+00,3.603607118129730225e-01
3.684377074241638184e-01,-4.107731342315673828e+00,5.063899755477905273e-01
3.688958585262298584e-01,-4.112839221954345703e+00,6.540238261222839355e-01
3.693201839923858643e-01,-4.117570400238037109e+00,8.035863637924194336e-01
3.698132932186126709e-01,-4.123067855834960938e+00,9.557050466537475586e-01
4.165699779987335205e-01,-4.000061988830566406e+00,-1.077608108520507812e+00
4.199013710021972656e-01,-4.032051086425781250e+00,-9.359051585197448730e-01
4.203555881977081299e-01,-4.036412715911865234e+00,-7.888411283493041992e-01
4.208809435367584229e-01,-4.041457653045654297e+00,-6.435647606849670410e-01
4.213910698890686035e-01,-4.046356201171875000e+00,-4.995161890983581543e-01
4.219326376914978027e-01,-4.051556587219238281e+00,-3.563816845417022705e-01
4.224365353584289551e-01,-4.056395053863525391e+00,-2.137360125780105591e-01
4.229494631290435791e-01,-4.061320304870605469e+00,-7.127388566732406616e-02
4.234724938869476318e-01,-4.066342830657958984e+00,7.136202603578567505e-02
4.239616692066192627e-01,-4.071040153503417969e+00,2.145076692104339600e-01
4.244885444641113281e-01,-4.076099395751953125e+00,3.585405051708221436e-01
4.250091612339019775e-01,-4.081098556518554688e+00,5.038050413131713867e-01
4.256134331226348877e-01,-4.086900711059570312e+00,6.508011817932128906e-01
4.260780215263366699e-01,-4.091361999511718750e+00,7.995798587799072266e-01
4.266104400157928467e-01,-4.096474647521972656e+00,9.508588314056396484e-01
4.730821549892425537e-01,-3.987840175628662109e+00,-1.076029539108276367e+00
4.752448201179504395e-01,-4.006070137023925781e+00,-9.313580989837646484e-01
4.757982194423675537e-01,-4.010735511779785156e+00,-7.850734591484069824e-01
4.764190912246704102e-01,-4.015968799591064453e+00,-6.405261754989624023e-01
4.770106971263885498e-01,-4.020955562591552734e+00,-4.971724748611450195e-01
4.775913953781127930e-01,-4.025850772857666016e+00,-3.546855449676513672e-01
4.781741499900817871e-01,-4.030763149261474609e+00,-2.127242833375930786e-01
4.787548184394836426e-01,-4.035657882690429688e+00,-7.093651592731475830e-02
4.793344736099243164e-01,-4.040544033050537109e+00,7.102240622043609619e-02
4.799205660820007324e-01,-4.045484542846679688e+00,2.135012149810791016e-01
4.805028140544891357e-01,-4.050392627716064453e+00,3.568477332592010498e-01
4.810657501220703125e-01,-4.055137634277343750e+00,5.013989806175231934e-01
4.817101061344146729e-01,-4.060569286346435547e+00,6.476397514343261719e-01
4.823294281959533691e-01,-4.065790176391601562e+00,7.958500385284423828e-01
4.828901290893554688e-01,-4.070516586303710938e+00,9.463409781455993652e-01
5.293494462966918945e-01,-3.974967718124389648e+00,-1.074490547180175781e+00
5.300531983375549316e-01,-3.980252027511596680e+00,-9.270246028900146484e-01
5.306962132453918457e-01,-3.985080480575561523e+00,-7.814585566520690918e-01
5.313123464584350586e-01,-3.989707231521606445e+00,-6.374852061271667480e-01
5.319915413856506348e-01,-3.994807720184326172e+00,-4.948302209377288818e-01
5.326440334320068359e-01,-3.999707221984863281e+00,-3.530177772045135498e-01
5.332838296890258789e-01,-4.004511356353759766e+00,-2.117199897766113281e-01
5.339311361312866211e-01,-4.009372234344482422e+00,-7.060158252716064453e-02
5.345879793167114258e-01,-4.014304637908935547e+00,7.068843394517898560e-02
5.352367758750915527e-01,-4.019176483154296875e+00,2.124953418970108032e-01
5.358667373657226562e-01,-4.023906707763671875e+00,3.551536798477172852e-01
5.365715026855468750e-01,-4.029199123382568359e+00,4.990902245044708252e-01
5.372642278671264648e-01,-4.034400939941406250e+00,6.446264982223510742e-01
5.379142165184020996e-01,-4.039281845092773438e+00,7.920871973037719727e-01
5.386651158332824707e-01,-4.044920444488525391e+00,9.420861601829528809e-01
5.838103890419006348e-01,-3.950914859771728516e+00,-1.070137977600097656e+00
5.844795703887939453e-01,-3.955443382263183594e+00,-9.231004118919372559e-01
5.852376222610473633e-01,-3.960573434829711914e+00,-7.782157659530639648e-01
5.859516263008117676e-01,-3.965405225753784180e+00,-6.348772644996643066e-01
5.867191553115844727e-01,-3.970599412918090820e+00,-4.928213655948638916e-01
5.874011516571044922e-01,-3.975214958190917969e+00,-3.515621423721313477e-01
5.881219506263732910e-01,-3.980093002319335938e+00,-2.108524590730667114e-01
5.888359546661376953e-01,-3.984925031661987305e+00,-7.031229883432388306e-02
5.895450711250305176e-01,-3.989723920822143555e+00,7.039697468280792236e-02
5.902981758117675781e-01,-3.994820594787597656e+00,2.116326689720153809e-01
5.909744501113891602e-01,-3.999397039413452148e+00,3.537007570266723633e-01
5.917171239852905273e-01,-4.004423141479492188e+00,4.970194697380065918e-01
5.924314856529235840e-01,-4.009257316589355469e+00,6.418981552124023438e-01
5.932565927505493164e-01,-4.014841556549072266e+00,7.888789176940917969e-01
5.940292477607727051e-01,-4.020070552825927734e+00,9.381827116012573242e-01
6.376692652702331543e-01,-3.925982236862182617e+00,-1.065747737884521484e+00
6.384521126747131348e-01,-3.930801868438720703e+00,-9.193881750106811523e-01
6.391835808753967285e-01,-3.935305118560791016e+00,-7.749690413475036621e-01
6.400059461593627930e-01,-3.940368413925170898e+00,-6.322706937789916992e-01
6.407954096794128418e-01,-3.945228815078735352e+00,-4.907605350017547607e-01
6.416208744049072266e-01,-3.950310945510864258e+00,-3.501359820365905762e-01
6.423819661140441895e-01,-3.954996824264526367e+00,-2.099885493516921997e-01
6.431618928909301758e-01,-3.959798812866210938e+00,-7.002422213554382324e-02
6.439626216888427734e-01,-3.964728832244873047e+00,7.011140137910842896e-02
6.447046995162963867e-01,-3.969297409057617188e+00,2.107478231191635132e-01
6.454922556877136230e-01,-3.974146366119384766e+00,3.522486388683319092e-01
6.462602615356445312e-01,-3.978874683380126953e+00,4.949458837509155273e-01
6.471385359764099121e-01,-3.984282016754150391e+00,6.393170356750488281e-01
6.479873061180114746e-01,-3.989507675170898438e+00,7.856430411338806152e-01
6.487612128257751465e-01,-3.994272470474243164e+00,9.342335462570190430e-01
6.911532282829284668e-01,-3.901554346084594727e+00,-1.061693429946899414e+00
6.920586824417114258e-01,-3.906665802001953125e+00,-9.159660339355468750e-01
6.928891539573669434e-01,-3.911353826522827148e+00,-7.721263170242309570e-01
6.936886906623840332e-01,-3.915866851806640625e+00,-6.298678517341613770e-01
6.945718526840209961e-01,-3.920852661132812500e+00,-4.889149069786071777e-01
6.954267024993896484e-01,-3.925678253173828125e+00,-3.487991988658905029e-01
6.962717175483703613e-01,-3.930448293685913086e+00,-2.091928571462631226e-01
6.971170902252197266e-01,-3.935220479965209961e+00,-6.975888460874557495e-02
6.979649662971496582e-01,-3.940006732940673828e+00,6.984373182058334351e-02
6.988091468811035156e-01,-3.944772005081176758e+00,2.099552303552627563e-01
6.996352672576904297e-01,-3.949435710906982422e+00,3.509100675582885742e-01
7.005605697631835938e-01,-3.954658746719360352e+00,4.931304156780242920e-01
7.014746665954589844e-01,-3.959818840026855469e+00,6.369375586509704590e-01
7.023368477821350098e-01,-3.964685916900634766e+00,7.826544642448425293e-01
7.033271193504333496e-01,-3.970276117324829102e+00,9.308802485466003418e-01
7.440799474716186523e-01,-3.876459598541259766e+00,-1.057654380798339844e+00
7.451254725456237793e-01,-3.881906270980834961e+00,-9.125679731369018555e-01
7.459208965301513672e-01,-3.886050462722778320e+00,-7.691601514816284180e-01
7.469558119773864746e-01,-3.891442060470581055e+00,-6.275945305824279785e-01
7.478255629539489746e-01,-3.895972967147827148e+00,-4.870973825454711914e-01
7.487080097198486328e-01,-3.900570631027221680e+00,-3.474849760532379150e-01
