4.804151535034179688e+00,-7.274577021598815918e-01,8.481257408857345581e-02
4.809794902801513672e+00,-7.283121943473815918e-01,2.549437582492828369e-01
4.815360069274902344e+00,-7.291548848152160645e-01,4.260912537574768066e-01
4.820691585540771484e+00,-7.299622297286987305e-01,5.986530184745788574e-01
4.827075004577636719e+00,-7.309288382530212402e-01,7.732476592063903809e-01
4.833268642425537109e+00,-7.318666577339172363e-01,9.502004981040954590e-01
4.838931083679199219e+00,-7.327241301536560059e-01,1.129888534545898438e+00
3.951907634735107422e+00,-5.406712889671325684e-01,-1.068773031234741211e+00
4.666141986846923828e+00,-6.383876204490661621e-01,-1.087297320365905762e+00
4.764286041259765625e+00,-6.518149971961975098e-01,-9.347088932991027832e-01
4.770185470581054688e+00,-6.526221036911010742e-01,-7.625600695610046387e-01
4.775775432586669922e+00,-6.533869504928588867e-01,-5.918531417846679688e-01
4.781242370605468750e+00,-6.541348099708557129e-01,-4.222005605697631836e-01
4.786712646484375000e+00,-6.548832654953002930e-01,-2.531974911689758301e-01
4.792259216308593750e+00,-6.556420922279357910e-01,-8.442830294370651245e-02
4.797897338867187500e+00,-6.564134955406188965e-01,8.452763408422470093e-02
4.803584575653076172e+00,-6.571915149688720703e-01,2.540899515151977539e-01
4.809217453002929688e+00,-6.579622030258178711e-01,4.246708750724792480e-01
4.814641475677490234e+00,-6.587042808532714844e-01,5.966697335243225098e-01
4.821143627166748047e+00,-6.595938205718994141e-01,7.707061767578125000e-01
4.825716495513916016e+00,-6.602194905281066895e-01,9.467610120773315430e-01
4.831292152404785156e+00,-6.609823107719421387e-01,1.125780344009399414e+00
3.952553749084472656e+00,-4.832386374473571777e-01,-1.066967844963073730e+00
4.705364227294921875e+00,-5.752772092819213867e-01,-1.094406008720397949e+00
4.759926319122314453e+00,-5.819479227066040039e-01,-9.321238398551940918e-01
4.765741825103759766e+00,-5.826589465141296387e-01,-7.604386210441589355e-01
4.771267890930175781e+00,-5.833345651626586914e-01,-5.901993513107299805e-01
4.776689529418945312e+00,-5.839973688125610352e-01,-4.210172891616821289e-01
4.782133579254150391e+00,-5.846629738807678223e-01,-2.524867653846740723e-01
4.787675857543945312e+00,-5.853405594825744629e-01,-8.419132232666015625e-02
4.793329715728759766e+00,-5.860318541526794434e-01,8.429075032472610474e-02
4.799051761627197266e+00,-5.867313742637634277e-01,2.533800005912780762e-01
4.804739952087402344e+00,-5.874267816543579102e-01,4.234896302223205566e-01
4.810237884521484375e+00,-5.880990028381347656e-01,5.950198173522949219e-01
4.815333366394042969e+00,-5.887219309806823730e-01,7.683515548706054688e-01
4.821520805358886719e+00,-5.894784331321716309e-01,9.441857337951660156e-01
4.827225685119628906e+00,-5.901759266853332520e-01,1.122749447822570801e+00
3.952328681945800781e+00,-4.258943498134613037e-01,-1.065152406692504883e+00
4.704924106597900391e+00,-5.069923996925354004e-01,-1.092503905296325684e+00
4.753913402557373047e+00,-5.122714042663574219e-01,-9.294152855873107910e-01
4.759644031524658203e+00,-5.128888487815856934e-01,-7.582165598869323730e-01
4.765102863311767578e+00,-5.134771466255187988e-01,-5.884672999382019043e-01
4.770476341247558594e+00,-5.140561461448669434e-01,-4.197781383991241455e-01
4.775894165039062500e+00,-5.146399736404418945e-01,-2.517426013946533203e-01
4.781429290771484375e+00,-5.152364373207092285e-01,-8.394319564104080200e-02
4.787096500396728516e+00,-5.158471465110778809e-01,8.404269069433212280e-02
4.792852878570556641e+00,-5.164673924446105957e-01,2.526365220546722412e-01
4.798594951629638672e+00,-5.170861482620239258e-01,4.222524464130401611e-01
4.804165363311767578e+00,-5.176863670349121094e-01,5.932912826538085938e-01
4.809351921081542969e+00,-5.182453393936157227e-01,7.661350965499877930e-01
4.815650939941406250e+00,-5.189241170883178711e-01,9.414853453636169434e-01
4.821486473083496094e+00,-5.195528864860534668e-01,1.119570136070251465e+00
3.952739477157592773e+00,-3.687924146652221680e-01,-1.063731551170349121e+00
4.705272197723388672e+00,-4.390040636062622070e-01,-1.091013908386230469e+00
4.749336242675781250e+00,-4.431152641773223877e-01,-9.271854758262634277e-01
4.754017353057861328e+00,-4.435519874095916748e-01,-7.562313675880432129e-01
4.759696483612060547e+00,-4.440819025039672852e-01,-5.869545340538024902e-01
4.765743732452392578e+00,-4.446460902690887451e-01,-4.187587797641754150e-01
4.771141052246093750e+00,-4.451496601104736328e-01,-2.511304914951324463e-01
4.776670932769775391e+00,-4.456655979156494141e-01,-8.373909443616867065e-02
4.782349586486816406e+00,-4.461953938007354736e-01,8.383864164352416992e-02
4.787444591522216797e+00,-4.466707706451416016e-01,2.519886195659637451e-01
4.792951107025146484e+00,-4.471845328807830811e-01,4.211494028568267822e-01
4.799541950225830078e+00,-4.477994740009307861e-01,5.918681621551513672e-01
4.804800987243652344e+00,-4.482901394367218018e-01,7.643096446990966797e-01
4.811187267303466797e+00,-4.488860070705413818e-01,9.392603039741516113e-01
4.817124843597412109e+00,-4.494399428367614746e-01,1.116949200630187988e+00
3.979765892028808594e+00,-3.139305412769317627e-01,-1.069685935974121094e+00
4.704811573028564453e+00,-3.711233437061309814e-01,-1.089563727378845215e+00
4.742102146148681641e+00,-3.740648925304412842e-01,-9.246332645416259766e-01
4.747965812683105469e+00,-3.745273947715759277e-01,-7.543387413024902344e-01
4.753593921661376953e+00,-3.749713599681854248e-01,-5.854801535606384277e-01
4.759604930877685547e+00,-3.754455447196960449e-01,-4.177043735980987549e-01
4.764979362487792969e+00,-3.758694529533386230e-01,-2.504973113536834717e-01
4.770503044128417969e+00,-3.763051927089691162e-01,-8.352798223495483398e-02
4.776188850402832031e+00,-3.767536878585815430e-01,8.362753689289093018e-02
4.781307220458984375e+00,-3.771574497222900391e-01,2.513557076454162598e-01
4.786852836608886719e+00,-3.775948882102966309e-01,4.200956523418426514e-01
4.792262554168701172e+00,-3.780216276645660400e-01,5.902428030967712402e-01
4.798824787139892578e+00,-3.785392343997955322e-01,7.624189853668212891e-01
4.803531169891357422e+00,-3.789105117321014404e-01,9.366109371185302734e-01
4.809312343597412109e+00,-3.793665170669555664e-01,1.113764524459838867e+00
3.979969739913940430e+00,-2.566896378993988037e-01,-1.068643689155578613e+00
4.704942226409912109e+00,-3.034470379352569580e-01,-1.088476657867431641e+00
4.737349510192871094e+00,-3.055371642112731934e-01,-9.227592945098876953e-01
4.743163585662841797e+00,-3.059121072292327881e-01,-7.528029680252075195e-01
4.748752593994140625e+00,-3.062725961208343506e-01,-5.842840671539306641e-01
4.754736423492431641e+00,-3.066585063934326172e-01,-4.168491661548614502e-01
4.760093688964843750e+00,-3.070040345191955566e-01,-2.499838769435882568e-01
4.765612125396728516e+00,-3.073599338531494141e-01,-8.335677534341812134e-02
4.771304130554199219e+00,-3.077270686626434326e-01,8.345633745193481445e-02
4.776439666748046875e+00,-3.080582618713378906e-01,2.508423030376434326e-01
4.782013416290283203e+00,-3.084177374839782715e-01,4.192405641078948975e-01
4.787462234497070312e+00,-3.087691664695739746e-01,5.890468358993530273e-01
4.794074535369873047e+00,-3.091956377029418945e-01,7.608832716941833496e-01
4.798840999603271484e+00,-3.095030486583709717e-01,9.347367882728576660e-01
4.804693222045898438e+00,-3.098805248737335205e-01,1.111553788185119629e+00
3.979687213897705078e+00,-1.995241492986679077e-01,-1.067691683769226074e+00
4.704498291015625000e+00,-2.358630150556564331e-01,-1.087481617927551270e+00
4.731432437896728516e+00,-2.372133582830429077e-01,-9.208509922027587891e-01
4.737199306488037109e+00,-2.375024855136871338e-01,-7.512398958206176758e-01
4.742752075195312500e+00,-2.377808839082717896e-01,-5.830672979354858398e-01
4.748708724975585938e+00,-2.380795329809188843e-01,-4.159793853759765625e-01
4.754050254821777344e+00,-2.383473366498947144e-01,-2.494617849588394165e-01
4.759561538696289062e+00,-2.386236339807510376e-01,-8.318267762660980225e-02
4.765257358551025391e+00,-2.389091998338699341e-01,8.328222483396530151e-02
4.770405769348144531e+00,-2.391673177480697632e-01,2.503200173377990723e-01
4.776002883911132812e+00,-2.394479364156723022e-01,4.183703064918518066e-01
4.781485080718994141e+00,-2.397227883338928223e-01,5.878290534019470215e-01
4.788141727447509766e+00,-2.400565147399902344e-01,7.593185305595397949e-01
4.792960166931152344e+00,-2.402981072664260864e-01,9.328258633613586426e-01
4.798873901367187500e+00,-2.405945956707000732e-01,1.109297156333923340e+00
3.979710817337036133e+00,-1.424596607685089111e-01,-1.067041635513305664e+00
4.704441547393798828e+00,-1.684024780988693237e-01,-1.086799860000610352e+00
4.726534843444824219e+00,-1.691933423280715942e-01,-9.193323850631713867e-01
4.732270240783691406e+00,-1.693986505270004272e-01,-7.499969005584716797e-01
4.737797737121582031e+00,-1.695965081453323364e-01,-5.821001529693603516e-01
4.743735313415527344e+00,-1.698090434074401855e-01,-4.152882695198059082e-01
4.749063491821289062e+00,-1.699997931718826294e-01,-2.490469217300415039e-01
4.754569530487060547e+00,-1.701968759298324585e-01,-8.304435014724731445e-02
4.760267734527587891e+00,-1.704008579254150391e-01,8.314388245344161987e-02
4.765423297882080078e+00,-1.705854088068008423e-01,2.499048560857772827e-01
4.771035194396972656e+00,-1.707862913608551025e-01,4.176782369613647461e-01
4.776538848876953125e+00,-1.709833145141601562e-01,5.868600010871887207e-01
4.783223152160644531e+00,-1.712225824594497681e-01,7.580721974372863770e-01
4.788075447082519531e+00,-1.713962852954864502e-01,9.313023090362548828e-01
4.794030189514160156e+00,-1.716094166040420532e-01,1.107496261596679688e+00
3.979439496994018555e+00,-8.544661849737167358e-02,-1.066531658172607422e+00
4.704039096832275391e+00,-1.010052338242530823e-01,-1.086261630058288574e+00
4.720710754394531250e+00,-1.013632118701934814e-01,-9.178233146667480469e-01
4.726419448852539062e+00,-1.014857813715934753e-01,-7.487626671791076660e-01
4.731925487518310547e+00,-1.016040220856666565e-01,-5.811404585838317871e-01
4.737846374511718750e+00,-1.017311513423919678e-01,-4.146027863025665283e-01
4.743164062500000000e+00,-1.018453314900398254e-01,-2.486356347799301147e-01
4.748663425445556641e+00,-1.019634157419204712e-01,-8.290721476078033447e-02
4.754359245300292969e+00,-1.020857095718383789e-01,8.300665020942687988e-02
4.759519100189208984e+00,-1.021965071558952332e-01,2.494929581880569458e-01
4.765139579772949219e+00,-1.023171916604042053e-01,4.169911742210388184e-01
4.770657539367675781e+00,-1.024356633424758911e-01,5.858972072601318359e-01
4.777359008789062500e+00,-1.025795638561248779e-01,7.568325996398925781e-01
4.782235145568847656e+00,-1.026842594146728516e-01,9.297851324081420898e-01
4.788216590881347656e+00,-1.028126925230026245e-01,1.105700016021728516e+00
3.979298114776611328e+00,-2.847730554640293121e-02,-1.066275358200073242e+00
4.709555149078369141e+00,-3.370328992605209351e-02,-1.087312579154968262e+00
4.715688228607177734e+00,-3.374717757105827332e-02,-9.166589975357055664e-01
4.721382141113281250e+00,-3.378792479634284973e-02,-7.478114962577819824e-01
4.726876258850097656e+00,-3.382724523544311523e-02,-5.804014205932617188e-01
4.732787132263183594e+00,-3.386954590678215027e-02,-4.140751957893371582e-01
4.738096714019775391e+00,-3.390754386782646179e-02,-2.483191192150115967e-01
4.743590354919433594e+00,-3.394685685634613037e-02,-8.280167728662490845e-02
4.749283313751220703e+00,-3.398759663105010986e-02,8.290104568004608154e-02
4.754441738128662109e+00,-3.402451425790786743e-02,2.491757422685623169e-01
4.760063648223876953e+00,-3.406474366784095764e-02,4.164616465568542480e-01
4.765583992004394531e+00,-3.410425037145614624e-02,5.851542353630065918e-01
4.770791530609130859e+00,-3.414152190089225769e-02,7.556374073028564453e-01
4.777174472808837891e+00,-3.418719768524169922e-02,9.286109805107116699e-01
4.783164978027343750e+00,-3.423006832599639893e-02,1.104307293891906738e+00
3.979047536849975586e+00,2.847551181912422180e-02,-1.066208243370056152e+00
4.703844070434570312e+00,3.366241976618766785e-02,-1.085994124412536621e+00
4.709970474243164062e+00,3.370626270771026611e-02,-9.155476093292236328e-01
4.715658187866210938e+00,3.374696522951126099e-02,-7.469048500061035156e-01
4.721145153045654297e+00,3.378623351454734802e-02,-5.796977281570434570e-01
4.727049350738525391e+00,3.382848203182220459e-02,-4.135732054710388184e-01
4.732352733612060547e+00,3.386643528938293457e-02,-2.480180710554122925e-01
4.737840175628662109e+00,3.390570729970932007e-02,-8.270130306482315063e-02
4.743526458740234375e+00,3.394639864563941956e-02,8.280055969953536987e-02
4.748679161071777344e+00,3.398327529430389404e-02,2.488737255334854126e-01
4.754294395446777344e+00,3.402346000075340271e-02,4.159569144248962402e-01
4.759808540344238281e+00,3.406292200088500977e-02,5.844451189041137695e-01
4.765010356903076172e+00,3.410014510154724121e-02,7.547217011451721191e-01
4.771386146545410156e+00,3.414577618241310120e-02,9.274858832359313965e-01
4.777369499206542969e+00,3.418859466910362244e-02,1.102969169616699219e+00
3.978745460510253906e+00,8.543171733617782593e-02,-1.066345691680908203e+00
4.700200557708740234e+00,1.009228080511093140e-01,-1.085375189781188965e+00
4.704828262329101562e+00,1.010221838951110840e-01,-9.147353768348693848e-01
4.710518836975097656e+00,1.011443734169006348e-01,-7.462437152862548828e-01
4.716007232666015625e+00,1.012622192502021790e-01,-5.791854858398437500e-01
4.721909046173095703e+00,1.013889387249946594e-01,-4.132080972194671631e-01
4.727209568023681641e+00,1.015027537941932678e-01,-2.477992922067642212e-01
4.732691287994384766e+00,1.016204580664634705e-01,-8.262835443019866943e-02
4.738368988037109375e+00,1.017423719167709351e-01,8.272748440504074097e-02
4.743512153625488281e+00,1.018528044223785400e-01,2.486538738012313843e-01
4.749115943908691406e+00,1.019731238484382629e-01,4.155889451503753662e-01
4.754615306854248047e+00,1.020912081003189087e-01,5.839270353317260742e-01
4.761295318603515625e+00,1.022346392273902893e-01,7.542877793312072754e-01
4.766156196594238281e+00,1.023390144109725952e-01,9.266589879989624023e-01
4.772118568420410156e+00,1.024670377373695374e-01,1.101982593536376953e+00
3.978517293930053711e+00,1.424169391393661499e-01,-1.066721677780151367e+00
4.694567680358886719e+00,1.680490225553512573e-01,-1.084518909454345703e+00
4.699215888977050781e+00,1.682154089212417603e-01,-9.140186905860900879e-01
4.704919815063476562e+00,1.684195995330810547e-01,-7.456622719764709473e-01
4.710416793823242188e+00,1.686163693666458130e-01,-5.787360668182373047e-01
4.716321945190429688e+00,1.688277423381805420e-01,-4.128883481025695801e-01
4.721621036529541016e+00,1.690174490213394165e-01,-2.476077973842620850e-01
4.727097034454345703e+00,1.692134737968444824e-01,-8.256451785564422607e-02
4.732763290405273438e+00,1.694162935018539429e-01,8.266347646713256836e-02
4.737891674041748047e+00,1.695998609066009521e-01,2.484610378742218018e-01
4.743472576141357422e+00,1.697996556758880615e-01,4.152652919292449951e-01
4.748946189880371094e+00,1.699955910444259644e-01,5.834698677062988281e-01
4.755593299865722656e+00,1.702335178852081299e-01,7.536932826042175293e-01
4.760419845581054688e+00,1.704062968492507935e-01,9.259231090545654297e-01
4.766341209411621094e+00,1.706182658672332764e-01,1.101099729537963867e+00
3.978049278259277344e+00,1.994420140981674194e-01,-1.067252159118652344e+00
4.689272880554199219e+00,2.350996583700180054e-01,-1.083961963653564453e+00
4.693949222564697266e+00,2.353341281414031982e-01,-9.135559201240539551e-01
4.699673652648925781e+00,2.356211096048355103e-01,-7.452889680862426758e-01
4.705184459686279297e+00,2.358974218368530273e-01,-5.784487724304199219e-01
4.711096286773681641e+00,2.361937910318374634e-01,-4.126845896244049072e-01
4.716397285461425781e+00,2.364595681428909302e-01,-2.474859952926635742e-01
4.721867084503173828e+00,2.367338091135025024e-01,-8.252389729022979736e-02
4.727520465850830078e+00,2.370172441005706787e-01,8.262269943952560425e-02
4.732629776000976562e+00,2.372734099626541138e-01,2.483377754688262939e-01
4.738185405731201172e+00,2.375519424676895142e-01,4.150575697422027588e-01
4.743627071380615234e+00,2.378247529268264771e-01,5.831748247146606445e-01
4.750232696533203125e+00,2.381559312343597412e-01,7.533068060874938965e-01
4.755016326904296875e+00,2.383957505226135254e-01,9.254410266876220703e-01
4.760885238647460938e+00,2.386899888515472412e-01,1.100515723228454590e+00
3.977832078933715820e+00,2.565517723560333252e-01,-1.068069696426391602e+00
4.683707237243652344e+00,3.020774722099304199e-01,-1.083564043045043945e+00
4.688429832458496094e+00,3.023820519447326660e-01,-9.132304787635803223e-01
4.694185733795166016e+00,3.027532696723937988e-01,-7.450295686721801758e-01
4.699720859527587891e+00,3.031102716922760010e-01,-5.782511830329895020e-01
4.705645084381103516e+00,3.034923374652862549e-01,-4.125453233718872070e-01
4.710950374603271484e+00,3.038345277309417725e-01,-2.474030405282974243e-01
4.716414451599121094e+00,3.041869103908538818e-01,-8.249624073505401611e-02
4.722051620483398438e+00,3.045504689216613770e-01,8.259484171867370605e-02
4.727136135101318359e+00,3.048784136772155762e-01,2.482530623674392700e-01
4.732655525207519531e+00,3.052344024181365967e-01,4.149133563041687012e-01
4.738051414489746094e+00,3.055824041366577148e-01,5.829674005508422852e-01
4.744598865509033203e+00,3.060046732425689697e-01,7.530307769775390625e-01
4.749319076538085938e+00,3.063091337680816650e-01,9.250907897949218750e-01
4.755114078521728516e+00,3.066828846931457520e-01,1.100083827972412109e+00
3.977184534072875977e+00,3.137269020080566406e-01,-1.068992137908935547e+00
4.678249359130859375e+00,3.690280616283416748e-01,-1.083412408828735352e+00
4.683021545410156250e+00,3.694045245647430420e-01,-9.131134748458862305e-01
4.688814640045166016e+00,3.698614537715911865e-01,-7.449410557746887207e-01
4.694376468658447266e+00,3.703002035617828369e-01,-5.781865715980529785e-01
4.700315952301025391e+00,3.707686960697174072e-01,-4.125011563301086426e-01
4.705627441406250000e+00,3.711876571178436279e-01,-2.473771572113037109e-01
4.711084842681884766e+00,3.716181814670562744e-01,-8.248761296272277832e-02
4.716704845428466797e+00,3.720614910125732422e-01,8.258601278066635132e-02
4.721762657165527344e+00,3.724604547023773193e-01,2.482254058122634888e-01
4.727242946624755859e+00,3.728927671909332275e-01,4.148642718791961670e-01
4.732589244842529297e+00,3.733144700527191162e-01,5.828930735588073730e-01
4.739072799682617188e+00,3.738259077072143555e-01,7.529258131980895996e-01
4.743724822998046875e+00,3.741928637027740479e-01,9.249495863914489746e-01
4.749437332153320312e+00,3.746435046195983887e-01,1.099898457527160645e+00
3.949700832366943359e+00,3.685089051723480225e-01,-1.062913775444030762e+00
4.672725677490234375e+00,4.359674453735351562e-01,-1.083467245101928711e+00
4.678798198699951172e+00,4.365340173244476318e-01,-9.134147167205810547e-01
4.683413028717041016e+00,4.369645714759826660e-01,-7.450001835823059082e-01
4.689012527465820312e+00,4.374870359897613525e-01,-5.782379508018493652e-01
4.694973945617675781e+00,4.380432367324829102e-01,-4.125403463840484619e-01
4.700294494628906250e+00,4.385396540164947510e-01,-2.474014759063720703e-01
4.705746650695800781e+00,4.390483200550079346e-01,-8.249572664499282837e-02
4.711345195770263672e+00,4.395706951618194580e-01,8.259387314319610596e-02
4.716369152069091797e+00,4.400394260883331299e-01,2.482475638389587402e-01
4.721798896789550781e+00,4.405460059642791748e-01,4.148974120616912842e-01
4.728296756744384766e+00,4.411522746086120605e-01,5.830823779106140137e-01
4.733481407165527344e+00,4.416359961032867432e-01,7.529646754264831543e-01
4.739778041839599609e+00,4.422234594821929932e-01,9.253194332122802734e-01
4.745631694793701172e+00,4.427696168422698975e-01,1.100371956825256348e+00
3.948853492736816406e+00,4.255198538303375244e-01,-1.064215898513793945e+00
4.667077064514160156e+00,5.029140710830688477e-01,-1.083715558052062988e+00
4.673215389251708984e+00,5.035755038261413574e-01,-9.136383533477783203e-01
4.678853511810302734e+00,5.041830539703369141e-01,-7.453465461730957031e-01
4.684225082397460938e+00,5.047618746757507324e-01,-5.784792304039001465e-01
4.689511775970458984e+00,5.053315758705139160e-01,-4.126536548137664795e-01
4.694841861724853516e+00,5.059059858322143555e-01,-2.474702745676040649e-01
4.700288295745849609e+00,5.064928531646728516e-01,-8.251867443323135376e-02
4.705864906311035156e+00,5.070937275886535645e-01,8.261657506227493286e-02
4.711527824401855469e+00,5.077039599418640137e-01,2.483497858047485352e-01
4.717176914215087891e+00,5.083127617835998535e-01,4.150880575180053711e-01
4.722658157348632812e+00,5.089033842086791992e-01,5.832255482673645020e-01
4.727762222290039062e+00,5.094533562660217285e-01,7.531377673149108887e-01
4.733960151672363281e+00,5.101212859153747559e-01,9.255143404006958008e-01
4.739702224731445312e+00,5.107399821281433105e-01,1.100579500198364258e+00
3.948585271835327148e+00,4.827534854412078857e-01,-1.065896630287170410e+00
4.661558628082275391e+00,5.699214935302734375e-01,-1.084217429161071777e+00
4.667785167694091797e+00,5.706827640533447266e-01,-9.140800833702087402e-01
4.673493862152099609e+00,5.713806748390197754e-01,-7.457191944122314453e-01
4.678918838500976562e+00,5.720439553260803223e-01,-5.787758231163024902e-01
4.684239387512207031e+00,5.726944208145141602e-01,-4.128687381744384766e-01
4.689584255218505859e+00,5.733479261398315430e-01,-2.476003468036651611e-01
4.695024967193603516e+00,5.740131139755249023e-01,-8.256205916404724121e-02
4.700575351715087891e+00,5.746916532516479492e-01,8.265966176986694336e-02
4.706191539764404297e+00,5.753783583641052246e-01,2.484771907329559326e-01
4.711776733398437500e+00,5.760611295700073242e-01,4.152958691120147705e-01
4.717173099517822266e+00,5.767209529876708984e-01,5.835078954696655273e-01
4.722176074981689453e+00,5.773325562477111816e-01,7.534871101379394531e-01
4.728249073028564453e+00,5.780750513076782227e-01,9.259206056594848633e-01
4.733850955963134766e+00,5.787599682807922363e-01,1.101031661033630371e+00
3.947502613067626953e+00,5.400686264038085938e-01,-1.067581772804260254e+00
4.657156467437744141e+00,6.371582746505737305e-01,-1.085203528404235840e+00
4.661993503570556641e+00,6.378200650215148926e-01,-9.146400094032287598e-01
4.667772293090820312e+00,6.386106610298156738e-01,-7.461883425712585449e-01
4.673248767852783203e+00,6.393599510192871094e-01,-5.791471600532531738e-01
4.678603649139404297e+00,6.400925517082214355e-01,-4.131371974945068359e-01
4.683961868286132812e+00,6.408256292343139648e-01,-2.477623969316482544e-01
4.689396381378173828e+00,6.415691375732421875e-01,-8.261610567569732666e-02
4.694920063018798828e+00,6.423248648643493652e-01,8.271341770887374878e-02
4.700490951538085938e+00,6.430870294570922852e-01,2.486367225646972656e-01
4.706009864807128906e+00,6.438420414924621582e-01,4.155572652816772461e-01
4.711322784423828125e+00,6.445689797401428223e-01,5.838656425476074219e-01
4.717692375183105469e+00,6.454403996467590332e-01,7.541685700416564941e-01
4.722174644470214844e+00,6.460536122322082520e-01,9.264470338821411133e-01
4.727637290954589844e+00,6.468009948730468750e-01,1.101626873016357422e+00
3.920301675796508789e+00,5.936227440834045410e-01,-1.062414526939392090e+00
4.651587009429931641e+00,7.043559551239013672e-01,-1.086143732070922852e+00
4.656540870666503906e+00,7.051060795783996582e-01,-9.154565334320068359e-01
4.662407875061035156e+00,7.059945464134216309e-01,-7.468697428703308105e-01
4.667951107025146484e+00,7.068338394165039062e-01,-5.796850323677062988e-01
4.673348903656005859e+00,7.076512575149536133e-01,-4.135252833366394043e-01
4.678727149963378906e+00,7.084655761718750000e-01,-2.479964941740036011e-01
4.684154987335205078e+00,7.092875242233276367e-01,-8.269415795803070068e-02
4.689648628234863281e+00,7.101193666458129883e-01,8.279114216566085815e-02
4.695164203643798828e+00,7.109545469284057617e-01,2.488677352666854858e-01
4.700603961944580078e+00,7.117782235145568848e-01,4.159369468688964844e-01
4.705815792083740234e+00,7.125674486160278320e-01,5.843873023986816406e-01
4.712054729461669922e+00,7.135121226310729980e-01,7.548226118087768555e-01
4.718108654022216797e+00,7.144288420677185059e-01,9.275605082511901855e-01
4.723643779754638672e+00,7.152670025825500488e-01,1.102969050407409668e+00
3.919935941696166992e+00,6.510863304138183594e-01,-1.064731836318969727e+00
4.646027565002441406e+00,7.716874480247497559e-01,-1.087313413619995117e+00
4.651109218597412109e+00,7.725314497947692871e-01,-9.164687395095825195e-01
4.657074451446533203e+00,7.735222578048706055e-01,-7.477123141288757324e-01
4.662691116333007812e+00,7.744551897048950195e-01,-5.803490281105041504e-01
4.668136596679687500e+00,7.753596305847167969e-01,-4.140036702156066895e-01
4.673536300659179688e+00,7.762565016746520996e-01,-2.482848465442657471e-01
4.678959369659423828e+00,7.771572470664978027e-01,-8.279032260179519653e-02
4.684419155120849609e+00,7.780640721321105957e-01,8.288693428039550781e-02
4.689875125885009766e+00,7.789703011512756348e-01,2.491528540849685669e-01
4.695229530334472656e+00,7.798596620559692383e-01,4.164064526557922363e-01
4.700330257415771484e+00,7.807068824768066406e-01,5.850338339805603027e-01
4.706427574157714844e+00,7.817196249961853027e-01,7.556362152099609375e-01
4.712314128875732422e+00,7.826973795890808105e-01,9.285287261009216309e-01
4.717662334442138672e+00,7.835857272148132324e-01,1.104078173637390137e+00
3.918464183807373047e+00,7.086133360862731934e-01,-1.066977739334106445e+00
4.639751911163330078e+00,8.390507102012634277e-01,-1.088543772697448730e+00
4.646161556243896484e+00,8.402098417282104492e-01,-9.177695512771606445e-01
4.651012420654296875e+00,8.410870432853698730e-01,-7.485952377319335938e-01
4.656698226928710938e+00,8.421152234077453613e-01,-5.810438394546508789e-01
4.662189006805419922e+00,8.431082367897033691e-01,-4.145039916038513184e-01
4.667607307434082031e+00,8.440880775451660156e-01,-2.485862672328948975e-01
4.673023700714111328e+00,8.450675606727600098e-01,-8.289083838462829590e-02
4.678451538085937500e+00,8.460491299629211426e-01,8.298711478710174561e-02
4.683848381042480469e+00,8.470250964164733887e-01,2.494512349367141724e-01
4.689119815826416016e+00,8.479783535003662109e-01,4.168983399868011475e-01
4.695305347442626953e+00,8.490970134735107422e-01,5.858611464500427246e-01
4.700073242187500000e+00,8.499591946601867676e-01,7.564917206764221191e-01
4.705800056457519531e+00,8.509948253631591797e-01,9.295500516891479492e-01
4.712914466857910156e+00,8.522813916206359863e-01,1.105708599090576172e+00
3.891479253768920898e+00,7.614048123359680176e-01,-1.062488675117492676e+00
4.619364738464355469e+00,9.038225412368774414e-01,-1.086684584617614746e+00
4.640604019165039062e+00,9.079781770706176758e-01,-9.191447496414184570e-01
4.646522521972656250e+00,9.091361761093139648e-01,-7.498902678489685059e-01
4.651347637176513672e+00,9.100802540779113770e-01,-5.819420218467712402e-01
4.656894207000732422e+00,9.111654758453369141e-01,-4.151502549648284912e-01
4.662337303161621094e+00,9.122304916381835938e-01,-2.489755004644393921e-01
4.667748451232910156e+00,9.132892489433288574e-01,-8.302064239978790283e-02
4.673139095306396484e+00,9.143440127372741699e-01,8.311651647090911865e-02
4.678468704223632812e+00,9.153867363929748535e-01,2.498369216918945312e-01
4.684568881988525391e+00,9.165803194046020508e-01,4.176173806190490723e-01
4.689692974090576172e+00,9.175828695297241211e-01,5.867394804954528809e-01
4.695750236511230469e+00,9.187680482864379883e-01,7.578349709510803223e-01
4.701537609100341797e+00,9.199004173278808594e-01,9.312136173248291016e-01
4.706727981567382812e+00,9.209159016609191895e-01,1.107236266136169434e+00
3.890890121459960938e+00,8.192760348320007324e-01,-1.065420389175415039e+00
4.618807315826416016e+00,9.725482463836669922e-01,-1.089716553688049316e+00
4.635011196136474609e+00,9.759601354598999023e-01,-9.207095503807067871e-01
4.641052722930908203e+00,9.772322773933410645e-01,-7.511879801750183105e-01
4.645975589752197266e+00,9.782688021659851074e-01,-5.829620361328125000e-01
4.651582241058349609e+00,9.794493913650512695e-01,-4.158838987350463867e-01
4.657053947448730469e+00,9.806015491485595703e-01,-2.494173347949981689e-01
4.662457942962646484e+00,9.817394614219665527e-01,-8.316795527935028076e-02
4.667810440063476562e+00,9.828664064407348633e-01,8.326342701911926270e-02
4.673067092895507812e+00,9.839732646942138672e-01,2.502749562263488770e-01
4.679056644439697266e+00,9.852344393730163574e-01,4.183402657508850098e-01
4.684043884277343750e+00,9.862846732139587402e-01,5.877387523651123047e-01
4.689925670623779297e+00,9.875230789184570312e-01,7.590984106063842773e-01
4.695508003234863281e+00,9.886985421180725098e-01,9.327268004417419434e-01
4.700467586517333984e+00,9.897428750991821289e-01,1.108982682228088379e+00
3.890221595764160156e+00,8.774623870849609375e-01,-1.068566918373107910e+00
4.618168354034423828e+00,1.041655063629150391e+00,-1.092971444129943848e+00
4.630553722381591797e+00,1.044448733329772949e+00,-9.226992726325988770e-01
4.635532855987548828e+00,1.045571804046630859e+00,-7.526397705078125000e-01
4.641236782073974609e+00,1.046858310699462891e+00,-5.841878056526184082e-01
4.646230220794677734e+00,1.047984600067138672e+00,-4.167038500308990479e-01
4.651731014251708984e+00,1.049225330352783203e+00,-2.499109953641891479e-01
4.657130241394042969e+00,1.050443172454833984e+00,-8.333258330821990967e-02
4.662440299987792969e+00,1.051640868186950684e+00,8.342760056257247925e-02
4.668276309967041016e+00,1.052957177162170410e+00,2.507998645305633545e-01
4.673493385314941406e+00,1.054134011268615723e+00,4.191489815711975098e-01
4.679515838623046875e+00,1.055492281913757324e+00,5.890058875083923340e-01
4.684032440185546875e+00,1.056511163711547852e+00,7.605143189430236816e-01
4.689397811889648438e+00,1.057721376419067383e+00,9.344247579574584961e-01
4.696032047271728516e+00,1.059217691421508789e+00,1.111399292945861816e+00
3.863374233245849609e+00,9.297066330909729004e-01,-1.064738750457763672e+00
4.580222606658935547e+00,1.102213501930236816e+00,-1.087613224983215332e+00
4.624813079833984375e+00,1.112944006919860840e+00,-9.246348738670349121e-01
4.629938125610351562e+00,1.114177346229553223e+00,-7.542434334754943848e-01
4.635747432708740234e+00,1.115575432777404785e+00,-5.854467153549194336e-01
4.640813827514648438e+00,1.116794586181640625e+00,-4.176089167594909668e-01
4.646345615386962891e+00,1.118125796318054199e+00,-2.504558265209197998e-01
4.651738643646240234e+00,1.119423627853393555e+00,-8.351425826549530029e-02
4.657005786895751953e+00,1.120691061019897461e+00,8.360882103443145752e-02
4.662755966186523438e+00,1.122074842453002930e+00,2.513403892517089844e-01
4.667855262756347656e+00,1.123301982879638672e+00,4.200422763824462891e-01
4.673716545104980469e+00,1.124712467193603516e+00,5.902417898178100586e-01
4.679472923278808594e+00,1.126097679138183594e+00,7.623129487037658691e-01
4.684855461120605469e+00,1.127393007278442383e+00,9.366391301155090332e-01
4.691461563110351562e+00,1.128982782363891602e+00,1.114027976989746094e+00
3.862488508224487305e+00,9.881828427314758301e-01,-1.068283319473266602e+00
4.579349994659423828e+00,1.171585440635681152e+00,-1.091276407241821289e+00
4.618964195251464844e+00,1.181720376014709473e+00,-9.267523884773254395e-01
4.624244689941406250e+00,1.183071374893188477e+00,-7.559971809387207031e-01
4.630164146423339844e+00,1.184585690498352051e+00,-5.868228077888488770e-01
4.635307312011718750e+00,1.185901522636413574e+00,-4.185979664325714111e-01
4.640871524810791016e+00,1.187325119972229004e+00,-2.510511279106140137e-01
4.646258831024169922e+00,1.188703417778015137e+00,-8.371277153491973877e-02
4.651480674743652344e+00,1.190039277076721191e+00,8.380685001611709595e-02
4.657142162322998047e+00,1.191487789154052734e+00,2.519312798976898193e-01
4.662117481231689453e+00,1.192760705947875977e+00,4.210191369056701660e-01
4.667809486389160156e+00,1.194216847419738770e+00,5.915939211845397949e-01
4.673359870910644531e+00,1.195636868476867676e+00,7.640267014503479004e-01
4.678501605987548828e+00,1.196952342987060547e+00,9.386979341506958008e-01
4.684820652008056641e+00,1.198569178581237793e+00,1.116410493850708008e+00
3.835754156112670898e+00,1.040054678916931152e+00,-1.064897418022155762e+00
4.541750431060791016e+00,1.231483697891235352e+00,-1.086405515670776367e+00
4.614161014556884766e+00,1.251117587089538574e+00,-9.292864799499511719e-01
4.619349002838134766e+00,1.252524256706237793e+00,-7.580500245094299316e-01
4.624460697174072266e+00,1.253910303115844727e+00,-5.883143544197082520e-01
4.630090236663818359e+00,1.255436778068542480e+00,-4.197066426277160645e-01
4.635283470153808594e+00,1.256844878196716309e+00,-2.516961991786956787e-01
4.640664100646972656e+00,1.258303880691528320e+00,-8.392787724733352661e-02
4.646220684051513672e+00,1.259810447692871094e+00,8.402836322784423828e-02
4.651407718658447266e+00,1.261216878890991211e+00,2.525717318058013916e-01
4.657157421112060547e+00,1.262776017189025879e+00,4.221602082252502441e-01
4.662931919097900391e+00,1.264341711997985840e+00,5.932086110115051270e-01
4.668517589569091797e+00,1.265856266021728516e+00,7.661187648773193359e-01
4.673648834228515625e+00,1.267247557640075684e+00,9.412672519683837891e-01
4.679909229278564453e+00,1.268945097923278809e+00,1.119453668594360352e+00
3.809225797653198242e+00,1.091621398925781250e+00,-1.061761617660522461e+00
4.540546417236328125e+00,1.301198124885559082e+00,-1.090460896492004395e+00
4.608012199401855469e+00,1.320531964302062988e+00,-9.317593574523925781e-01
4.613369464874267578e+00,1.322067260742187500e+00,-7.600963115692138672e-01
4.618609428405761719e+00,1.323568940162658691e+00,-5.899196863174438477e-01
4.624318599700927734e+00,1.325205087661743164e+00,-4.208597838878631592e-01
4.629550933837890625e+00,1.326704382896423340e+00,-2.523902058601379395e-01
4.634925842285156250e+00,1.328244805335998535e+00,-8.415930718183517456e-02
4.640430450439453125e+00,1.329822182655334473e+00,8.425925672054290771e-02
4.645523548126220703e+00,1.331281781196594238e+00,2.532609999179840088e-01
4.651131629943847656e+00,1.332888960838317871e+00,4.233000576496124268e-01
4.656721591949462891e+00,1.334490776062011719e+00,5.947875976562500000e-01
4.662080287933349609e+00,1.336026549339294434e+00,7.681218981742858887e-01
4.668599128723144531e+00,1.337894678115844727e+00,9.440103173255920410e-01
4.672895908355712891e+00,1.339125871658325195e+00,1.122246026992797852e+00
3.807858228683471680e+00,1.150452136993408203e+00,-1.065861225128173828e+00
4.503179550170898438e+00,1.360526680946350098e+00,-1.086052417755126953e+00
4.601675987243652344e+00,1.390284895896911621e+00,-9.344062805175781250e-01
4.607210159301757812e+00,1.391956925392150879e+00,-7.622860670089721680e-01
4.613243579864501953e+00,1.393779754638671875e+00,-5.917218327522277832e-01
4.618372917175292969e+00,1.395329594612121582e+00,-4.220930933952331543e-01
4.623647212982177734e+00,1.396922945976257324e+00,-2.531324923038482666e-01
4.629014968872070312e+00,1.398544669151306152e+00,-8.440680801868438721e-02
4.634465217590332031e+00,1.400191307067871094e+00,8.450619131326675415e-02
4.640101432800292969e+00,1.401894211769104004e+00,2.540333271026611328e-01
4.644923686981201172e+00,1.403351187705993652e+00,4.245196878910064697e-01
4.650321483612060547e+00,1.404981970787048340e+00,5.964776873588562012e-01
4.656846046447753906e+00,1.406953096389770508e+00,7.704985141754150391e-01
4.661678791046142578e+00,1.408413290977478027e+00,9.465903043746948242e-01
4.667535781860351562e+00,1.410182952880859375e+00,1.125691056251525879e+00
3.781302928924560547e+00,1.201749563217163086e+00,-1.063133955001831055e+00
4.501538753509521484e+00,1.430650234222412109e+00,-1.090483665466308594e+00
4.596280574798583984e+00,1.460760474205017090e+00,-9.374602437019348145e-01
4.601749420166015625e+00,1.462498545646667480e+00,-7.647677063941955566e-01
4.607003688812255859e+00,1.464168429374694824e+00,-5.935487747192382812e-01
4.612226009368896484e+00,1.465828061103820801e+00,-4.234054386615753174e-01
4.617541313171386719e+00,1.467517495155334473e+00,-2.539221942424774170e-01
4.622902393341064453e+00,1.469221234321594238e+00,-8.467014133930206299e-02
4.628296852111816406e+00,1.470935583114624023e+00,8.476894348859786987e-02
4.633827209472656250e+00,1.472693324089050293e+00,2.548177540302276611e-01
4.639394760131835938e+00,1.474462747573852539e+00,4.258995652198791504e-01
4.644845485687255859e+00,1.476195096969604492e+00,5.984241962432861328e-01
4.649973869323730469e+00,1.477824926376342773e+00,7.727822065353393555e-01
4.656152725219726562e+00,1.479788661003112793e+00,9.496718645095825195e-01
4.661908149719238281e+00,1.481617808341979980e+00,1.129332661628723145e+00
3.781300306320190430e+00,1.261611223220825195e+00,-1.068100929260253906e+00
4.466434001922607422e+00,1.490202546119689941e+00,-1.087035417556762695e+00
4.591143131256103516e+00,1.531811118125915527e+00,-9.407880306243896484e-01
4.596824169158935547e+00,1.533706545829772949e+00,-7.675188779830932617e-01
4.602240562438964844e+00,1.535513758659362793e+00,-5.957056879997253418e-01
4.607570171356201172e+00,1.537292003631591797e+00,-4.249545037746429443e-01
4.612936973571777344e+00,1.539082527160644531e+00,-2.548543214797973633e-01
4.618292808532714844e+00,1.540869474411010742e+00,-8.498095721006393433e-02
4.623626232147216797e+00,1.542648911476135254e+00,8.507909625768661499e-02
4.629038333892822266e+00,1.544454693794250488e+00,2.557438910007476807e-01
4.634432315826416016e+00,1.546254277229309082e+00,4.274319708347320557e-01
4.639656543731689453e+00,1.547997474670410156e+00,6.005488038063049316e-01
4.645890235900878906e+00,1.550077199935913086e+00,7.757113575935363770e-01
4.650348186492919922e+00,1.551564574241638184e+00,9.529199004173278809e-01
4.657572269439697266e+00,1.553974747657775879e+00,1.133554339408874512e+00
3.754676342010498047e+00,1.312739849090576172e+00,-1.065778851509094238e+00
4.464325904846191406e+00,1.560853123664855957e+00,-1.091847896575927734e+00
4.585283279418945312e+00,1.603143215179443359e+00,-9.441925883293151855e-01
4.590017318725585938e+00,1.604798316955566406e+00,-7.701388001441955566e-01
4.595580577850341797e+00,1.606743454933166504e+00,-5.977592468261718750e-01
4.601006031036376953e+00,1.608640432357788086e+00,-4.264290332794189453e-01
4.606417655944824219e+00,1.610532402992248535e+00,-2.557415068149566650e-01
4.611765384674072266e+00,1.612402200698852539e+00,-8.527679741382598877e-02
4.617040157318115234e+00,1.614246368408203125e+00,8.537432551383972168e-02
4.622340679168701172e+00,1.616099596023559570e+00,2.566255331039428711e-01
4.627572059631347656e+00,1.617928624153137207e+00,4.288912117481231689e-01
4.633712768554687500e+00,1.620075583457946777e+00,6.027192473411560059e-01
4.638544559478759766e+00,1.621764898300170898e+00,7.782809734344482422e-01
4.644306659698486328e+00,1.623779535293579102e+00,9.563465714454650879e-01
4.649545669555664062e+00,1.625611186027526855e+00,1.137147426605224609e+00
3.730031490325927734e+00,1.364340662956237793e+00,-1.064217567443847656e+00
4.429418087005615234e+00,1.620156645774841309e+00,-1.088870525360107422e+00
4.579796791076660156e+00,1.675160884857177734e+00,-9.479030966758728027e-01
4.585658073425292969e+00,1.677304863929748535e+00,-7.733563780784606934e-01
4.591146469116210938e+00,1.679312348365783691e+00,-6.002475619316101074e-01
4.596434116363525391e+00,1.681246399879455566e+00,-4.281917512416839600e-01
4.601503849029541016e+00,1.683100819587707520e+00,-2.567799091339111328e-01
4.606847763061523438e+00,1.685055375099182129e+00,-8.562307059764862061e-02
4.612427234649658203e+00,1.687096357345581055e+00,8.572678267955780029e-02
4.617856979370117188e+00,1.689082264900207520e+00,2.576924860477447510e-01
4.623154163360595703e+00,1.691019892692565918e+00,4.306809306144714355e-01
4.628170967102050781e+00,1.692854881286621094e+00,6.050881743431091309e-01
4.634071826934814453e+00,1.695013165473937988e+00,7.815211415290832520e-01
4.639709949493408203e+00,1.697075366973876953e+00,9.603036046028137207e-01
4.644767284393310547e+00,1.698925375938415527e+00,1.141809225082397461e+00
3.703572988510131836e+00,1.415082454681396484e+00,-1.062338709831237793e+00
4.392508506774902344e+00,1.678314924240112305e+00,-1.085591316223144531e+00
4.573336124420166016e+00,1.747406601905822754e+00,-9.516451954841613770e-01
4.578275203704833984e+00,1.749293684959411621e+00,-7.762544155120849609e-01
4.583919525146484375e+00,1.751450300216674805e+00,-6.025185585021972656e-01
4.589310169219970703e+00,1.753510117530822754e+00,-4.298222362995147705e-01
4.594571113586425781e+00,1.755520105361938477e+00,-2.577688395977020264e-01
4.599880695343017578e+00,1.757548928260803223e+00,-8.595234155654907227e-02
4.605280399322509766e+00,1.759611964225769043e+00,8.605323731899261475e-02
4.610589981079101562e+00,1.761640667915344238e+00,2.586675286293029785e-01
4.615713119506835938e+00,1.763598203659057617e+00,4.322950541973114014e-01
4.621620178222656250e+00,1.765855193138122559e+00,6.074739694595336914e-01
4.627475261688232422e+00,1.768092393875122070e+00,7.845963835716247559e-01
4.633011817932128906e+00,1.770207762718200684e+00,9.640628099441528320e-01
4.637910366058349609e+00,1.772079467773437500e+00,1.146241426467895508e+00
3.679133176803588867e+00,1.466425299644470215e+00,-1.061240315437316895e+00
4.391858100891113281e+00,1.750502467155456543e+00,-1.091511130332946777e+00
4.567348957061767578e+00,1.820449471473693848e+00,-9.557235240936279297e-01
4.573419570922851562e+00,1.822869181632995605e+00,-7.797751426696777344e-01
4.578362464904785156e+00,1.824839115142822266e+00,-6.051593422889709473e-01
4.583874225616455078e+00,1.827036023139953613e+00,-4.317181408405303955e-01
4.589192390441894531e+00,1.829155802726745605e+00,-2.589094042778015137e-01
4.594496726989746094e+00,1.831269979476928711e+00,-8.633268624544143677e-02
4.599824905395507812e+00,1.833393812179565430e+00,8.643280714750289917e-02
4.605001926422119141e+00,1.835457205772399902e+00,2.598013579845428467e-01
4.610794544219970703e+00,1.837766051292419434e+00,4.342535734176635742e-01
4.615572929382324219e+00,1.839670658111572266e+00,6.100777983665466309e-01
4.621103763580322266e+00,1.841874957084655762e+00,7.879053354263305664e-01
4.627840995788574219e+00,1.844560384750366211e+00,9.683815836906433105e-01
4.632529258728027344e+00,1.846428990364074707e+00,1.151325345039367676e+00
3.678087472915649414e+00,1.527368426322937012e+00,-1.067135453224182129e+00
4.357269763946533203e+00,1.809406757354736328e+00,-1.089240074157714844e+00
4.562211036682128906e+00,1.894510865211486816e+00,-9.602242708206176758e-01
4.567414283752441406e+00,1.896671772003173828e+00,-7.832998037338256836e-01
4.573183059692382812e+00,1.899067163467407227e+00,-6.080053448677062988e-01
4.578184604644775391e+00,1.901144146919250488e+00,-4.337007403373718262e-01
4.583561897277832031e+00,1.903377175331115723e+00,-2.601021528244018555e-01
4.588859558105468750e+00,1.905576944351196289e+00,-8.673039078712463379e-02
4.594117641448974609e+00,1.907760500907897949e+00,8.682976663112640381e-02
4.599769115447998047e+00,1.910107254981994629e+00,2.610218226909637451e-01
4.604743003845214844e+00,1.912172675132751465e+00,4.362166523933410645e-01
4.610358238220214844e+00,1.914504647254943848e+00,6.129478216171264648e-01
4.615795612335205078e+00,1.916762471199035645e+00,7.915970087051391602e-01
4.620791435241699219e+00,1.918837189674377441e+00,9.725539684295654297e-01
4.626828193664550781e+00,1.921343803405761719e+00,1.156624794006347656e+00
3.653450012207031250e+00,1.578815102577209473e+00,-1.066434621810913086e+00
4.322902202606201172e+00,1.868114709854125977e+00,-1.087221741676330566e+00
4.556750297546386719e+00,1.969170451164245605e+00,-9.649084210395812988e-01
4.561975479125976562e+00,1.971428632736206055e+00,-7.871257066726684570e-01
4.567064762115478516e+00,1.973627924919128418e+00,-6.108851432800292969e-01
4.572196483612060547e+00,1.975845575332641602e+00,-4.357679784297943115e-01
4.577634811401367188e+00,1.978195786476135254e+00,-2.613458037376403809e-01
4.582926273345947266e+00,1.980482220649719238e+00,-8.714509755373001099e-02
4.588110923767089844e+00,1.982722878456115723e+00,8.724368363618850708e-02
4.593616962432861328e+00,1.985102176666259766e+00,2.622582316398620605e-01
4.599237442016601562e+00,1.987531065940856934e+00,4.383451640605926514e-01
4.604817390441894531e+00,1.989942431449890137e+00,6.159348487854003906e-01
4.610147953033447266e+00,1.992245912551879883e+00,7.954373359680175781e-01
4.614973545074462891e+00,1.994331479072570801e+00,9.772374629974365234e-01
4.620763301849365234e+00,1.996833324432373047e+00,1.162134528160095215e+00
3.628821134567260742e+00,1.630196452140808105e+00,-1.065947294235229492e+00
4.288709640502929688e+00,1.926641941070556641e+00,-1.085446596145629883e+00
4.549820899963378906e+00,2.043942451477050781e+00,-9.695368409156799316e-01
4.555313110351562500e+00,2.046409845352172852e+00,-7.909490466117858887e-01
4.560602664947509766e+00,2.048786163330078125e+00,-6.138803958892822266e-01
4.565868854522705078e+00,2.051151752471923828e+00,-4.379181861877441406e-01
4.571366310119628906e+00,2.053621292114257812e+00,-2.626391947269439697e-01
4.576650619506835938e+00,2.055995225906372070e+00,-8.757638186216354370e-02
4.581761360168457031e+00,2.058291435241699219e+00,8.767417818307876587e-02
4.587120056152343750e+00,2.060698747634887695e+00,2.635443210601806641e-01
4.592522144317626953e+00,2.063125371932983398e+00,4.404745399951934814e-01
4.597818374633789062e+00,2.065504550933837891e+00,6.188898086547851562e-01
4.604120731353759766e+00,2.068336009979248047e+00,7.994236350059509277e-01
4.608762264251708984e+00,2.070420980453491211e+00,9.820969104766845703e-01
4.614293575286865234e+00,2.072905778884887695e+00,1.167850017547607422e+00
3.604166030883789062e+00,1.681520938873291016e+00,-1.065665841102600098e+00
4.286725997924804688e+00,1.999968767166137695e+00,-1.092077970504760742e+00
4.543586730957031250e+00,2.119807004928588867e+00,-9.745742082595825195e-01
4.549117565155029297e+00,2.122387170791625977e+00,-7.950665354728698730e-01
4.554372787475585938e+00,2.124839305877685547e+00,-6.170724630355834961e-01
4.559529781341552734e+00,2.127245187759399414e+00,-4.401854574680328369e-01
4.564712524414062500e+00,2.129662990570068359e+00,-2.639811933040618896e-01
4.569989204406738281e+00,2.132125139236450195e+00,-8.802387863397598267e-02
4.575376033782958984e+00,2.134638309478759766e+00,8.812763541936874390e-02
4.580830097198486328e+00,2.137182712554931641e+00,2.649132907390594482e-01
4.586254119873046875e+00,2.139713525772094727e+00,4.427654743194580078e-01
4.591496944427490234e+00,2.142159461975097656e+00,6.221024394035339355e-01
4.596357345581054688e+00,2.144427061080932617e+00,8.033228516578674316e-01
4.602116584777832031e+00,2.147114038467407227e+00,9.871284961700439453e-01
4.607375621795654297e+00,2.149567604064941406e+00,1.173766016960144043e+00
3.581681489944458008e+00,1.733875751495361328e+00,-1.066246509552001953e+00
4.254922389984130859e+00,2.059788465499877930e+00,-1.091374874114990234e+00
4.539243221282958984e+00,2.197427034378051758e+00,-9.802885651588439941e-01
4.544000148773193359e+00,2.199729919433593750e+00,-7.995932102203369141e-01
4.549488067626953125e+00,2.202386379241943359e+00,-6.206182241439819336e-01
4.554800033569335938e+00,2.204957962036132812e+00,-4.427303969860076904e-01
4.560058593750000000e+00,2.207503795623779297e+00,-2.655121684074401855e-01
4.565330982208251953e+00,2.210056066513061523e+00,-8.853438496589660645e-02
4.570631504058837891e+00,2.212621927261352539e+00,8.863718062639236450e-02
4.575918197631835938e+00,2.215181350708007812e+00,2.664355933666229248e-01
4.581097126007080078e+00,2.217688322067260742e+00,4.452864825725555420e-01
