6.308455944061279297e+00,-6.801212787628173828e+00,-8.115857839584350586e-01
6.316078186035156250e+00,-6.809430599212646484e+00,-4.867464900016784668e-01
6.323619842529296875e+00,-6.817561149597167969e+00,-1.623105704784393311e-01
6.331109046936035156e+00,-6.825635433197021484e+00,1.625027954578399658e-01
6.338986873626708984e+00,-6.834128856658935547e+00,4.885119497776031494e-01
6.346118450164794922e+00,-6.841817378997802734e+00,8.164310455322265625e-01
6.353803157806396484e+00,-6.850101947784423828e+00,1.147194504737854004e+00
2.773006439208984375e+00,-2.905086278915405273e+00,-1.076110124588012695e+00
3.294521331787109375e+00,-3.451441287994384766e+00,-1.101564288139343262e+00
4.054658412933349609e+00,-4.247784614562988281e+00,-1.141458153724670410e+00
5.217327117919921875e+00,-5.465831279754638672e+00,-1.196779131889343262e+00
6.305309772491455078e+00,-6.605635643005371094e+00,-1.121253013610839844e+00
6.313022613525390625e+00,-6.613715171813964844e+00,-7.999126315116882324e-01
6.320672988891601562e+00,-6.621730327606201172e+00,-4.797472655773162842e-01
6.328230381011962891e+00,-6.629647731781005859e+00,-1.599768698215484619e-01
6.335702419281005859e+00,-6.637475490570068359e+00,1.601657569408416748e-01
6.343167781829833984e+00,-6.645296573638916016e+00,4.814546406269073486e-01
6.351387977600097656e+00,-6.653908252716064453e+00,8.047738671302795410e-01
6.358622550964355469e+00,-6.661487579345703125e+00,1.130733489990234375e+00
2.814364194869995117e+00,-2.865166902542114258e+00,-1.076134681701660156e+00
3.333243370056152344e+00,-3.393412590026855469e+00,-1.098158478736877441e+00
4.113265514373779297e+00,-4.187515258789062500e+00,-1.140966653823852539e+00
5.314936637878417969e+00,-5.410877704620361328e+00,-1.201280832290649414e+00
6.307238578796386719e+00,-6.421092033386230469e+00,-1.105139136314392090e+00
6.315140724182128906e+00,-6.429136753082275391e+00,-7.884401679039001465e-01
6.322557926177978516e+00,-6.436687946319580078e+00,-4.728490114212036133e-01
6.330117225646972656e+00,-6.444383621215820312e+00,-1.576765626668930054e-01
6.337826728820800781e+00,-6.452232360839843750e+00,1.578685939311981201e-01
6.345118045806884766e+00,-6.459654808044433594e+00,4.745362102985382080e-01
6.352892875671386719e+00,-6.467570304870605469e+00,7.931534647941589355e-01
6.360554695129394531e+00,-6.475370407104492188e+00,1.114480972290039062e+00
2.843958377838134766e+00,-2.813589334487915039e+00,-1.071941971778869629e+00
3.394385814666748047e+00,-3.358139038085937500e+00,-1.102353453636169434e+00
4.175321578979492188e+00,-4.130735397338867188e+00,-1.141662597656250000e+00
5.366405487060546875e+00,-5.309100151062011719e+00,-1.195615649223327637e+00
6.311522006988525391e+00,-6.244124889373779297e+00,-1.090117931365966797e+00
6.319252014160156250e+00,-6.251771926879882812e+00,-7.777017354965209961e-01
6.326852321624755859e+00,-6.259291172027587891e+00,-4.664220213890075684e-01
6.334416866302490234e+00,-6.266775131225585938e+00,-1.555334180593490601e-01
6.341963291168212891e+00,-6.274240970611572266e+00,1.557187139987945557e-01
6.349436759948730469e+00,-6.281634330749511719e+00,4.680869579315185547e-01
6.357626914978027344e+00,-6.289737224578857422e+00,7.824244499206542969e-01
6.364745616912841797e+00,-6.296780109405517578e+00,1.099310636520385742e+00
2.889741182327270508e+00,-2.778180122375488281e+00,-1.074100017547607422e+00
3.438312530517578125e+00,-3.305573463439941406e+00,-1.101140618324279785e+00
4.241085052490234375e+00,-4.077354431152343750e+00,-1.143569469451904297e+00
5.474503993988037109e+00,-5.263155937194824219e+00,-1.202792286872863770e+00
6.318314075469970703e+00,-6.074389934539794922e+00,-1.076163649559020996e+00
6.326311588287353516e+00,-6.082078933715820312e+00,-7.677780985832214355e-01
6.333709239959716797e+00,-6.089190959930419922e+00,-4.604550302028656006e-01
6.341281890869140625e+00,-6.096471309661865234e+00,-1.535436511039733887e-01
6.349048614501953125e+00,-6.103938102722167969e+00,1.537317186594009399e-01
6.356279850006103516e+00,-6.110890388488769531e+00,4.620959162712097168e-01
6.363915920257568359e+00,-6.118231773376464844e+00,7.723418474197387695e-01
6.371347427368164062e+00,-6.125376224517822266e+00,1.085196495056152344e+00
2.935840606689453125e+00,-2.742735385894775391e+00,-1.076532602310180664e+00
3.482006549835205078e+00,-3.252977371215820312e+00,-1.100109696388244629e+00
4.274485588073730469e+00,-3.993330955505371094e+00,-1.137047052383422852e+00
5.529408931732177734e+00,-5.165711879730224609e+00,-1.198487520217895508e+00
6.322708129882812500e+00,-5.906831741333007812e+00,-1.062402725219726562e+00
6.330566883087158203e+00,-5.914173126220703125e+00,-7.579432129859924316e-01
6.338173389434814453e+00,-5.921279430389404297e+00,-4.545714557170867920e-01
6.345750808715820312e+00,-5.928358554840087891e+00,-1.515817046165466309e-01
6.353329181671142578e+00,-5.935438156127929688e+00,1.517627239227294922e-01
6.360710144042968750e+00,-5.942334175109863281e+00,4.561877846717834473e-01
6.368710994720458984e+00,-5.949808597564697266e+00,7.625101208686828613e-01
6.376714229583740234e+00,-5.957285404205322266e+00,1.071477413177490234e+00
2.966968774795532227e+00,-2.693333387374877930e+00,-1.073700904846191406e+00
3.525534391403198242e+00,-3.200383901596069336e+00,-1.099276423454284668e+00
4.340114116668701172e+00,-3.939837455749511719e+00,-1.139387130737304688e+00
5.583412170410156250e+00,-5.068469047546386719e+00,-1.194345712661743164e+00
6.324837207794189453e+00,-5.741514682769775391e+00,-1.048844218254089355e+00
6.332558631896972656e+00,-5.748524188995361328e+00,-7.482537031173706055e-01
6.340234279632568359e+00,-5.755491733551025391e+00,-4.487649798393249512e-01
6.347825050354003906e+00,-5.762382507324218750e+00,-1.496457159519195557e-01
6.355338573455810547e+00,-5.769203186035156250e+00,1.498228460550308228e-01
6.362862110137939453e+00,-5.776032924652099609e+00,4.503665864467620850e-01
6.371225833892822266e+00,-5.783625125885009766e+00,7.528226375579833984e-01
6.378570556640625000e+00,-5.790292263031005859e+00,1.057754755020141602e+00
3.000151872634887695e+00,-2.646131277084350586e+00,-1.071892976760864258e+00
3.571875333786010742e+00,-3.150391101837158203e+00,-1.099552989006042480e+00
4.409974098205566406e+00,-3.889593362808227539e+00,-1.142994284629821777e+00
5.699006557464599609e+00,-5.026518821716308594e+00,-1.203559041023254395e+00
6.330555438995361328e+00,-5.583544254302978516e+00,-1.036433219909667969e+00
6.337893486022949219e+00,-5.590016841888427734e+00,-7.393541336059570312e-01
6.345380306243896484e+00,-5.596620082855224609e+00,-4.434137642383575439e-01
6.352977752685546875e+00,-5.603320598602294922e+00,-1.478613168001174927e-01
6.360692501068115234e+00,-5.610125064849853516e+00,1.480408608913421631e-01
6.368614673614501953e+00,-5.617112636566162109e+00,4.450373947620391846e-01
6.375633716583251953e+00,-5.623303413391113281e+00,7.437567114830017090e-01
6.383215427398681641e+00,-5.629990100860595703e+00,1.045054674148559570e+00
3.049126386642456055e+00,-2.612699270248413086e+00,-1.075919270515441895e+00
3.618249893188476562e+00,-3.100363016128540039e+00,-1.100055098533630371e+00
4.445198535919189453e+00,-3.808948993682861328e+00,-1.137876749038696289e+00
5.757458209991455078e+00,-4.933382511138916016e+00,-1.200867652893066406e+00
6.333553314208984375e+00,-5.427020072937011719e+00,-1.024101495742797852e+00
6.340784072875976562e+00,-5.433216094970703125e+00,-7.305443286895751953e-01
6.348508358001708984e+00,-5.439834594726562500e+00,-4.381464421749114990e-01
6.356109142303466797e+00,-5.446347236633300781e+00,-1.461048573255538940e-01
6.363603115081787109e+00,-5.452768802642822266e+00,1.462771147489547729e-01
6.371640682220458984e+00,-5.459656238555908203e+00,4.397429525852203369e-01
6.378959655761718750e+00,-5.465927600860595703e+00,7.349426746368408203e-01
6.387044429779052734e+00,-5.472855091094970703e+00,1.032750844955444336e+00
6.394897460937500000e+00,-5.479584217071533203e+00,1.333822131156921387e+00
3.084643363952636719e+00,-2.567491054534912109e+00,-1.075374126434326172e+00
3.667694568634033203e+00,-3.052791595458984375e+00,-1.101690053939819336e+00
4.519344806671142578e+00,-3.761659622192382812e+00,-1.142957210540771484e+00
5.820206165313720703e+00,-4.844426155090332031e+00,-1.199369668960571289e+00
6.339624881744384766e+00,-5.276762962341308594e+00,-1.012766957283020020e+00
6.347216606140136719e+00,-5.283081531524658203e+00,-7.224990725517272949e-01
6.354769706726074219e+00,-5.289368629455566406e+00,-4.333090782165527344e-01
6.362377166748046875e+00,-5.295700550079345703e+00,-1.444917619228363037e-01
6.370059967041015625e+00,-5.302094936370849609e+00,1.446662396192550659e-01
6.377758979797363281e+00,-5.308503627777099609e+00,4.348766505718231201e-01
6.385342597961425781e+00,-5.314815521240234375e+00,7.268389463424682617e-01
6.392603874206542969e+00,-5.320859909057617188e+00,1.021230459213256836e+00
6.400815010070800781e+00,-5.327693939208984375e+00,1.319015741348266602e+00
3.117575645446777344e+00,-2.520253181457519531e+00,-1.074168920516967773e+00
3.714390516281127930e+00,-3.002719402313232422e+00,-1.102693557739257812e+00
4.553655147552490234e+00,-3.681182146072387695e+00,-1.138192176818847656e+00
5.877731323242187500e+00,-4.751567840576171875e+00,-1.197086215019226074e+00
6.338924884796142578e+00,-5.124397277832031250e+00,-1.000835061073303223e+00
6.346418380737304688e+00,-5.130455017089843750e+00,-7.139760851860046387e-01
6.354217529296875000e+00,-5.136759757995605469e+00,-4.282141625881195068e-01
6.361824989318847656e+00,-5.142909526824951172e+00,-1.427928209304809570e-01
6.369268417358398438e+00,-5.148926734924316406e+00,1.429598927497863770e-01
6.377064704895019531e+00,-5.155229568481445312e+00,4.297538399696350098e-01
6.384939193725585938e+00,-5.161595344543457031e+00,7.183097004890441895e-01
6.392681121826171875e+00,-5.167853832244873047e+00,1.009322524070739746e+00
6.400005340576171875e+00,-5.173774719238281250e+00,1.303454875946044922e+00
3.155369043350219727e+00,-2.476979970932006836e+00,-1.074864864349365234e+00
3.742565393447875977e+00,-2.937932014465332031e+00,-1.098461270332336426e+00
4.594767093658447266e+00,-3.606914520263671875e+00,-1.135447502136230469e+00
5.944674968719482422e+00,-4.666598796844482422e+00,-1.196993827819824219e+00
6.346407413482666016e+00,-4.981960773468017578e+00,-9.906562566757202148e-01
6.354314327239990234e+00,-4.988167762756347656e+00,-7.067596912384033203e-01
6.361958980560302734e+00,-4.994168758392333984e+00,-4.238751232624053955e-01
6.369575500488281250e+00,-5.000147819519042969e+00,-1.413459181785583496e-01
6.377192974090576172e+00,-5.006127357482910156e+00,1.415149569511413574e-01
6.384603023529052734e+00,-5.011944293975830078e+00,4.253837764263153076e-01
6.392698287963867188e+00,-5.018299579620361328e+00,7.110289335250854492e-01
6.400826930999755859e+00,-5.024680614471435547e+00,9.991510510444641113e-01
6.408699035644531250e+00,-5.030859947204589844e+00,1.290427684783935547e+00
3.190686941146850586e+00,-2.431711912155151367e+00,-1.074929118156433105e+00
3.792276144027709961e+00,-2.890199899673461914e+00,-1.100796937942504883e+00
4.670103073120117188e+00,-3.559216260910034180e+00,-1.141358017921447754e+00
6.006598949432373047e+00,-4.577797412872314453e+00,-1.196146368980407715e+00
6.348099231719970703e+00,-4.838064193725585938e+00,-9.800103306770324707e-01
6.355202674865722656e+00,-4.843478202819824219e+00,-6.990759968757629395e-01
6.362967967987060547e+00,-4.849396228790283203e+00,-4.192747473716735840e-01
6.370595455169677734e+00,-4.855209350585937500e+00,-1.398120820522308350e-01
6.378094673156738281e+00,-4.860924720764160156e+00,1.399766504764556885e-01
6.386304855346679688e+00,-4.867181777954101562e+00,4.208124577999114990e-01
6.393904685974121094e+00,-4.872973918914794922e+00,7.033331990242004395e-01
6.401134014129638672e+00,-4.878483772277832031e+00,9.881978034973144531e-01
6.409322738647460938e+00,-4.884724617004394531e+00,1.276344299316406250e+00
3.228552103042602539e+00,-2.388304948806762695e+00,-1.076058626174926758e+00
3.819633722305297852e+00,-2.825554609298706055e+00,-1.096886157989501953e+00
4.710868358612060547e+00,-3.484841108322143555e+00,-1.139013767242431641e+00
6.073359012603759766e+00,-4.492736339569091797e+00,-1.196512341499328613e+00
6.352416515350341797e+00,-4.699167728424072266e+00,-9.701937437057495117e-01
6.359946727752685547e+00,-4.704738616943359375e+00,-6.921194195747375488e-01
6.367555141448974609e+00,-4.710366725921630859e+00,-4.150918722152709961e-01
6.375188827514648438e+00,-4.716013431549072266e+00,-1.384172588586807251e-01
6.382855892181396484e+00,-4.721685409545898438e+00,1.385837346315383911e-01
6.390657901763916016e+00,-4.727456569671630859e+00,4.165979027748107910e-01
6.398458957672119141e+00,-4.733227729797363281e+00,6.963104605674743652e-01
6.406049728393554688e+00,-4.738842487335205078e+00,9.783850312232971191e-01
6.414775848388671875e+00,-4.745297908782958984e+00,1.263774991035461426e+00
3.248123645782470703e+00,-2.331603288650512695e+00,-1.071348905563354492e+00
3.872688293457031250e+00,-2.779935121536254883e+00,-1.100582480430603027e+00
4.751241683959960938e+00,-3.410587787628173828e+00,-1.136855602264404297e+00
6.140189647674560547e+00,-4.407617568969726562e+00,-1.197127103805541992e+00
6.355290412902832031e+00,-4.562023639678955078e+00,-9.605613350868225098e-01
6.363263130187988281e+00,-4.567746639251708984e+00,-6.852951049804687500e-01
6.370709896087646484e+00,-4.573092460632324219e+00,-4.109883904457092285e-01
6.378347396850585938e+00,-4.578574657440185547e+00,-1.370489150285720825e-01
6.386183261871337891e+00,-4.584199428558349609e+00,1.372172832489013672e-01
6.393558979034423828e+00,-4.589493751525878906e+00,4.124624431133270264e-01
6.401553630828857422e+00,-4.595232486724853516e+00,6.894187927246093750e-01
6.409499168395996094e+00,-4.600935935974121094e+00,9.687546491622924805e-01
6.417108058929443359e+00,-4.606398105621337891e+00,1.251116752624511719e+00
3.285857200622558594e+00,-2.288147926330566406e+00,-1.072882413864135742e+00
3.899450540542602539e+00,-2.715431213378906250e+00,-1.097029924392700195e+00
4.791292667388916016e+00,-3.336476564407348633e+00,-1.134895682334899902e+00
6.207199573516845703e+00,-4.322461128234863281e+00,-1.198006510734558105e+00
6.357599258422851562e+00,-4.427193641662597656e+00,-9.512351751327514648e-01
6.364787578582763672e+00,-4.432199478149414062e+00,-6.785575747489929199e-01
6.372540473937988281e+00,-4.437598228454589844e+00,-4.069671630859375000e-01
6.380179882049560547e+00,-4.442918300628662109e+00,-1.357079744338989258e-01
6.387723922729492188e+00,-4.448171615600585938e+00,1.358684450387954712e-01
6.395882129669189453e+00,-4.453852653503417969e+00,4.084578156471252441e-01
6.403295040130615234e+00,-4.459014892578125000e+00,6.826629042625427246e-01
6.411589622497558594e+00,-4.464790821075439453e+00,9.593132734298706055e-01
6.419705390930175781e+00,-4.470442295074462891e+00,1.239020824432373047e+00
3.326319456100463867e+00,-2.246323108673095703e+00,-1.075485467910766602e+00
3.956152200698852539e+00,-2.671660423278808594e+00,-1.102110624313354492e+00
4.834832668304443359e+00,-3.265049219131469727e+00,-1.134022951126098633e+00
6.279417991638183594e+00,-4.240603446960449219e+00,-1.200107216835021973e+00
6.362605094909667969e+00,-4.296781539916992188e+00,-9.426856040954589844e-01
6.370281219482421875e+00,-4.301965236663818359e+00,-6.725096702575683594e-01
6.377894878387451172e+00,-4.307106494903564453e+00,-4.033306837081909180e-01
6.385540008544921875e+00,-4.312269687652587891e+00,-1.344953477382659912e-01
6.393237590789794922e+00,-4.317467689514160156e+00,1.346574723720550537e-01
6.400928974151611328e+00,-4.322662353515625000e+00,4.047873318195343018e-01
6.408481597900390625e+00,-4.327762603759765625e+00,6.765424609184265137e-01
6.417073726654052734e+00,-4.333564758300781250e+00,9.507556557655334473e-01
6.423948764801025391e+00,-4.338207721710205078e+00,1.227729558944702148e+00
3.347520112991333008e+00,-2.191542148590087891e+00,-1.072088122367858887e+00
3.985546112060546875e+00,-2.609242439270019531e+00,-1.099782347679138184e+00
4.920868396759033203e+00,-3.221575736999511719e+00,-1.143270015716552734e+00
6.352044105529785156e+00,-4.158532619476318359e+00,-1.202488183975219727e+00
6.366375923156738281e+00,-4.167915344238281250e+00,-9.343097209930419922e-01
6.374554634094238281e+00,-4.173269271850585938e+00,-6.665863990783691406e-01
6.382025241851806641e+00,-4.178160667419433594e+00,-3.997690081596374512e-01
6.389675617218017578e+00,-4.183168888092041016e+00,-1.333076506853103638e-01
6.397525787353515625e+00,-4.188308238983154297e+00,1.334714442491531372e-01
6.404732704162597656e+00,-4.193026542663574219e+00,4.011913836002349854e-01
6.412415504455566406e+00,-4.198056221008300781e+00,6.705455183982849121e-01
6.419898033142089844e+00,-4.202954769134521484e+00,9.421644806861877441e-01
6.428590297698974609e+00,-4.208645343780517578e+00,1.216979026794433594e+00
3.388161182403564453e+00,-2.149510145187377930e+00,-1.075140237808227539e+00
4.014629840850830078e+00,-2.546952962875366211e+00,-1.097635626792907715e+00
4.964847087860107422e+00,-3.149787664413452148e+00,-1.142896175384521484e+00
6.351975917816162109e+00,-4.029807090759277344e+00,-1.191434025764465332e+00
6.369796752929687500e+00,-4.041112899780273438e+00,-9.262281060218811035e-01
6.377214431762695312e+00,-4.045818805694580078e+00,-6.607412695884704590e-01
6.385025501251220703e+00,-4.050774097442626953e+00,-3.962844312191009521e-01
6.392679691314697266e+00,-4.055630207061767578e+00,-1.321457028388977051e-01
6.400205612182617188e+00,-4.060404777526855469e+00,1.323012709617614746e-01
6.408173561096191406e+00,-4.065460205078125000e+00,3.977211415767669678e-01
6.416294574737548828e+00,-4.070611953735351562e+00,6.647903323173522949e-01
6.422939300537109375e+00,-4.074827671051025391e+00,9.339555501937866211e-01
6.432055473327636719e+00,-4.080611228942871094e+00,1.206454396247863770e+00
3.408922910690307617e+00,-2.094865322113037109e+00,-1.072103738784790039e+00
4.072421550750732422e+00,-2.502601146697998047e+00,-1.103529691696166992e+00
5.008780956268310547e+00,-3.078016757965087891e+00,-1.142750740051269531e+00
6.364129066467285156e+00,-3.910910606384277344e+00,-1.183092474937438965e+00
6.371381759643554688e+00,-3.915367603302001953e+00,-9.182154536247253418e-01
6.379317760467529297e+00,-3.920244455337524414e+00,-6.550783514976501465e-01
6.386990547180175781e+00,-3.924959659576416016e+00,-3.928793668746948242e-01
6.394646644592285156e+00,-3.929664373397827148e+00,-1.310102343559265137e-01
6.402316093444824219e+00,-3.934377431869506836e+00,1.311673671007156372e-01
6.409778118133544922e+00,-3.938963174819946289e+00,3.942811191082000732e-01
6.418014526367187500e+00,-3.944024562835693359e+00,6.590520143508911133e-01
6.424907207489013672e+00,-3.948260307312011719e+00,9.259293079376220703e-01
6.432706832885742188e+00,-3.953053474426269531e+00,1.195841073989868164e+00
3.449944257736206055e+00,-2.052638292312622070e+00,-1.075654625892639160e+00
4.101461410522460938e+00,-2.440276145935058594e+00,-1.101821064949035645e+00
5.007722854614257812e+00,-2.979480981826782227e+00,-1.132663488388061523e+00
6.364864349365234375e+00,-3.786949396133422852e+00,-1.173032402992248535e+00
6.372823238372802734e+00,-3.791684627532958984e+00,-9.105084538459777832e-01
6.380484104156494141e+00,-3.796242713928222656e+00,-6.495517492294311523e-01
6.388017177581787109e+00,-3.800724744796752930e+00,-3.895562589168548584e-01
6.395674705505371094e+00,-3.805280685424804688e+00,-1.299021095037460327e-01
6.403486251831054688e+00,-3.809928655624389648e+00,1.300607621669769287e-01
6.411228656768798828e+00,-3.814535140991210938e+00,3.909717500209808350e-01
6.418766975402832031e+00,-3.819020032882690430e+00,6.534490585327148438e-01
6.427336215972900391e+00,-3.824118852615356445e+00,9.182969331741333008e-01
6.434082508087158203e+00,-3.828132629394531250e+00,1.185789227485656738e+00
3.472874641418457031e+00,-1.999544024467468262e+00,-1.073770642280578613e+00
4.133299350738525391e+00,-2.379790544509887695e+00,-1.101110577583312988e+00
5.054632663726806641e+00,-2.910257816314697266e+00,-1.133735656738281250e+00
6.369061946868896484e+00,-3.667054176330566406e+00,-1.164013266563415527e+00
6.376967906951904297e+00,-3.671606302261352539e+00,-9.034995436668395996e-01
6.384704113006591797e+00,-3.676060438156127930e+00,-6.445587873458862305e-01
6.392440795898437500e+00,-3.680514812469482422e+00,-3.865738213062286377e-01
6.400114536285400391e+00,-3.684933185577392578e+00,-1.289077997207641602e-01
6.407732486724853516e+00,-3.689319372177124023e+00,1.290612369775772095e-01
6.415409088134765625e+00,-3.693738937377929688e+00,3.879627883434295654e-01
6.423009872436523438e+00,-3.698115348815917969e+00,6.484258770942687988e-01
6.431777000427246094e+00,-3.703163146972656250e+00,9.112650156021118164e-01
6.438836097717285156e+00,-3.707227468490600586e+00,1.176765322685241699e+00
3.495568752288818359e+00,-1.946535110473632812e+00,-1.072062969207763672e+00
4.165003776550292969e+00,-2.319315433502197266e+00,-1.100600004196166992e+00
5.101656436920166016e+00,-2.840897798538208008e+00,-1.135046124458312988e+00
6.373476028442382812e+00,-3.549120426177978516e+00,-1.155417442321777344e+00
6.381017684936523438e+00,-3.553320169448852539e+00,-8.967755436897277832e-01
6.388509273529052734e+00,-3.557491779327392578e+00,-6.397368311882019043e-01
6.396126747131347656e+00,-3.561733484268188477e+00,-3.836744129657745361e-01
6.403804779052734375e+00,-3.566009283065795898e+00,-1.279409527778625488e-01
6.411551952362060547e+00,-3.570323228836059570e+00,1.280957311391830444e-01
6.419482707977294922e+00,-3.574739694595336914e+00,3.850754499435424805e-01
6.427461147308349609e+00,-3.579182624816894531e+00,6.436374187469482422e-01
6.435273170471191406e+00,-3.583532810211181641e+00,9.044004678726196289e-01
6.442634105682373047e+00,-3.587631702423095703e+00,1.167954683303833008e+00
3.518065929412841797e+00,-1.893614053726196289e+00,-1.070540428161621094e+00
4.196614265441894531e+00,-2.258845567703247070e+00,-1.100296735763549805e+00
5.148859024047851562e+00,-2.771395444869995117e+00,-1.136605978012084961e+00
6.375905990600585938e+00,-3.431858539581298828e+00,-1.146835446357727051e+00
6.383409500122070312e+00,-3.435897350311279297e+00,-8.901088833808898926e-01
6.391490459442138672e+00,-3.440247058868408203e+00,-6.350393295288085938e-01
6.398987293243408203e+00,-3.444282054901123047e+00,-3.808497488498687744e-01
6.406668186187744141e+00,-3.448416471481323242e+00,-1.269990205764770508e-01
6.414543628692626953e+00,-3.452655315399169922e+00,1.271551400423049927e-01
6.421900272369384766e+00,-3.456614971160888672e+00,3.822134733200073242e-01
6.429922580718994141e+00,-3.460933208465576172e+00,6.388577818870544434e-01
6.437903881072998047e+00,-3.465229034423828125e+00,8.977076411247253418e-01
6.445554256439208984e+00,-3.469347000122070312e+00,1.159363031387329102e+00
3.562290906906127930e+00,-1.852159976959228516e+00,-1.075820565223693848e+00
4.228185176849365234e+00,-2.198381900787353516e+00,-1.100211381912231445e+00
5.196309566497802734e+00,-2.701743364334106445e+00,-1.138427376747131348e+00
6.377570629119873047e+00,-3.315922498703002930e+00,-1.138481140136718750e+00
6.385879993438720703e+00,-3.320243120193481445e+00,-8.837360739707946777e-01
6.393220424652099609e+00,-3.324059486389160156e+00,-6.304193139076232910e-01
6.401103973388671875e+00,-3.328158378601074219e+00,-3.781017661094665527e-01
6.408788204193115234e+00,-3.332153558731079102e+00,-1.260826736688613892e-01
6.416290760040283203e+00,-3.336054563522338867e+00,1.262302845716476440e-01
6.424385070800781250e+00,-3.340263128280639648e+00,3.794769346714019775e-01
6.431611537933349609e+00,-3.344020366668701172e+00,6.342049837112426758e-01
6.439749240875244141e+00,-3.348251581192016602e+00,8.911910057067871094e-01
6.447677612304687500e+00,-3.352373600006103516e+00,1.150996208190917969e+00
3.584790706634521484e+00,-1.799158096313476562e+00,-1.074728250503540039e+00
4.259765148162841797e+00,-2.137918949127197266e+00,-1.100353479385375977e+00
5.244091510772705078e+00,-2.631938934326171875e+00,-1.140525460243225098e+00
6.379718780517578125e+00,-3.201894998550415039e+00,-1.130567431449890137e+00
6.386841297149658203e+00,-3.205469608306884766e+00,-8.774297237396240234e-01
6.394788265228271484e+00,-3.209458112716674805e+00,-6.259799599647521973e-01
6.402558326721191406e+00,-3.213357686996459961e+00,-3.754324018955230713e-01
6.410243511199951172e+00,-3.217214822769165039e+00,-1.251925379037857056e-01
6.417863845825195312e+00,-3.221039533615112305e+00,1.253413707017898560e-01
6.425363063812255859e+00,-3.224803209304809570e+00,3.767696321010589600e-01
6.433777332305908203e+00,-3.229026317596435547e+00,6.297965645790100098e-01
6.440891265869140625e+00,-3.232596397399902344e+00,8.848550915718078613e-01
6.449082374572753906e+00,-3.236707687377929688e+00,1.142859578132629395e+00
3.609511375427246094e+00,-1.747348070144653320e+00,-1.074531316757202148e+00
4.294183731079101562e+00,-2.078794717788696289e+00,-1.101445317268371582e+00
5.246331691741943359e+00,-2.539725303649902344e+00,-1.132990479469299316e+00
6.384004592895507812e+00,-3.090467691421508789e+00,-1.123372912406921387e+00
6.391996860504150391e+00,-3.094336509704589844e+00,-8.719639778137207031e-01
6.399743556976318359e+00,-3.098086833953857422e+00,-6.220604777336120605e-01
6.407414913177490234e+00,-3.101800441741943359e+00,-3.730755746364593506e-01
6.415106296539306641e+00,-3.105523824691772461e+00,-1.244066432118415833e-01
6.422836780548095703e+00,-3.109266281127929688e+00,1.245565563440322876e-01
6.430549621582031250e+00,-3.112999916076660156e+00,3.744226098060607910e-01
6.438110828399658203e+00,-3.116660118103027344e+00,6.257897615432739258e-01
6.446823596954345703e+00,-3.120877981185913086e+00,8.794431686401367188e-01
6.453707695007324219e+00,-3.124210596084594727e+00,1.135638236999511719e+00
6.461741924285888672e+00,-3.128099918365478516e+00,1.395468711853027344e+00
3.631868124008178711e+00,-1.694445371627807617e+00,-1.073856711387634277e+00
4.325903415679931641e+00,-2.018247127532958984e+00,-1.102058768272399902e+00
5.294009208679199219e+00,-2.469915866851806641e+00,-1.135535597801208496e+00
6.401133060455322266e+00,-2.986443758010864258e+00,-1.118750333786010742e+00
6.409451484680175781e+00,-2.990324735641479492e+00,-8.684172630310058594e-01
6.417633056640625000e+00,-2.994141817092895508e+00,-6.195701360702514648e-01
6.425852298736572266e+00,-2.997976541519165039e+00,-3.716125190258026123e-01
6.434207916259765625e+00,-3.001874685287475586e+00,-1.239311248064041138e-01
6.442718505859375000e+00,-3.005845308303833008e+00,1.240950524806976318e-01
6.451325893402099609e+00,-3.009861230850219727e+00,3.730856776237487793e-01
6.459892749786376953e+00,-3.013858079910278320e+00,6.236500144004821777e-01
6.468209266662597656e+00,-3.017738103866577148e+00,8.763783574104309082e-01
6.475989818572998047e+00,-3.021368026733398438e+00,1.131833314895629883e+00
6.485056877136230469e+00,-3.025598287582397461e+00,1.391008853912353516e+00
3.656449556350708008e+00,-1.642608165740966797e+00,-1.074063062667846680e+00
4.327277660369873047e+00,-1.943968057632446289e+00,-1.095207929611206055e+00
5.345557212829589844e+00,-2.401415824890136719e+00,-1.139103055000305176e+00
6.651528358459472656e+00,-2.988104820251464844e+00,-1.154919505119323730e+00
6.660209178924560547e+00,-2.992004394531250000e+00,-8.964981436729431152e-01
6.668856620788574219e+00,-2.995889186859130859e+00,-6.396183371543884277e-01
6.677804470062255859e+00,-2.999908924102783203e+00,-3.836606144905090332e-01
6.686483860015869141e+00,-3.003808021545410156e+00,-1.279490441083908081e-01
6.694868087768554688e+00,-3.007574558258056641e+00,1.281094849109649658e-01
6.703660011291503906e+00,-3.011524200439453125e+00,3.851461112499237061e-01
6.712518692016601562e+00,-3.015503883361816406e+00,6.438060402870178223e-01
6.721223354339599609e+00,-3.019414186477661133e+00,9.047109484672546387e-01
6.731443881988525391e+00,-3.024005651473999023e+00,1.168795347213745117e+00
3.680997133255004883e+00,-1.590719461441040039e+00,-1.074475526809692383e+00
4.361449718475341797e+00,-1.884772539138793945e+00,-1.096916437149047852e+00
5.346268653869628906e+00,-2.310355901718139648e+00,-1.132091879844665527e+00
6.899961948394775391e+00,-2.981774568557739258e+00,-1.190523147583007812e+00
6.931415081024169922e+00,-2.995366811752319336e+00,-9.271377921104431152e-01
6.940224170684814453e+00,-2.999173641204833984e+00,-6.614605188369750977e-01
6.949454784393310547e+00,-3.003162622451782227e+00,-3.967574834823608398e-01
6.958510398864746094e+00,-3.007075786590576172e+00,-1.323172152042388916e-01
6.967360019683837891e+00,-3.010900259017944336e+00,1.324854940176010132e-01
6.976746082305908203e+00,-3.014956474304199219e+00,3.983156085014343262e-01
6.986307621002197266e+00,-3.019088268280029297e+00,6.658526062965393066e-01
6.995810508728027344e+00,-3.023194789886474609e+00,9.357512593269348145e-01
7.004937648773193359e+00,-3.027138948440551758e+00,1.208635687828063965e+00
3.705547332763671875e+00,-1.538771390914916992e+00,-1.075102448463439941e+00
4.395786762237548828e+00,-1.825401306152343750e+00,-1.098868608474731445e+00
5.397871494293212891e+00,-2.241528511047363281e+00,-1.136108636856079102e+00
6.986203193664550781e+00,-2.901101589202880859e+00,-1.198115825653076172e+00
7.225008010864257812e+00,-3.000268220901489258e+00,-9.605658650398254395e-01
7.233997344970703125e+00,-3.004000902175903320e+00,-6.852912306785583496e-01
7.243537902832031250e+00,-3.007962942123413086e+00,-4.110470712184906006e-01
7.253002166748046875e+00,-3.011893033981323242e+00,-1.370832324028015137e-01
7.262356281280517578e+00,-3.015777587890625000e+00,1.372600346803665161e-01
7.272384166717529297e+00,-3.019941806793212891e+00,4.126840233802795410e-01
7.281294822692871094e+00,-3.023641824722290039e+00,6.897718310356140137e-01
7.291270732879638672e+00,-3.027784585952758789e+00,9.693754911422729492e-01
7.300966739654541016e+00,-3.031810760498046875e+00,1.252096891403198242e+00
3.706137657165527344e+00,-1.477188706398010254e+00,-1.069029688835144043e+00
4.430335521697998047e+00,-1.765838861465454102e+00,-1.101074099540710449e+00
5.450088024139404297e+00,-2.172290802001953125e+00,-1.140437841415405273e+00
6.985460281372070312e+00,-2.784257888793945312e+00,-1.191031813621520996e+00
7.543025016784667969e+00,-3.006491422653198242e+00,-9.970228672027587891e-01
7.553221225738525391e+00,-3.010555505752563477e+00,-7.113769650459289551e-01
7.563101768493652344e+00,-3.014493703842163086e+00,-4.266890585422515869e-01
7.573012828826904297e+00,-3.018444061279296875e+00,-1.423003524541854858e-01
7.582915782928466797e+00,-3.022391080856323242e+00,1.424864381551742554e-01
7.592569828033447266e+00,-3.026238918304443359e+00,4.283515810966491699e-01
7.603292465209960938e+00,-3.030512809753417969e+00,7.160927653312683105e-01
7.612295627593994141e+00,-3.034101486206054688e+00,1.006178975105285645e+00
7.622592926025390625e+00,-3.038205623626708984e+00,1.299663901329040527e+00
3.730470657348632812e+00,-1.425359606742858887e+00,-1.070054054260253906e+00
4.430334091186523438e+00,-1.692767500877380371e+00,-1.094939827919006348e+00
5.449623107910156250e+00,-2.082223176956176758e+00,-1.133987784385681152e+00
7.072936058044433594e+00,-2.702467918395996094e+00,-1.199228405952453613e+00
7.891023159027099609e+00,-3.015047550201416016e+00,-1.037210226058959961e+00
7.901504516601562500e+00,-3.019052267074584961e+00,-7.400332689285278320e-01
7.911760807037353516e+00,-3.022971153259277344e+00,-4.438728690147399902e-01
7.922162055969238281e+00,-3.026945114135742188e+00,-1.480317413806915283e-01
7.932664394378662109e+00,-3.030957937240600586e+00,1.482279896736145020e-01
7.943013191223144531e+00,-3.034912109375000000e+00,4.456261992454528809e-01
7.953046798706054688e+00,-3.038745880126953125e+00,7.448605895042419434e-01
7.964485168457031250e+00,-3.043116331100463867e+00,1.046866178512573242e+00
3.756876468658447266e+00,-1.374159812927246094e+00,-1.071876645088195801e+00
4.467268943786621094e+00,-1.634001493453979492e+00,-1.098175287246704102e+00
5.505196094512939453e+00,-2.013645887374877930e+00,-1.139437556266784668e+00
7.075261592864990234e+00,-2.587931632995605469e+00,-1.193219900131225586e+00
8.236889839172363281e+00,-3.012822628021240234e+00,-1.076892852783203125e+00
8.247672080993652344e+00,-3.016766786575317383e+00,-7.683315873146057129e-01
8.258115768432617188e+00,-3.020586490631103516e+00,-4.608315527439117432e-01
8.268933296203613281e+00,-3.024543285369873047e+00,-1.536867618560791016e-01
8.280296325683593750e+00,-3.028699636459350586e+00,1.538979560136795044e-01
8.291333198547363281e+00,-3.032736539840698242e+00,4.626852273941040039e-01
8.302136421203613281e+00,-3.036688089370727539e+00,7.734052538871765137e-01
8.312439918518066406e+00,-3.040456771850585938e+00,1.086770296096801758e+00
3.781399726867675781e+00,-1.322083115577697754e+00,-1.073364377021789551e+00
4.502108573913574219e+00,-1.574063062667846680e+00,-1.101088404655456543e+00
5.504083633422851562e+00,-1.924381613731384277e+00,-1.133390188217163086e+00
7.164201736450195312e+00,-2.504805326461791992e+00,-1.202049851417541504e+00
8.651451110839843750e+00,-3.024789094924926758e+00,-1.125316977500915527e+00
8.663080215454101562e+00,-3.028855085372924805e+00,-8.029088973999023438e-01
8.674662590026855469e+00,-3.032904624938964844e+00,-4.816044569015502930e-01
8.686065673828125000e+00,-3.036891460418701172e+00,-1.606152355670928955e-01
8.697395324707031250e+00,-3.040852546691894531e+00,1.608247309923171997e-01
8.708777427673339844e+00,-3.044832229614257812e+00,4.834985136985778809e-01
8.720032691955566406e+00,-3.048767566680908203e+00,8.081874251365661621e-01
8.733070373535156250e+00,-3.053325653076171875e+00,1.135933399200439453e+00
3.807957172393798828e+00,-1.270505189895629883e+00,-1.075630664825439453e+00
4.503623485565185547e+00,-1.502610683441162109e+00,-1.096086621284484863e+00
5.559993743896484375e+00,-1.855063080787658691e+00,-1.139318823814392090e+00
7.165599346160888672e+00,-2.390765190124511719e+00,-1.196420192718505859e+00
9.067381858825683594e+00,-3.025285005569458008e+00,-1.173665642738342285e+00
9.079423904418945312e+00,-3.029302835464477539e+00,-8.373919725418090820e-01
9.091504096984863281e+00,-3.033333301544189453e+00,-5.022850036621093750e-01
9.103496551513671875e+00,-3.037334442138671875e+00,-1.675129532814025879e-01
9.115516662597656250e+00,-3.041344881057739258e+00,1.677341312170028687e-01
9.127695083618164062e+00,-3.045408248901367188e+00,5.042844414710998535e-01
9.139843940734863281e+00,-3.049461603164672852e+00,8.429644107818603516e-01
9.151659011840820312e+00,-3.053403615951538086e+00,1.184574246406555176e+00
3.807467460632324219e+00,-1.210064888000488281e+00,-1.070490241050720215e+00
4.538631439208984375e+00,-1.442438840866088867e+00,-1.099469304084777832e+00
5.558407306671142578e+00,-1.766537547111511230e+00,-1.133696317672729492e+00
7.163012504577636719e+00,-2.276502847671508789e+00,-1.190425753593444824e+00
9.573256492614746094e+00,-3.042511224746704102e+00,-1.233381867408752441e+00
9.585814476013183594e+00,-3.046502113342285156e+00,-8.799842000007629395e-01
9.598505973815917969e+00,-3.050535678863525391e+00,-5.278292894363403320e-01
9.611221313476562500e+00,-3.054576873779296875e+00,-1.760330200195312500e-01
9.624085426330566406e+00,-3.058665275573730469e+00,1.762686371803283691e-01
9.637233734130859375e+00,-3.062844038009643555e+00,5.299589633941650391e-01
9.650466918945312500e+00,-3.067049503326416016e+00,8.859193325042724609e-01
9.663459777832031250e+00,-3.071178913116455078e+00,1.245003223419189453e+00
3.833941459655761719e+00,-1.158332467079162598e+00,-1.073162198066711426e+00
4.539656639099121094e+00,-1.371547341346740723e+00,-1.094849824905395508e+00
5.614832878112792969e+00,-1.696385622024536133e+00,-1.140135645866394043e+00
7.256968498229980469e+00,-2.192517042160034180e+00,-1.200701832771301270e+00
1.005937385559082031e+01,-3.039196014404296875e+00,-1.290274620056152344e+00
1.009696006774902344e+01,-3.050551891326904297e+00,-9.228048324584960938e-01
1.011029911041259766e+01,-3.054581880569458008e+00,-5.535122156143188477e-01
1.012374782562255859e+01,-3.058645248413085938e+00,-1.845993846654891968e-01
1.013746356964111328e+01,-3.062788963317871094e+00,1.848494708538055420e-01
1.015159130096435547e+01,-3.067057132720947266e+00,5.557728409767150879e-01
1.016385936737060547e+01,-3.070763826370239258e+00,9.289190769195556641e-01
3.834868192672729492e+00,-1.098969817161560059e+00,-1.068909049034118652e+00
4.576994895935058594e+00,-1.311643362045288086e+00,-1.099214434623718262e+00
5.615444660186767578e+00,-1.609235048294067383e+00,-1.135466456413269043e+00
7.257284641265869141e+00,-2.079742193222045898e+00,-1.195706367492675781e+00
1.024511337280273438e+01,-2.935973167419433594e+00,-1.308574318885803223e+00
1.066500854492187500e+01,-3.056303739547729492e+00,-9.706236720085144043e-01
1.067907810211181641e+01,-3.060335874557495117e+00,-5.821935534477233887e-01
1.069335079193115234e+01,-3.064425945281982422e+00,-1.941659897565841675e-01
1.070801639556884766e+01,-3.068628787994384766e+00,1.944322884082794189e-01
1.072164916992187500e+01,-3.072535753250122070e+00,5.845144391059875488e-01
1.073656558990478516e+01,-3.076810359954833984e+00,9.771361351013183594e-01
3.861303091049194336e+00,-1.046982169151306152e+00,-1.071990489959716797e+00
4.577567577362060547e+00,-1.241195440292358398e+00,-1.094973206520080566e+00
5.615806579589843750e+00,-1.522711157798767090e+00,-1.131016612052917480e+00
7.257292270660400391e+00,-1.967795729637145996e+00,-1.190945029258728027e+00
1.024437332153320312e+01,-2.777734756469726562e+00,-1.303268074989318848e+00
1.130018711090087891e+01,-3.064016103744506836e+00,-1.024335026741027832e+00
1.131509208679199219e+01,-3.068057537078857422e+00,-6.144102811813354492e-01
1.133029270172119141e+01,-3.072179079055786133e+00,-2.049119174480438232e-01
1.134602737426757812e+01,-3.076445341110229492e+00,2.051964700222015381e-01
1.136076354980468750e+01,-3.080441236495971680e+00,6.168902516365051270e-01
1.137698173522949219e+01,-3.084838628768920898e+00,1.031296253204345703e+00
3.887935400009155273e+00,-9.946931600570678711e-01,-1.075321435928344727e+00
4.615119457244873047e+00,-1.180736660957336426e+00,-1.099800348281860352e+00
5.672605037689208984e+00,-1.451284766197204590e+00,-1.138155579566955566e+00
7.352764129638671875e+00,-1.881138324737548828e+00,-1.202070593833923340e+00
1.024327564239501953e+01,-2.620649814605712891e+00,-1.298223495483398438e+00
1.201436233520507812e+01,-3.073766231536865234e+00,-1.084974050521850586e+00
1.203117752075195312e+01,-3.078068256378173828e+00,-6.508347392082214355e-01
1.204743576049804688e+01,-3.082227706909179688e+00,-2.170615494251251221e-01
1.206326770782470703e+01,-3.086278200149536133e+00,2.173468172550201416e-01
1.208035755157470703e+01,-3.090650558471679688e+00,6.534951925277709961e-01
1.209556579589843750e+01,-3.094541311264038086e+00,1.092307209968566895e+00
3.888364553451538086e+00,-9.357204437255859375e-01,-1.071626067161560059e+00
4.615347385406494141e+00,-1.110666155815124512e+00,-1.095953941345214844e+00
5.672554492950439453e+00,-1.365079045295715332e+00,-1.134108901023864746e+00
7.352264881134033203e+00,-1.769295096397399902e+00,-1.197726011276245117e+00
1.024188709259033203e+01,-2.464672088623046875e+00,-1.293443918228149414e+00
1.282564258575439453e+01,-3.086443185806274414e+00,-1.154130101203918457e+00
1.284360790252685547e+01,-3.090766191482543945e+00,-6.923195719718933105e-01
1.286110782623291016e+01,-3.094977855682373047e+00,-2.308998852968215942e-01
1.287823390960693359e+01,-3.099098920822143555e+00,2.312073409557342529e-01
1.289682579040527344e+01,-3.103573083877563477e+00,6.951882839202880859e-01
1.291350269317626953e+01,-3.107586383819580078e+00,1.162036299705505371e+00
3.915096759796142578e+00,-8.830730915069580078e-01,-1.075399637222290039e+00
4.653225898742675781e+00,-1.049562454223632812e+00,-1.101268410682678223e+00
5.672356605529785156e+00,-1.279433488845825195e+00,-1.130292296409606934e+00
7.351586341857910156e+00,-1.658193707466125488e+00,-1.193626761436462402e+00
1.024026298522949219e+01,-2.309751749038696289e+00,-1.288931488990783691e+00
1.375412273406982422e+01,-3.102323293685913086e+00,-1.233558177947998047e+00
1.377342414855957031e+01,-3.106676816940307617e+00,-7.399675250053405762e-01
1.379237079620361328e+01,-3.110950469970703125e+00,-2.467944473028182983e-01
1.381098842620849609e+01,-3.115149736404418945e+00,2.471275776624679565e-01
1.383130741119384766e+01,-3.119732856750488281e+00,7.430772781372070312e-01
3.915301322937011719e+00,-8.244161605834960938e-01,-1.072104692459106445e+00
4.653208255767822266e+00,-9.797917604446411133e-01,-1.097832679748535156e+00
5.729843616485595703e+00,-1.206490993499755859e+00,-1.138189673423767090e+00
7.350762844085693359e+00,-1.547795891761779785e+00,-1.189774155616760254e+00
1.043124103546142578e+01,-2.196429491043090820e+00,-1.308878540992736816e+00
1.482732868194580078e+01,-3.122081279754638672e+00,-1.325666546821594238e+00
1.484821128845214844e+01,-3.126478433609008789e+00,-7.952240705490112305e-01
1.486885643005371094e+01,-3.130825757980346680e+00,-2.652275562286376953e-01
1.488921642303466797e+01,-3.135112524032592773e+00,2.655907273292541504e-01
1.490928173065185547e+01,-3.139337539672851562e+00,7.984948158264160156e-01
3.915424585342407227e+00,-7.660899162292480469e-01,-1.069026470184326172e+00
4.653107166290283203e+00,-9.104245305061340332e-01,-1.094622254371643066e+00
5.729419708251953125e+00,-1.121015310287475586e+00,-1.134801864624023438e+00
7.349829196929931641e+00,-1.438063740730285645e+00,-1.186169862747192383e+00
1.042923355102539062e+01,-2.040578365325927734e+00,-1.304828166961669922e+00
1.608211708068847656e+01,-3.146618366241455078e+00,-1.433679699897766113e+00
1.610488891601562500e+01,-3.151074171066284180e+00,-8.600241541862487793e-01
1.612755012512207031e+01,-3.155507802963256836e+00,-2.868448197841644287e-01
1.614998435974121094e+01,-3.159897327423095703e+00,2.872438430786132812e-01
1.617220497131347656e+01,-3.164245128631591797e+00,8.636188507080078125e-01
3.942273616790771484e+00,-7.129190564155578613e-01,-1.073460936546325684e+00
4.691348075866699219e+00,-8.483813405036926270e-01,-1.100648880004882812e+00
5.728938579559326172e+00,-1.036018729209899902e+00,-1.131653547286987305e+00
7.447025299072265625e+00,-1.346716761589050293e+00,-1.198622465133666992e+00
1.042715167999267578e+01,-1.885641574859619141e+00,-1.301057577133178711e+00
1.735321998596191406e+01,-3.138148784637451172e+00,-1.542832970619201660e+00
1.759403991699218750e+01,-3.181698322296142578e+00,-9.370189309120178223e-01
1.761910438537597656e+01,-3.186231136322021484e+00,-3.125304579734802246e-01
1.764407920837402344e+01,-3.190747737884521484e+00,3.129734694957733154e-01
1.766887283325195312e+01,-3.195231437683105469e+00,9.410044550895690918e-01
3.943328857421875000e+00,-6.549718379974365234e-01,-1.071085810661315918e+00
4.692405700683593750e+00,-7.793906927108764648e-01,-1.098167300224304199e+00
5.789001941680908203e+00,-9.615311026573181152e-01,-1.140682578086853027e+00
7.448060989379882812e+00,-1.237094521522521973e+00,-1.195816636085510254e+00
1.042804527282714844e+01,-1.732058405876159668e+00,-1.297942638397216797e+00
1.735291099548339844e+01,-2.882251977920532227e+00,-1.538980007171630859e+00
1.917490386962890625e+01,-3.184878110885620117e+00,-1.018680095672607422e+00
1.920257186889648438e+01,-3.189473628997802734e+00,-3.397736847400665283e-01
1.923030281066894531e+01,-3.194079637527465820e+00,3.402643203735351562e-01
3.943221569061279297e+00,-5.970933437347412109e-01,-1.068625807762145996e+00
4.692066192626953125e+00,-7.104854583740234375e-01,-1.095595598220825195e+00
5.788323402404785156e+00,-8.764836788177490234e-01,-1.137960314750671387e+00
7.446827888488769531e+00,-1.127618908882141113e+00,-1.192905068397521973e+00
1.042567920684814453e+01,-1.578684687614440918e+00,-1.294703125953674316e+00
1.734701347351074219e+01,-2.626732110977172852e+00,-1.534965395927429199e+00
2.132327461242675781e+01,-3.228828430175781250e+00,-1.130242824554443359e+00
2.135457801818847656e+01,-3.233568429946899414e+00,-3.769941031932830811e-01
2.138614845275878906e+01,-3.238348960876464844e+00,3.775514364242553711e-01
3.970264673233032227e+00,-5.431827902793884277e-01,-1.073737621307373047e+00
4.691721439361572266e+00,-6.418872475624084473e-01,-1.093257784843444824e+00
5.787654876708984375e+00,-7.918249368667602539e-01,-1.135484457015991211e+00
7.445622444152832031e+00,-1.018656015396118164e+00,-1.190254449844360352e+00
1.042336082458496094e+01,-1.426048517227172852e+00,-1.291748046875000000e+00
1.734125709533691406e+01,-2.372504711151123047e+00,-1.531294226646423340e+00
2.401449584960937500e+01,-3.285488843917846680e+00,-1.270268440246582031e+00
2.405050468444824219e+01,-3.290415287017822266e+00,-4.237131476402282715e-01
2.408699798583984375e+01,-3.295408010482788086e+00,4.243560731410980225e-01
3.970925092697143555e+00,-4.854847490787506104e-01,-1.071927189826965332e+00
4.731395721435546875e+00,-5.784597992897033691e-01,-1.100460648536682129e+00
5.788219451904296875e+00,-7.076668739318847656e-01,-1.133491754531860352e+00
7.446053981781005859e+00,-9.103534817695617676e-01,-1.188118696212768555e+00
1.042342090606689453e+01,-1.274366021156311035e+00,-1.289362907409667969e+00
1.733968162536621094e+01,-2.119946956634521484e+00,-1.528319001197814941e+00
3.573482131958007812e+01,-4.368934154510498047e+00,-1.886724591255187988e+00
3.577772903442382812e+01,-4.374180316925048828e+00,-6.291517019271850586e-01
3.970709323883056641e+00,-4.278750121593475342e-01,-1.070106029510498047e+00
4.730969905853271484e+00,-5.097990036010742188e-01,-1.098551869392395020e+00
5.787491798400878906e+00,-6.236475706100463867e-01,-1.131485342979431152e+00
7.444803237915039062e+00,-8.022357821464538574e-01,-1.185965418815612793e+00
1.042107009887695312e+01,-1.122951865196228027e+00,-1.286952018737792969e+00
1.733389091491699219e+01,-1.867862462997436523e+00,-1.525296092033386230e+00
3.572510910034179688e+01,-3.849659919738769531e+00,-1.883109569549560547e+00
3.577822113037109375e+01,-3.855383157730102539e+00,-6.281256079673767090e-01
3.971131563186645508e+00,-3.705084025859832764e-01,-1.068681120872497559e+00
4.731332302093505859e+00,-4.414354860782623291e-01,-1.097056508064270020e+00
5.787765502929687500e+00,-5.400011539459228516e-01,-1.129912018775939941e+00
7.545669078826904297e+00,-7.040144205093383789e-01,-1.200305223464965820e+00
1.062044429779052734e+01,-9.908923506736755371e-01,-1.309688091278076172e+00
1.733150863647460938e+01,-1.617037653923034668e+00,-1.522893667221069336e+00
4.595981597900390625e+01,-4.288071632385253906e+00,-2.419109106063842773e+00
4.605084609985351562e+01,-4.296565055847167969e+00,-8.073103427886962891e-01
3.998431444168090820e+00,-3.154028952121734619e-01,-1.074702858924865723e+00
4.730885028839111328e+00,-3.731800317764282227e-01,-1.095601916313171387e+00
5.847235679626464844e+00,-4.612396359443664551e-01,-1.140116333961486816e+00
7.544417381286621094e+00,-5.951161384582519531e-01,-1.198628306388854980e+00
1.061809349060058594e+01,-8.375727534294128418e-01,-1.307785749435424805e+00
1.732581901550292969e+01,-1.366689324378967285e+00,-1.520519137382507324e+00
5.118854904174804688e+01,-4.037837505340576172e+00,-2.691007614135742188e+00
6.415224456787109375e+01,-5.060435771942138672e+00,-1.123258352279663086e+00
3.998646020889282227e+00,-2.578941881656646729e-01,-1.073658347129821777e+00
4.731029987335205078e+00,-3.051295876502990723e-01,-1.094511985778808594e+00
5.847261905670166016e+00,-3.771213591098785400e-01,-1.138952255249023438e+00
7.544202804565429688e+00,-4.865662157535552979e-01,-1.197365164756774902e+00
1.061728000640869141e+01,-6.847654581069946289e-01,-1.306344628334045410e+00
1.732286453247070312e+01,-1.117244601249694824e+00,-1.518700838088989258e+00
