4.285707771778106689e-01,-1.603264689445495605e+00,-1.451922357082366943e-01
4.291136860847473145e-01,-1.605295658111572266e+00,-8.708375692367553711e-02
4.296491146087646484e-01,-1.607298731803894043e+00,-2.904052473604679108e-02
4.301780164241790771e-01,-1.609277248382568359e+00,2.907627448439598083e-02
4.307418167591094971e-01,-1.611386418342590332e+00,8.741417527198791504e-02
4.312591850757598877e-01,-1.613321900367736816e+00,1.461030244827270508e-01
4.318237006664276123e-01,-1.615433692932128906e+00,2.053143531084060669e-01
4.323710501194000244e-01,-1.617481350898742676e+00,2.651784121990203857e-01
4.329903423786163330e-01,-1.619798064231872559e+00,3.259113729000091553e-01
4.335707724094390869e-01,-1.621969342231750488e+00,3.876083493232727051e-01
4.500261247158050537e-01,-1.591849565505981445e+00,-4.432514607906341553e-01
4.506137669086456299e-01,-1.593928217887878418e+00,-3.824093937873840332e-01
4.512438774108886719e-01,-1.596156954765319824e+00,-3.224211931228637695e-01
4.518280327320098877e-01,-1.598223209381103516e+00,-2.630544602870941162e-01
4.523886442184448242e-01,-1.600206255912780762e+00,-2.041810601949691772e-01
4.529438316822052002e-01,-1.602170109748840332e+00,-1.456653177738189697e-01
4.535057246685028076e-01,-1.604157686233520508e+00,-8.736521750688552856e-02
4.540712237358093262e-01,-1.606158018112182617e+00,-2.913435921072959900e-02
4.546428024768829346e-01,-1.608179807662963867e+00,2.917103283107280731e-02
4.552252590656280518e-01,-1.610240101814270020e+00,8.769647032022476196e-02
4.558089077472686768e-01,-1.612304687500000000e+00,1.465867161750793457e-01
4.563785791397094727e-01,-1.614319682121276855e+00,2.059818953275680542e-01
4.569146335124969482e-01,-1.616215825080871582e+00,2.660158872604370117e-01
4.575096368789672852e-01,-1.618320465087890625e+00,3.268981873989105225e-01
4.581842720508575439e-01,-1.620706796646118164e+00,3.888340294361114502e-01
4.744402766227722168e-01,-1.590871334075927734e+00,-4.448244571685791016e-01
4.751088917255401611e-01,-1.593113303184509277e+00,-3.838061392307281494e-01
4.757187068462371826e-01,-1.595158100128173828e+00,-3.235617280006408691e-01
4.762994945049285889e-01,-1.597105622291564941e+00,-2.639655768871307373e-01
4.769241213798522949e-01,-1.599200010299682617e+00,-2.049027085304260254e-01
4.775252044200897217e-01,-1.601215600967407227e+00,-1.461849808692932129e-01
4.781159162521362305e-01,-1.603196263313293457e+00,-8.767658472061157227e-02
4.787128269672393799e-01,-1.605197787284851074e+00,-2.923823706805706024e-02
4.793169796466827393e-01,-1.607223629951477051e+00,2.927513606846332550e-02
4.799146056175231934e-01,-1.609227657318115234e+00,8.800642937421798706e-02
4.804959297180175781e-01,-1.611176848411560059e+00,1.470943987369537354e-01
4.811323285102844238e-01,-1.613310813903808594e+00,2.067106962203979492e-01
4.817529618740081787e-01,-1.615391850471496582e+00,2.669878900051116943e-01
4.823305606842041016e-01,-1.617328643798828125e+00,3.280588090419769287e-01
4.829727411270141602e-01,-1.619481921195983887e+00,3.901587724685668945e-01
4.989744424819946289e-01,-1.589698195457458496e+00,-4.464476704597473145e-01
4.996221065521240234e-01,-1.591761589050292969e+00,-3.851639032363891602e-01
5.003156661987304688e-01,-1.593971133232116699e+00,-3.247402906417846680e-01
5.009613037109375000e-01,-1.596028208732604980e+00,-2.649455070495605469e-01
5.015840530395507812e-01,-1.598012208938598633e+00,-2.056493312120437622e-01
5.022032260894775391e-01,-1.599984765052795410e+00,-1.467138528823852539e-01
5.028424263000488281e-01,-1.602021336555480957e+00,-8.799692988395690918e-02
5.034702420234680176e-01,-1.604021549224853516e+00,-2.934506908059120178e-02
5.040869712829589844e-01,-1.605986356735229492e+00,2.938101440668106079e-02
5.047290325164794922e-01,-1.608031749725341797e+00,8.832708001136779785e-02
5.053755640983581543e-01,-1.610091686248779297e+00,1.476406157016754150e-01
5.060097575187683105e-01,-1.612112164497375488e+00,2.074638754129409790e-01
5.066092014312744141e-01,-1.614021897315979004e+00,2.679325044155120850e-01
5.072731971740722656e-01,-1.616137504577636719e+00,3.292562365531921387e-01
5.080225467681884766e-01,-1.618524789810180664e+00,3.916398584842681885e-01
5.238411426544189453e-01,-1.588964223861694336e+00,-4.483013749122619629e-01
5.244536995887756348e-01,-1.590822339057922363e+00,-3.867134451866149902e-01
5.251308083534240723e-01,-1.592876315116882324e+00,-3.260151743888854980e-01
5.258486866950988770e-01,-1.595053791999816895e+00,-2.660059332847595215e-01
5.264713168144226074e-01,-1.596942424774169922e+00,-2.064602822065353394e-01
5.271413922309875488e-01,-1.598974943161010742e+00,-1.472980380058288574e-01
5.278021097183227539e-01,-1.600979089736938477e+00,-8.834560215473175049e-02
5.284609198570251465e-01,-1.602977395057678223e+00,-2.946133166551589966e-02
5.291193127632141113e-01,-1.604974508285522461e+00,2.949803695082664490e-02
5.297726988792419434e-01,-1.606956362724304199e+00,8.867543935775756836e-02
5.304831266403198242e-01,-1.609111428260803223e+00,1.482318043708801270e-01
5.311078429222106934e-01,-1.611006259918212891e+00,2.082785218954086304e-01
5.317887067794799805e-01,-1.613071680068969727e+00,2.690107822418212891e-01
5.325549244880676270e-01,-1.615395784378051758e+00,3.306242525577545166e-01
5.332753062248229980e-01,-1.617580890655517578e+00,3.932181894779205322e-01
5.487061142921447754e-01,-1.587604284286499023e+00,-4.500874280929565430e-01
5.494139790534973145e-01,-1.589652419090270996e+00,-3.883009254932403564e-01
5.500736236572265625e-01,-1.591561079025268555e+00,-3.273239135742187500e-01
5.507937669754028320e-01,-1.593644618988037109e+00,-2.670583724975585938e-01
5.514889955520629883e-01,-1.595656037330627441e+00,-2.072932869195938110e-01
5.522118806838989258e-01,-1.597747802734375000e+00,-1.478979587554931641e-01
5.528934001922607422e-01,-1.599719643592834473e+00,-8.870371431112289429e-02
5.535832643508911133e-01,-1.601715564727783203e+00,-2.958074212074279785e-02
5.542840957641601562e-01,-1.603743314743041992e+00,2.961819060146808624e-02
5.549476146697998047e-01,-1.605663061141967773e+00,8.903328329324722290e-02
5.556476712226867676e-01,-1.607688665390014648e+00,1.488181501626968384e-01
5.563346147537231445e-01,-1.609676241874694824e+00,2.091146558523178101e-01
5.570991635322570801e-01,-1.611888289451599121e+00,2.701155841350555420e-01
5.578342080116271973e-01,-1.614015102386474609e+00,3.319418728351593018e-01
5.585010647773742676e-01,-1.615944504737854004e+00,3.947232663631439209e-01
5.737899541854858398e-01,-1.586274027824401855e+00,-4.519923627376556396e-01
5.746052265167236328e-01,-1.588527917861938477e+00,-3.899953067302703857e-01
5.753478407859802246e-01,-1.590580940246582031e+00,-3.287823200225830078e-01
5.760537981986999512e-01,-1.592532515525817871e+00,-2.682262361049652100e-01
5.768074393272399902e-01,-1.594616055488586426e+00,-2.082093954086303711e-01
5.775331854820251465e-01,-1.596622467041015625e+00,-1.485437750816345215e-01
5.782476067543029785e-01,-1.598597407341003418e+00,-8.909130096435546875e-02
5.789697170257568359e-01,-1.600593805313110352e+00,-2.971002645790576935e-02
5.797008872032165527e-01,-1.602615118026733398e+00,2.974754571914672852e-02
5.804253816604614258e-01,-1.604617953300476074e+00,8.942683786153793335e-02
5.811312794685363770e-01,-1.606569409370422363e+00,1.494692116975784302e-01
5.818977952003479004e-01,-1.608688592910766602e+00,2.100468724966049194e-01
5.826435685157775879e-01,-1.610750317573547363e+00,2.712946236133575439e-01
5.833359360694885254e-01,-1.612664461135864258e+00,3.333471119403839111e-01
5.842535495758056641e-01,-1.615201234817504883e+00,3.965438008308410645e-01
5.992453098297119141e-01,-1.585337162017822266e+00,-4.541228711605072021e-01
6.000413298606872559e-01,-1.587443113327026367e+00,-3.917974233627319336e-01
6.007784605026245117e-01,-1.589393258094787598e+00,-3.302805125713348389e-01
6.015727519989013672e-01,-1.591494441032409668e+00,-2.694740593433380127e-01
6.023352146148681641e-01,-1.593511581420898438e+00,-2.091694772243499756e-01
6.030881404876708984e-01,-1.595503568649291992e+00,-1.492275148630142212e-01
6.038591861724853516e-01,-1.597543478012084961e+00,-8.950509876012802124e-02
6.046131253242492676e-01,-1.599537849426269531e+00,-2.984800748527050018e-02
6.053510904312133789e-01,-1.601490378379821777e+00,2.988444082438945770e-02
6.061131358146667480e-01,-1.603506326675415039e+00,8.983918279409408569e-02
6.068755984306335449e-01,-1.605523467063903809e+00,1.501646637916564941e-01
6.076178550720214844e-01,-1.607487201690673828e+00,2.110039740800857544e-01
6.084362864494323730e-01,-1.609652400016784668e+00,2.725485861301422119e-01
6.092157959938049316e-01,-1.611714601516723633e+00,3.349189460277557373e-01
6.100794076919555664e-01,-1.613999366760253906e+00,3.983517885208129883e-01
6.248359680175781250e-01,-1.584109544754028320e+00,-4.562864005565643311e-01
6.256111860275268555e-01,-1.586074829101562500e+00,-3.936294913291931152e-01
6.264442801475524902e-01,-1.588186979293823242e+00,-3.318591415882110596e-01
6.272301673889160156e-01,-1.590179324150085449e+00,-2.707437872886657715e-01
6.280574798583984375e-01,-1.592276811599731445e+00,-2.101658731698989868e-01
6.288154721260070801e-01,-1.594198465347290039e+00,-1.499319076538085938e-01
6.296111345291137695e-01,-1.596215605735778809e+00,-8.992639929056167603e-02
6.303972005844116211e-01,-1.598208546638488770e+00,-2.998850494623184204e-02
6.311755180358886719e-01,-1.600181818008422852e+00,3.002553060650825500e-02
6.319984793663024902e-01,-1.602268218994140625e+00,9.026739001274108887e-02
6.327592730522155762e-01,-1.604197025299072266e+00,1.508722603321075439e-01
6.335771083831787109e-01,-1.606270432472229004e+00,2.120129168033599854e-01
6.343650221824645996e-01,-1.608268022537231445e+00,2.738235592842102051e-01
6.352336406707763672e-01,-1.610470056533813477e+00,3.365153074264526367e-01
6.360356807708740234e-01,-1.612503409385681152e+00,4.001885056495666504e-01
6.507942080497741699e-01,-1.583155155181884766e+00,-4.586476385593414307e-01
6.516895890235900879e-01,-1.585333347320556641e+00,-3.957199454307556152e-01
6.525099873542785645e-01,-1.587329030036926270e+00,-3.335972726345062256e-01
6.532973647117614746e-01,-1.589244365692138672e+00,-2.721488177776336670e-01
6.541426181793212891e-01,-1.591300606727600098e+00,-2.112512290477752686e-01
6.549686789512634277e-01,-1.593310236930847168e+00,-1.507146209478378296e-01
6.557920575141906738e-01,-1.595313191413879395e+00,-9.039511531591415405e-02
6.566110253334045410e-01,-1.597305417060852051e+00,-3.014481998980045319e-02
6.574270129203796387e-01,-1.599290490150451660e+00,3.018228337168693542e-02
6.582471728324890137e-01,-1.601285576820373535e+00,9.073352813720703125e-02
6.590569019317626953e-01,-1.603255391120910645e+00,1.516553461551666260e-01
6.599409580230712891e-01,-1.605405926704406738e+00,2.131237685680389404e-01
6.608098745346069336e-01,-1.607519745826721191e+00,2.752783596515655518e-01
6.616252064704895020e-01,-1.609503269195556641e+00,3.382574617862701416e-01
6.625139117240905762e-01,-1.611665129661560059e+00,4.022926986217498779e-01
6.768923401832580566e-01,-1.581873774528503418e+00,-4.610360562801361084e-01
6.777854561805725098e-01,-1.583961009979248047e+00,-3.977582454681396484e-01
6.787217855453491211e-01,-1.586149096488952637e+00,-3.353566229343414307e-01
6.795932054519653320e-01,-1.588185667991638184e+00,-2.736052274703979492e-01
6.804338693618774414e-01,-1.590150237083435059e+00,-2.123696953058242798e-01
6.812707185745239258e-01,-1.592105984687805176e+00,-1.515075862407684326e-01
6.821336150169372559e-01,-1.594122529029846191e+00,-9.087158739566802979e-02
6.829860210418701172e-01,-1.596114516258239746e+00,-3.030373528599739075e-02
6.838280558586120605e-01,-1.598082304000854492e+00,3.034109435975551605e-02
6.847043037414550781e-01,-1.600130081176757812e+00,9.121403843164443970e-02
6.855864524841308594e-01,-1.602191686630249023e+00,1.524673700332641602e-01
6.864522099494934082e-01,-1.604214906692504883e+00,2.142480909824371338e-01
6.872712969779968262e-01,-1.606129050254821777e+00,2.766964435577392578e-01
6.881590485572814941e-01,-1.608203649520874023e+00,3.400195837020874023e-01
6.891336441040039062e-01,-1.610481262207031250e+00,4.044179320335388184e-01
7.034044265747070312e-01,-1.580882906913757324e+00,-4.636341035366058350e-01
7.042817473411560059e-01,-1.582854628562927246e+00,-3.999708890914916992e-01
7.052150964736938477e-01,-1.584952354431152344e+00,-3.372032344341278076e-01
7.060956358909606934e-01,-1.586931228637695312e+00,-2.751021087169647217e-01
7.070199251174926758e-01,-1.589008688926696777e+00,-2.135469019412994385e-01
7.078704833984375000e-01,-1.590920209884643555e+00,-1.523433327674865723e-01
7.087638378143310547e-01,-1.592927932739257812e+00,-9.137242287397384644e-02
7.096488475799560547e-01,-1.594916939735412598e+00,-3.047072701156139374e-02
7.105283141136169434e-01,-1.596893548965454102e+00,3.050849027931690216e-02
7.114576697349548340e-01,-1.598982334136962891e+00,9.171971678733825684e-02
7.123227119445800781e-01,-1.600926518440246582e+00,1.533015221357345581e-01
7.132484316825866699e-01,-1.603006958961486816e+00,2.154281437397003174e-01
7.141401171684265137e-01,-1.605010986328125000e+00,2.782362997531890869e-01
7.151138782501220703e-01,-1.607199549674987793e+00,3.419364094734191895e-01
7.160102128982543945e-01,-1.609214067459106445e+00,4.066316485404968262e-01
7.300320267677307129e-01,-1.579468250274658203e+00,-4.662359952926635742e-01
7.310582399368286133e-01,-1.581688523292541504e+00,-4.022791385650634766e-01
7.319963574409484863e-01,-1.583718180656433105e+00,-3.391350209712982178e-01
7.329782843589782715e-01,-1.585842728614807129e+00,-2.767037749290466309e-01
7.338457703590393066e-01,-1.587719559669494629e+00,-2.147632837295532227e-01
7.347753047943115234e-01,-1.589730620384216309e+00,-1.532208323478698730e-01
7.357006072998046875e-01,-1.591732621192932129e+00,-9.189848601818084717e-02
7.366191148757934570e-01,-1.593719840049743652e+00,-3.064615093171596527e-02
7.375343441963195801e-01,-1.595699906349182129e+00,3.068422712385654449e-02
7.384517192840576172e-01,-1.597684860229492188e+00,9.224213659763336182e-02
7.394440770149230957e-01,-1.599831819534301758e+00,1.541943997144699097e-01
7.403352856636047363e-01,-1.601760029792785645e+00,2.166624665260314941e-01
7.412922978401184082e-01,-1.603830575942993164e+00,2.798423767089843750e-01
7.421857714653015137e-01,-1.605763673782348633e+00,3.438557982444763184e-01
7.433280348777770996e-01,-1.608235001564025879e+00,4.090308547019958496e-01
7.570857405662536621e-01,-1.578287601470947266e+00,-4.690382480621337891e-01
7.581173181533813477e-01,-1.580438137054443359e+00,-4.046795666217803955e-01
7.590677142143249512e-01,-1.582419395446777344e+00,-3.411485552787780762e-01
7.600737810134887695e-01,-1.584516763687133789e+00,-2.783421874046325684e-01
7.610375285148620605e-01,-1.586525917053222656e+00,-2.160531580448150635e-01
7.619888782501220703e-01,-1.588509082794189453e+00,-1.541385203599929810e-01
7.629604935646057129e-01,-1.590534567832946777e+00,-9.245035052299499512e-02
7.639136314392089844e-01,-1.592521667480468750e+00,-3.083021007478237152e-02
7.648500204086303711e-01,-1.594473838806152344e+00,3.086800314486026764e-02
7.658148407936096191e-01,-1.596485137939453125e+00,9.279622137546539307e-02
7.667787671089172363e-01,-1.598494648933410645e+00,1.551074385643005371e-01
7.677162885665893555e-01,-1.600448966026306152e+00,2.179491966962814331e-01
7.687320113182067871e-01,-1.602566480636596680e+00,2.815128564834594727e-01
7.696921229362487793e-01,-1.604568004608154297e+00,3.459235131740570068e-01
7.707282900810241699e-01,-1.606728076934814453e+00,4.114112257957458496e-01
7.845732569694519043e-01,-1.577295422554016113e+00,-4.720323681831359863e-01
7.855973839759826660e-01,-1.579354405403137207e+00,-4.072395861148834229e-01
7.865457534790039062e-01,-1.581261038780212402e+00,-3.432907760143280029e-01
7.875586152076721191e-01,-1.583297252655029297e+00,-2.800794541835784912e-01
7.885380387306213379e-01,-1.585266232490539551e+00,-2.173963636159896851e-01
7.895529866218566895e-01,-1.587306737899780273e+00,-1.551025509834289551e-01
7.905225753784179688e-01,-1.589255928993225098e+00,-9.302419424057006836e-02
7.915100455284118652e-01,-1.591241121292114258e+00,-3.102156892418861389e-02
7.925189137458801270e-01,-1.593269348144531250e+00,3.106111101806163788e-02
7.934886217117309570e-01,-1.595218777656555176e+00,9.337321668863296509e-02
7.945076823234558105e-01,-1.597267508506774902e+00,1.560758650302886963e-01
7.955090999603271484e-01,-1.599280834197998047e+00,2.193182557821273804e-01
7.965991497039794922e-01,-1.601472139358520508e+00,2.832945585250854492e-01
7.976405024528503418e-01,-1.603565692901611328e+00,3.481331169605255127e-01
7.985776066780090332e-01,-1.605449676513671875e+00,4.139682948589324951e-01
8.121745586395263672e-01,-1.575814843177795410e+00,-4.750195741653442383e-01
8.132244348526000977e-01,-1.577851772308349609e+00,-4.098115563392639160e-01
8.143188953399658203e-01,-1.579975366592407227e+00,-3.455066978931427002e-01
8.153451085090637207e-01,-1.581966400146484375e+00,-2.818796038627624512e-01
8.163451552391052246e-01,-1.583906769752502441e+00,-2.187899053096771240e-01
8.173902034759521484e-01,-1.585934400558471680e+00,-1.560956984758377075e-01
8.184110522270202637e-01,-1.587915182113647461e+00,-9.362179785966873169e-02
8.194340467453002930e-01,-1.589899897575378418e+00,-3.122088313102722168e-02
8.204613327980041504e-01,-1.591893076896667480e+00,3.126002103090286255e-02
8.214712142944335938e-01,-1.593852519989013672e+00,9.397185593843460083e-02
8.225403428077697754e-01,-1.595926880836486816e+00,1.570792049169540405e-01
8.235998749732971191e-01,-1.597982645034790039e+00,2.207342535257339478e-01
8.246141672134399414e-01,-1.599950551986694336e+00,2.850840985774993896e-01
8.257022500038146973e-01,-1.602061748504638672e+00,3.503365218639373779e-01
8.268806338310241699e-01,-1.604348063468933105e+00,4.166933894157409668e-01
8.403654694557189941e-01,-1.574750185012817383e+00,-4.782755970954895020e-01
8.414388298988342285e-01,-1.576761484146118164e+00,-4.126142561435699463e-01
8.425577282905578613e-01,-1.578858137130737305e+00,-3.478640317916870117e-01
8.436120748519897461e-01,-1.580833911895751953e+00,-2.838003337383270264e-01
8.446438908576965332e-01,-1.582767486572265625e+00,-2.202799618244171143e-01
8.457263708114624023e-01,-1.584795832633972168e+00,-1.571590006351470947e-01
8.467898964881896973e-01,-1.586788773536682129e+00,-9.426034241914749146e-02
8.478484749794006348e-01,-1.588772416114807129e+00,-3.143383190035820007e-02
8.489033579826354980e-01,-1.590749144554138184e+00,3.147293999791145325e-02
8.499484062194824219e-01,-1.592707395553588867e+00,9.461192786693572998e-02
8.510575890541076660e-01,-1.594785928726196289e+00,1.581496745347976685e-01
8.521625995635986328e-01,-1.596856594085693359e+00,2.222408205270767212e-01
8.532257080078125000e-01,-1.598848700523376465e+00,2.870344519615173340e-01
8.543661236763000488e-01,-1.600985765457153320e+00,3.527393043041229248e-01
8.554060459136962891e-01,-1.602934479713439941e+00,4.194633066654205322e-01
8.688297867774963379e-01,-1.573450326919555664e+00,-4.816084504127502441e-01
8.699379563331604004e-01,-1.575457215309143066e+00,-4.154888093471527100e-01
8.710923194885253906e-01,-1.577547669410705566e+00,-3.502865135669708252e-01
8.721820712089538574e-01,-1.579521298408508301e+00,-2.857765853404998779e-01
8.733174800872802734e-01,-1.581577420234680176e+00,-2.218313366174697876e-01
8.744151592254638672e-01,-1.583565473556518555e+00,-1.582619249820709229e-01
8.754854798316955566e-01,-1.585503697395324707e+00,-9.491868317127227783e-02
8.765788674354553223e-01,-1.587483882904052734e+00,-3.165333345532417297e-02
8.777021169662475586e-01,-1.589518189430236816e+00,3.169389441609382629e-02
8.788041472434997559e-01,-1.591513872146606445e+00,9.527848660945892334e-02
8.798807263374328613e-01,-1.593463540077209473e+00,1.592511534690856934e-01
8.810237050056457520e-01,-1.595533490180969238e+00,2.237887978553771973e-01
8.821257352828979492e-01,-1.597529172897338867e+00,2.890346944332122803e-01
8.833064436912536621e-01,-1.599667429924011230e+00,3.551980853080749512e-01
8.843852281570434570e-01,-1.601621150970458984e+00,4.223889410495758057e-01
8.975583910942077637e-01,-1.571884751319885254e+00,-4.850119352340698242e-01
8.988562822341918945e-01,-1.574157714843750000e+00,-4.184962809085845947e-01
8.999125361442565918e-01,-1.576007604598999023e+00,-3.527685403823852539e-01
9.011387228965759277e-01,-1.578154921531677246e+00,-2.878335416316986084e-01
9.022271037101745605e-01,-1.580060958862304688e+00,-2.234070599079132080e-01
9.033715724945068359e-01,-1.582065343856811523e+00,-1.593879461288452148e-01
9.045023322105407715e-01,-1.584045529365539551e+00,-9.559665620326995850e-02
9.056332111358642578e-01,-1.586026072502136230e+00,-3.187946975231170654e-02
9.067668318748474121e-01,-1.588011384010314941e+00,3.191937506198883057e-02
9.078959822654724121e-01,-1.589988827705383301e+00,9.595533460378646851e-02
9.090960621833801270e-01,-1.592090606689453125e+00,1.603979617357254028e-01
9.101741313934326172e-01,-1.593978524208068848e+00,2.253748923540115356e-01
9.114518761634826660e-01,-1.596216201782226562e+00,2.911276817321777344e-01
9.125156998634338379e-01,-1.598079323768615723e+00,3.577089905738830566e-01
9.138156771659851074e-01,-1.600355863571166992e+00,4.254611730575561523e-01
9.270521402359008789e-01,-1.570889949798583984e+00,-4.887492060661315918e-01
9.283379912376403809e-01,-1.573068857192993164e+00,-4.216962158679962158e-01
9.295142292976379395e-01,-1.575061917304992676e+00,-3.554984927177429199e-01
9.306409358978271484e-01,-1.576971173286437988e+00,-2.900174558162689209e-01
9.318332672119140625e-01,-1.578991651535034180e+00,-2.251186370849609375e-01
9.330064058303833008e-01,-1.580979466438293457e+00,-1.606075316667556763e-01
9.341976046562194824e-01,-1.582998037338256836e+00,-9.633054584264755249e-02
9.353663325309753418e-01,-1.584978342056274414e+00,-3.212422877550125122e-02
9.365144371986389160e-01,-1.586923837661743164e+00,3.216365724802017212e-02
9.376906752586364746e-01,-1.588917016983032227e+00,9.669073671102523804e-02
9.388609528541564941e-01,-1.590899944305419922e+00,1.616153270006179810e-01
9.401198029518127441e-01,-1.593033194541931152e+00,2.271205633878707886e-01
9.413540363311767578e-01,-1.595124483108520508e+00,2.933560013771057129e-01
9.425103664398193359e-01,-1.597083926200866699e+00,3.604689836502075195e-01
9.437272548675537109e-01,-1.599146008491516113e+00,4.286867678165435791e-01
9.568895697593688965e-01,-1.569681763648986816e+00,-4.925841987133026123e-01
9.580515027046203613e-01,-1.571587800979614258e+00,-4.249317348003387451e-01
9.592847228050231934e-01,-1.573610901832580566e+00,-3.582333624362945557e-01
9.605685472488403320e-01,-1.575716853141784668e+00,-2.922853827476501465e-01
9.617915153503417969e-01,-1.577723026275634766e+00,-2.268772423267364502e-01
9.629927873611450195e-01,-1.579693555831909180e+00,-1.618605703115463257e-01
9.641963243484497070e-01,-1.581667780876159668e+00,-9.707948565483093262e-02
9.654020071029663086e-01,-1.583645582199096680e+00,-3.237396478652954102e-02
9.666142463684082031e-01,-1.585634112358093262e+00,3.241461887955665588e-02
9.678393006324768066e-01,-1.587643742561340332e+00,9.744627773761749268e-02
9.690552353858947754e-01,-1.589638352394104004e+00,1.628795415163040161e-01
9.702321887016296387e-01,-1.591569066047668457e+00,2.288683205842971802e-01
9.714868068695068359e-01,-1.593627214431762695e+00,2.956076562404632568e-01
9.728487133979797363e-01,-1.595861196517944336e+00,3.632986545562744141e-01
9.741163849830627441e-01,-1.597940683364868164e+00,4.320571124553680420e-01
9.869769215583801270e-01,-1.568091511726379395e+00,-4.964675605297088623e-01
9.881880283355712891e-01,-1.570015668869018555e+00,-4.282872080802917480e-01
9.894735217094421387e-01,-1.572058081626892090e+00,-3.610670566558837891e-01
9.908067584037780762e-01,-1.574176311492919922e+00,-2.946000993251800537e-01
9.920725822448730469e-01,-1.576187491416931152e+00,-2.286749780178070068e-01
9.933083653450012207e-01,-1.578150868415832520e+00,-1.631425768136978149e-01
9.945416450500488281e-01,-1.580110192298889160e+00,-9.784759581089019775e-02
9.957865476608276367e-01,-1.582088112831115723e+00,-3.263015672564506531e-02
9.970460534095764160e-01,-1.584089279174804688e+00,3.267142921686172485e-02
9.983122944831848145e-01,-1.586100935935974121e+00,9.821856766939163208e-02
9.995625019073486328e-01,-1.588087320327758789e+00,1.641697585582733154e-01
1.000766277313232422e+00,-1.589999794960021973e+00,2.306788861751556396e-01
1.002047061920166016e+00,-1.592034816741943359e+00,2.979422509670257568e-01
1.003440976142883301e+00,-1.594249248504638672e+00,3.661638796329498291e-01
1.004733085632324219e+00,-1.596302270889282227e+00,4.354579746723175049e-01
1.017584562301635742e+00,-1.566530823707580566e+00,-5.005335807800292969e-01
1.019035816192626953e+00,-1.568764925003051758e+00,-4.318806827068328857e-01
1.020210981369018555e+00,-1.570574164390563965e+00,-3.640428781509399414e-01
1.021607041358947754e+00,-1.572723388671875000e+00,-2.970343530178070068e-01
1.022924184799194336e+00,-1.574751019477844238e+00,-2.305671870708465576e-01
1.024152517318725586e+00,-1.576642036437988281e+00,-1.644851565361022949e-01
1.025449156761169434e+00,-1.578638076782226562e+00,-9.865523874759674072e-02
1.026732683181762695e+00,-1.580614089965820312e+00,-3.289948776364326477e-02
1.028005957603454590e+00,-1.582574248313903809e+00,3.294028714299201965e-02
1.029358744621276855e+00,-1.584656596183776855e+00,9.903136640787124634e-02
1.030636668205261230e+00,-1.586624145507812500e+00,1.655265539884567261e-01
1.031857252120971680e+00,-1.588503003120422363e+00,2.325806766748428345e-01
1.033332824707031250e+00,-1.590774655342102051e+00,3.004436194896697998e-01
1.034561157226562500e+00,-1.592665672302246094e+00,3.691634535789489746e-01
1.035860776901245117e+00,-1.594666361808776855e+00,4.390113651752471924e-01
1.048942089080810547e+00,-1.565299153327941895e+00,-5.048854947090148926e-01
1.050272464752197266e+00,-1.567284464836120605e+00,-4.355670809745788574e-01
1.051671504974365234e+00,-1.569372177124023438e+00,-3.672157824039459229e-01
1.052989721298217773e+00,-1.571339368820190430e+00,-2.995888292789459229e-01
1.054282069206237793e+00,-1.573267817497253418e+00,-2.325356602668762207e-01
1.055639624595642090e+00,-1.575293660163879395e+00,-1.659038513898849487e-01
1.056973218917846680e+00,-1.577283740043640137e+00,-9.950587898492813110e-02
1.058296561241149902e+00,-1.579258441925048828e+00,-3.318316861987113953e-02
1.059612751007080078e+00,-1.581222534179687500e+00,3.322443738579750061e-02
1.060913562774658203e+00,-1.583163738250732422e+00,9.987682849168777466e-02
1.062299013137817383e+00,-1.585231304168701172e+00,1.669504344463348389e-01
1.063680410385131836e+00,-1.587292551994323730e+00,2.346085757017135620e-01
1.065009832382202148e+00,-1.589276552200317383e+00,3.030087053775787354e-01
1.066448092460632324e+00,-1.591422796249389648e+00,3.723753988742828369e-01
1.067763566970825195e+00,-1.593385815620422363e+00,4.428209662437438965e-01
1.080870866775512695e+00,-1.564066648483276367e+00,-5.094259381294250488e-01
1.082271456718444824e+00,-1.566093325614929199e+00,-4.394961893558502197e-01
1.083573937416076660e+00,-1.567978262901306152e+00,-3.704807758331298828e-01
1.084974288940429688e+00,-1.570004582405090332e+00,-3.022642731666564941e-01
1.086422324180603027e+00,-1.572099804878234863e+00,-2.346374243497848511e-01
1.087746262550354004e+00,-1.574015736579895020e+00,-1.673918217420578003e-01
1.089118242263793945e+00,-1.576000928878784180e+00,-1.003981307148933411e-01
1.090483188629150391e+00,-1.577976107597351074e+00,-3.348075971007347107e-02
1.091842174530029297e+00,-1.579942584037780762e+00,3.352248296141624451e-02
1.093260169029235840e+00,-1.581994533538818359e+00,1.007799506187438965e-01
1.094567894935607910e+00,-1.583886861801147461e+00,1.684415936470031738e-01
1.095948934555053711e+00,-1.585885405540466309e+00,2.366949170827865601e-01
1.097461342811584473e+00,-1.588073849678039551e+00,3.057430386543273926e-01
1.098912596702575684e+00,-1.590173840522766113e+00,3.757251203060150146e-01
1.100227594375610352e+00,-1.592076778411865234e+00,4.467879831790924072e-01
1.113377571105957031e+00,-1.562800049781799316e+00,-5.141512751579284668e-01
1.114868044853210449e+00,-1.564892172813415527e+00,-4.435918927192687988e-01
1.116242289543151855e+00,-1.566821098327636719e+00,-3.739441633224487305e-01
1.117703795433044434e+00,-1.568872570991516113e+00,-3.050951361656188965e-01
1.119104623794555664e+00,-1.570838809013366699e+00,-2.368156909942626953e-01
1.120486259460449219e+00,-1.572778224945068359e+00,-1.689485162496566772e-01
1.121882796287536621e+00,-1.574738383293151855e+00,-1.013302877545356750e-01
1.123286604881286621e+00,-1.576708912849426270e+00,-3.379154950380325317e-02
1.124706268310546875e+00,-1.578701496124267578e+00,3.383425250649452209e-02
1.126148819923400879e+00,-1.580726504325866699e+00,1.017156094312667847e-01
1.127590537071228027e+00,-1.582750082015991211e+00,1.700197011232376099e-01
1.128994703292846680e+00,-1.584721088409423828e+00,2.389085441827774048e-01
1.130520224571228027e+00,-1.586862325668334961e+00,3.085935711860656738e-01
1.131965637207031250e+00,-1.588891267776489258e+00,3.792115151882171631e-01
1.133535146713256836e+00,-1.591094255447387695e+00,4.510192573070526123e-01
1.145961880683898926e+00,-1.560776591300964355e+00,-5.188288688659667969e-01
1.147578358650207520e+00,-1.562978386878967285e+00,-4.476596713066101074e-01
1.149053096771240234e+00,-1.564986705780029297e+00,-3.773930072784423828e-01
1.150459647178649902e+00,-1.566902518272399902e+00,-3.078827857971191406e-01
1.151956319808959961e+00,-1.568940997123718262e+00,-2.389908581972122192e-01
1.153409123420715332e+00,-1.570919632911682129e+00,-1.705048233270645142e-01
1.154851675033569336e+00,-1.572884321212768555e+00,-1.022641658782958984e-01
1.156298637390136719e+00,-1.574855089187622070e+00,-3.410303220152854919e-02
1.157753705978393555e+00,-1.576836824417114258e+00,3.414594754576683044e-02
1.159208297729492188e+00,-1.578817963600158691e+00,1.026499569416046143e-01
1.160636782646179199e+00,-1.580763578414916992e+00,1.715732663869857788e-01
1.162183761596679688e+00,-1.582870483398437500e+00,2.411126941442489624e-01
1.163693666458129883e+00,-1.584926962852478027e+00,3.114244639873504639e-01
1.165098667144775391e+00,-1.586840629577636719e+00,3.826630413532257080e-01
1.166616082191467285e+00,-1.588907241821289062e+00,4.550861120223999023e-01
1.179834365844726562e+00,-1.559618592262268066e+00,-5.240039229393005371e-01
1.181326270103454590e+00,-1.561590671539306641e+00,-4.520588815212249756e-01
1.182911396026611328e+00,-1.563686132431030273e+00,-3.811233341693878174e-01
1.184401750564575195e+00,-1.565656185150146484e+00,-3.109371364116668701e-01
1.185857534408569336e+00,-1.567580580711364746e+00,-2.413444519042968750e-01
1.187388539314270020e+00,-1.569604396820068359e+00,-1.721891164779663086e-01
1.188879728317260742e+00,-1.571575522422790527e+00,-1.032748892903327942e-01
1.190369963645935059e+00,-1.573545455932617188e+00,-3.444010391831398010e-02
1.191861391067504883e+00,-1.575517058372497559e+00,3.448325768113136292e-02
1.193325400352478027e+00,-1.577452421188354492e+00,1.036610752344131470e-01
1.194883584976196289e+00,-1.579512000083923340e+00,1.732760071754455566e-01
1.196432828903198242e+00,-1.581560134887695312e+00,2.434967458248138428e-01
1.197918534278869629e+00,-1.583523988723754883e+00,3.144856691360473633e-01
1.199542403221130371e+00,-1.585670590400695801e+00,3.864817023277282715e-01
1.201032161712646484e+00,-1.587639927864074707e+00,4.595997631549835205e-01
1.214287757873535156e+00,-1.558297276496887207e+00,-5.293453335762023926e-01
1.215892553329467773e+00,-1.560356736183166504e+00,-4.566929936408996582e-01
1.217375278472900391e+00,-1.562259554862976074e+00,-3.849832415580749512e-01
1.218966841697692871e+00,-1.564301967620849609e+00,-3.141010999679565430e-01
1.220493078231811523e+00,-1.566260576248168945e+00,-2.438058555126190186e-01
1.222002029418945312e+00,-1.568197131156921387e+00,-1.739357262849807739e-01
1.223524093627929688e+00,-1.570150256156921387e+00,-1.043213829398155212e-01
1.225056886672973633e+00,-1.572117328643798828e+00,-3.478906676173210144e-02
1.226607203483581543e+00,-1.574106812477111816e+00,3.483309224247932434e-02
1.228182077407836914e+00,-1.576127886772155762e+00,1.047185361385345459e-01
1.229757070541381836e+00,-1.578149199485778809e+00,1.750395447015762329e-01
1.231293678283691406e+00,-1.580121040344238281e+00,2.459633946418762207e-01
1.232975602149963379e+00,-1.582279562950134277e+00,3.177108764648437500e-01
1.234577059745788574e+00,-1.584334611892700195e+00,3.904231190681457520e-01
1.236012339591979980e+00,-1.586176514625549316e+00,4.642500579357147217e-01
1.249296903610229492e+00,-1.556747674942016602e+00,-5.348384976387023926e-01
1.250793337821960449e+00,-1.558612465858459473e+00,-4.613752067089080811e-01
1.252422809600830078e+00,-1.560642957687377930e+00,-3.889625668525695801e-01
1.254135012626647949e+00,-1.562776446342468262e+00,-3.173667192459106445e-01
1.255630850791931152e+00,-1.564640402793884277e+00,-2.463260442018508911e-01
1.257230997085571289e+00,-1.566634416580200195e+00,-1.757403463125228882e-01
1.258812546730041504e+00,-1.568605303764343262e+00,-1.054050549864768982e-01
1.260390043258666992e+00,-1.570570945739746094e+00,-3.515046089887619019e-02
1.261970639228820801e+00,-1.572540521621704102e+00,3.519454225897789001e-02
1.263541698455810547e+00,-1.574498176574707031e+00,1.058010384440422058e-01
1.265241503715515137e+00,-1.576616406440734863e+00,1.768600791692733765e-01
1.266745924949645996e+00,-1.578490972518920898e+00,2.485065758228302002e-01
1.268370509147644043e+00,-1.580515384674072266e+00,3.209691047668457031e-01
1.270177245140075684e+00,-1.582766652107238770e+00,3.944765329360961914e-01
1.271867394447326660e+00,-1.584872722625732422e+00,4.691486954689025879e-01
1.284828066825866699e+00,-1.554899573326110840e+00,-5.404664278030395508e-01
1.286480903625488281e+00,-1.556899785995483398e+00,-4.662713110446929932e-01
1.288237571716308594e+00,-1.559025764465332031e+00,-3.931148946285247803e-01
1.289878129959106445e+00,-1.561011195182800293e+00,-3.207247555255889893e-01
1.291465401649475098e+00,-1.562932133674621582e+00,-2.489417940378189087e-01
1.293051600456237793e+00,-1.564851641654968262e+00,-1.775983422994613647e-01
1.294692873954772949e+00,-1.566838026046752930e+00,-1.065206527709960938e-01
1.296319127082824707e+00,-1.568806052207946777e+00,-3.552259504795074463e-02
1.297926664352416992e+00,-1.570751547813415527e+00,3.556664660573005676e-02
1.299604892730712891e+00,-1.572782516479492188e+00,1.069247797131538391e-01
1.301303267478942871e+00,-1.574837923049926758e+00,1.787316948175430298e-01
1.302975416183471680e+00,-1.576861500740051270e+00,2.511604428291320801e-01
1.304565310478210449e+00,-1.578785657882690430e+00,3.243766725063323975e-01
1.306308150291442871e+00,-1.580894708633422852e+00,3.986292481422424316e-01
1.307896614074707031e+00,-1.582817077636718750e+00,4.740332067012786865e-01
1.321617484092712402e+00,-1.553593754768371582e+00,-5.465318560600280762e-01
1.323442459106445312e+00,-1.555738925933837891e+00,-4.715485274791717529e-01
1.325117230415344238e+00,-1.557707667350769043e+00,-3.975244164466857910e-01
1.326901078224182129e+00,-1.559804677963256836e+00,-3.243458271026611328e-01
1.328463554382324219e+00,-1.561641335487365723e+00,-2.517390847206115723e-01
1.330156683921813965e+00,-1.563631653785705566e+00,-1.796022802591323853e-01
1.331842660903930664e+00,-1.565613627433776855e+00,-1.077223792672157288e-01
1.333511471748352051e+00,-1.567575335502624512e+00,-3.592323884367942810e-02
1.335173130035400391e+00,-1.569528579711914062e+00,3.596800193190574646e-02
1.336837768554687500e+00,-1.571485519409179688e+00,1.081264019012451172e-01
1.338657855987548828e+00,-1.573624968528747559e+00,1.807501316070556641e-01
1.340279936790466309e+00,-1.575531840324401855e+00,2.539782524108886719e-01
1.342051625251770020e+00,-1.577614545822143555e+00,3.280492126941680908e-01
1.343719124794006348e+00,-1.579574584960937500e+00,4.031048417091369629e-01
1.345559120178222656e+00,-1.581737518310546875e+00,4.794287979602813721e-01
1.358436226844787598e+00,-1.551328778266906738e+00,-5.525185465812683105e-01
1.360148429870605469e+00,-1.553283929824829102e+00,-4.766565263271331787e-01
1.361992239952087402e+00,-1.555389642715454102e+00,-4.018667638301849365e-01
1.363719224929809570e+00,-1.557361841201782227e+00,-3.278631865978240967e-01
1.365400552749633789e+00,-1.559281826019287109e+00,-2.544831335544586182e-01
1.367165923118591309e+00,-1.561297893524169922e+00,-1.815633475780487061e-01
1.368846178054809570e+00,-1.563216805458068848e+00,-1.088944077491760254e-01
1.370564341545104980e+00,-1.565178871154785156e+00,-3.631416708230972290e-02
1.372326493263244629e+00,-1.567191362380981445e+00,3.636085614562034607e-02
1.374010324478149414e+00,-1.569114327430725098e+00,1.093052327632904053e-01
1.375804424285888672e+00,-1.571163058280944824e+00,1.827105581760406494e-01
1.377583146095275879e+00,-1.573194384574890137e+00,2.567537426948547363e-01
1.379280924797058105e+00,-1.575133204460144043e+00,3.316044807434082031e-01
1.381160497665405273e+00,-1.577279806137084961e+00,4.075224995613098145e-01
1.382887244224548340e+00,-1.579251646995544434e+00,4.846252501010894775e-01
1.397135496139526367e+00,-1.550186038017272949e+00,-5.591766834259033203e-01
1.399058938026428223e+00,-1.552320241928100586e+00,-4.824565649032592773e-01
1.400829911231994629e+00,-1.554285168647766113e+00,-4.067202508449554443e-01
1.402729153633117676e+00,-1.556392431259155273e+00,-3.318519890308380127e-01
1.404531598091125488e+00,-1.558392405509948730e+00,-2.575926184654235840e-01
1.406290650367736816e+00,-1.560344099998474121e+00,-1.837743818759918213e-01
1.408043742179870605e+00,-1.562289237976074219e+00,-1.102224364876747131e-01
1.409810900688171387e+00,-1.564249992370605469e+00,-3.675703331828117371e-02
1.411599040031433105e+00,-1.566233992576599121e+00,3.680365532636642456e-02
1.413393616676330566e+00,-1.568225264549255371e+00,1.106412336230278015e-01
1.415164351463317871e+00,-1.570189952850341797e+00,1.849340051412582397e-01
1.416868567466735840e+00,-1.572080731391906738e+00,2.598552107810974121e-01
1.418744087219238281e+00,-1.574161767959594727e+00,3.356407582759857178e-01
1.420514106750488281e+00,-1.576125741004943848e+00,4.124354124069213867e-01
1.422486424446105957e+00,-1.578314065933227539e+00,4.905353784561157227e-01
1.435746312141418457e+00,-1.547893166542053223e+00,-5.657045841217041016e-01
1.437880277633666992e+00,-1.550193905830383301e+00,-4.881422221660614014e-01
1.439546942710876465e+00,-1.551990747451782227e+00,-4.114695191383361816e-01
1.441401720046997070e+00,-1.553990364074707031e+00,-3.357044458389282227e-01
1.443350315093994141e+00,-1.556091189384460449e+00,-2.606004178524017334e-01
1.445110201835632324e+00,-1.557988524436950684e+00,-1.859140992164611816e-01
1.446942925453186035e+00,-1.559964418411254883e+00,-1.115081831812858582e-01
1.448761820793151855e+00,-1.561925411224365234e+00,-3.718587756156921387e-02
1.450565934181213379e+00,-1.563870429992675781e+00,3.723218291997909546e-02
1.452461481094360352e+00,-1.565914034843444824e+00,1.119334623217582703e-01
1.454182744026184082e+00,-1.567769765853881836e+00,1.870812773704528809e-01
1.456035256385803223e+00,-1.569766998291015625e+00,2.628906965255737305e-01
1.458120703697204590e+00,-1.572015285491943359e+00,3.395983278751373291e-01
1.459779024124145508e+00,-1.573803186416625977e+00,4.172524809837341309e-01
1.462018609046936035e+00,-1.576217651367187500e+00,4.963369071483612061e-01
1.475794315338134766e+00,-1.546087265014648438e+00,-5.727059245109558105e-01
1.477837085723876953e+00,-1.548227310180664062e+00,-4.941332340240478516e-01
1.479713797569274902e+00,-1.550193428993225098e+00,-4.165655970573425293e-01
1.481726527214050293e+00,-1.552302002906799316e+00,-3.398865461349487305e-01
1.483479142189025879e+00,-1.554138183593750000e+00,-2.638023495674133301e-01
1.485386013984680176e+00,-1.556135773658752441e+00,-1.882107853889465332e-01
1.487277507781982422e+00,-1.558117389678955078e+00,-1.128862872719764709e-01
1.489143848419189453e+00,-1.560072660446166992e+00,-3.764536976814270020e-02
1.490994095802307129e+00,-1.562011003494262695e+00,3.769214078783988953e-02
1.492842555046081543e+00,-1.563947558403015137e+00,1.133086830377578735e-01
1.494871735572814941e+00,-1.566073417663574219e+00,1.894127279520034790e-01
1.496667265892028809e+00,-1.567954301834106445e+00,2.661475241184234619e-01
1.498645067214965820e+00,-1.570026516914367676e+00,3.437674343585968018e-01
1.500507116317749023e+00,-1.571977138519287109e+00,4.224192798137664795e-01
1.502589821815490723e+00,-1.574159145355224609e+00,5.024096369743347168e-01
1.517440438270568848e+00,-1.544831991195678711e+00,-5.802270770072937012e-01
1.519720673561096191e+00,-1.547153472900390625e+00,-5.006817579269409180e-01
1.521490335464477539e+00,-1.548955082893371582e+00,-4.220417141914367676e-01
1.523461461067199707e+00,-1.550961852073669434e+00,-3.443323969841003418e-01
1.525370717048645020e+00,-1.552905440330505371e+00,-2.672717571258544922e-01
1.527374029159545898e+00,-1.554944992065429688e+00,-1.906913965940475464e-01
1.529263615608215332e+00,-1.556868672370910645e+00,-1.143699735403060913e-01
1.531185507774353027e+00,-1.558825254440307617e+00,-3.814021870493888855e-02
1.533146500587463379e+00,-1.560821652412414551e+00,3.818906471133232117e-02
1.535002708435058594e+00,-1.562711358070373535e+00,1.147991865873336792e-01
1.536979198455810547e+00,-1.564723610877990723e+00,1.918905973434448242e-01
1.538929820060729980e+00,-1.566709399223327637e+00,2.696475684642791748e-01
1.541126728057861328e+00,-1.568946003913879395e+00,3.483251035213470459e-01
1.542858839035034180e+00,-1.570709228515625000e+00,4.279690384864807129e-01
1.545222520828247070e+00,-1.573115706443786621e+00,5.090835094451904297e-01
1.559967994689941406e+00,-1.543309926986694336e+00,-5.879815220832824707e-01
1.561765551567077637e+00,-1.545088291168212891e+00,-5.071956515312194824e-01
1.563786625862121582e+00,-1.547087788581848145e+00,-4.275878667831420898e-01
1.565947890281677246e+00,-1.549226045608520508e+00,-3.488875031471252441e-01
1.567812681198120117e+00,-1.551070809364318848e+00,-2.707905769348144531e-01
1.569829583168029785e+00,-1.553066134452819824e+00,-1.931967735290527344e-01
1.571814537048339844e+00,-1.555029988288879395e+00,-1.158757805824279785e-01
1.573790192604064941e+00,-1.556984543800354004e+00,-3.864238411188125610e-02
1.575763463973999023e+00,-1.558936715126037598e+00,3.869083523750305176e-02
1.577715873718261719e+00,-1.560868263244628906e+00,1.163108274340629578e-01
1.579851984977722168e+00,-1.562981605529785156e+00,1.944302320480346680e-01
1.581718325614929199e+00,-1.564827919006347656e+00,2.731923162937164307e-01
1.583772420883178711e+00,-1.566860079765319824e+00,3.528587222099304199e-01
1.586111664772033691e+00,-1.569174408912658691e+00,4.336921870708465576e-01
1.587848305702209473e+00,-1.570892572402954102e+00,5.156662464141845703e-01
1.602442145347595215e+00,-1.540578484535217285e+00,-5.956184267997741699e-01
1.604527711868286133e+00,-1.542583465576171875e+00,-5.138598084449768066e-01
1.606473565101623535e+00,-1.544454336166381836e+00,-4.331708252429962158e-01
1.608617544174194336e+00,-1.546515464782714844e+00,-3.534261286258697510e-01
1.610676646232604980e+00,-1.548495054244995117e+00,-2.743376791477203369e-01
1.612812995910644531e+00,-1.550548911094665527e+00,-1.957352906465530396e-01
1.614800095558166504e+00,-1.552459359169006348e+00,-1.173945292830467224e-01
1.616831183433532715e+00,-1.554412007331848145e+00,-3.914889320731163025e-02
1.618912100791931152e+00,-1.556412577629089355e+00,3.919927775859832764e-02
1.620854973793029785e+00,-1.558280467987060547e+00,1.178347095847129822e-01
1.622902631759643555e+00,-1.560249090194702148e+00,1.969597935676574707e-01
1.624900221824645996e+00,-1.562169551849365234e+00,2.767603099346160889e-01
1.627147078514099121e+00,-1.564329743385314941e+00,3.574972152709960938e-01
1.629307270050048828e+00,-1.566406488418579102e+00,4.393276870250701904e-01
1.631267666816711426e+00,-1.568291187286376953e+00,5.224234461784362793e-01
1.646618723869323730e+00,-1.538312315940856934e+00,-6.037926077842712402e-01
1.649019837379455566e+00,-1.540555477142333984e+00,-5.209934711456298828e-01
1.651198148727416992e+00,-1.542590379714965820e+00,-4.392317533493041992e-01
1.653256893157958984e+00,-1.544513702392578125e+00,-3.583398759365081787e-01
1.655279159545898438e+00,-1.546403050422668457e+00,-2.781360745429992676e-01
1.657439231872558594e+00,-1.548421025276184082e+00,-1.984411329030990601e-01
1.659532904624938965e+00,-1.550377011299133301e+00,-1.190210953354835510e-01
1.661623358726501465e+00,-1.552329897880554199e+00,-3.969139233231544495e-02
1.663709163665771484e+00,-1.554278492927551270e+00,3.974121809005737305e-02
1.665744423866271973e+00,-1.556180000305175781e+00,1.194665804505348206e-01
1.667945861816406250e+00,-1.558236598968505859e+00,1.996990591287612915e-01
1.670147061347961426e+00,-1.560293078422546387e+00,2.806343138217926025e-01
1.672274708747863770e+00,-1.562280654907226562e+00,3.624619543552398682e-01
1.674233436584472656e+00,-1.564110636711120605e+00,4.453593492507934570e-01
1.676430225372314453e+00,-1.566162943840026855e+00,5.296535491943359375e-01
1.693139433860778809e+00,-1.536985874176025391e+00,-6.127213835716247559e-01
1.695422530174255371e+00,-1.539058327674865723e+00,-5.286398530006408691e-01
1.697528839111328125e+00,-1.540970444679260254e+00,-4.456432163715362549e-01
1.699822425842285156e+00,-1.543052434921264648e+00,-3.636084198951721191e-01
1.701808929443359375e+00,-1.544855713844299316e+00,-2.822100222110748291e-01
1.703992009162902832e+00,-1.546837568283081055e+00,-2.013433277606964111e-01
1.706164717674255371e+00,-1.548809885978698730e+00,-1.207631975412368774e-01
1.708310723304748535e+00,-1.550758004188537598e+00,-4.027228057384490967e-02
1.710440158843994141e+00,-1.552690863609313965e+00,4.032247886061668396e-02
1.712570905685424805e+00,-1.554625272750854492e+00,1.212166324257850647e-01
1.714933037757873535e+00,-1.556769371032714844e+00,2.026360929012298584e-01
1.717018842697143555e+00,-1.558662891387939453e+00,2.847322821617126465e-01
1.719345092773437500e+00,-1.560774564743041992e+00,3.677845001220703125e-01
1.721549153327941895e+00,-1.562775373458862305e+00,4.519491493701934814e-01
1.724060773849487305e+00,-1.565055370330810547e+00,5.375694036483764648e-01
1.739994049072265625e+00,-1.534673333168029785e+00,-6.216643452644348145e-01
1.742169380187988281e+00,-1.536591887474060059e+00,-5.363029837608337402e-01
1.744215250015258789e+00,-1.538396358489990234e+00,-4.520725011825561523e-01
1.746509075164794922e+00,-1.540419459342956543e+00,-3.688409328460693359e-01
1.748921871185302734e+00,-1.542547583580017090e+00,-2.863320410251617432e-01
1.751059889793395996e+00,-1.544433355331420898e+00,-2.042718678712844849e-01
1.753240227699279785e+00,-1.546356320381164551e+00,-1.225160360336303711e-01
1.755447387695312500e+00,-1.548303008079528809e+00,-4.085686430335044861e-02
1.757691025733947754e+00,-1.550282001495361328e+00,4.090908542275428772e-02
1.759992122650146484e+00,-1.552311539649963379e+00,1.229878664016723633e-01
1.762039661407470703e+00,-1.554117441177368164e+00,2.055527120828628540e-01
1.764246940612792969e+00,-1.556064248085021973e+00,2.888410389423370361e-01
1.766760945320129395e+00,-1.558281660079956055e+00,3.731178641319274902e-01
1.769205451011657715e+00,-1.560437679290771484e+00,4.585495889186859131e-01
1.771454691886901855e+00,-1.562421441078186035e+00,5.453180670738220215e-01
1.788398742675781250e+00,-1.532421946525573730e+00,-6.310570240020751953e-01
1.790961861610412598e+00,-1.534618258476257324e+00,-5.445054769515991211e-01
