6.725790977478027344e+00,-1.216289162635803223e+00,1.328564643859863281e+00
3.959335565567016602e+00,-6.576305031776428223e-01,-1.075433611869812012e+00
4.714584827423095703e+00,-7.830744981765747070e-01,-1.103357791900634766e+00
5.822074890136718750e+00,-9.670243263244628906e-01,-1.147199392318725586e+00
6.632798671722412109e+00,-1.101682424545288086e+00,-1.064922928810119629e+00
6.641299247741699219e+00,-1.103094458580017090e+00,-8.266195058822631836e-01
6.649557113647460938e+00,-1.104466080665588379e+00,-5.897302031517028809e-01
6.657750606536865234e+00,-1.105826854705810547e+00,-3.536976277828216553e-01
6.665978431701660156e+00,-1.107193470001220703e+00,-1.179489865899085999e-01
6.674261093139648438e+00,-1.108569264411926270e+00,1.180955469608306885e-01
6.682538032531738281e+00,-1.109943985939025879e+00,3.550144433975219727e-01
6.690670967102050781e+00,-1.111294865608215332e+00,5.933764576911926270e-01
6.698444843292236328e+00,-1.112586021423339844e+00,8.337322473526000977e-01
6.707663059234619141e+00,-1.114117145538330078e+00,1.076942682266235352e+00
6.716642379760742188e+00,-1.115608692169189453e+00,1.323467731475830078e+00
3.959440469741821289e+00,-5.995492339134216309e-01,-1.073021173477172852e+00
4.714544773101806641e+00,-7.138891816139221191e-01,-1.100844264030456543e+00
5.821849346160888672e+00,-8.815602660179138184e-01,-1.144551277160644531e+00
6.619939327239990234e+00,-1.002409219741821289e+00,-1.060446143150329590e+00
6.628310680389404297e+00,-1.003676772117614746e+00,-8.231304287910461426e-01
6.636476516723632812e+00,-1.004913330078125000e+00,-5.872342586517333984e-01
6.644614219665527344e+00,-1.006145596504211426e+00,-3.521985709667205811e-01
6.652826309204101562e+00,-1.007389068603515625e+00,-1.174491047859191895e-01
6.661129951477050781e+00,-1.008646488189697266e+00,1.175957024097442627e-01
6.669467449188232422e+00,-1.009908914566040039e+00,3.535159230232238770e-01
6.677698135375976562e+00,-1.011155247688293457e+00,5.908818244934082031e-01
6.685606002807617188e+00,-1.012352705001831055e+00,8.302456736564636230e-01
6.694999217987060547e+00,-1.013774991035461426e+00,1.072469830513000488e+00
6.704181671142578125e+00,-1.015165448188781738e+00,1.318014264106750488e+00
3.986916065216064453e+00,-5.454608798027038574e-01,-1.078240871429443359e+00
4.714501857757568359e+00,-6.450039148330688477e-01,-1.098566055297851562e+00
5.821634292602539062e+00,-7.964737415313720703e-01,-1.142150878906250000e+00
6.607153892517089844e+00,-9.039428234100341797e-01,-1.056217193603515625e+00
6.615405559539794922e+00,-9.050717353820800781e-01,-8.198351263999938965e-01
6.623485088348388672e+00,-9.061771631240844727e-01,-5.848771333694458008e-01
6.631572723388671875e+00,-9.072836041450500488e-01,-3.507830500602722168e-01
6.639767646789550781e+00,-9.084047675132751465e-01,-1.169770434498786926e-01
6.648090362548828125e+00,-9.095433950424194336e-01,1.171236634254455566e-01
6.656481266021728516e+00,-9.106914401054382324e-01,3.521006107330322266e-01
6.664799213409423828e+00,-9.118294119834899902e-01,5.885252952575683594e-01
6.672827720642089844e+00,-9.129278063774108887e-01,8.269513249397277832e-01
6.682378292083740234e+00,-9.142344594001770020e-01,1.068242430686950684e+00
6.689272880554199219e+00,-9.151777029037475586e-01,1.312373518943786621e+00
3.987770080566406250e+00,-4.875442087650299072e-01,-1.076474308967590332e+00
4.754820346832275391e+00,-5.813236236572265625e-01,-1.105908751487731934e+00
5.822608947753906250e+00,-7.118713259696960449e-01,-1.140226125717163086e+00
6.597160339355468750e+00,-8.065678477287292480e-01,-1.052666187286376953e+00
6.605316162109375000e+00,-8.075650334358215332e-01,-8.170685768127441406e-01
6.613327980041503906e+00,-8.085445165634155273e-01,-5.828985571861267090e-01
6.621374130249023438e+00,-8.095282912254333496e-01,-3.495948612689971924e-01
6.629556655883789062e+00,-8.105286359786987305e-01,-1.165808141231536865e-01
6.637894630432128906e+00,-8.115480542182922363e-01,1.167274415493011475e-01
6.646328926086425781e+00,-8.125792145729064941e-01,3.509124219417572021e-01
6.654717445373535156e+00,-8.136047720909118652e-01,5.865465998649597168e-01
6.662842750549316406e+00,-8.145982027053833008e-01,8.241845369338989258e-01
6.670413494110107422e+00,-8.155238032341003418e-01,1.064354777336120605e+00
6.679556846618652344e+00,-8.166416883468627930e-01,1.308040022850036621e+00
3.987772226333618164e+00,-4.297136664390563965e-01,-1.074704408645629883e+00
4.754699230194091797e+00,-5.123560428619384766e-01,-1.104061961174011230e+00
5.822334289550781250e+00,-6.274020671844482422e-01,-1.138297200202941895e+00
6.584420204162597656e+00,-7.095227837562561035e-01,-1.048905372619628906e+00
6.592477321624755859e+00,-7.103909850120544434e-01,-8.141392469406127930e-01
6.600417137145996094e+00,-7.112466096878051758e-01,-5.808038115501403809e-01
6.608418464660644531e+00,-7.121087908744812012e-01,-3.483369946479797363e-01
6.616585254669189453e+00,-7.129888534545898438e-01,-1.161613613367080688e-01
6.624935626983642578e+00,-7.138886451721191406e-01,1.163079589605331421e-01
6.633409500122070312e+00,-7.148017287254333496e-01,3.496542572975158691e-01
6.641865253448486328e+00,-7.157129645347595215e-01,5.844510197639465332e-01
6.650085449218750000e+00,-7.165987491607666016e-01,8.212535381317138672e-01
6.657774925231933594e+00,-7.174273133277893066e-01,1.060590863227844238e+00
6.667061328887939453e+00,-7.184280753135681152e-01,1.303445935249328613e+00
3.988388538360595703e+00,-3.721184730529785156e-01,-1.073325157165527344e+00
4.755337715148925781e+00,-4.436751902103424072e-01,-1.102622509002685547e+00
5.823016166687011719e+00,-5.432900786399841309e-01,-1.136793732643127441e+00
6.572856903076171875e+00,-6.132505536079406738e-01,-1.045557975769042969e+00
6.581213474273681641e+00,-6.140302419662475586e-01,-8.115797042846679688e-01
6.590054988861083984e+00,-6.148551702499389648e-01,-5.790582299232482910e-01
6.598022460937500000e+00,-6.155985593795776367e-01,-3.472889661788940430e-01
6.606175899505615234e+00,-6.163592338562011719e-01,-1.158118620514869690e-01
6.614534854888916016e+00,-6.171391606330871582e-01,1.159584000706672668e-01
6.622065067291259766e+00,-6.178417205810546875e-01,3.485544621944427490e-01
6.630189895629882812e+00,-6.185997724533081055e-01,5.825848579406738281e-01
6.639840126037597656e+00,-6.195001006126403809e-01,8.188093900680541992e-01
6.647623538970947266e+00,-6.202263236045837402e-01,1.057451248168945312e+00
6.657019615173339844e+00,-6.211029887199401855e-01,1.299611449241638184e+00
4.016138553619384766e+00,-3.167996704578399658e-01,-1.079462170600891113e+00
4.755196094512939453e+00,-3.750977516174316406e-01,-1.101232051849365234e+00
5.883664131164550781e+00,-4.641131758689880371e-01,-1.147219300270080566e+00
6.560233116149902344e+00,-5.174820423126220703e-01,-1.042264819145202637e+00
6.568511486053466797e+00,-5.181350708007812500e-01,-8.090158700942993164e-01
6.577296257019042969e+00,-5.188280344009399414e-01,-5.772255063056945801e-01
6.585226535797119141e+00,-5.194535851478576660e-01,-3.461886346340179443e-01
6.593363285064697266e+00,-5.200954079627990723e-01,-1.154449135065078735e-01
6.601727962493896484e+00,-5.207552313804626465e-01,1.155913695693016052e-01
6.609282970428466797e+00,-5.213512182235717773e-01,3.474532961845397949e-01
6.617454528808593750e+00,-5.219957828521728516e-01,5.807498097419738770e-01
6.625439643859863281e+00,-5.226256847381591797e-01,8.160275220870971680e-01
6.635042667388916016e+00,-5.233831405639648438e-01,1.054150342941284180e+00
6.642074584960937500e+00,-5.239378809928894043e-01,1.295097112655639648e+00
4.016550540924072266e+00,-2.590489387512207031e-01,-1.078465938568115234e+00
4.755615234375000000e+00,-3.067151904106140137e-01,-1.100199699401855469e+00
5.884104728698730469e+00,-3.794975578784942627e-01,-1.146128773689270020e+00
6.549829483032226562e+00,-4.224337339401245117e-01,-1.039544820785522461e+00
6.558049678802490234e+00,-4.229638874530792236e-01,-8.068990111351013184e-01
6.566789627075195312e+00,-4.235275685787200928e-01,-5.757124423980712891e-01
6.574691295623779297e+00,-4.240371882915496826e-01,-3.452803492546081543e-01
6.582815170288085938e+00,-4.245611429214477539e-01,-1.151420250535011292e-01
6.591182231903076172e+00,-4.251007735729217529e-01,1.152883768081665039e-01
6.598754882812500000e+00,-4.255892038345336914e-01,3.465440869331359863e-01
6.606959819793701172e+00,-4.261183440685272217e-01,5.792341828346252441e-01
6.614993572235107422e+00,-4.266364872455596924e-01,8.139053583145141602e-01
6.624659538269042969e+00,-4.272599220275878906e-01,1.051421403884887695e+00
6.631763935089111328e+00,-4.277181029319763184e-01,1.291760683059692383e+00
4.016497135162353516e+00,-2.013696134090423584e-01,-1.077567219734191895e+00
4.755490303039550781e+00,-2.384195178747177124e-01,-1.099268674850463867e+00
5.883877277374267578e+00,-2.949919104576110840e-01,-1.145144581794738770e+00
6.537376403808593750e+00,-3.277555108070373535e-01,-1.036717653274536133e+00
6.545538425445556641e+00,-3.281647264957427979e-01,-8.046993017196655273e-01
6.554235458374023438e+00,-3.286007344722747803e-01,-5.741406679153442383e-01
6.562107563018798828e+00,-3.289954066276550293e-01,-3.443369269371032715e-01
6.570215225219726562e+00,-3.294019103050231934e-01,-1.148274093866348267e-01
6.578580856323242188e+00,-3.298213183879852295e-01,1.149736121296882629e-01
6.586165904998779297e+00,-3.302015960216522217e-01,3.455993533134460449e-01
6.594397068023681641e+00,-3.306142687797546387e-01,5.776587724685668945e-01
6.602469444274902344e+00,-3.310189843177795410e-01,8.116983175277709961e-01
6.612188339233398438e+00,-3.315062522888183594e-01,1.048581480979919434e+00
6.619353771209716797e+00,-3.318654894828796387e-01,1.288286089897155762e+00
4.016726970672607422e+00,-1.437847018241882324e-01,-1.076966404914855957e+00
4.755720138549804688e+00,-1.702380627393722534e-01,-1.098646044731140137e+00
5.884110927581787109e+00,-2.106304764747619629e-01,-1.144486069679260254e+00
6.526841640472412109e+00,-2.336380034685134888e-01,-1.034410715103149414e+00
6.534963130950927734e+00,-2.339287102222442627e-01,-8.029053211212158203e-01
6.543627738952636719e+00,-2.342388629913330078e-01,-5.728590488433837891e-01
6.551477432250976562e+00,-2.345198541879653931e-01,-3.435677886009216309e-01
6.559572219848632812e+00,-2.348096370697021484e-01,-1.145709231495857239e-01
6.567932605743408203e+00,-2.351089119911193848e-01,1.147169545292854309e-01
6.575523376464843750e+00,-2.353806346654891968e-01,3.448287844657897949e-01
6.583769321441650391e+00,-2.356757968664169312e-01,5.763732194900512695e-01
6.591865539550781250e+00,-2.359656095504760742e-01,8.098964691162109375e-01
6.601615905761718750e+00,-2.363146543502807617e-01,1.046261310577392578e+00
6.608818054199218750e+00,-2.365724593400955200e-01,1.285444974899291992e+00
4.016684055328369141e+00,-8.624634146690368652e-02,-1.076513767242431641e+00
4.755636215209960938e+00,-1.021131277084350586e-01,-1.098176479339599609e+00
5.883965969085693359e+00,-1.263406574726104736e-01,-1.143989086151123047e+00
6.514593601226806641e+00,-1.398815065622329712e-01,-1.032046556472778320e+00
6.522678852081298828e+00,-1.400551199913024902e-01,-8.010677099227905273e-01
6.531313896179199219e+00,-1.402405202388763428e-01,-5.715467929840087891e-01
6.539141178131103516e+00,-1.404085904359817505e-01,-3.427803516387939453e-01
6.547220230102539062e+00,-1.405820697546005249e-01,-1.143083274364471436e-01
6.555572986602783203e+00,-1.407614201307296753e-01,1.144541651010513306e-01
6.563162803649902344e+00,-1.409243941307067871e-01,3.440395593643188477e-01
6.571413040161132812e+00,-1.411015391349792480e-01,5.750558376312255859e-01
6.579522132873535156e+00,-1.412756592035293579e-01,8.080487847328186035e-01
6.589289665222167969e+00,-1.414853781461715698e-01,1.043879985809326172e+00
6.596516609191894531e+00,-1.416405588388442993e-01,1.282526493072509766e+00
4.016746997833251953e+00,-2.874530106782913208e-02,-1.076309919357299805e+00
4.795802593231201172e+00,-3.432050719857215881e-02,-1.107224941253662109e+00
5.884014606475830078e+00,-4.210814833641052246e-02,-1.143764138221740723e+00
6.503952503204345703e+00,-4.654464870691299438e-02,-1.030149698257446289e+00
6.512015819549560547e+00,-4.660235345363616943e-02,-7.995942831039428711e-01
6.520629882812500000e+00,-4.666399955749511719e-02,-5.704949498176574707e-01
6.528440952301025391e+00,-4.671989753842353821e-02,-3.421493470668792725e-01
6.536507129669189453e+00,-4.677762091159820557e-02,-1.140979081392288208e-01
6.544848918914794922e+00,-4.683731868863105774e-02,1.142435148358345032e-01
6.552432537078857422e+00,-4.689158871769905090e-02,3.434067070484161377e-01
6.560678005218505859e+00,-4.695059731602668762e-02,5.739988088607788086e-01
6.568786144256591797e+00,-4.700862243771553040e-02,8.065649867057800293e-01
6.576463699340820312e+00,-4.706356674432754517e-02,1.041634559631347656e+00
6.585786342620849609e+00,-4.713028296828269958e-02,1.280177950859069824e+00
4.016726493835449219e+00,2.874515578150749207e-02,-1.076304554939270020e+00
4.795773029327392578e+00,3.432029485702514648e-02,-1.107218027114868164e+00
5.883969306945800781e+00,4.210782423615455627e-02,-1.143755316734313965e+00
6.491926670074462891e+00,4.645859077572822571e-02,-1.028244972229003906e+00
6.499974250793457031e+00,4.651618003845214844e-02,-7.981157302856445312e-01
6.508573055267333984e+00,4.657771438360214233e-02,-5.694400668144226074e-01
6.516368865966796875e+00,4.663350805640220642e-02,-3.415166735649108887e-01
6.524420261383056641e+00,4.669112339615821838e-02,-1.138869300484657288e-01
6.532745838165283203e+00,4.675070568919181824e-02,1.140322536230087280e-01
6.540316104888916016e+00,4.680488258600234985e-02,3.427717089653015137e-01
6.548545837402343750e+00,4.686377570033073425e-02,5.729373693466186523e-01
6.556638717651367188e+00,4.692169278860092163e-02,8.050734400749206543e-01
6.564301490783691406e+00,4.697652906179428101e-02,1.039708256721496582e+00
6.573607444763183594e+00,4.704312235116958618e-02,1.277810573577880859e+00
4.016626834869384766e+00,8.624510467052459717e-02,-1.076498270034790039e+00
4.755554676055908203e+00,1.021113842725753784e-01,-1.098157763481140137e+00
5.883839130401611328e+00,1.263379305601119995e-01,-1.143964409828186035e+00
6.481188774108886719e+00,1.391642391681671143e-01,-1.026754498481750488e+00
6.489231109619140625e+00,1.393369287252426147e-01,-7.969598770141601562e-01
6.497821331024169922e+00,1.395213603973388672e-01,-5.686158537864685059e-01
6.505608558654785156e+00,1.396885812282562256e-01,-3.410225808620452881e-01
6.513646125793457031e+00,1.398611664772033691e-01,-1.137221530079841614e-01
6.521954536437988281e+00,1.400395631790161133e-01,1.138672158122062683e-01
6.529505252838134766e+00,1.402016878128051758e-01,3.422752618789672852e-01
6.537713050842285156e+00,1.403779238462448120e-01,5.721067786216735840e-01
6.545779705047607422e+00,1.405511349439620972e-01,8.039047718048095703e-01
6.555496692657470703e+00,1.407597810029983521e-01,1.038526415824890137e+00
6.562686443328857422e+00,1.409141570329666138e-01,1.275949120521545410e+00
4.016627311706542969e+00,1.437811404466629028e-01,-1.076939702033996582e+00
4.755580425262451172e+00,1.702330559492111206e-01,-1.098613739013671875e+00
5.883893013000488281e+00,2.106226980686187744e-01,-1.144443750381469727e+00
6.469382762908935547e+00,2.315811663866043091e-01,-1.025304317474365234e+00
6.477431297302246094e+00,2.318692654371261597e-01,-7.958367466926574707e-01
6.486018657684326172e+00,2.321766614913940430e-01,-5.678157210350036621e-01
6.493798255920410156e+00,2.324551641941070557e-01,-3.405430316925048828e-01
6.501821041107177734e+00,2.327423542737960815e-01,-1.135622337460517883e-01
6.510107994079589844e+00,2.330389767885208130e-01,1.137069687247276306e-01
6.517631530761718750e+00,2.333083003759384155e-01,3.417928516864776611e-01
6.525803089141845703e+00,2.336008250713348389e-01,5.712986588478088379e-01
6.533827304840087891e+00,2.338880598545074463e-01,8.027657866477966309e-01
6.543491840362548828e+00,2.342340052127838135e-01,1.037049531936645508e+00
6.550628185272216797e+00,2.344894558191299438e-01,1.274126648902893066e+00
4.016360759735107422e+00,2.013627886772155762e-01,-1.077530622482299805e+00
4.755298614501953125e+00,2.384099066257476807e-01,-1.099224328994750977e+00
5.883579254150390625e+00,2.949769794940948486e-01,-1.145086646080017090e+00
6.458538532257080078e+00,3.238029181957244873e-01,-1.024215340614318848e+00
6.466601371765136719e+00,3.242071568965911865e-01,-7.949948906898498535e-01
6.475192546844482422e+00,3.246378898620605469e-01,-5.672166347503662109e-01
6.482967853546142578e+00,3.250277042388916016e-01,-3.401841819286346436e-01
6.490976810455322266e+00,3.254292309284210205e-01,-1.134425625205039978e-01
6.499240398406982422e+00,3.258435428142547607e-01,1.135869845747947693e-01
6.506733417510986328e+00,3.262192010879516602e-01,3.414312601089477539e-01
6.514863967895507812e+00,3.266268372535705566e-01,5.706917643547058105e-01
6.522838115692138672e+00,3.270266354084014893e-01,8.019085526466369629e-01
6.532438755035400391e+00,3.275079727172851562e-01,1.035934567451477051e+00
6.539510726928710938e+00,3.278625011444091797e-01,1.272746682167053223e+00
4.016372203826904297e+00,2.590374350547790527e-01,-1.078418016433715820e+00
4.755365371704101562e+00,3.066990971565246582e-01,-1.100141882896423340e+00
5.883715629577636719e+00,3.794724643230438232e-01,-1.146052956581115723e+00
6.446933269500732422e+00,4.157973825931549072e-01,-1.023213863372802734e+00
6.455022335052490234e+00,4.163190722465515137e-01,-7.942225933074951172e-01
6.463623523712158203e+00,4.168738126754760742e-01,-5.666678547859191895e-01
6.471399784088134766e+00,4.173753857612609863e-01,-3.398558497428894043e-01
6.479394912719726562e+00,4.178910255432128906e-01,-1.133330687880516052e-01
6.487628459930419922e+00,4.184220433235168457e-01,1.134770885109901428e-01
6.495081424713134766e+00,4.189027249813079834e-01,3.410995006561279297e-01
6.503155708312988281e+00,4.194234907627105713e-01,5.701336264610290527e-01
6.511061668395996094e+00,4.199333786964416504e-01,8.011176586151123047e-01
6.520574569702148438e+00,4.205469191074371338e-01,1.034901738166809082e+00
6.527554988861083984e+00,4.209971129894256592e-01,1.271462440490722656e+00
4.015923976898193359e+00,3.167827427387237549e-01,-1.079404592514038086e+00
4.754893779754638672e+00,3.750739097595214844e-01,-1.101161956787109375e+00
5.883193969726562500e+00,4.640760719776153564e-01,-1.147127628326416016e+00
6.435960769653320312e+00,5.076792240142822266e-01,-1.022521018981933594e+00
6.444080829620361328e+00,5.083197951316833496e-01,-7.936902642250061035e-01
6.452697277069091797e+00,5.089994668960571289e-01,-5.662906169891357422e-01
6.460474967956542969e+00,5.096129775047302246e-01,-3.396303951740264893e-01
6.468456745147705078e+00,5.102425813674926758e-01,-1.132578924298286438e-01
6.476660728454589844e+00,5.108897089958190918e-01,1.134015321731567383e-01
6.484071731567382812e+00,5.114743113517761230e-01,3.408708572387695312e-01
6.492086887359619141e+00,5.121065378189086914e-01,5.697475075721740723e-01
6.499918937683105469e+00,5.127243995666503906e-01,8.005676269531250000e-01
6.509337902069091797e+00,5.134673714637756348e-01,1.034178853034973145e+00
6.516218185424804688e+00,5.140100717544555664e-01,1.270557045936584473e+00
3.988137245178222656e+00,3.720950484275817871e-01,-1.073257565498352051e+00
4.754977226257324219e+00,4.436415433883666992e-01,-1.102538943290710449e+00
5.822466850280761719e+00,5.432388186454772949e-01,-1.136686563491821289e+00
6.424518585205078125e+00,5.994105339050292969e-01,-1.021961450576782227e+00
6.432684898376464844e+00,6.001724600791931152e-01,-7.932634949684143066e-01
6.441324234008789062e+00,6.009784936904907227e-01,-5.659894943237304688e-01
6.449110031127929688e+00,6.017049551010131836e-01,-3.394509255886077881e-01
6.457077026367187500e+00,6.024482250213623047e-01,-1.131980270147323608e-01
6.465245723724365234e+00,6.032103896141052246e-01,1.133412346243858337e-01
6.472603797912597656e+00,6.038969159126281738e-01,3.406875133514404297e-01
6.480543136596679688e+00,6.046376824378967285e-01,5.694355964660644531e-01
6.489973545074462891e+00,6.055175065994262695e-01,8.003281950950622559e-01
6.497579097747802734e+00,6.062270998954772949e-01,1.033583402633666992e+00
6.506735324859619141e+00,6.070814132690429688e-01,1.270272374153137207e+00
3.987484693527221680e+00,4.296826720237731934e-01,-1.074626922607421875e+00
4.754286289215087891e+00,5.123115777969360352e-01,-1.103965997695922852e+00
5.821705341339111328e+00,6.273342967033386230e-01,-1.138174295425415039e+00
6.414677619934082031e+00,6.912316679954528809e-01,-1.021865248680114746e+00
6.422524452209472656e+00,6.920772790908813477e-01,-7.931509017944335938e-01
6.430256843566894531e+00,6.929104924201965332e-01,-5.658305287361145020e-01
6.438050746917724609e+00,6.937503218650817871e-01,-3.393566906452178955e-01
6.446004390716552734e+00,6.946074366569519043e-01,-1.131666228175163269e-01
6.454136848449707031e+00,6.954837441444396973e-01,1.133093982934951782e-01
6.462388992309570312e+00,6.963729858398437500e-01,3.406395912170410156e-01
6.470624923706054688e+00,6.972604393959045410e-01,5.693827271461486816e-01
6.478630065917968750e+00,6.981230974197387695e-01,8.000796437263488770e-01
6.486119747161865234e+00,6.989301443099975586e-01,1.033246040344238281e+00
6.495133399963378906e+00,6.999014616012573242e-01,1.269833087921142578e+00
3.987441539764404297e+00,4.875040352344512939e-01,-1.076385617256164551e+00
4.754348754882812500e+00,5.812660455703735352e-01,-1.105799198150634766e+00
5.821890354156494141e+00,7.117835283279418945e-01,-1.140085577964782715e+00
7.500825881958007812e+00,9.170498847961425781e-01,-1.196858286857604980e+00
1.040884399414062500e+01,1.272583723068237305e+00,-1.287559747695922852e+00
1.042525577545166016e+01,1.274590253829956055e+00,-9.188817143440246582e-01
1.044173431396484375e+01,1.276605010032653809e+00,-5.513019561767578125e-01
1.045843982696533203e+01,1.278647303581237793e+00,-1.839117556810379028e-01
1.047540378570556641e+01,1.280721426010131836e+00,1.842100769281387329e-01
1.049253082275390625e+01,1.282815337181091309e+00,5.539839267730712891e-01
1.050952720642089844e+01,1.284893274307250977e+00,9.263094067573547363e-01
3.986551523208618164e+00,5.454109907150268555e-01,-1.078142285346984863e+00
4.713987827301025391e+00,6.449335813522338867e-01,-1.098446249961853027e+00
5.820837497711181641e+00,7.963646650314331055e-01,-1.141994476318359375e+00
7.499581813812255859e+00,1.026038289070129395e+00,-1.198880314826965332e+00
1.052685546875000000e+01,1.440207839012145996e+00,-1.304573893547058105e+00
1.762310791015625000e+01,2.411065578460693359e+00,-1.556182622909545898e+00
2.147955131530761719e+01,2.938676118850708008e+00,-1.136180281639099121e+00
2.150608062744140625e+01,2.942305803298950195e+00,-3.788864016532897949e-01
2.153302574157714844e+01,2.945992231369018555e+00,3.793611228466033936e-01
3.959041118621826172e+00,5.994887948036193848e-01,-1.072912931442260742e+00
4.713973045349121094e+00,7.138026356697082520e-01,-1.100710868835449219e+00
5.820963382720947266e+00,8.814260959625244141e-01,-1.144377231597900391e+00
7.499885082244873047e+00,1.135653018951416016e+00,-1.201404333114624023e+00
1.052740573883056641e+01,1.594088435173034668e+00,-1.307335853576660156e+00
1.762406158447265625e+01,2.668683528900146484e+00,-1.559480190277099609e+00
2.144161987304687500e+01,3.246748447418212891e+00,-1.136515617370605469e+00
2.146810531616210938e+01,3.250758886337280273e+00,-3.789982795715332031e-01
2.149489021301269531e+01,3.254814624786376953e+00,3.794711530208587646e-01
3.958896160125732422e+00,6.575575470924377441e-01,-1.075314283370971680e+00
4.713955402374267578e+00,7.829699516296386719e-01,-1.103210568428039551e+00
5.821098804473876953e+00,9.668622016906738281e-01,-1.147006988525390625e+00
7.500217437744140625e+00,1.245757460594177246e+00,-1.204190492630004883e+00
1.052801227569580078e+01,1.748662590980529785e+00,-1.310385227203369141e+00
1.762512779235839844e+01,2.927466154098510742e+00,-1.563122034072875977e+00
2.140397644042968750e+01,3.555118560791015625e+00,-1.137101054191589355e+00
2.143041229248046875e+01,3.559509754180908203e+00,-3.791934847831726074e-01
2.145702552795410156e+01,3.563930034637451172e+00,3.796643614768981934e-01
3.957610130310058594e+00,7.156925201416015625e-01,-1.077637076377868652e+00
4.712572574615478516e+00,8.522195816040039062e-01,-1.105628371238708496e+00
5.759922504425048828e+00,1.041621923446655273e+00,-1.137773871421813965e+00
7.498364925384521484e+00,1.356001019477844238e+00,-1.206885695457458496e+00
1.052554893493652344e+01,1.903435707092285156e+00,-1.313335180282592773e+00
1.762106323242187500e+01,3.186585426330566406e+00,-1.566646337509155273e+00
2.136456680297851562e+01,3.863559007644653320e+00,-1.137828826904296875e+00
2.139095306396484375e+01,3.868330717086791992e+00,-3.794361352920532227e-01
2.141739845275878906e+01,3.873113155364990234e+00,3.799052238464355469e-01
3.930313110351562500e+00,7.690030336380004883e-01,-1.073091387748718262e+00
4.673646450042724609e+00,9.144431948661804199e-01,-1.099454045295715332e+00
5.759870529174804688e+00,1.126973271369934082e+00,-1.140833139419555664e+00
7.398983478546142578e+00,1.447681188583374023e+00,-1.194102764129638672e+00
1.052589321136474609e+01,2.059490680694580078e+00,-1.316921353340148926e+00
1.762172126770019531e+01,3.447856903076171875e+00,-1.570931553840637207e+00
2.132672309875488281e+01,4.172775268554687500e+00,-1.138877511024475098e+00
2.135306358337402344e+01,4.177929401397705078e+00,-3.797858655452728271e-01
2.137931632995605469e+01,4.183065891265869141e+00,3.802528083324432373e-01
3.929939746856689453e+00,8.274984359741210938e-01,-1.076113104820251465e+00
4.673394680023193359e+00,9.840422272682189941e-01,-1.102595329284667969e+00
5.759757995605468750e+00,1.212789773941040039e+00,-1.144131898880004883e+00
7.399021625518798828e+00,1.557957530021667480e+00,-1.197585225105285645e+00
1.052616119384765625e+01,2.216416358947753906e+00,-1.320788860321044922e+00
1.762226676940917969e+01,3.710591077804565430e+00,-1.575553536415100098e+00
2.128889274597167969e+01,4.482645511627197266e+00,-1.140166997909545898e+00
2.131518554687500000e+01,4.488181591033935547e+00,-3.802158236503601074e-01
2.134123802185058594e+01,4.493667125701904297e+00,3.806805610656738281e-01
3.929486036300659180e+00,8.863187432289123535e-01,-1.079352140426635742e+00
4.673059463500976562e+00,1.054036140441894531e+00,-1.105962395668029785e+00
5.701167583465576172e+00,1.285931944847106934e+00,-1.136033296585083008e+00
7.398958683013916016e+00,1.668878793716430664e+00,-1.201318264007568359e+00
1.033010864257812500e+01,2.330016851425170898e+00,-1.300240278244018555e+00
1.762261199951171875e+01,3.974884033203125000e+00,-1.580509185791015625e+00
2.125096511840820312e+01,4.793280601501464844e+00,-1.141693115234375000e+00
2.127721214294433594e+01,4.799200534820556641e+00,-3.807247877120971680e-01
2.130305480957031250e+01,4.805029392242431641e+00,3.811872303485870361e-01
3.902322769165039062e+00,9.390794038772583008e-01,-1.075472831726074219e+00
4.634528636932373047e+00,1.115282058715820312e+00,-1.100508809089660645e+00
5.700842380523681641e+00,1.371886491775512695e+00,-1.139764547348022461e+00
7.398757457733154297e+00,1.780483484268188477e+00,-1.205299973487854004e+00
1.033005523681640625e+01,2.485889434814453125e+00,-1.304578542709350586e+00
1.762266159057617188e+01,4.240828037261962891e+00,-1.585795402526855469e+00
2.121283340454101562e+01,5.104789257049560547e+00,-1.143452882766723633e+00
2.123903274536132812e+01,5.111093997955322266e+00,-3.813116252422332764e-01
2.126465797424316406e+01,5.117260932922363281e+00,3.817716836929321289e-01
3.901646852493286133e+00,9.982011318206787109e-01,-1.079113721847534180e+00
4.633952617645263672e+00,1.185554981231689453e+00,-1.104288339614868164e+00
5.700368881225585938e+00,1.458387851715087891e+00,-1.143726110458374023e+00
7.398375034332275391e+00,1.892807483673095703e+00,-1.209527373313903809e+00
1.032976436614990234e+01,2.642776966094970703e+00,-1.309185028076171875e+00
1.762232017517089844e+01,4.508512020111083984e+00,-1.591408610343933105e+00
2.117437934875488281e+01,5.417273998260498047e+00,-1.145442485809326172e+00
2.120052909851074219e+01,5.423964023590087891e+00,-3.819750547409057617e-01
2.122592926025390625e+01,5.430462360382080078e+00,3.824326992034912109e-01
3.874596834182739258e+00,1.050586819648742676e+00,-1.075681209564208984e+00
4.595772743225097656e+00,1.246131777763366699e+00,-1.099327921867370605e+00
5.642527580261230469e+00,1.529956579208374023e+00,-1.136398315429687500e+00
7.300899505615234375e+00,1.979619741439819336e+00,-1.198101162910461426e+00
1.032917690277099609e+01,2.800729036331176758e+00,-1.314056634902954102e+00
1.707672500610351562e+01,4.630308628082275391e+00,-1.547964334487915039e+00
2.113547897338867188e+01,5.730829715728759766e+00,-1.147657990455627441e+00
2.116158103942871094e+01,5.737906932830810547e+00,-3.827138543128967285e-01
2.118856430053710938e+01,5.745223522186279297e+00,3.832018673419952393e-01
3.847754955291748047e+00,1.102662801742553711e+00,-1.072501063346862793e+00
4.594855785369873047e+00,1.316761732101440430e+00,-1.103503823280334473e+00
5.641658782958984375e+00,1.616747260093688965e+00,-1.140766978263854980e+00
7.300030231475830078e+00,2.091991901397705078e+00,-1.202749133110046387e+00
1.032822608947753906e+01,2.959791183471679688e+00,-1.319190144538879395e+00
1.707533264160156250e+01,4.893329620361328125e+00,-1.554028034210205078e+00
2.109601020812988281e+01,6.045547962188720703e+00,-1.150095701217651367e+00
2.112206077575683594e+01,6.053013324737548828e+00,-3.835267424583435059e-01
2.114878273010253906e+01,6.060670852661132812e+00,3.840119540691375732e-01
3.846585750579833984e+00,1.162152647972106934e+00,-1.076701402664184570e+00
4.556910514831542969e+00,1.376760005950927734e+00,-1.099010944366455078e+00
5.640542507171630859e+00,1.704153299331665039e+00,-1.145356297492980957e+00
7.298852920532226562e+00,2.205171585083007812e+00,-1.207631826400756836e+00
1.013793849945068359e+01,3.062932491302490234e+00,-1.300351738929748535e+00
1.707324981689453125e+01,5.158268928527832031e+00,-1.560398101806640625e+00
2.105583572387695312e+01,6.361510753631591797e+00,-1.152751564979553223e+00
2.108184051513671875e+01,6.369367122650146484e+00,-3.844124376773834229e-01
2.110829353332519531e+01,6.377359867095947266e+00,3.848948180675506592e-01
3.819715976715087891e+00,1.213957667350769043e+00,-1.073933959007263184e+00
4.555546760559082031e+00,1.447814702987670898e+00,-1.103566884994506836e+00
5.583136558532714844e+00,1.774396657943725586e+00,-1.138740062713623047e+00
7.203021526336669922e+00,2.289218187332153320e+00,-1.197074890136718750e+00
1.013609504699707031e+01,3.221389055252075195e+00,-1.305895924568176270e+00
1.707036209106445312e+01,5.425192832946777344e+00,-1.567070722579956055e+00
2.101483154296875000e+01,6.678799629211425781e+00,-1.155621886253356934e+00
2.104078102111816406e+01,6.687046527862548828e+00,-3.853695690631866455e-01
2.106695747375488281e+01,6.695365905761718750e+00,3.858489990234375000e-01
3.819945573806762695e+00,1.274505138397216797e+00,-1.079017043113708496e+00
4.519921302795410156e+00,1.508048295974731445e+00,-1.100053071975708008e+00
5.584181785583496094e+00,1.863133430480957031e+00,-1.144275307655334473e+00
7.204689502716064453e+00,2.403807401657104492e+00,-1.202947020530700684e+00
1.013877487182617188e+01,3.382749795913696289e+00,-1.312344789505004883e+00
1.707515335083007812e+01,5.697036266326904297e+00,-1.574835062026977539e+00
2.097927474975585938e+01,6.999626159667968750e+00,-1.159057259559631348e+00
2.100518226623535156e+01,7.008270263671875000e+00,-3.865152299404144287e-01
2.103106117248535156e+01,7.016904830932617188e+00,3.869914412498474121e-01
3.793003797531127930e+00,1.326140165328979492e+00,-1.076658248901367188e+00
4.518079757690429688e+00,1.579647064208984375e+00,-1.104994535446166992e+00
5.527332782745361328e+00,1.932510256767272949e+00,-1.138177633285522461e+00
7.202445983886718750e+00,2.518176555633544922e+00,-1.208466649055480957e+00
1.013591670989990234e+01,3.543799877166748047e+00,-1.318405389785766602e+00
1.707062149047851562e+01,5.968366622924804688e+00,-1.582134008407592773e+00
2.093655586242675781e+01,7.320005416870117188e+00,-1.162366747856140137e+00
2.096240806579589844e+01,7.329044342041015625e+00,-3.876187801361083984e-01
2.098799896240234375e+01,7.337991237640380859e+00,3.880919814109802246e-01
3.768085718154907227e+00,1.378259897232055664e+00,-1.075074791908264160e+00
4.482653617858886719e+00,1.639628767967224121e+00,-1.101957321166992188e+00
5.527915477752685547e+00,2.021955966949462891e+00,-1.144139885902404785e+00
7.111677169799804688e+00,2.601251602172851562e+00,-1.199361205101013184e+00
9.660169601440429688e+00,3.533418416976928711e+00,-1.262972831726074219e+00
9.671393394470214844e+00,3.537523746490478516e+00,-9.009616374969482422e-01
9.682164192199707031e+00,3.541463613510131836e+00,-5.402984023094177246e-01
9.693501472473144531e+00,3.545610189437866211e+00,-1.801638305187225342e-01
9.705344200134277344e+00,3.549942016601562500e+00,1.803839504718780518e-01
9.716866493225097656e+00,3.554156541824340820e+00,5.422348976135253906e-01
9.728135108947753906e+00,3.558278560638427734e+00,9.062476158142089844e-01
9.738779067993164062e+00,3.562171697616577148e+00,1.273250222206115723e+00
3.741313457489013672e+00,1.429502487182617188e+00,-1.073164224624633789e+00
4.445174694061279297e+00,1.698437929153442383e+00,-1.098607659339904785e+00
5.471442699432373047e+00,2.090560436248779297e+00,-1.138528227806091309e+00
7.108524322509765625e+00,2.716065645217895508e+00,-1.205262422561645508e+00
8.622312545776367188e+00,3.294462680816650391e+00,-1.133332133293151855e+00
8.632587432861328125e+00,3.298388719558715820e+00,-8.085045218467712402e-01
8.642616271972656250e+00,3.302220344543457031e+00,-4.848759770393371582e-01
8.652744293212890625e+00,3.306090354919433594e+00,-1.616832464933395386e-01
8.663048744201660156e+00,3.310027599334716797e+00,1.618757992982864380e-01
8.673209190368652344e+00,3.313909530639648438e+00,4.865923225879669189e-01
8.682961463928222656e+00,3.317635774612426758e+00,8.132224082946777344e-01
8.694206237792968750e+00,3.321932077407836914e+00,1.142781853675842285e+00
3.716603517532348633e+00,1.481360197067260742e+00,-1.072048544883728027e+00
4.444829940795898438e+00,1.771615982055664062e+00,-1.104676365852355957e+00
5.471386909484863281e+00,2.180780172348022461e+00,-1.144894599914550781e+00
7.019315242767333984e+00,2.797751903533935547e+00,-1.196804165840148926e+00
7.706236839294433594e+00,3.071544408798217773e+00,-1.018595933914184570e+00
7.715669631958007812e+00,3.075304031372070312e+00,-7.266767024993896484e-01
7.724778652191162109e+00,3.078934669494628906e+00,-4.358104169368743896e-01
7.733918190002441406e+00,3.082577466964721680e+00,-1.453238427639007568e-01
7.743066310882568359e+00,3.086223840713500977e+00,1.454957276582717896e-01
7.751917839050292969e+00,3.089751958847045898e+00,4.373415708541870117e-01
7.761821269989013672e+00,3.093699216842651367e+00,7.310233712196350098e-01
7.770018100738525391e+00,3.096966266632080078e+00,1.027026414871215820e+00
7.779493808746337891e+00,3.100743055343627930e+00,1.326415777206420898e+00
3.715766906738281250e+00,1.543015241622924805e+00,-1.078067541122436523e+00
4.409729003906250000e+00,1.831191062927246094e+00,-1.102353930473327637e+00
5.418268203735351562e+00,2.249998569488525391e+00,-1.140401601791381836e+00
6.957836627960205078e+00,2.889322280883789062e+00,-1.193251013755798340e+00
6.966793060302734375e+00,2.893041610717773438e+00,-9.262362122535705566e-01
6.974592208862304688e+00,2.896280288696289062e+00,-6.607173085212707520e-01
6.983013629913330078e+00,2.899777173995971680e+00,-3.962631821632385254e-01
6.991273403167724609e+00,2.903207302093505859e+00,-1.321365088224411011e-01
6.999436855316162109e+00,2.906597137451171875e+00,1.322907954454421997e-01
7.008208274841308594e+00,2.910239696502685547e+00,3.976929187774658203e-01
7.015947341918945312e+00,2.913453340530395508e+00,6.646349430084228516e-01
7.024680614471435547e+00,2.917079925537109375e+00,9.339323639869689941e-01
7.033141613006591797e+00,2.920593500137329102e+00,1.206165671348571777e+00
3.690854787826538086e+00,1.594979286193847656e+00,-1.077352881431579590e+00
4.374855041503906250e+00,1.890565752983093262e+00,-1.100288033485412598e+00
5.365793704986572266e+00,2.318793535232543945e+00,-1.136226296424865723e+00
6.348439216613769531e+00,2.743437528610229492e+00,-1.095363140106201172e+00
6.355728149414062500e+00,2.746587514877319336e+00,-8.501346111297607422e-01
6.363104343414306641e+00,2.749774932861328125e+00,-6.064562201499938965e-01
6.370850563049316406e+00,2.753122329711914062e+00,-3.637238740921020508e-01
6.378383636474609375e+00,2.756377935409545898e+00,-1.212860196828842163e-01
6.385759830474853516e+00,2.759565353393554688e+00,1.214262768626213074e-01
6.393595695495605469e+00,2.762951612472534180e+00,3.650224208831787109e-01
6.401595592498779297e+00,2.766408681869506836e+00,6.101247668266296387e-01
6.409544944763183594e+00,2.769844055175781250e+00,8.573331236839294434e-01
6.417148590087890625e+00,2.773129940032958984e+00,1.107218265533447266e+00
6.424047946929931641e+00,2.776111364364624023e+00,1.360315442085266113e+00
3.665951490402221680e+00,1.646876692771911621e+00,-1.076854228973388672e+00
4.340161323547363281e+00,1.949755907058715820e+00,-1.098468780517578125e+00
5.364574432373046875e+00,2.409958839416503906e+00,-1.143155455589294434e+00
5.835758686065673828e+00,2.621631622314453125e+00,-1.013275623321533203e+00
5.842761993408203125e+00,2.624778032302856445e+00,-7.864655852317810059e-01
5.849691390991210938e+00,2.627890825271606445e+00,-5.610511898994445801e-01
5.856899738311767578e+00,2.631129264831542969e+00,-3.364970982074737549e-01
5.863842964172363281e+00,2.634248256683349609e+00,-1.122074201703071594e-01
5.870554924011230469e+00,2.637263536453247070e+00,1.123358532786369324e-01
5.877598762512207031e+00,2.640427827835083008e+00,3.376863300800323486e-01
5.884700298309326172e+00,2.643618106842041016e+00,5.644089579582214355e-01
5.891671180725097656e+00,2.646749734878540039e+00,7.930490374565124512e-01
5.899939060211181641e+00,2.650464057922363281e+00,1.024419426918029785e+00
5.906072616577148438e+00,2.653219461441040039e+00,1.258545160293579102e+00
3.641022205352783203e+00,1.698716163635253906e+00,-1.076563358306884766e+00
4.338452339172363281e+00,2.024101734161376953e+00,-1.105255722999572754e+00
5.312190532684326172e+00,2.478398323059082031e+00,-1.139435410499572754e+00
5.400109767913818359e+00,2.519417047500610352e+00,-9.437977075576782227e-01
5.406529903411865234e+00,2.522412538528442383e+00,-7.325313091278076172e-01
5.412824630737304688e+00,2.525349140167236328e+00,-5.225641131401062012e-01
5.419148921966552734e+00,2.528299808502197266e+00,-3.133940100669860840e-01
5.425587654113769531e+00,2.531303882598876953e+00,-1.045038029551506042e-01
5.432155609130859375e+00,2.534368038177490234e+00,1.046303063631057739e-01
5.438811302185058594e+00,2.537473201751708984e+00,3.145310878753662109e-01
5.445429325103759766e+00,2.540560960769653320e+00,5.257118344306945801e-01
5.451837539672851562e+00,2.543550729751586914e+00,7.386700510978698730e-01
5.457792758941650391e+00,2.546329021453857422e+00,9.538792371749877930e-01
5.464822292327880859e+00,2.549608707427978516e+00,1.172174096107482910e+00
5.471259593963623047e+00,2.552612066268920898e+00,1.393847346305847168e+00
3.618307352066040039e+00,1.751606106758117676e+00,-1.077149748802185059e+00
4.306201934814453125e+00,2.084612846374511719e+00,-1.104527950286865234e+00
4.986679077148437500e+00,2.414028644561767578e+00,-1.076916217803955078e+00
4.992085933685302734e+00,2.416646003723144531e+00,-8.784413933753967285e-01
4.998285293579101562e+00,2.419647216796875000e+00,-6.818408370018005371e-01
5.004293441772460938e+00,2.422555685043334961e+00,-4.864215254783630371e-01
5.010241985321044922e+00,2.425435304641723633e+00,-2.917243540287017822e-01
5.016206741333007812e+00,2.428322792053222656e+00,-9.727811068296432495e-02
5.022203922271728516e+00,2.431226253509521484e+00,9.739442169666290283e-02
5.028191089630126953e+00,2.434124469757080078e+00,2.927694618701934814e-01
5.034059047698974609e+00,2.436964988708496094e+00,4.893147647380828857e-01
5.040828704833984375e+00,2.440242290496826172e+00,6.876444220542907715e-01
5.046169757843017578e+00,2.442827701568603516e+00,8.879583477973937988e-01
5.052408218383789062e+00,2.445847988128662109e+00,1.091111063957214355e+00
5.059936523437500000e+00,2.449492454528808594e+00,1.297858595848083496e+00
3.593253850936889648e+00,1.803405642509460449e+00,-1.077265501022338867e+00
4.271290779113769531e+00,2.143703222274780273e+00,-1.103330612182617188e+00
4.662653446197509766e+00,2.340122938156127930e+00,-1.014069795608520508e+00
4.668879032135009766e+00,2.343247413635253906e+00,-8.273848295211791992e-01
4.674052238464355469e+00,2.345844030380249023e+00,-6.421253085136413574e-01
4.679830074310302734e+00,2.348743677139282227e+00,-4.581042528152465820e-01
4.685479164123535156e+00,2.351578950881958008e+00,-2.747465372085571289e-01
4.691065788269042969e+00,2.354382753372192383e+00,-9.161686897277832031e-02
4.696608543395996094e+00,2.357164621353149414e+00,9.172511845827102661e-02
4.702063560485839844e+00,2.359902381896972656e+00,2.757190167903900146e-01
4.708188056945800781e+00,2.362976074218750000e+00,4.608801901340484619e-01
4.713363170623779297e+00,2.365573644638061523e+00,6.475258469581604004e-01
4.719325065612792969e+00,2.368565559387207031e+00,8.363245129585266113e-01
4.724948406219482422e+00,2.371387958526611328e+00,1.027618169784545898e+00
4.731691360473632812e+00,2.374772071838378906e+00,1.222258090972900391e+00
3.570411205291748047e+00,1.856382012367248535e+00,-1.078272938728332520e+00
4.239204883575439453e+00,2.204111337661743164e+00,-1.103078842163085938e+00
4.354948043823242188e+00,2.264290094375610352e+00,-9.540986418724060059e-01
4.360065937042236328e+00,2.266951322555541992e+00,-7.783297300338745117e-01
4.365719795227050781e+00,2.269890785217285156e+00,-6.041679382324218750e-01
4.370709896087646484e+00,2.272485256195068359e+00,-4.309846460819244385e-01
4.376072406768798828e+00,2.275273561477661133e+00,-2.584867477416992188e-01
4.381299018859863281e+00,2.277991056442260742e+00,-8.619507402181625366e-02
4.386405467987060547e+00,2.280646085739135742e+00,8.629553020000457764e-02
4.391915798187255859e+00,2.283510923385620117e+00,2.594226002693176270e-01
4.396832942962646484e+00,2.286067724227905273e+00,4.335606098175048828e-01
4.402374744415283203e+00,2.288949012756347656e+00,6.092405915260314941e-01
4.407772541046142578e+00,2.291755437850952148e+00,7.868459820747375488e-01
4.412774562835693359e+00,2.294356346130371094e+00,9.667674899101257324e-01
4.418735027313232422e+00,2.297455310821533203e+00,1.149794220924377441e+00
3.525763750076293945e+00,1.897757291793823242e+00,-1.072882890701293945e+00
4.079802036285400391e+00,2.195970773696899414e+00,-1.069669961929321289e+00
4.085031032562255859e+00,2.198785305023193359e+00,-9.017668962478637695e-01
4.089937686920166016e+00,2.201426267623901367e+00,-7.356578707695007324e-01
4.094731807708740234e+00,2.204006671905517578e+00,-5.709733963012695312e-01
4.099895477294921875e+00,2.206786155700683594e+00,-4.073533117771148682e-01
4.104684829711914062e+00,2.209364175796508789e+00,-2.442993223667144775e-01
4.109595298767089844e+00,2.212007284164428711e+00,-8.146428316831588745e-02
4.114631175994873047e+00,2.214717626571655273e+00,8.156409859657287598e-02
4.119333267211914062e+00,2.217248678207397461e+00,2.451711595058441162e-01
4.124465942382812500e+00,2.220011234283447266e+00,4.097945392131805420e-01
4.129570960998535156e+00,2.222759246826171875e+00,5.758314132690429688e-01
4.134464263916015625e+00,2.225392818450927734e+00,7.436668276786804199e-01
4.140261173248291016e+00,2.228513240814208984e+00,9.139589071273803711e-01
4.145717620849609375e+00,2.231450080871582031e+00,1.086952209472656250e+00
3.502943277359008789e+00,1.950641632080078125e+00,-1.074324727058410645e+00
3.841123104095458984e+00,2.138959646224975586e+00,-1.015014648437500000e+00
3.846224308013916016e+00,2.141800403594970703e+00,-8.557302355766296387e-01
3.850949048995971680e+00,2.144431352615356445e+00,-6.981204152107238770e-01
3.855493068695068359e+00,2.146961927413940430e+00,-5.418433547019958496e-01
3.860005855560302734e+00,2.149474620819091797e+00,-3.865358531475067139e-01
3.864595413208007812e+00,2.152030467987060547e+00,-2.318194359540939331e-01
3.869226217269897461e+00,2.154609203338623047e+00,-7.730287313461303711e-02
3.873897314071655273e+00,2.157210350036621094e+00,7.739619910717010498e-02
3.878679275512695312e+00,2.159873247146606445e+00,2.326642572879791260e-01
3.883491516113281250e+00,2.162552833557128906e+00,3.888876736164093018e-01
3.888203859329223633e+00,2.165177106857299805e+00,5.464404225349426270e-01
3.892643451690673828e+00,2.167649269104003906e+00,7.056789398193359375e-01
3.897852420806884766e+00,2.170549869537353516e+00,8.672168254852294922e-01
3.902671337127685547e+00,2.173233509063720703e+00,1.031278848648071289e+00
3.479930639266967773e+00,2.003606557846069336e+00,-1.075952172279357910e+00
3.628331661224365234e+00,2.089050054550170898e+00,-9.665871858596801758e-01
3.633322477340698242e+00,2.091923475265502930e+00,-8.149409890174865723e-01
3.637240648269653320e+00,2.094179391860961914e+00,-6.647441387176513672e-01
3.641748428344726562e+00,2.096775054931640625e+00,-5.159690976142883301e-01
3.646158695220947266e+00,2.099313974380493164e+00,-3.680927753448486328e-01
3.650570154190063477e+00,2.101854085922241211e+00,-2.207630723714828491e-01
3.654949188232421875e+00,2.104375362396240234e+00,-7.361609488725662231e-02
3.659295797348022461e+00,2.106878042221069336e+00,7.370363920927047729e-02
3.663674116134643555e+00,2.109398841857910156e+00,2.215555012226104736e-01
3.668011903762817383e+00,2.111896276473999023e+00,3.702989518642425537e-01
3.673015594482421875e+00,2.114777326583862305e+00,5.203990340232849121e-01
3.677043914794921875e+00,2.117096662521362305e+00,6.720185875892639160e-01
3.681722164154052734e+00,2.119790077209472656e+00,8.257968425750732422e-01
3.685966014862060547e+00,2.122233629226684570e+00,9.819409847259521484e-01
3.432845354080200195e+00,2.042464733123779297e+00,-1.070323348045349121e+00
3.437315464019775391e+00,2.045124530792236328e+00,-9.234041571617126465e-01
3.442212343215942383e+00,2.048038005828857422e+00,-7.785710692405700684e-01
3.446031808853149414e+00,2.050310373306274414e+00,-6.350970864295959473e-01
3.450337886810302734e+00,2.052872657775878906e+00,-4.929623603820800781e-01
3.454482555389404297e+00,2.055338621139526367e+00,-3.516763448715209961e-01
3.458559036254882812e+00,2.057763814926147461e+00,-2.109110355377197266e-01
3.462705373764038086e+00,2.060230731964111328e+00,-7.033076882362365723e-02
3.466934919357299805e+00,2.062747478485107422e+00,7.041667401790618896e-02
3.471126079559326172e+00,2.065240859985351562e+00,2.116774022579193115e-01
3.475208044052124023e+00,2.067669630050659180e+00,3.537862598896026611e-01
3.479849100112915039e+00,2.070430994033813477e+00,4.971787035465240479e-01
3.483503103256225586e+00,2.072604894638061523e+00,6.420029997825622559e-01
3.487700223922729492e+00,2.075102329254150391e+00,7.888597249984741211e-01
3.492687463760375977e+00,2.078069448471069336e+00,9.382793307304382324e-01
3.248975515365600586e+00,1.996573805809020996e+00,-1.021800398826599121e+00
3.252443313598632812e+00,1.998704791069030762e+00,-8.813350200653076172e-01
3.256539821624755859e+00,2.001222372055053711e+00,-7.429778575897216797e-01
3.261014223098754883e+00,2.003971815109252930e+00,-6.062229871749877930e-01
3.264730691909790039e+00,2.006255626678466797e+00,-4.704985916614532471e-01
3.268798112869262695e+00,2.008755207061767578e+00,-3.356657922267913818e-01
3.272733449935913086e+00,2.011173486709594727e+00,-2.013138234615325928e-01
