-5.834746360778808594e-01,6.567860245704650879e-01,1.391448676586151123e-01
-5.841866135597229004e-01,6.575874686241149902e-01,1.709765493869781494e-01
-5.848223567008972168e-01,6.583031415939331055e-01,2.032922357320785522e-01
-5.889338254928588867e-01,6.441234350204467773e-01,-2.338592708110809326e-01
-5.896878242492675781e-01,6.449481248855590820e-01,-2.017538994550704956e-01
-5.903816819190979004e-01,6.457069516181945801e-01,-1.700672954320907593e-01
-5.911715626716613770e-01,6.465708613395690918e-01,-1.387591809034347534e-01
-5.918170213699340820e-01,6.472768187522888184e-01,-1.076878905296325684e-01
-5.925458073616027832e-01,6.480739116668701172e-01,-7.682620733976364136e-02
-5.932547450065612793e-01,6.488492488861083984e-01,-4.607577621936798096e-02
-5.939518809318542480e-01,6.496117115020751953e-01,-1.536414492875337601e-02
-5.946393609046936035e-01,6.503636240959167480e-01,1.538192853331565857e-02
-5.953119993209838867e-01,6.510993242263793945e-01,4.623555764555931091e-02
-5.960748791694641113e-01,6.519337296485900879e-01,7.728376984596252441e-02
-5.967072844505310059e-01,6.526253819465637207e-01,1.085777357220649719e-01
-5.974509716033935547e-01,6.534386873245239258e-01,1.402330696582794189e-01
-5.981537103652954102e-01,6.542072892189025879e-01,1.723061203956604004e-01
-5.990204811096191406e-01,6.551553010940551758e-01,2.049469351768493652e-01
-6.030926704406738281e-01,6.409429311752319336e-01,-2.358144968748092651e-01
-6.038615107536315918e-01,6.417600512504577637e-01,-2.034395933151245117e-01
-6.045629382133483887e-01,6.425054669380187988e-01,-1.714856624603271484e-01
-6.052351593971252441e-01,6.432198882102966309e-01,-1.398848444223403931e-01
-6.059983968734741211e-01,6.440310478210449219e-01,-1.085798665881156921e-01
-6.066665649414062500e-01,6.447411179542541504e-01,-7.745257765054702759e-02
-6.073966026306152344e-01,6.455169916152954102e-01,-4.645175859332084656e-02
-6.081104874610900879e-01,6.462756395339965820e-01,-1.548952143639326096e-02
-6.088092923164367676e-01,6.470183134078979492e-01,1.550732087343931198e-02
-6.095737218856811523e-01,6.478307843208312988e-01,4.661825671792030334e-02
-6.102543473243713379e-01,6.485540866851806641e-01,7.791063189506530762e-02
-6.110366582870483398e-01,6.493855118751525879e-01,1.094825863838195801e-01
-6.118068695068359375e-01,6.502040624618530273e-01,1.414037495851516724e-01
-6.125299930572509766e-01,6.509725451469421387e-01,1.737455427646636963e-01
-6.131638884544372559e-01,6.516462564468383789e-01,2.065735459327697754e-01
-6.172278523445129395e-01,6.374341249465942383e-01,-2.377496212720870972e-01
-6.180449724197387695e-01,6.382779479026794434e-01,-2.051190584897994995e-01
-6.187883019447326660e-01,6.390456557273864746e-01,-1.729084551334381104e-01
-6.194975972175598145e-01,6.397781372070312500e-01,-1.410502940416336060e-01
-6.202942728996276855e-01,6.406009197235107422e-01,-1.094872131943702698e-01
-6.209887862205505371e-01,6.413181424140930176e-01,-7.810114324092864990e-02
-6.217411756515502930e-01,6.420951485633850098e-01,-4.684111848473548889e-02
-6.224716305732727051e-01,6.428495645523071289e-01,-1.561934873461723328e-02
-6.231817603111267090e-01,6.435829401016235352e-01,1.563716866075992584e-02
-6.239532232284545898e-01,6.443796157836914062e-01,4.700777307152748108e-02
-6.246342062950134277e-01,6.450829505920410156e-01,7.855962961912155151e-02
-6.254134178161621094e-01,6.458876132965087891e-01,1.103907898068428040e-01
-6.261754631996154785e-01,6.466745734214782715e-01,1.425707489252090454e-01
-6.268844008445739746e-01,6.474067568778991699e-01,1.751707494258880615e-01
-6.277534961700439453e-01,6.483043432235717773e-01,2.083411812782287598e-01
-6.317849755287170410e-01,6.340521574020385742e-01,-2.398365288972854614e-01
-6.324261426925659180e-01,6.346955895423889160e-01,-2.068556994199752808e-01
-6.332149505615234375e-01,6.354872584342956543e-01,-1.743801385164260864e-01
-6.340897083282470703e-01,6.363651752471923828e-01,-1.422842442989349365e-01
-6.347944736480712891e-01,6.370724439620971680e-01,-1.104257851839065552e-01
-6.355724334716796875e-01,6.378532052040100098e-01,-7.877898961305618286e-02
-6.362922787666320801e-01,6.385756134986877441e-01,-4.724393039941787720e-02
-6.370397210121154785e-01,6.393257379531860352e-01,-1.575366407632827759e-02
-6.378136873245239258e-01,6.401025056838989258e-01,1.577280461788177490e-02
-6.385385394096374512e-01,6.408299803733825684e-01,4.741071164608001709e-02
-6.393433213233947754e-01,6.416376233100891113e-01,7.924639433622360229e-02
-6.399925947189331055e-01,6.422892212867736816e-01,1.113300248980522156e-01
-6.407442688941955566e-01,6.430435776710510254e-01,1.437774598598480225e-01
-6.416644454002380371e-01,6.439670324325561523e-01,1.767070293426513672e-01
-6.425473093986511230e-01,6.448531150817871094e-01,2.101661562919616699e-01
-6.463165879249572754e-01,6.303303241729736328e-01,-2.419032007455825806e-01
-6.472072005271911621e-01,6.311988830566406250e-01,-2.087138742208480835e-01
-6.480094790458679199e-01,6.319813132286071777e-01,-1.759452372789382935e-01
-6.487639546394348145e-01,6.327171325683593750e-01,-1.435301452875137329e-01
-6.495034098625183105e-01,6.334383487701416016e-01,-1.113958731293678284e-01
-6.503112316131591797e-01,6.342261433601379395e-01,-7.947251200675964355e-02
-6.510540843009948730e-01,6.349505782127380371e-01,-4.766029119491577148e-02
-6.518184542655944824e-01,6.356961131095886230e-01,-1.589249260723590851e-02
-6.526040434837341309e-01,6.364622712135314941e-01,1.591164618730545044e-02
-6.533333659172058105e-01,6.371735334396362305e-01,4.782715067267417908e-02
-6.541379690170288086e-01,6.379582285881042480e-01,7.994016259908676147e-02
-6.549420356750488281e-01,6.387424468994140625e-01,1.123286485671997070e-01
-6.557154655456542969e-01,6.394966840744018555e-01,1.450680643320083618e-01
-6.564218401908874512e-01,6.401855945587158203e-01,1.782293170690536499e-01
-6.572824716567993164e-01,6.410249471664428711e-01,2.119629830121994019e-01
-6.612863540649414062e-01,6.267158985137939453e-01,-2.441236078739166260e-01
-6.619986891746520996e-01,6.273910403251647949e-01,-2.105663716793060303e-01
-6.628508567810058594e-01,6.281986236572265625e-01,-1.775153428316116333e-01
-6.636484861373901367e-01,6.289545893669128418e-01,-1.448166221380233765e-01
-6.644244790077209473e-01,6.296899914741516113e-01,-1.123976409435272217e-01
-6.652632951736450195e-01,6.304849386215209961e-01,-8.018869161605834961e-02
-6.660296320915222168e-01,6.312112808227539062e-01,-4.809026047587394714e-02
-6.668121814727783203e-01,6.319528818130493164e-01,-1.603587903082370758e-02
-6.676083803176879883e-01,6.327074170112609863e-01,1.605502702295780182e-02
-6.683416962623596191e-01,6.334024071693420410e-01,4.825719818472862244e-02
-6.691446304321289062e-01,6.341633796691894531e-01,8.065653592348098755e-02
-6.699405312538146973e-01,6.349176764488220215e-01,1.133307591080665588e-01
-6.706992983818054199e-01,6.356367468833923340e-01,1.463551968336105347e-01
-6.716201305389404297e-01,6.365094184875488281e-01,1.798637956380844116e-01
-6.724896430969238281e-01,6.373335123062133789e-01,2.139033079147338867e-01
-6.764694452285766602e-01,6.229718923568725586e-01,-2.464116215705871582e-01
-6.772038936614990234e-01,6.236482858657836914e-01,-2.125416845083236694e-01
-6.780737042427062988e-01,6.244493126869201660e-01,-1.791801005601882935e-01
-6.788800954818725586e-01,6.251919269561767578e-01,-1.461726725101470947e-01
-6.796576380729675293e-01,6.259079575538635254e-01,-1.134473979473114014e-01
-6.804320812225341797e-01,6.266211867332458496e-01,-8.092769980430603027e-02
-6.812233924865722656e-01,6.273499131202697754e-01,-4.853397980332374573e-02
-6.820230484008789062e-01,6.280863285064697266e-01,-1.618382334709167480e-02
-6.828306913375854492e-01,6.288300752639770508e-01,1.620298810303211212e-02
-6.836609244346618652e-01,6.295946836471557617e-01,4.870764166116714478e-02
-6.844987869262695312e-01,6.303662657737731934e-01,8.141136914491653442e-02
-6.853219866752624512e-01,6.311243772506713867e-01,1.143928915262222290e-01
-6.860996484756469727e-01,6.318405270576477051e-01,1.477271467447280884e-01
-6.870357990264892578e-01,6.327026486396789551e-01,1.815483123064041138e-01
-6.879109740257263184e-01,6.335085630416870117e-01,2.159021198749542236e-01
-6.923359036445617676e-01,6.195078492164611816e-01,-2.489356696605682373e-01
-6.933466196060180664e-01,6.204122304916381836e-01,-2.147990167140960693e-01
-6.940668225288391113e-01,6.210566759109497070e-01,-1.810386776924133301e-01
-6.949246525764465332e-01,6.218242645263671875e-01,-1.476957648992538452e-01
-6.957451701164245605e-01,6.225584745407104492e-01,-1.146335601806640625e-01
-6.965546011924743652e-01,6.232827901840209961e-01,-8.177579939365386963e-02
-6.973727941513061523e-01,6.240149140357971191e-01,-4.904317855834960938e-02
-6.981909871101379395e-01,6.247470378875732422e-01,-1.635360717773437500e-02
-6.990091800689697266e-01,6.254791617393493652e-01,1.637277007102966309e-02
-6.998420357704162598e-01,6.262243986129760742e-01,4.921682924032211304e-02
-7.006745934486389160e-01,6.269693374633789062e-01,8.225948363542556763e-02
-7.014839053153991699e-01,6.276935338973999023e-01,1.155790984630584717e-01
-7.024490237236022949e-01,6.285571455955505371e-01,1.492949575185775757e-01
-7.031470537185668945e-01,6.291817426681518555e-01,1.834071427583694458e-01
-7.039863467216491699e-01,6.299327611923217773e-01,2.180952280759811401e-01
-7.079802751541137695e-01,6.154898405075073242e-01,-2.513673305511474609e-01
-7.088087201118469238e-01,6.162100434303283691e-01,-2.168345153331756592e-01
-7.097615599632263184e-01,6.170384287834167480e-01,-1.828100234270095825e-01
-7.104928493499755859e-01,6.176741719245910645e-01,-1.491102427244186401e-01
-7.113550305366516113e-01,6.184237003326416016e-01,-1.157351955771446228e-01
-7.121987342834472656e-01,6.191571950912475586e-01,-8.256352692842483521e-02
-7.130427360534667969e-01,6.198909282684326172e-01,-4.951611533761024475e-02
-7.138798236846923828e-01,6.206187009811401367e-01,-1.651132293045520782e-02
-7.147079110145568848e-01,6.213385462760925293e-01,1.653047464787960052e-02
-7.155431509017944336e-01,6.220647096633911133e-01,4.968975484371185303e-02
-7.163702249526977539e-01,6.227837204933166504e-01,8.304712176322937012e-02
-7.173418402671813965e-01,6.236283779144287109e-01,1.167092248797416687e-01
-7.181125283241271973e-01,6.242983937263488770e-01,1.507093757390975952e-01
-7.190303206443786621e-01,6.250963211059570312e-01,1.851973384618759155e-01
-7.198695540428161621e-01,6.258258819580078125e-01,2.202181816101074219e-01
-7.246227264404296875e-01,6.119711399078369141e-01,-2.541401684284210205e-01
-7.254882454872131348e-01,6.127021312713623047e-01,-2.192317247390747070e-01
-7.262904047966003418e-01,6.133795976638793945e-01,-1.847870498895645142e-01
-7.272182106971740723e-01,6.141631007194519043e-01,-1.507600098848342896e-01
-7.280886173248291016e-01,6.148982048034667969e-01,-1.170137599110603333e-01
-7.288684844970703125e-01,6.155568361282348633e-01,-8.346605300903320312e-02
-7.297414541244506836e-01,6.162941455841064453e-01,-5.005802586674690247e-02
-7.305974364280700684e-01,6.170170307159423828e-01,-1.669200696051120758e-02
-7.314357161521911621e-01,6.177249550819396973e-01,1.671115867793560028e-02
-7.323712706565856934e-01,6.185151338577270508e-01,5.023842304944992065e-02
-7.332292795181274414e-01,6.192396879196166992e-01,8.396542817354202271e-02
-7.340453267097473145e-01,6.199288964271545410e-01,1.179710850119590759e-01
-7.350054979324340820e-01,6.207398176193237305e-01,1.523744165897369385e-01
-7.359266877174377441e-01,6.215177774429321289e-01,1.872387528419494629e-01
-7.367578148841857910e-01,6.222196817398071289e-01,2.226372063159942627e-01
-7.404857277870178223e-01,6.074264049530029297e-01,-2.566280663013458252e-01
-7.414225339889526367e-01,6.081948876380920410e-01,-2.213935106992721558e-01
-7.424690723419189453e-01,6.090533733367919922e-01,-1.866661906242370605e-01
-7.432686686515808105e-01,6.097093224525451660e-01,-1.522626429796218872e-01
-7.441851496696472168e-01,6.104610562324523926e-01,-1.181842982769012451e-01
-7.450634241104125977e-01,6.111814975738525391e-01,-8.431018888950347900e-02
-7.459232807159423828e-01,6.118868589401245117e-01,-5.056207999587059021e-02
-7.467947006225585938e-01,6.126017570495605469e-01,-1.686000637710094452e-02
-7.476836442947387695e-01,6.133309006690979004e-01,1.688007451593875885e-02
-7.485607266426086426e-01,6.140503883361816406e-01,5.074086040258407593e-02
-7.494111061096191406e-01,6.147480010986328125e-01,8.480216562747955322e-02
-7.503917813301086426e-01,6.155524253845214844e-01,1.191699802875518799e-01
-7.511463165283203125e-01,6.161714196205139160e-01,1.538764238357543945e-01
-7.520346641540527344e-01,6.169000864028930664e-01,1.890711039304733276e-01
-7.531199455261230469e-01,6.177903413772583008e-01,2.248864322900772095e-01
-7.576718330383300781e-01,6.035923361778259277e-01,-2.595634460449218750e-01
-7.586521506309509277e-01,6.043733358383178711e-01,-2.239323109388351440e-01
-7.595479488372802734e-01,6.050869822502136230e-01,-1.887632459402084351e-01
-7.605541944503784180e-01,6.058885455131530762e-01,-1.540113240480422974e-01
-7.613756060600280762e-01,6.065429449081420898e-01,-1.195233315229415894e-01
-7.622947692871093750e-01,6.072751879692077637e-01,-8.526773005723953247e-02
-7.631853818893432617e-01,6.079847216606140137e-01,-5.113706365227699280e-02
-7.640769481658935547e-01,6.086949706077575684e-01,-1.705173403024673462e-02
-7.649756669998168945e-01,6.094109416007995605e-01,1.707179099321365356e-02
-7.658516764640808105e-01,6.101087927818298340e-01,5.131571739912033081e-02
-7.668348550796508789e-01,6.108919978141784668e-01,8.577556908130645752e-02
-7.676510214805603027e-01,6.115422248840332031e-01,1.205084696412086487e-01
-7.685965895652770996e-01,6.122954487800598145e-01,1.556399017572402954e-01
-7.694823145866394043e-01,6.130011081695556641e-01,1.912321299314498901e-01
-7.705577015876770020e-01,6.138578057289123535e-01,2.274464815855026245e-01
-7.751539349555969238e-01,5.995872616767883301e-01,-2.625854909420013428e-01
-7.761816978454589844e-01,6.003822684288024902e-01,-2.265467494726181030e-01
-7.771123051643371582e-01,6.011021137237548828e-01,-1.909705549478530884e-01
-7.779946327209472656e-01,6.017845869064331055e-01,-1.557827740907669067e-01
-7.788687348365783691e-01,6.024606823921203613e-01,-1.209033578634262085e-01
-7.798305749893188477e-01,6.032047271728515625e-01,-8.625462651252746582e-02
-7.807524800300598145e-01,6.039177775382995605e-01,-5.172964185476303101e-02
-7.816642522811889648e-01,6.046230792999267578e-01,-1.724932342767715454e-02
-7.825720310211181641e-01,6.053252220153808594e-01,1.726935617625713348e-02
-7.834463119506835938e-01,6.060014963150024414e-01,5.190812423825263977e-02
-7.844172716140747070e-01,6.067525148391723633e-01,8.676194399595260620e-02
-7.853972911834716797e-01,6.075105667114257812e-01,1.219167858362197876e-01
-7.863495349884033203e-01,6.082471609115600586e-01,1.574557423591613770e-01
-7.872301936149597168e-01,6.089283823966979980e-01,1.934569627046585083e-01
-7.882921695709228516e-01,6.097497940063476562e-01,2.300814688205718994e-01
-7.929342389106750488e-01,5.953988432884216309e-01,-2.656944990158081055e-01
-7.940139174461364746e-01,5.962095260620117188e-01,-2.292372137308120728e-01
-7.947892546653747559e-01,5.967917442321777344e-01,-1.931955814361572266e-01
-7.957375049591064453e-01,5.975037813186645508e-01,-1.576069295406341553e-01
-7.967752814292907715e-01,5.982829928398132324e-01,-1.223411485552787781e-01
-7.976731657981872559e-01,5.989572405815124512e-01,-8.727095276117324829e-02
-7.986271381378173828e-01,5.996735095977783203e-01,-5.233988538384437561e-02
-7.995597720146179199e-01,6.003738045692443848e-01,-1.745280995965003967e-02
-8.004765510559082031e-01,6.010622382164001465e-01,1.747282221913337708e-02
-8.014535903930664062e-01,6.017958521842956543e-01,5.252512544393539429e-02
-8.023051619529724121e-01,6.024352908134460449e-01,8.777771890163421631e-02
-8.032602071762084961e-01,6.031523942947387695e-01,1.233368739485740662e-01
-8.044095039367675781e-01,6.040154099464416504e-01,1.593245416879653931e-01
-8.052812814712524414e-01,6.046699881553649902e-01,1.957459598779678345e-01
-8.063258528709411621e-01,6.054543256759643555e-01,2.327917665243148804e-01
-8.110163807868957520e-01,5.910158753395080566e-01,-2.688912749290466309e-01
-8.119139075279235840e-01,5.916699171066284180e-01,-2.319362908601760864e-01
-8.129637241363525391e-01,5.924350023269653320e-01,-1.955321133136749268e-01
-8.139399290084838867e-01,5.931463241577148438e-01,-1.595142632722854614e-01
-8.148826956748962402e-01,5.938333868980407715e-01,-1.238036751747131348e-01
-8.158251643180847168e-01,5.945202112197875977e-01,-8.831684291362762451e-02
-8.168128132820129395e-01,5.952399373054504395e-01,-5.296792462468147278e-02
-8.177666068077087402e-01,5.959349870681762695e-01,-1.766222901642322540e-02
-8.186917304992675781e-01,5.966091752052307129e-01,1.768220961093902588e-02
-8.196662068367004395e-01,5.973193049430847168e-01,5.315295979380607605e-02
-8.206519484519958496e-01,5.980376601219177246e-01,8.883936703205108643e-02
-8.216224908828735352e-01,5.987448692321777344e-01,1.248276308178901672e-01
-8.225412964820861816e-01,5.994144678115844727e-01,1.611999422311782837e-01
-8.236380815505981445e-01,6.002137064933776855e-01,1.980994790792465210e-01
-8.246617913246154785e-01,6.009597778320312500e-01,2.355779409408569336e-01
-8.294029235839843750e-01,5.864263176918029785e-01,-2.721764743328094482e-01
-8.303545117378234863e-01,5.870991349220275879e-01,-2.347795367240905762e-01
-8.314492106437683105e-01,5.878731608390808105e-01,-1.979340910911560059e-01
-8.322979807853698730e-01,5.884732604026794434e-01,-1.614447683095932007e-01
-8.333009481430053711e-01,5.891823768615722656e-01,-1.253078430891036987e-01
-8.343589305877685547e-01,5.899304151535034180e-01,-8.939995616674423218e-02
-8.353121876716613770e-01,5.906044244766235352e-01,-5.361387133598327637e-02
-8.362869024276733398e-01,5.912936329841613770e-01,-1.787760667502880096e-02
-8.372858166694641113e-01,5.919998884201049805e-01,1.789896190166473389e-02
-8.381912112236022949e-01,5.926400423049926758e-01,5.379866436123847961e-02
-8.391604423522949219e-01,5.933253169059753418e-01,8.991442620754241943e-02
-8.402982950210571289e-01,5.941298604011535645e-01,1.263600736856460571e-01
-8.412166833877563477e-01,5.947791934013366699e-01,1.631747633218765259e-01
-8.423034548759460449e-01,5.955475568771362305e-01,2.005180269479751587e-01
-8.433023691177368164e-01,5.962538719177246094e-01,2.384404838085174561e-01
-8.480954766273498535e-01,5.816174745559692383e-01,-2.755504846572875977e-01
-8.491061925888061523e-01,5.823106169700622559e-01,-2.377004921436309814e-01
-8.500444293022155762e-01,5.829541087150573730e-01,-2.003539353609085083e-01
-8.511255979537963867e-01,5.836955308914184570e-01,-1.634595096111297607e-01
-8.521459698677062988e-01,5.843952894210815430e-01,-1.268708258867263794e-01
-8.531388640403747559e-01,5.850762128829956055e-01,-9.050561487674713135e-02
-8.541276454925537109e-01,5.857542753219604492e-01,-5.427783727645874023e-02
-8.551241159439086914e-01,5.864377021789550781e-01,-1.809900254011154175e-02
-8.561309576034545898e-01,5.871281623840332031e-01,1.812031306326389313e-02
-8.571417331695556641e-01,5.878213644027709961e-01,5.446937680244445801e-02
-8.581371307373046875e-01,5.885040163993835449e-01,9.103585779666900635e-02
-8.590896129608154297e-01,5.891572237014770508e-01,1.279046237468719482e-01
-8.602060675621032715e-01,5.899228453636169434e-01,1.652034074068069458e-01
-8.612792491912841797e-01,5.906588435173034668e-01,2.030019611120223999e-01
-8.622497916221618652e-01,5.913244485855102539e-01,2.413799464702606201e-01
-8.681588768959045410e-01,5.772837996482849121e-01,-2.793559134006500244e-01
-8.692417740821838379e-01,5.780038833618164062e-01,-2.409965842962265015e-01
-8.702351450920104980e-01,5.786644220352172852e-01,-2.031398266553878784e-01
-8.713582158088684082e-01,5.794112086296081543e-01,-1.657354682683944702e-01
-8.722863793373107910e-01,5.800284147262573242e-01,-1.286201626062393188e-01
-8.733333349227905273e-01,5.807245373725891113e-01,-9.175674617290496826e-02
-8.743608593940734863e-01,5.814078450202941895e-01,-5.502913519740104675e-02
-8.753802776336669922e-01,5.820857286453247070e-01,-1.834950968623161316e-02
-8.763954043388366699e-01,5.827607512474060059e-01,1.837078854441642761e-02
-8.773987889289855957e-01,5.834279060363769531e-01,5.522033199667930603e-02
-8.785295486450195312e-01,5.841798186302185059e-01,9.230268746614456177e-02
-8.794881701469421387e-01,5.848172903060913086e-01,1.296820789575576782e-01
-8.805969357490539551e-01,5.855545401573181152e-01,1.674927026033401489e-01
-8.816465735435485840e-01,5.862524509429931641e-01,2.058036029338836670e-01
-8.825760483741760254e-01,5.868705511093139648e-01,2.446935027837753296e-01
-8.875071406364440918e-01,5.720019936561584473e-01,-2.829182744026184082e-01
-8.886570334434509277e-01,5.727431178092956543e-01,-2.440815716981887817e-01
-8.897010684013366699e-01,5.734159946441650391e-01,-2.057468146085739136e-01
-8.906967639923095703e-01,5.740576982498168945e-01,-1.678336709737777710e-01
-8.918090462684631348e-01,5.747745633125305176e-01,-1.302723884582519531e-01
-8.927895426750183105e-01,5.754064917564392090e-01,-9.292607754468917847e-02
-8.938537240028381348e-01,5.760923624038696289e-01,-5.573127046227455139e-02
-8.948964476585388184e-01,5.767644643783569336e-01,-1.858364976942539215e-02
-8.959191441535949707e-01,5.774235725402832031e-01,1.860488578677177429e-02
-8.970298171043395996e-01,5.781394243240356445e-01,5.592929944396018982e-02
-8.980254530906677246e-01,5.787811279296875000e-01,9.347105771303176880e-02
-8.991544246673583984e-01,5.795087218284606934e-01,1.313453763723373413e-01
-9.002584815025329590e-01,5.802202820777893066e-01,1.696353852748870850e-01
-9.012877941131591797e-01,5.808836817741394043e-01,2.084262818098068237e-01
-9.025174975395202637e-01,5.816762447357177734e-01,2.478885352611541748e-01
-9.083100557327270508e-01,5.671762824058532715e-01,-2.869324982166290283e-01
-9.095404744148254395e-01,5.679445266723632812e-01,-2.475593239068984985e-01
-9.106467962265014648e-01,5.686354041099548340e-01,-2.086870074272155762e-01
-9.116871953010559082e-01,5.692850351333618164e-01,-1.702360510826110840e-01
-9.127084612846374512e-01,5.699227452278137207e-01,-1.321201324462890625e-01
-9.138197302818298340e-01,5.706166625022888184e-01,-9.425523877143859863e-02
-9.148523211479187012e-01,5.712614655494689941e-01,-5.652491748332977295e-02
-9.159184098243713379e-01,5.719271302223205566e-01,-1.884826831519603729e-02
-9.170175790786743164e-01,5.726134777069091797e-01,1.887088641524314880e-02
-9.180498123168945312e-01,5.732580423355102539e-01,5.672247707843780518e-02
-9.191828370094299316e-01,5.739655494689941406e-01,9.480840712785720825e-02
-9.203152656555175781e-01,5.746726393699645996e-01,1.332212686538696289e-01
-9.214069843292236328e-01,5.753543972969055176e-01,1.720509976148605347e-01
-9.224046468734741211e-01,5.759773254394531250e-01,2.113814651966094971e-01
-9.235891103744506836e-01,5.767169594764709473e-01,2.513830959796905518e-01
-9.295061230659484863e-01,5.620834827423095703e-01,-2.910569310188293457e-01
-9.308216571807861328e-01,5.628790259361267090e-01,-2.511330246925354004e-01
-9.317800998687744141e-01,5.634586215019226074e-01,-2.116600871086120605e-01
-9.329138398170471191e-01,5.641441941261291504e-01,-1.726741492748260498e-01
-9.341335892677307129e-01,5.648818016052246094e-01,-1.340374201536178589e-01
-9.351828098297119141e-01,5.655162334442138672e-01,-9.561402350664138794e-02
-9.362576007843017578e-01,5.661662220954895020e-01,-5.734088644385337830e-02
-9.373485445976257324e-01,5.668259263038635254e-01,-1.912035234272480011e-02
-9.384548068046569824e-01,5.674948692321777344e-01,1.914291642606258392e-02
-9.395946860313415527e-01,5.681841969490051270e-01,5.754526704549789429e-02
-9.405815005302429199e-01,5.687808990478515625e-01,9.616598486900329590e-02
-9.416694045066833496e-01,5.694388151168823242e-01,1.351187080144882202e-01
-9.429578781127929688e-01,5.702179074287414551e-01,1.745332181453704834e-01
-9.439203739166259766e-01,5.707999467849731445e-01,2.144178301095962524e-01
-9.450552463531494141e-01,5.714862346649169922e-01,2.549732327461242676e-01
-9.514067173004150391e-01,5.568889975547790527e-01,-2.953884601593017578e-01
-9.525053501129150391e-01,5.575320124626159668e-01,-2.548041045665740967e-01
-9.535297751426696777e-01,5.581316351890563965e-01,-2.147639542818069458e-01
-9.547154903411865234e-01,5.588257312774658203e-01,-1.752110123634338379e-01
-9.558454155921936035e-01,5.594871044158935547e-01,-1.359898000955581665e-01
-9.569554328918457031e-01,5.601368546485900879e-01,-9.701042622327804565e-02
-9.580731391906738281e-01,5.607910156250000000e-01,-5.817940831184387207e-02
-9.591893553733825684e-01,5.614444017410278320e-01,-1.939995400607585907e-02
-9.603025317192077637e-01,5.620959997177124023e-01,1.942246966063976288e-02
-9.614314436912536621e-01,5.627567768096923828e-01,5.838334932923316956e-02
-9.625548720359802246e-01,5.634143352508544922e-01,9.757805615663528442e-02
-9.636429548263549805e-01,5.640512108802795410e-01,1.370991617441177368e-01
-9.649151563644409180e-01,5.647959113121032715e-01,1.770828664302825928e-01
-9.661470055580139160e-01,5.655169486999511719e-01,2.176057547330856323e-01
-9.672706723213195801e-01,5.661746859550476074e-01,2.587539553642272949e-01
-9.734017252922058105e-01,5.512124896049499512e-01,-2.997370958328247070e-01
-9.745912551879882812e-01,5.518860816955566406e-01,-2.585726380348205566e-01
-9.756872653961181641e-01,5.525067448616027832e-01,-2.179509997367858887e-01
-9.769276976585388184e-01,5.532091259956359863e-01,-1.778160184621810913e-01
-9.780912995338439941e-01,5.538680553436279297e-01,-1.380127221345901489e-01
-9.791390299797058105e-01,5.544613599777221680e-01,-9.844464808702468872e-02
-9.803014993667602539e-01,5.551196336746215820e-01,-5.904068797826766968e-02
-9.814429879188537598e-01,5.557660460472106934e-01,-1.968713477253913879e-02
-9.825624823570251465e-01,5.564000010490417480e-01,1.970959082245826721e-02
-9.838008880615234375e-01,5.571012496948242188e-01,5.925144255161285400e-02
-9.849423766136169434e-01,5.577476620674133301e-01,9.902812540531158447e-02
-9.860267639160156250e-01,5.583617091178894043e-01,1.391324549913406372e-01
-9.872801303863525391e-01,5.590714812278747559e-01,1.797003298997879028e-01
-9.884727001190185547e-01,5.597468018531799316e-01,2.208070307970046997e-01
-9.895361661911010742e-01,5.603489875793457031e-01,2.625377178192138672e-01
-9.971132278442382812e-01,5.459424853324890137e-01,-3.046010732650756836e-01
-9.984115958213806152e-01,5.466533899307250977e-01,-2.627896368503570557e-01
-9.995937347412109375e-01,5.473006367683410645e-01,-2.215186655521392822e-01
-1.000900864601135254e+00,5.480163097381591797e-01,-1.807332634925842285e-01
-1.001979231834411621e+00,5.486067533493041992e-01,-1.402610242366790771e-01
-1.003175139427185059e+00,5.492615699768066406e-01,-1.000605970621109009e-01
-1.004335880279541016e+00,5.498970746994018555e-01,-6.000801175832748413e-02
-1.005500316619873047e+00,5.505346059799194336e-01,-2.000959031283855438e-02
-1.006675958633422852e+00,5.511783361434936523e-01,2.003298699855804443e-02
-1.007825970649719238e+00,5.518079400062561035e-01,6.021654233336448669e-02
-1.009104251861572266e+00,5.525078773498535156e-01,1.006519868969917297e-01
-1.010177850723266602e+00,5.530956983566284180e-01,1.414086967706680298e-01
-1.011401057243347168e+00,5.537654161453247070e-01,1.826292872428894043e-01
-1.012541055679321289e+00,5.543895959854125977e-01,2.243878841400146484e-01
-1.013893127441406250e+00,5.551298856735229492e-01,2.668645083904266357e-01
-1.021641254425048828e+00,5.405129790306091309e-01,-3.096988499164581299e-01
-1.022731661796569824e+00,5.410898923873901367e-01,-2.671249806880950928e-01
-1.024004578590393066e+00,5.417633056640625000e-01,-2.251867800951004028e-01
-1.025201201438903809e+00,5.423964262008666992e-01,-1.837005168199539185e-01
-1.026504158973693848e+00,5.430857539176940918e-01,-1.425913572311401367e-01
-1.027643084526062012e+00,5.436883568763732910e-01,-1.017144918441772461e-01
-1.028854846954345703e+00,5.443294048309326172e-01,-6.100123003125190735e-02
-1.030047059059143066e+00,5.449602007865905762e-01,-2.034076489508152008e-02
-1.031228184700012207e+00,5.455850958824157715e-01,2.036408893764019012e-02
-1.032486796379089355e+00,5.462509393692016602e-01,6.121657416224479675e-02
-1.033600330352783203e+00,5.468400716781616211e-01,1.023041307926177979e-01
-1.034837961196899414e+00,5.474948883056640625e-01,1.437489986419677734e-01
-1.036027431488037109e+00,5.481241345405578613e-01,1.856403946876525879e-01
-1.037433028221130371e+00,5.488678216934204102e-01,2.281398028135299683e-01
-1.038754224777221680e+00,5.495668053627014160e-01,2.713098824024200439e-01
-1.046346902847290039e+00,5.345588922500610352e-01,-3.148363828659057617e-01
-1.047834277153015137e+00,5.353187918663024902e-01,-2.716523706912994385e-01
-1.048921942710876465e+00,5.358744263648986816e-01,-2.289561182260513306e-01
-1.050190567970275879e+00,5.365225672721862793e-01,-1.867830306291580200e-01
-1.051410675048828125e+00,5.371459126472473145e-01,-1.449682712554931641e-01
-1.052624464035034180e+00,5.377660393714904785e-01,-1.034146547317504883e-01
-1.053888201713562012e+00,5.384116172790527344e-01,-6.202219426631927490e-02
-1.055109500885009766e+00,5.390355587005615234e-01,-2.068120613694190979e-02
-1.056294679641723633e+00,5.396410822868347168e-01,2.070443518459796906e-02
-1.057535529136657715e+00,5.402749776840209961e-01,6.223684176802635193e-02
-1.058785438537597656e+00,5.409135222434997559e-01,1.040199249982833862e-01
-1.060009956359863281e+00,5.415390729904174805e-01,1.461539268493652344e-01
-1.061441302299499512e+00,5.422703623771667480e-01,1.887840479612350464e-01
-1.062509059906005859e+00,5.428158640861511230e-01,2.319218814373016357e-01
-1.063747525215148926e+00,5.434485673904418945e-01,2.757779061794281006e-01
-1.071883797645568848e+00,5.283989906311035156e-01,-3.202117383480072021e-01
-1.073164701461791992e+00,5.290303826332092285e-01,-2.762278914451599121e-01
-1.074349641799926758e+00,5.296145081520080566e-01,-2.328278720378875732e-01
-1.075693011283874512e+00,5.302767753601074219e-01,-1.899494081735610962e-01
-1.076963663101196289e+00,5.309031605720520020e-01,-1.474286615848541260e-01
-1.078202486038208008e+00,5.315138697624206543e-01,-1.051693558692932129e-01
-1.079438447952270508e+00,5.321231484413146973e-01,-6.307114660739898682e-02
-1.080689072608947754e+00,5.327396392822265625e-01,-2.103096991777420044e-02
-1.081955432891845703e+00,5.333639383316040039e-01,2.105561643838882446e-02
-1.083230018615722656e+00,5.339922308921813965e-01,6.329268962144851685e-02
-1.084488630294799805e+00,5.346126556396484375e-01,1.057825088500976562e-01
-1.085696697235107422e+00,5.352082252502441406e-01,1.486241519451141357e-01
-1.087090015411376953e+00,5.358950495719909668e-01,1.919619292020797729e-01
-1.088423132896423340e+00,5.365522503852844238e-01,2.358778268098831177e-01
-1.089620828628540039e+00,5.371426939964294434e-01,2.804636359214782715e-01
-1.097593665122985840e+00,5.216816067695617676e-01,-3.256281614303588867e-01
-1.099003314971923828e+00,5.223516225814819336e-01,-2.809254229068756104e-01
-1.100289702415466309e+00,5.229629874229431152e-01,-2.368030250072479248e-01
-1.101712465286254883e+00,5.236392617225646973e-01,-1.932007074356079102e-01
-1.102899193763732910e+00,5.242033004760742188e-01,-1.499365568161010742e-01
-1.104218244552612305e+00,5.248302221298217773e-01,-1.069632619619369507e-01
-1.105509638786315918e+00,5.254440307617187500e-01,-6.414846330881118774e-02
-1.106789469718933105e+00,5.260523557662963867e-01,-2.139018103480339050e-02
-1.108060598373413086e+00,5.266565084457397461e-01,2.141474746167659760e-02
-1.109314441680908203e+00,5.272524356842041016e-01,6.436923891305923462e-02
-1.110711693763732910e+00,5.279165506362915039e-01,1.075922697782516479e-01
-1.111899971961975098e+00,5.284813046455383301e-01,1.511601805686950684e-01
-1.113251686096191406e+00,5.291238427162170410e-01,1.952242851257324219e-01
-1.114517450332641602e+00,5.297254323959350586e-01,2.398651093244552612e-01
-1.116006493568420410e+00,5.304331779479980469e-01,2.852717339992523193e-01
-1.125714659690856934e+00,5.154280066490173340e-01,-3.317482173442840576e-01
-1.127223849296569824e+00,5.161190032958984375e-01,-2.862214148044586182e-01
-1.128336787223815918e+00,5.166286230087280273e-01,-2.412230968475341797e-01
-1.129853010177612305e+00,5.173228383064270020e-01,-1.968168765306472778e-01
-1.131102442741394043e+00,5.178949236869812012e-01,-1.527473181486129761e-01
-1.132456779479980469e+00,5.185149908065795898e-01,-1.089685782790184021e-01
-1.133723616600036621e+00,5.190950632095336914e-01,-6.534777581691741943e-02
-1.135035395622253418e+00,5.196956992149353027e-01,-2.179007790982723236e-02
-1.136389970779418945e+00,5.203158855438232422e-01,2.181608043611049652e-02
-1.137672424316406250e+00,5.209031105041503906e-01,6.557539105415344238e-02
-1.139072418212890625e+00,5.215440988540649414e-01,1.096051633358001709e-01
-1.140232205390930176e+00,5.220751166343688965e-01,1.539802253246307373e-01
-1.141820549964904785e+00,5.228023529052734375e-01,1.989015787839889526e-01
-1.143051981925964355e+00,5.233662128448486328e-01,2.443690150976181030e-01
-1.144482493400573730e+00,5.240212082862854004e-01,2.906036972999572754e-01
-1.152835369110107422e+00,5.080152750015258789e-01,-3.375632464885711670e-01
-1.154137611389160156e+00,5.085891485214233398e-01,-2.911770343780517578e-01
-1.155606508255004883e+00,5.092363953590393066e-01,-2.454695701599121094e-01
-1.156964182853698730e+00,5.098347067832946777e-01,-2.002478390932083130e-01
-1.158269286155700684e+00,5.104097723960876465e-01,-1.554134935140609741e-01
-1.159568548202514648e+00,5.109823942184448242e-01,-1.108622401952743530e-01
-1.160893321037292480e+00,5.115661025047302246e-01,-6.648497283458709717e-02
-1.162235975265502930e+00,5.121577978134155273e-01,-2.216926030814647675e-02
-1.163594245910644531e+00,5.127563476562500000e-01,2.219516783952713013e-02
-1.164989233016967773e+00,5.133710503578186035e-01,6.671954691410064697e-02
-1.166394591331481934e+00,5.139903426170349121e-01,1.115148514509201050e-01
-1.167771935462951660e+00,5.145972967147827148e-01,1.566885262727737427e-01
-1.169070601463317871e+00,5.151695609092712402e-01,2.023432105779647827e-01
-1.170571446418762207e+00,5.158309340476989746e-01,2.486483603715896606e-01
-1.171949744224548340e+00,5.164383649826049805e-01,2.956708669662475586e-01
-1.183819651603698730e+00,5.015608668327331543e-01,-3.444983661174774170e-01
-1.185244560241699219e+00,5.021645426750183105e-01,-2.971811294555664062e-01
-1.186554431915283203e+00,5.027195215225219727e-01,-2.504892647266387939e-01
-1.187826514244079590e+00,5.032584667205810547e-01,-2.043218165636062622e-01
-1.189263939857482910e+00,5.038675069808959961e-01,-1.585883349180221558e-01
-1.190663099288940430e+00,5.044602751731872559e-01,-1.131331473588943481e-01
-1.192055344581604004e+00,5.050501823425292969e-01,-6.784868240356445312e-02
-1.193434000015258789e+00,5.056342482566833496e-01,-2.262398414313793182e-02
-1.194794535636901855e+00,5.062106847763061523e-01,2.264977619051933289e-02
-1.196159482002258301e+00,5.067890286445617676e-01,6.808228045701980591e-02
-1.197503328323364258e+00,5.073583722114562988e-01,1.137830913066864014e-01
-1.199033856391906738e+00,5.080068111419677734e-01,1.598911434412002563e-01
-1.200559496879577637e+00,5.086531639099121094e-01,2.065120488405227661e-01
-1.202010750770568848e+00,5.092681050300598145e-01,2.537522315979003906e-01
-1.203303694725036621e+00,5.098158717155456543e-01,3.017092049121856689e-01
-1.213452458381652832e+00,4.937527179718017578e-01,-3.510291278362274170e-01
-1.215043544769287109e+00,4.944001138210296631e-01,-3.028474152088165283e-01
-1.216487646102905273e+00,4.949877262115478516e-01,-2.552865445613861084e-01
-1.217861175537109375e+00,4.955466389656066895e-01,-2.082467675209045410e-01
-1.219371438026428223e+00,4.961611330509185791e-01,-1.616395711898803711e-01
-1.220811605453491211e+00,4.967471361160278320e-01,-1.153103709220886230e-01
-1.222213268280029297e+00,4.973174929618835449e-01,-6.915295124053955078e-02
-1.223619341850280762e+00,4.978896081447601318e-01,-2.305874973535537720e-02
-1.225039362907409668e+00,4.984674453735351562e-01,2.308551035821437836e-02
-1.226431965827941895e+00,4.990340471267700195e-01,6.939163804054260254e-02
-1.227771401405334473e+00,4.995790719985961914e-01,1.159677579998970032e-01
-1.229269266128540039e+00,5.001885890960693359e-01,1.629516333341598511e-01
-1.230729460716247559e+00,5.007826685905456543e-01,2.104471474885940552e-01
-1.232084274291992188e+00,5.013340115547180176e-01,2.585595846176147461e-01
-1.233657240867614746e+00,5.019740462303161621e-01,3.074868619441986084e-01
-1.245861411094665527e+00,4.862751662731170654e-01,-3.583542406558990479e-01
-1.247591257095336914e+00,4.869503378868103027e-01,-3.091909587383270264e-01
-1.249135255813598633e+00,4.875530004501342773e-01,-2.606466412544250488e-01
-1.250572562217712402e+00,4.881139695644378662e-01,-2.126237601041793823e-01
-1.251965880393981934e+00,4.886578023433685303e-01,-1.650162190198898315e-01
-1.253366708755493164e+00,4.892045557498931885e-01,-1.177118867635726929e-01
-1.254839301109313965e+00,4.897793829441070557e-01,-7.059505581855773926e-02
-1.256281733512878418e+00,4.903423488140106201e-01,-2.353959158062934875e-02
-1.257704615592956543e+00,4.908977448940277100e-01,2.356625162065029144e-02
-1.259204149246215820e+00,4.914830327033996582e-01,7.084061205387115479e-02
-1.260730504989624023e+00,4.920787513256072998e-01,1.184034645557403564e-01
-1.262239575386047363e+00,4.926677644252777100e-01,1.663703471422195435e-01
-1.263675570487976074e+00,4.932282567024230957e-01,2.148515433073043823e-01
-1.264968037605285645e+00,4.937327504158020020e-01,2.639503180980682373e-01
-1.266861915588378906e+00,4.944719076156616211e-01,3.139668107032775879e-01
-1.279024004936218262e+00,4.782398641109466553e-01,-3.658865392208099365e-01
-1.280898571014404297e+00,4.789408147335052490e-01,-3.157142400741577148e-01
-1.282287001609802246e+00,4.794599413871765137e-01,-2.661048769950866699e-01
-1.283848404884338379e+00,4.800437688827514648e-01,-2.170908898115158081e-01
-1.285329818725585938e+00,4.805976748466491699e-01,-1.684898138046264648e-01
-1.286780357360839844e+00,4.811400771141052246e-01,-1.201908886432647705e-01
-1.288236975669860840e+00,4.816846847534179688e-01,-7.207868248224258423e-02
-1.289716362953186035e+00,4.822378754615783691e-01,-2.403427474200725555e-02
-1.291225433349609375e+00,4.828021228313446045e-01,2.406239695847034454e-02
-1.292750120162963867e+00,4.833722114562988281e-01,7.233120501041412354e-02
-1.294264078140258789e+00,4.839383065700531006e-01,1.208899021148681641e-01
-1.295724630355834961e+00,4.844844341278076172e-01,1.698524504899978638e-01
-1.297389984130859375e+00,4.851071238517761230e-01,2.193806916475296021e-01
-1.298614263534545898e+00,4.855648577213287354e-01,2.694931626319885254e-01
-1.300412058830261230e+00,4.862370789051055908e-01,3.205238878726959229e-01
-1.313321113586425781e+00,4.697516858577728271e-01,-3.737361133098602295e-01
-1.314652681350708008e+00,4.702279567718505859e-01,-3.223419487476348877e-01
-1.316204905509948730e+00,4.707831740379333496e-01,-2.717174291610717773e-01
-1.317895531654357910e+00,4.713878631591796875e-01,-2.216844409704208374e-01
-1.319317221641540527e+00,4.718963503837585449e-01,-1.720420718193054199e-01
-1.320880651473999023e+00,4.724555909633636475e-01,-1.227317899465560913e-01
-1.322411656379699707e+00,4.730032086372375488e-01,-7.360445708036422729e-02
-1.323930263519287109e+00,4.735463857650756836e-01,-2.454303577542304993e-02
-1.325440168380737305e+00,4.740864634513854980e-01,2.457102760672569275e-02
-1.326929450035095215e+00,4.746191203594207764e-01,7.385591417551040649e-02
-1.328574776649475098e+00,4.752076268196105957e-01,1.234466955065727234e-01
-1.329983592033386230e+00,4.757115244865417480e-01,1.734329909086227417e-01
-1.331562042236328125e+00,4.762761294841766357e-01,2.239832878112792969e-01
-1.333405017852783203e+00,4.769352972507476807e-01,2.752681970596313477e-01
-1.334725975990295410e+00,4.774077832698822021e-01,3.272637426853179932e-01
-1.349996447563171387e+00,4.611855447292327881e-01,-3.822552561759948730e-01
-1.351496815681457520e+00,4.616980850696563721e-01,-3.297216892242431641e-01
-1.353180527687072754e+00,4.622732996940612793e-01,-2.779562473297119141e-01
-1.354749798774719238e+00,4.628093838691711426e-01,-2.267462015151977539e-01
-1.356275200843811035e+00,4.633304774761199951e-01,-1.759786456823348999e-01
-1.357903838157653809e+00,4.638868570327758789e-01,-1.255420446395874023e-01
-1.359423995018005371e+00,4.644061625003814697e-01,-7.528684288263320923e-02
-1.360983967781066895e+00,4.649390876293182373e-01,-2.510399743914604187e-02
-1.362581014633178711e+00,4.654846787452697754e-01,2.513345517218112946e-02
-1.364089131355285645e+00,4.659999012947082520e-01,7.554520666599273682e-02
-1.365713357925415039e+00,4.665547609329223633e-01,1.262640655040740967e-01
-1.367322206497192383e+00,4.671043753623962402e-01,1.774120181798934937e-01
-1.368854880332946777e+00,4.676279425621032715e-01,2.291069775819778442e-01
-1.370612859725952148e+00,4.682285189628601074e-01,2.815369963645935059e-01
-1.372234702110290527e+00,4.687825739383697510e-01,3.347810804843902588e-01
-1.387577533721923828e+00,4.519529938697814941e-01,-3.910246789455413818e-01
-1.389255285263061523e+00,4.524994790554046631e-01,-3.373188376426696777e-01
-1.390802741050720215e+00,4.530035257339477539e-01,-2.843231856822967529e-01
-1.392523646354675293e+00,4.535640180110931396e-01,-2.319581061601638794e-01
-1.394158005714416504e+00,4.540963768959045410e-01,-1.800322234630584717e-01
-1.395759105682373047e+00,4.546178579330444336e-01,-1.284271180629730225e-01
-1.397363901138305664e+00,4.551405906677246094e-01,-7.701933383941650391e-02
-1.398966550827026367e+00,4.556625783443450928e-01,-2.568167261779308319e-02
-1.400563478469848633e+00,4.561826884746551514e-01,2.571098506450653076e-02
-1.402177095413208008e+00,4.567083120346069336e-01,7.728462666273117065e-02
-1.403777718544006348e+00,4.572296142578125000e-01,1.291649192571640015e-01
-1.405321002006530762e+00,4.577322900295257568e-01,1.814737319946289062e-01
-1.407071948051452637e+00,4.583025872707366943e-01,2.343814671039581299e-01
-1.408738970756530762e+00,4.588455557823181152e-01,2.879898846149444580e-01
-1.410665392875671387e+00,4.594730436801910400e-01,3.425173461437225342e-01
-1.428591012954711914e+00,4.427992105484008789e-01,-4.007553160190582275e-01
-1.430083036422729492e+00,4.432616829872131348e-01,-3.456561565399169922e-01
-1.431787490844726562e+00,4.437899887561798096e-01,-2.913733124732971191e-01
-1.433403134346008301e+00,4.442907571792602539e-01,-2.376839220523834229e-01
-1.435163140296936035e+00,4.448362886905670166e-01,-1.844862401485443115e-01
-1.436841964721679688e+00,4.453566372394561768e-01,-1.316072195768356323e-01
-1.438476681709289551e+00,4.458633065223693848e-01,-7.892553508281707764e-02
-1.440118074417114258e+00,4.463720917701721191e-01,-2.631712891161441803e-02
-1.441776275634765625e+00,4.468860328197479248e-01,2.634743228554725647e-02
-1.443403482437133789e+00,4.473904073238372803e-01,7.919584959745407104e-02
-1.444972515106201172e+00,4.478767216205596924e-01,1.323519349098205566e-01
-1.446707725524902344e+00,4.484145641326904297e-01,1.859702616930007935e-01
-1.448393583297729492e+00,4.489371180534362793e-01,2.401695996522903442e-01
-1.450339317321777344e+00,4.495401978492736816e-01,2.951486706733703613e-01
-1.451718926429748535e+00,4.499678313732147217e-01,3.508855998516082764e-01
-1.468088388442993164e+00,4.321111142635345459e-01,-4.100582599639892578e-01
-1.469771146774291992e+00,4.326063990592956543e-01,-3.537160158157348633e-01
-1.471625089645385742e+00,4.331521093845367432e-01,-2.981881499290466309e-01
-1.473343372344970703e+00,4.336578547954559326e-01,-2.432525455951690674e-01
-1.474998712539672852e+00,4.341450929641723633e-01,-1.887888461351394653e-01
-1.476651072502136230e+00,4.346314370632171631e-01,-1.346699148416519165e-01
-1.478376269340515137e+00,4.351392388343811035e-01,-8.076471835374832153e-02
-1.480061531066894531e+00,4.356352686882019043e-01,-2.693036012351512909e-02
-1.481718778610229492e+00,4.361230432987213135e-01,2.696051448583602905e-02
-1.483453750610351562e+00,4.366337060928344727e-01,8.104209601879119873e-02
-1.485208511352539062e+00,4.371501803398132324e-01,1.354503482580184937e-01
-1.486932039260864258e+00,4.376574754714965820e-01,1.903162151575088501e-01
-1.488561391830444336e+00,4.381370544433593750e-01,2.457650750875473022e-01
-1.490406394004821777e+00,4.386801421642303467e-01,3.019936978816986084e-01
-1.492086172103881836e+00,4.391745328903198242e-01,3.590863645076751709e-01
-1.513480544090270996e+00,4.220305383205413818e-01,-4.210065603256225586e-01
-1.515000104904174805e+00,4.224542677402496338e-01,-3.631084263324737549e-01
-1.517045497894287109e+00,4.230246245861053467e-01,-3.061332106590270996e-01
-1.518673658370971680e+00,4.234786331653594971e-01,-2.497103512287139893e-01
-1.520475029945373535e+00,4.239809215068817139e-01,-1.938128918409347534e-01
-1.522219896316528320e+00,4.244674742221832275e-01,-1.382575184106826782e-01
-1.523948073387145996e+00,4.249493777751922607e-01,-8.291354775428771973e-02
-1.525683641433715820e+00,4.254333376884460449e-01,-2.764684334397315979e-02
-1.527430653572082520e+00,4.259204864501953125e-01,2.767850086092948914e-02
-1.529175877571105957e+00,4.264071285724639893e-01,8.319798111915588379e-02
-1.530885696411132812e+00,4.268839359283447266e-01,1.390445977449417114e-01
-1.532796144485473633e+00,4.274166524410247803e-01,1.953834444284439087e-01
-1.534335374832153320e+00,4.278458356857299805e-01,2.522855401039123535e-01
-1.536443591117858887e+00,4.284337162971496582e-01,3.100476562976837158e-01
-1.537988424301147461e+00,4.288644790649414062e-01,3.686181604862213135e-01
-1.559737443923950195e+00,4.109636545181274414e-01,-4.321933090686798096e-01
-1.561855554580688477e+00,4.115217328071594238e-01,-3.728885650634765625e-01
-1.563750624656677246e+00,4.120210409164428711e-01,-3.143358230590820312e-01
-1.565519690513610840e+00,4.124871790409088135e-01,-2.564160227775573730e-01
-1.567242503166198730e+00,4.129410982131958008e-01,-1.990004628896713257e-01
-1.569083809852600098e+00,4.134262204170227051e-01,-1.419619768857955933e-01
-1.570816636085510254e+00,4.138828217983245850e-01,-8.513250201940536499e-02
-1.572603940963745117e+00,4.143537282943725586e-01,-2.838670276105403900e-02
-1.574441552162170410e+00,4.148379266262054443e-01,2.841987460851669312e-02
-1.576194047927856445e+00,4.152996540069580078e-01,8.542393147945404053e-02
-1.578080534934997559e+00,4.157967269420623779e-01,1.427759528160095215e-01
-1.579954385757446289e+00,4.162904620170593262e-01,2.006145566701889038e-01
-1.581746578216552734e+00,4.167626500129699707e-01,2.590738236904144287e-01
-1.583364963531494141e+00,4.171890914440155029e-01,3.182785809040069580e-01
-1.585639357566833496e+00,4.177883565425872803e-01,3.785668909549713135e-01
-1.607697129249572754e+00,3.990834057331085205e-01,-4.438543319702148438e-01
-1.609662294387817383e+00,3.995712101459503174e-01,-3.828976154327392578e-01
-1.611763358116149902e+00,4.000927507877349854e-01,-3.228028416633605957e-01
-1.613446831703186035e+00,4.005106687545776367e-01,-2.633000612258911133e-01
-1.615324854850769043e+00,4.009768366813659668e-01,-2.043560296297073364e-01
-1.617162227630615234e+00,4.014329612255096436e-01,-1.457770615816116333e-01
-1.619003415107727051e+00,4.018900096416473389e-01,-8.742333203554153442e-02
-1.620843887329101562e+00,4.023468494415283203e-01,-2.915053069591522217e-02
-1.622678875923156738e+00,4.028023481369018555e-01,2.918353304266929626e-02
