-2.925439834594726562e+00,3.699332475662231445e+00,-1.088836431503295898e+00
-3.218135595321655273e+00,4.069457530975341797e+00,-1.008472323417663574e+00
-3.222315788269042969e+00,4.074743747711181641e+00,-8.227881193161010742e-01
-3.226277589797973633e+00,4.079753398895263672e+00,-6.386352181434631348e-01
-3.230144500732421875e+00,4.084643363952636719e+00,-4.555972814559936523e-01
-3.234004020690917969e+00,4.089523792266845703e+00,-2.732396423816680908e-01
-3.237904548645019531e+00,4.094456195831298828e+00,-9.111563861370086670e-02
-3.241853237152099609e+00,4.099449634552001953e+00,9.122674912214279175e-02
-3.245823860168457031e+00,4.104470729827880859e+00,2.742382884025573730e-01
-3.249747514724731445e+00,4.109432220458984375e+00,4.583621919155120850e-01
-3.253519535064697266e+00,4.114202022552490234e+00,6.440277099609375000e-01
-3.258016109466552734e+00,4.119887828826904297e+00,8.319038152694702148e-01
-3.262389898300170898e+00,4.125418663024902344e+00,1.022340297698974609e+00
-3.266410112380981445e+00,4.130502700805664062e+00,1.215744137763977051e+00
-2.510514497756958008e+00,3.082908630371093750e+00,-1.065311551094055176e+00
-2.984905958175659180e+00,3.665460586547851562e+00,-1.091330170631408691e+00
-3.238652229309082031e+00,3.977060794830322266e+00,-9.969606995582580566e-01
-3.242930173873901367e+00,3.982314109802246094e+00,-8.134138584136962891e-01
-3.246971607208251953e+00,3.987276792526245117e+00,-6.313696503639221191e-01
-3.250900030136108398e+00,3.992100954055786133e+00,-4.504191577434539795e-01
-3.254803180694580078e+00,3.996894121170043945e+00,-2.701356709003448486e-01
-3.258729219436645508e+00,4.001715183258056641e+00,-9.008058905601501465e-02
-3.262686491012573242e+00,4.006575107574462891e+00,9.018997848033905029e-02
-3.266646623611450195e+00,4.011437892913818359e+00,2.711186408996582031e-01
-3.270542383193969727e+00,4.016222000122070312e+00,4.531406462192535400e-01
-3.274268150329589844e+00,4.020797252655029297e+00,6.366774439811706543e-01
-3.278702020645141602e+00,4.026241779327392578e+00,8.223863840103149414e-01
-3.282996654510498047e+00,4.031515598297119141e+00,1.010611295700073242e+00
-3.286920785903930664e+00,4.036334514617919922e+00,1.201751828193664551e+00
-2.560636281967163086e+00,3.054124355316162109e+00,-1.067920684814453125e+00
-3.044646739959716797e+00,3.631413936614990234e+00,-1.094056367874145508e+00
-3.259751558303833008e+00,3.887974023818969727e+00,-9.862237572669982910e-01
-3.263293743133544922e+00,3.892198801040649414e+00,-8.044654130935668945e-01
-3.267419815063476562e+00,3.897119998931884766e+00,-6.244352459907531738e-01
-3.271414041519165039e+00,3.901884078979492188e+00,-4.454777538776397705e-01
-3.275362014770507812e+00,3.906592845916748047e+00,-2.671737372875213623e-01
-3.279313802719116211e+00,3.911306142807006836e+00,-8.909291028976440430e-02
-3.283277273178100586e+00,3.916033506393432617e+00,8.920059353113174438e-02
-3.287222862243652344e+00,3.920739650726318359e+00,2.681412398815155029e-01
-3.291084527969360352e+00,3.925345182418823242e+00,4.481562972068786621e-01
-3.295601844787597656e+00,3.930733203887939453e+00,6.298210620880126953e-01
-3.299119234085083008e+00,3.934928417205810547e+00,8.132970929145812988e-01
-3.303323030471801758e+00,3.939942359924316406e+00,9.994060993194580078e-01
-3.307137727737426758e+00,3.944492340087890625e+00,1.188379287719726562e+00
-2.592533826828002930e+00,3.003780841827392578e+00,-1.063183903694152832e+00
-3.078437566757202148e+00,3.566762208938598633e+00,-1.087742090225219727e+00
-3.283619403839111328e+00,3.804491519927978516e+00,-9.768695235252380371e-01
-3.287266254425048828e+00,3.808716773986816406e+00,-7.968542575836181641e-01
-3.291479825973510742e+00,3.813598871231079102e+00,-6.185380816459655762e-01
-3.295541763305664062e+00,3.818305015563964844e+00,-4.412757754325866699e-01
-3.299539089202880859e+00,3.822936296463012695e+00,-2.646552622318267822e-01
-3.303520202636718750e+00,3.827549219131469727e+00,-8.825309574604034424e-02
-3.307495117187500000e+00,3.832154512405395508e+00,8.835928142070770264e-02
-3.311431884765625000e+00,3.836715936660766602e+00,2.656092047691345215e-01
-3.315265893936157227e+00,3.841157913208007812e+00,4.439168572425842285e-01
-3.319737434387207031e+00,3.846338748931884766e+00,6.238483190536499023e-01
-3.324220895767211914e+00,3.851533412933349609e+00,8.058122992515563965e-01
-3.328520298004150391e+00,3.856514930725097656e+00,9.902274608612060547e-01
-3.332404136657714844e+00,3.861014842987060547e+00,1.177479267120361328e+00
-2.642702579498291016e+00,2.974748373031616211e+00,-1.066187143325805664e+00
-3.138177633285522461e+00,3.532478094100952148e+00,-1.090873360633850098e+00
-3.303322076797485352e+00,3.718372106552124023e+00,-9.667983651161193848e-01
-3.307749271392822266e+00,3.723355770111083984e+00,-7.888198494911193848e-01
-3.311393499374389648e+00,3.727457761764526367e+00,-6.121914982795715332e-01
-3.315526723861694336e+00,3.732110500335693359e+00,-4.367541670799255371e-01
-3.319572448730468750e+00,3.736664295196533203e+00,-2.619453072547912598e-01
-3.323578357696533203e+00,3.741173744201660156e+00,-8.734944462776184082e-02
-3.327554702758789062e+00,3.745649576187133789e+00,8.745394647121429443e-02
-3.331470012664794922e+00,3.750056982040405273e+00,2.628841698169708252e-01
-3.335923910140991211e+00,3.755070447921752930e+00,4.394410848617553711e-01
-3.339662551879882812e+00,3.759278774261474609e+00,6.174176931381225586e-01
-3.344056367874145508e+00,3.764224767684936523e+00,7.974782586097717285e-01
-3.348243951797485352e+00,3.768938302993774414e+00,9.799458384513854980e-01
-3.351994276046752930e+00,3.773159742355346680e+00,1.165198922157287598e+00
-2.693114757537841797e+00,2.945489406585693359e+00,-1.069406867027282715e+00
-3.198223352432250977e+00,3.497932195663452148e+00,-1.094229817390441895e+00
-3.322834014892578125e+00,3.634220361709594727e+00,-9.571865797042846680e-01
-3.327384948730468750e+00,3.639197587966918945e+00,-7.810003757476806641e-01
-3.331128358840942383e+00,3.643291950225830078e+00,-6.061369776725769043e-01
-3.335336446762084961e+00,3.647894382476806641e+00,-4.324412643909454346e-01
-3.339431524276733398e+00,3.652373075485229492e+00,-2.593605816364288330e-01
-3.343462228775024414e+00,3.656781673431396484e+00,-8.648754656314849854e-02
-3.347437858581542969e+00,3.661129951477050781e+00,8.659038692712783813e-02
-3.351328134536743164e+00,3.665384531021118164e+00,2.602845430374145508e-01
-3.355731725692749023e+00,3.670200824737548828e+00,4.350855648517608643e-01
-3.359395027160644531e+00,3.674207687377929688e+00,6.112805008888244629e-01
-3.363689422607421875e+00,3.678904294967651367e+00,7.895216941833496094e-01
-3.367754220962524414e+00,3.683350086212158203e+00,9.701263904571533203e-01
-3.372747421264648438e+00,3.688811063766479492e+00,1.153940916061401367e+00
-2.725340127944946289e+00,2.896383285522460938e+00,-1.065631747245788574e+00
-3.232261896133422852e+00,3.435119628906250000e+00,-1.088941812515258789e+00
-3.343022108078002930e+00,3.552831172943115234e+00,-9.482558369636535645e-01
-3.346853256225585938e+00,3.556902647018432617e+00,-7.735407352447509766e-01
-3.351180553436279297e+00,3.561501741409301758e+00,-6.004483103752136230e-01
-3.354986906051635742e+00,3.565546989440917969e+00,-4.283281862735748291e-01
-3.359133243560791016e+00,3.569953441619873047e+00,-2.568958103656768799e-01
-3.363188028335571289e+00,3.574262619018554688e+00,-8.566563576459884644e-02
-3.367161035537719727e+00,3.578485250473022461e+00,8.576684445142745972e-02
-3.371501207351684570e+00,3.583097696304321289e+00,2.578416764736175537e-01
-3.375369787216186523e+00,3.587208986282348633e+00,4.309304654598236084e-01
-3.379807233810424805e+00,3.591924905776977539e+00,6.055775284767150879e-01
-3.384177923202514648e+00,3.596570014953613281e+00,7.821674346923828125e-01
-3.388287305831909180e+00,3.600937128067016602e+00,9.610954523086547852e-01
-3.391904115676879883e+00,3.604781150817871094e+00,1.142724871635437012e+00
-2.775912761688232422e+00,2.866788148880004883e+00,-1.069252133369445801e+00
-3.292443990707397461e+00,3.400228977203369141e+00,-1.092708587646484375e+00
-3.362198829650878906e+00,3.472267389297485352e+00,-9.395015835762023926e-01
-3.366166830062866211e+00,3.476365327835083008e+00,-7.664256691932678223e-01
-3.370604276657104492e+00,3.480947971343994141e+00,-5.949403047561645508e-01
-3.374492168426513672e+00,3.484963178634643555e+00,-4.244065582752227783e-01
-3.378691434860229492e+00,3.489299774169921875e+00,-2.545459270477294922e-01
-3.382770299911499023e+00,3.493512392044067383e+00,-8.488205075263977051e-02
-3.386739253997802734e+00,3.497611284255981445e+00,8.498164266347885132e-02
-3.391046524047851562e+00,3.502059459686279297e+00,2.554767429828643799e-01
-3.394853115081787109e+00,3.505990743637084961e+00,4.269673526287078857e-01
-3.399200916290283203e+00,3.510480642318725586e+00,5.999878644943237305e-01
-3.403454303741455078e+00,3.514873504638671875e+00,7.749154567718505859e-01
-3.407419443130493164e+00,3.518968343734741211e+00,9.521376490592956543e-01
-3.412261486053466797e+00,3.523968935012817383e+00,1.132474064826965332e+00
-2.807879447937011719e+00,2.817955732345581055e+00,-1.065919756889343262e+00
-3.352951526641845703e+00,3.364983797073364258e+00,-1.096692681312561035e+00
-3.381227493286132812e+00,3.393361330032348633e+00,-9.311512708663940430e-01
-3.386010169982910156e+00,3.398160934448242188e+00,-7.597913742065429688e-01
-3.389891147613525391e+00,3.402055978775024414e+00,-5.896891355514526367e-01
-3.394155502319335938e+00,3.406335353851318359e+00,-4.207044541835784912e-01
-3.398117303848266602e+00,3.410311698913574219e+00,-2.523060739040374756e-01
-3.402220487594604492e+00,3.414429426193237305e+00,-8.413515985012054443e-02
-3.406471014022827148e+00,3.418695211410522461e+00,8.424027264118194580e-02
-3.410452842712402344e+00,3.422691345214843750e+00,2.532219886779785156e-01
-3.414865970611572266e+00,3.427120208740234375e+00,4.232715070247650146e-01
-3.418444395065307617e+00,3.430711746215820312e+00,5.946561098098754883e-01
-3.422572135925292969e+00,3.434854030609130859e+00,7.679955363273620605e-01
-3.427606821060180664e+00,3.439907073974609375e+00,9.439236521720886230e-01
-3.432442665100097656e+00,3.444760084152221680e+00,1.122692823410034180e+00
-2.858626842498779297e+00,2.787920236587524414e+00,-1.069926142692565918e+00
-3.386429309844970703e+00,3.302667856216430664e+00,-1.092068791389465332e+00
-3.400973081588745117e+00,3.316851854324340820e+00,-9.234201312065124512e-01
-3.405049800872802734e+00,3.320827960968017578e+00,-7.533206343650817871e-01
-3.409050941467285156e+00,3.324729919433593750e+00,-5.846838951110839844e-01
-3.413402557373046875e+00,3.328974008560180664e+00,-4.171412885189056396e-01
-3.417420625686645508e+00,3.332892656326293945e+00,-2.501716613769531250e-01
-3.421547651290893555e+00,3.336917638778686523e+00,-8.342341333627700806e-02
-3.425789594650268555e+00,3.341054677963256836e+00,8.352684229612350464e-02
-3.429731607437133789e+00,3.344899177551269531e+00,2.510728836059570312e-01
-3.434072017669677734e+00,3.349132299423217773e+00,4.196672439575195312e-01
-3.438408613204956055e+00,3.353361606597900391e+00,5.897190570831298828e-01
-3.442585706710815430e+00,3.357435226440429688e+00,7.616249322891235352e-01
-3.446409702301025391e+00,3.361164569854736328e+00,9.357569217681884766e-01
-3.451050758361816406e+00,3.365690946578979492e+00,1.112908124923706055e+00
-2.890350818634033203e+00,2.739250183105468750e+00,-1.067015647888183594e+00
-3.415213346481323242e+00,3.236674308776855469e+00,-1.086299777030944824e+00
-3.419730901718139648e+00,3.240955591201782227e+00,-9.158239364624023438e-01
-3.423965215682983398e+00,3.244968652725219727e+00,-7.471531629562377930e-01
-3.428090810775756836e+00,3.248878479003906250e+00,-5.799143910408020020e-01
-3.432533025741577148e+00,3.253088474273681641e+00,-4.137464761734008789e-01
-3.436609029769897461e+00,3.256951570510864258e+00,-2.481382340192794800e-01
-3.440759658813476562e+00,3.260885000228881836e+00,-8.274535089731216431e-02
-3.444991350173950195e+00,3.264895677566528320e+00,8.284711837768554688e-02
-3.448889493942260742e+00,3.268589973449707031e+00,2.490249425172805786e-01
-3.453152894973754883e+00,3.272630691528320312e+00,4.162319302558898926e-01
-3.457378625869750977e+00,3.276635169982910156e+00,5.848688483238220215e-01
-3.461412668228149414e+00,3.280458450317382812e+00,7.553247213363647461e-01
-3.466289758682250977e+00,3.285080432891845703e+00,9.282926321029663086e-01
-3.470900058746337891e+00,3.289449691772460938e+00,1.104012489318847656e+00
-2.921920299530029297e+00,2.690844774246215820e+00,-1.064342498779296875e+00
-3.434687614440917969e+00,3.163060665130615234e+00,-1.077983021736145020e+00
-3.439223051071166992e+00,3.167237281799316406e+00,-9.088101983070373535e-01
-3.443435907363891602e+00,3.171117305755615234e+00,-7.414214015007019043e-01
-3.447500467300415039e+00,3.174860239028930664e+00,-5.754514336585998535e-01
-3.451552867889404297e+00,3.178592205047607422e+00,-4.105130136013031006e-01
-3.455688238143920898e+00,3.182400465011596680e+00,-2.462016195058822632e-01
-3.459862232208251953e+00,3.186244487762451172e+00,-8.209957182407379150e-02
-3.464081525802612305e+00,3.190129995346069336e+00,8.219969272613525391e-02
-3.468415737152099609e+00,3.194121360778808594e+00,2.471083849668502808e-01
-3.472790002822875977e+00,3.198149681091308594e+00,4.130388498306274414e-01
-3.477086544036865234e+00,3.202106475830078125e+00,5.803899168968200684e-01
-3.481152772903442383e+00,3.205851078033447266e+00,7.495423555374145508e-01
-3.486027240753173828e+00,3.210340261459350586e+00,9.211781620979309082e-01
-3.490595340728759766e+00,3.214546918869018555e+00,1.095529794692993164e+00
-2.974201440811157227e+00,2.661339759826660156e+00,-1.069401144981384277e+00
-3.451155185699462891e+00,3.088121891021728516e+00,-1.069169044494628906e+00
-3.454870462417602539e+00,3.091446399688720703e+00,-9.011599421501159668e-01
-3.459266424179077148e+00,3.095380067825317383e+00,-7.352150082588195801e-01
-3.463474512100219727e+00,3.099145412445068359e+00,-5.706549882888793945e-01
-3.467629909515380859e+00,3.102863550186157227e+00,-4.071011841297149658e-01
-3.471827030181884766e+00,3.106619358062744141e+00,-2.441584020853042603e-01
-3.476020812988281250e+00,3.110372066497802734e+00,-8.141823112964630127e-02
-3.480219125747680664e+00,3.114128589630126953e+00,8.151656389236450195e-02
-3.484489440917968750e+00,3.117949724197387695e+00,2.450488954782485962e-01
-3.488759517669677734e+00,3.121770620346069336e+00,4.095817804336547852e-01
-3.492912530899047852e+00,3.125486612319946289e+00,5.755052566528320312e-01
-3.497846364974975586e+00,3.129901409149169922e+00,7.434145212173461914e-01
-3.501444578170776367e+00,3.133121252059936523e+00,9.133082032203674316e-01
-3.505751371383666992e+00,3.136975049972534180e+00,1.086083054542541504e+00
-3.005601406097412109e+00,2.612950086593627930e+00,-1.067134380340576172e+00
-3.469433307647705078e+00,3.016186952590942383e+00,-1.061348199844360352e+00
-3.474224090576171875e+00,3.020351886749267578e+00,-8.948399424552917480e-01
-3.477936029434204102e+00,3.023579120635986328e+00,-7.299101352691650391e-01
-3.482283830642700195e+00,3.027358770370483398e+00,-5.665564537048339844e-01
-3.486540079116821289e+00,3.031059026718139648e+00,-4.041864275932312012e-01
-3.490799665451049805e+00,3.034762144088745117e+00,-2.424130290746688843e-01
-3.495017051696777344e+00,3.038428544998168945e+00,-8.083622902631759644e-02
-3.499199151992797852e+00,3.042064189910888672e+00,8.093295991420745850e-02
-3.503415107727050781e+00,3.045729637145996094e+00,2.432890981435775757e-01
-3.507592201232910156e+00,3.049360752105712891e+00,4.066269397735595703e-01
-3.512480735778808594e+00,3.053610801696777344e+00,5.714694261550903320e-01
-3.516377687454223633e+00,3.056998491287231445e+00,7.379778027534484863e-01
-3.521003484725952148e+00,3.061020135879516602e+00,9.068886637687683105e-01
-3.525243043899536133e+00,3.064705848693847656e+00,1.078421235084533691e+00
-3.038422822952270508e+00,2.566062450408935547e+00,-1.065637707710266113e+00
-3.485957860946655273e+00,2.944022655487060547e+00,-1.053404450416564941e+00
-3.489947080612182617e+00,2.947391510009765625e+00,-8.879326581954956055e-01
-3.494532346725463867e+00,2.951264142990112305e+00,-7.244535088539123535e-01
-3.498846292495727539e+00,2.954907417297363281e+00,-5.623122453689575195e-01
-3.502727031707763672e+00,2.958184719085693359e+00,-4.011132717132568359e-01
-3.507051706314086914e+00,2.961837053298950195e+00,-2.405729889869689941e-01
-3.511289596557617188e+00,2.965416193008422852e+00,-8.022265881299972534e-02
-3.515446901321411133e+00,2.968927145004272461e+00,8.031763881444931030e-02
-3.520076513290405273e+00,2.972837209701538086e+00,2.414664626121520996e-01
-3.524329900741577148e+00,2.976429224014282227e+00,4.035871028900146484e-01
-3.528382301330566406e+00,2.979851722717285156e+00,5.670590996742248535e-01
-3.533128738403320312e+00,2.983860254287719727e+00,7.324549555778503418e-01
-3.537689447402954102e+00,2.987711906433105469e+00,9.000795483589172363e-01
-3.541817903518676758e+00,2.991198539733886719e+00,1.070284485816955566e+00
-3.089501142501831055e+00,2.534342765808105469e+00,-1.070719838142395020e+00
-3.504076957702636719e+00,2.874422550201416016e+00,-1.046339750289916992e+00
-3.509156703948974609e+00,2.878589630126953125e+00,-8.822467327117919922e-01
-3.513070821762084961e+00,2.881800413131713867e+00,-7.196717858314514160e-01
-3.517532825469970703e+00,2.885460615158081055e+00,-5.586205720901489258e-01
-3.521815299987792969e+00,2.888973712921142578e+00,-3.985230028629302979e-01
-3.526010990142822266e+00,2.892415285110473633e+00,-2.390091121196746826e-01
-3.530268669128417969e+00,2.895907878875732422e+00,-7.970109581947326660e-02
-3.534601449966430664e+00,2.899461984634399414e+00,7.979890704154968262e-02
-3.538879394531250000e+00,2.902971506118774414e+00,2.398813962936401367e-01
-3.543029308319091797e+00,2.906375646591186523e+00,4.009235501289367676e-01
-3.547804117202758789e+00,2.910292387008666992e+00,5.634279847145080566e-01
-3.551499128341674805e+00,2.913323402404785156e+00,7.275440096855163574e-01
-3.555835008621215820e+00,2.916880130767822266e+00,8.939822316169738770e-01
-3.561105966567993164e+00,2.921204090118408203e+00,1.063369035720825195e+00
-3.122283220291137695e+00,2.487338542938232422e+00,-1.069632768630981445e+00
-3.520639419555664062e+00,2.804685354232788086e+00,-1.039191603660583496e+00
-3.524935722351074219e+00,2.808108091354370117e+00,-8.760188221931457520e-01
-3.529738426208496094e+00,2.811933994293212891e+00,-7.147678136825561523e-01
-3.533689975738525391e+00,2.815081834793090820e+00,-5.547306537628173828e-01
-3.538089513778686523e+00,2.818586826324462891e+00,-3.957588076591491699e-01
-3.542354822158813477e+00,2.821984767913818359e+00,-2.373546808958053589e-01
-3.546632289886474609e+00,2.825392246246337891e+00,-7.914939522743225098e-02
-3.550936222076416016e+00,2.828821182250976562e+00,7.924544811248779297e-02
-3.555137157440185547e+00,2.832167625427246094e+00,2.382111549377441406e-01
-3.559839010238647461e+00,2.835913419723510742e+00,3.981916308403015137e-01
-3.563761949539184570e+00,2.839038610458374023e+00,5.594514608383178711e-01
-3.568288803100585938e+00,2.842644929885864258e+00,7.225742936134338379e-01
-3.572538375854492188e+00,2.846030235290527344e+00,8.878490328788757324e-01
-3.577673435211181641e+00,2.850121021270751953e+00,1.056026339530944824e+00
-3.155036926269531250e+00,2.440444469451904297e+00,-1.068777322769165039e+00
-3.537262201309204102e+00,2.736098527908325195e+00,-1.032432556152343750e+00
-3.541645288467407227e+00,2.739488840103149414e+00,-8.703374862670898438e-01
-3.545806646347045898e+00,2.742707490921020508e+00,-7.099992632865905762e-01
-3.549931287765502930e+00,2.745898008346557617e+00,-5.510538816452026367e-01
-3.554450988769531250e+00,2.749393939971923828e+00,-3.931467235088348389e-01
-3.558786630630493164e+00,2.752747774124145508e+00,-2.357914596796035767e-01
-3.563084840774536133e+00,2.756072282791137695e+00,-7.862813770771026611e-02
-3.567358493804931641e+00,2.759378194808959961e+00,7.872244715690612793e-02
-3.571479558944702148e+00,2.762565851211547852e+00,2.366324365139007568e-01
-3.576047897338867188e+00,2.766099452972412109e+00,3.955354988574981689e-01
-3.580656051635742188e+00,2.769663810729980469e+00,5.558232665061950684e-01
-3.585139513015747070e+00,2.773131847381591797e+00,7.178751826286315918e-01
-3.589292526245117188e+00,2.776344299316406250e+00,8.820464611053466797e-01
-3.594278812408447266e+00,2.780201196670532227e+00,1.049074172973632812e+00
-3.187752008438110352e+00,2.393620729446411133e+00,-1.068144202232360840e+00
-3.553934812545776367e+00,2.668580293655395508e+00,-1.026045203208923340e+00
-3.557555198669433594e+00,2.671298742294311523e+00,-8.647624850273132324e-01
-3.561943531036376953e+00,2.674593925476074219e+00,-7.054926156997680664e-01
-3.566726684570312500e+00,2.678185462951660156e+00,-5.476543307304382324e-01
-3.570887088775634766e+00,2.681309461593627930e+00,-3.906796872615814209e-01
-3.575295448303222656e+00,2.684619665145874023e+00,-2.343153059482574463e-01
-3.579613685607910156e+00,2.687862157821655273e+00,-7.813589274883270264e-02
-3.583855867385864258e+00,2.691047430038452148e+00,7.822848856449127197e-02
-3.588375091552734375e+00,2.694440841674804688e+00,2.351725101470947266e-01
-3.592325925827026367e+00,2.697407484054565430e+00,3.930252492427825928e-01
-3.596745729446411133e+00,2.700726270675659180e+00,5.522636175155639648e-01
-3.602039813995361328e+00,2.704701423645019531e+00,7.134342193603515625e-01
-3.606085777282714844e+00,2.707739353179931641e+00,8.765591979026794434e-01
-3.610911369323730469e+00,2.711362838745117188e+00,1.042494654655456543e+00
-3.220422267913818359e+00,2.346833705902099609e+00,-1.067726254463195801e+00
-3.569606304168701172e+00,2.601296424865722656e+00,-1.019715547561645508e+00
-3.574367284774780273e+00,2.604765892028808594e+00,-8.596983551979064941e-01
-3.578803300857543945e+00,2.607998609542846680e+00,-7.013664841651916504e-01
-3.583096265792846680e+00,2.611126899719238281e+00,-5.443733930587768555e-01
-3.587386369705200195e+00,2.614253282546997070e+00,-3.883511424064636230e-01
-3.591867923736572266e+00,2.617519140243530273e+00,-2.329221516847610474e-01
-3.596206665039062500e+00,2.620681047439575195e+00,-7.767133414745330811e-02
-3.600416660308837891e+00,2.623748779296875000e+00,7.776226103305816650e-02
-3.604846954345703125e+00,2.626977443695068359e+00,2.337638139724731445e-01
-3.609329700469970703e+00,2.630244255065917969e+00,3.907266259193420410e-01
-3.613744258880615234e+00,2.633461236953735352e+00,5.490297079086303711e-01
-3.617929697036743164e+00,2.636511325836181641e+00,7.090343832969665527e-01
-3.622906208038330078e+00,2.640137672424316406e+00,8.713728189468383789e-01
-3.627558708190917969e+00,2.643528223037719727e+00,1.036270618438720703e+00
-3.253034591674804688e+00,2.300046205520629883e+00,-1.067514300346374512e+00
-3.586338043212890625e+00,2.535707235336303711e+00,-1.014023303985595703e+00
-3.591211557388305664e+00,2.539153099060058594e+00,-8.549207448959350586e-01
-3.595033407211303711e+00,2.541855335235595703e+00,-6.973455548286437988e-01
-3.599512100219726562e+00,2.545022010803222656e+00,-5.412775278091430664e-01
-3.604223966598510742e+00,2.548353433609008789e+00,-3.861856758594512939e-01
-3.608490705490112305e+00,2.551370143890380859e+00,-2.316082119941711426e-01
-3.612849950790405273e+00,2.554452419281005859e+00,-7.723319530487060547e-02
-3.617313146591186523e+00,2.557608127593994141e+00,7.732860743999481201e-02
-3.621365070343017578e+00,2.560472965240478516e+00,2.324345409870147705e-01
-3.625701665878295898e+00,2.563539028167724609e+00,3.884869515895843506e-01
-3.630775213241577148e+00,2.567126274108886719e+00,5.459787249565124512e-01
-3.634890079498291016e+00,2.570035696029663086e+00,7.050767540931701660e-01
-3.639739513397216797e+00,2.573464632034301758e+00,8.664732575416564941e-01
-3.644208431243896484e+00,2.576624155044555664e+00,1.030385851860046387e+00
-3.285578966140747070e+00,2.253225326538085938e+00,-1.067501187324523926e+00
-3.603080034255981445e+00,2.470965147018432617e+00,-1.008653521537780762e+00
-3.607219934463500977e+00,2.473804235458374023e+00,-8.502151966094970703e-01
-3.611956119537353516e+00,2.477052211761474609e+00,-6.936796903610229492e-01
-3.616437673568725586e+00,2.480125665664672852e+00,-5.384293794631958008e-01
-3.620802640914916992e+00,2.483119249343872070e+00,-3.841144442558288574e-01
-3.625148057937622070e+00,2.486099243164062500e+00,-2.303697764873504639e-01
-3.629528045654296875e+00,2.489103078842163086e+00,-7.682023197412490845e-02
-3.633953332901000977e+00,2.492137908935546875e+00,7.691390067338943481e-02
-3.638392448425292969e+00,2.495182275772094727e+00,2.312114387750625610e-01
-3.642768621444702148e+00,2.498183250427246094e+00,3.864447176456451416e-01
-3.646963834762573242e+00,2.501060485839843750e+00,5.429742336273193359e-01
-3.651859760284423828e+00,2.504417896270751953e+00,7.013431787490844727e-01
-3.656572818756103516e+00,2.507650136947631836e+00,8.618476390838623047e-01
-3.660846710205078125e+00,2.510581254959106445e+00,1.024824857711791992e+00
-3.320187568664550781e+00,2.207764863967895508e+00,-1.068369030952453613e+00
-3.617945194244384766e+00,2.405759096145629883e+00,-1.003072381019592285e+00
-3.622240781784057617e+00,2.408615589141845703e+00,-8.455431461334228516e-01
-3.627067089080810547e+00,2.411824941635131836e+00,-6.898812055587768555e-01
-3.631091833114624023e+00,2.414500951766967773e+00,-5.354108810424804688e-01
-3.635603904724121094e+00,2.417501449584960938e+00,-3.819746673107147217e-01
-3.640032052993774414e+00,2.420445919036865234e+00,-2.290905565023422241e-01
-3.644431114196777344e+00,2.423371076583862305e+00,-7.639367878437042236e-02
-3.648809909820556641e+00,2.426282882690429688e+00,7.648546993732452393e-02
-3.653137922286987305e+00,2.429160594940185547e+00,2.299153953790664673e-01
-3.658008575439453125e+00,2.432399511337280273e+00,3.843286037445068359e-01
-3.662151813507080078e+00,2.435154438018798828e+00,5.399907231330871582e-01
-3.666929006576538086e+00,2.438331127166748047e+00,6.974630951881408691e-01
-3.671458244323730469e+00,2.441342830657958984e+00,8.570320606231689453e-01
-3.675485610961914062e+00,2.444020748138427734e+00,1.019025444984436035e+00
-3.352623224258422852e+00,2.160779476165771484e+00,-1.068744540214538574e+00
-3.634746551513671875e+00,2.342609167098999023e+00,-9.983319044113159180e-01
-3.639179468154907227e+00,2.345466136932373047e+00,-8.415743112564086914e-01
-3.643414258956909180e+00,2.348195552825927734e+00,-6.865272521972656250e-01
-3.648119211196899414e+00,2.351227760314941406e+00,-5.329046249389648438e-01
-3.652293682098388672e+00,2.353918313980102539e+00,-3.801493048667907715e-01
-3.656802654266357422e+00,2.356824398040771484e+00,-2.279995679855346680e-01
-3.661222219467163086e+00,2.359672784805297852e+00,-7.602987438440322876e-02
-3.665562152862548828e+00,2.362469911575317383e+00,7.612000405788421631e-02
-3.670267820358276367e+00,2.365502595901489258e+00,2.288390994071960449e-01
-3.674498081207275391e+00,2.368229150772094727e+00,3.824604451656341553e-01
-3.679277420043945312e+00,2.371309280395507812e+00,5.374561548233032227e-01
-3.683959722518920898e+00,2.374327182769775391e+00,6.941671967506408691e-01
-3.688332557678222656e+00,2.377145528793334961e+00,8.529410958290100098e-01
-3.693532705307006836e+00,2.380496978759765625e+00,1.014478325843811035e+00
-3.387226581573486328e+00,2.115086555480957031e+00,-1.070014953613281250e+00
-3.649819850921630859e+00,2.279057979583740234e+00,-9.934104084968566895e-01
-3.654425859451293945e+00,2.281934022903442383e+00,-8.374609947204589844e-01
-3.658765316009521484e+00,2.284643650054931641e+00,-6.831880211830139160e-01
-3.663026809692382812e+00,2.287304639816284180e+00,-5.302455425262451172e-01
-3.667645454406738281e+00,2.290188550949096680e+00,-3.782964944839477539e-01
-3.671952486038208008e+00,2.292878150939941406e+00,-2.268746644258499146e-01
-3.676390886306762695e+00,2.295649528503417969e+00,-7.565477490425109863e-02
-3.680967330932617188e+00,2.298507452011108398e+00,7.574895024299621582e-02
-3.685268640518188477e+00,2.301192998886108398e+00,2.276974022388458252e-01
-3.689980030059814453e+00,2.304135084152221680e+00,3.806001842021942139e-01
-3.694693326950073242e+00,2.307078123092651367e+00,5.348294973373413086e-01
-3.699239015579223633e+00,2.309916734695434570e+00,6.907455325126647949e-01
-3.703408956527709961e+00,2.312520503997802734e+00,8.486861586570739746e-01
-3.708335399627685547e+00,2.315596818923950195e+00,1.009337186813354492e+00
-3.421834230422973633e+00,2.069224119186401367e+00,-1.071481466293334961e+00
-3.665009498596191406e+00,2.216275215148925781e+00,-9.888091683387756348e-01
-3.668954849243164062e+00,2.218661069869995117e+00,-8.334276676177978516e-01
-3.673588037490844727e+00,2.221462726593017578e+00,-6.799488663673400879e-01
-3.678551673889160156e+00,2.224464416503906250e+00,-5.278298258781433105e-01
-3.682850837707519531e+00,2.227064132690429688e+00,-3.765383362770080566e-01
-3.687247991561889648e+00,2.229723215103149414e+00,-2.258246839046478271e-01
-3.691704988479614258e+00,2.232418298721313477e+00,-7.530464231967926025e-02
-3.696229457855224609e+00,2.235154390335083008e+00,7.539693266153335571e-02
-3.700886726379394531e+00,2.237970590591430664e+00,2.266599684953689575e-01
-3.704933166503906250e+00,2.240417480468750000e+00,3.787960708141326904e-01
-3.709387063980102539e+00,2.243110895156860352e+00,5.322543382644653320e-01
-3.714636564254760742e+00,2.246285438537597656e+00,6.875466108322143555e-01
-3.718595027923583984e+00,2.248678922653198242e+00,8.447037339210510254e-01
-3.723237752914428711e+00,2.251486539840698242e+00,1.004518985748291016e+00
-3.435668230056762695e+00,2.011007308959960938e+00,-1.066690802574157715e+00
-3.680290460586547852e+00,2.154192447662353516e+00,-9.845120906829833984e-01
-3.684427261352539062e+00,2.156613826751708984e+00,-8.298453092575073242e-01
-3.689177513122558594e+00,2.159394264221191406e+00,-6.770440936088562012e-01
-3.693712472915649414e+00,2.162048816680908203e+00,-5.255109071731567383e-01
-3.698173522949218750e+00,2.164659976959228516e+00,-3.748987317085266113e-01
-3.702661752700805664e+00,2.167287111282348633e+00,-2.248457670211791992e-01
-3.707138061523437500e+00,2.169907331466674805e+00,-7.497822493314743042e-02
-3.711609840393066406e+00,2.172524690628051758e+00,7.506866753101348877e-02
-3.716141700744628906e+00,2.175177335739135742e+00,2.256643325090408325e-01
-3.720656156539916992e+00,2.177819728851318359e+00,3.771778643131256104e-01
-3.725030660629272461e+00,2.180380344390869141e+00,5.299666523933410645e-01
-3.730126857757568359e+00,2.183363199234008789e+00,6.845591664314270020e-01
-3.735065460205078125e+00,2.186254024505615234e+00,8.412505984306335449e-01
-3.739585161209106445e+00,2.188899517059326172e+00,1.000373959541320801e+00
-3.470144987106323242e+00,1.965054273605346680e+00,-1.068552851676940918e+00
-3.695636034011840820e+00,2.092744112014770508e+00,-9.805037379264831543e-01
-3.699972152709960938e+00,2.095199584960937500e+00,-8.265072703361511230e-01
-3.704847335815429688e+00,2.097960233688354492e+00,-6.743397712707519531e-01
-3.709434032440185547e+00,2.100557565689086914e+00,-5.234164595603942871e-01
-3.713587284088134766e+00,2.102909326553344727e+00,-3.733716905117034912e-01
-3.718167066574096680e+00,2.105502843856811523e+00,-2.239343076944351196e-01
-3.722662448883056641e+00,2.108048439025878906e+00,-7.467428594827651978e-02
-3.727081298828125000e+00,2.110550642013549805e+00,7.476292550563812256e-02
-3.731957912445068359e+00,2.113312244415283203e+00,2.247648835182189941e-01
-3.736459255218505859e+00,2.115861177444458008e+00,3.756712675094604492e-01
-3.740748167037963867e+00,2.118289947509765625e+00,5.278350114822387695e-01
-3.745682239532470703e+00,2.121083974838256836e+00,6.817723512649536133e-01
-3.750386238098144531e+00,2.123747825622558594e+00,8.377689123153686523e-01
-3.754602432250976562e+00,2.126135349273681641e+00,9.961482882499694824e-01
-3.507085084915161133e+00,1.920210003852844238e+00,-1.071354627609252930e+00
-3.709689140319824219e+00,2.031140327453613281e+00,-9.764187932014465332e-01
-3.714263439178466797e+00,2.033644914627075195e+00,-8.231130838394165039e-01
-3.719294071197509766e+00,2.036399364471435547e+00,-6.715951561927795410e-01
-3.723484992980957031e+00,2.038693904876708984e+00,-5.212281942367553711e-01
-3.728102922439575195e+00,2.041222333908081055e+00,-3.718554973602294922e-01
-3.732593774795532227e+00,2.043681144714355469e+00,-2.230185568332672119e-01
-3.737103223800659180e+00,2.046150207519531250e+00,-7.436885684728622437e-02
-3.741647243499755859e+00,2.048638343811035156e+00,7.445928454399108887e-02
-3.746096611022949219e+00,2.051074504852294922e+00,2.238253504037857056e-01
-3.751029968261718750e+00,2.053775310516357422e+00,3.741423189640045166e-01
-3.755198478698730469e+00,2.056057929992675781e+00,5.256676077842712402e-01
-3.759927988052368164e+00,2.058647394180297852e+00,6.789324283599853516e-01
-3.764348745346069336e+00,2.061067819595336914e+00,8.342123627662658691e-01
-3.769563674926757812e+00,2.063923120498657227e+00,9.921782016754150391e-01
-3.523305892944335938e+00,1.864052057266235352e+00,-1.068049788475036621e+00
-3.723921060562133789e+00,1.970190286636352539e+00,-9.726426005363464355e-01
-3.728740930557250977e+00,1.972740292549133301e+00,-8.199799060821533203e-01
-3.733283996582031250e+00,1.975143790245056152e+00,-6.689478754997253418e-01
-3.738207101821899414e+00,1.977748513221740723e+00,-5.192731618881225586e-01
-3.742539405822753906e+00,1.980040550231933594e+00,-3.704306483268737793e-01
-3.747130870819091797e+00,1.982469677925109863e+00,-2.221689373254776001e-01
-3.751659154891967773e+00,1.984865427017211914e+00,-7.408556342124938965e-02
-3.756138324737548828e+00,1.987235188484191895e+00,7.417401671409606934e-02
-3.760907411575317383e+00,1.989758372306823730e+00,2.229857742786407471e-01
-3.765142440795898438e+00,1.991998910903930664e+00,3.726678490638732910e-01
-3.769836664199829102e+00,1.994482517242431641e+00,5.236667990684509277e-01
-3.774354696273803711e+00,1.996872782707214355e+00,6.763071417808532715e-01
-3.779667854309082031e+00,1.999683856964111328e+00,8.311791419982910156e-01
-3.784675121307373047e+00,2.002333164215087891e+00,9.885108470916748047e-01
-3.560213327407836914e+00,1.818845868110656738e+00,-1.071236252784729004e+00
-3.739291191101074219e+00,1.910333395004272461e+00,-9.694159626960754395e-01
-3.743368148803710938e+00,1.912416219711303711e+00,-8.170932531356811523e-01
-3.748081922531127930e+00,1.914824366569519043e+00,-6.666200757026672363e-01
-3.752625226974487305e+00,1.917145490646362305e+00,-5.174111127853393555e-01
-3.757145643234252930e+00,1.919454932212829590e+00,-3.691191971302032471e-01
-3.761837482452392578e+00,1.921851873397827148e+00,-2.213872522115707397e-01
-3.766383886337280273e+00,1.924174547195434570e+00,-7.382490485906600952e-02
-3.770798921585083008e+00,1.926430106163024902e+00,7.391144335269927979e-02
-3.775416135787963867e+00,1.928788900375366211e+00,2.221863567829132080e-01
-3.780066967010498047e+00,1.931164860725402832e+00,3.713710904121398926e-01
-3.784626245498657227e+00,1.933494210243225098e+00,5.218234062194824219e-01
-3.789932012557983398e+00,1.936204910278320312e+00,6.740633845329284668e-01
-3.793933153152465820e+00,1.938248872756958008e+00,8.281304240226745605e-01
-3.798553466796875000e+00,1.940609455108642578e+00,9.847798347473144531e-01
-3.576410770416259766e+00,1.763037919998168945e+00,-1.068407535552978516e+00
-3.753766536712646484e+00,1.850467681884765625e+00,-9.662030935287475586e-01
-3.758109092712402344e+00,1.852608442306518555e+00,-8.144392967224121094e-01
-3.762999534606933594e+00,1.855019211769104004e+00,-6.644828319549560547e-01
-3.767635345458984375e+00,1.857304453849792480e+00,-5.157624483108520508e-01
-3.772160768508911133e+00,1.859535455703735352e+00,-3.679417669773101807e-01
-3.776677131652832031e+00,1.861761808395385742e+00,-2.206697016954421997e-01
-3.781242132186889648e+00,1.864012122154235840e+00,-7.358563691377639771e-02
-3.785866498947143555e+00,1.866291761398315430e+00,7.367563247680664062e-02
-3.790516853332519531e+00,1.868584156036376953e+00,2.214783430099487305e-01
-3.795112609863281250e+00,1.870849728584289551e+00,3.701804876327514648e-01
-3.799531459808349609e+00,1.873028039932250977e+00,5.201287865638732910e-01
-3.804606199264526367e+00,1.875529766082763672e+00,6.718298792839050293e-01
-3.809471845626831055e+00,1.877928256988525391e+00,8.255704045295715332e-01
-3.813863277435302734e+00,1.880093097686767578e+00,9.816717505455017090e-01
-3.613176107406616211e+00,1.717327356338500977e+00,-1.071937680244445801e+00
-3.768314599990844727e+00,1.791064023971557617e+00,-9.632503986358642578e-01
-3.772928714752197266e+00,1.793257117271423340e+00,-8.120052218437194824e-01
-3.778002023696899414e+00,1.795668363571166992e+00,-6.625255346298217773e-01
-3.782274723052978516e+00,1.797699213027954102e+00,-5.141913890838623047e-01
-3.786991357803344727e+00,1.799940943717956543e+00,-3.668377697467803955e-01
-3.791613817214965820e+00,1.802137970924377441e+00,-2.200127243995666504e-01
-3.796197175979614258e+00,1.804316401481628418e+00,-7.336656004190444946e-02
-3.800752878189086914e+00,1.806481719017028809e+00,7.345461100339889526e-02
-3.805247545242309570e+00,1.808618068695068359e+00,2.208038419485092163e-01
-3.810243129730224609e+00,1.810992360115051270e+00,3.690901100635528564e-01
-3.814515829086303711e+00,1.813023209571838379e+00,5.185744762420654297e-01
-3.819353342056274414e+00,1.815322518348693848e+00,6.697770953178405762e-01
-3.823897838592529297e+00,1.817482352256774902e+00,8.229746818542480469e-01
-3.829218387603759766e+00,1.820011258125305176e+00,9.788184762001037598e-01
-3.632014036178588867e+00,1.662980794906616211e+00,-1.070354938507080078e+00
-3.782952070236206055e+00,1.732090353965759277e+00,-9.605562090873718262e-01
-3.786899566650390625e+00,1.733897805213928223e+00,-8.095877170562744141e-01
-3.792186975479125977e+00,1.736318707466125488e+00,-6.605871915817260742e-01
-3.796584844589233398e+00,1.738332271575927734e+00,-5.127016901969909668e-01
-3.801327943801879883e+00,1.740504026412963867e+00,-3.657758235931396484e-01
-3.805786609649658203e+00,1.742545485496520996e+00,-2.193653732538223267e-01
-3.810387849807739258e+00,1.744652271270751953e+00,-7.315070927143096924e-02
-3.815139770507812500e+00,1.746827960014343262e+00,7.324193418025970459e-02
-3.819643497467041016e+00,1.748890161514282227e+00,2.201640754938125610e-01
-3.824550151824951172e+00,1.751136660575866699e+00,3.680103421211242676e-01
-3.828642129898071289e+00,1.753010272979736328e+00,5.170307755470275879e-01
-3.834188461303710938e+00,1.755549788475036621e+00,6.679036617279052734e-01
-3.838530063629150391e+00,1.757537722587585449e+00,8.206256628036499023e-01
-3.843546152114868164e+00,1.759834289550781250e+00,9.759420752525329590e-01
-3.648080348968505859e+00,1.607584714889526367e+00,-1.068199157714843750e+00
-3.797605514526367188e+00,1.673475384712219238e+00,-9.580967426300048828e-01
-3.802645921707153320e+00,1.675696492195129395e+00,-8.077436685562133789e-01
-3.807322502136230469e+00,1.677757382392883301e+00,-6.589729785919189453e-01
-3.811827898025512695e+00,1.679742693901062012e+00,-5.114609599113464355e-01
-3.816312074661254883e+00,1.681718707084655762e+00,-3.648640513420104980e-01
-3.820880413055419922e+00,1.683731794357299805e+00,-2.188238352537155151e-01
-3.825500488281250000e+00,1.685767769813537598e+00,-7.297013700008392334e-02
-3.830179691314697266e+00,1.687829732894897461e+00,7.305938750505447388e-02
-3.834978580474853516e+00,1.689944386482238770e+00,2.196312546730041504e-01
-3.839814901351928711e+00,1.692075610160827637e+00,3.671110868453979492e-01
-3.844560146331787109e+00,1.694166660308837891e+00,5.158528685569763184e-01
-3.849042892456054688e+00,1.696142077445983887e+00,6.661939024925231934e-01
-3.854202508926391602e+00,1.698415756225585938e+00,8.186951279640197754e-01
-3.858956575393676758e+00,1.700510740280151367e+00,9.735749363899230957e-01
-3.669785499572753906e+00,1.554815173149108887e+00,-1.067928910255432129e+00
-3.811624526977539062e+00,1.614909529685974121e+00,-9.557039737701416016e-01
-3.816057682037353516e+00,1.616787791252136230e+00,-8.055943250656127930e-01
-3.820368289947509766e+00,1.618614077568054199e+00,-6.571537256240844727e-01
-3.825204372406005859e+00,1.620663046836853027e+00,-5.100909471511840820e-01
-3.829916954040527344e+00,1.622659683227539062e+00,-3.639069497585296631e-01
-3.834607839584350586e+00,1.624647140502929688e+00,-2.182558625936508179e-01
-3.839244842529296875e+00,1.626611828804016113e+00,-7.278075069189071655e-02
-3.843835830688476562e+00,1.628556847572326660e+00,7.286778092384338379e-02
-3.848439216613769531e+00,1.630507230758666992e+00,2.190431207418441772e-01
-3.852975368499755859e+00,1.632429122924804688e+00,3.660978972911834717e-01
-3.858121395111083984e+00,1.634609341621398926e+00,5.144804120063781738e-01
-3.863251686096191406e+00,1.636782884597778320e+00,6.645302176475524902e-01
-3.868140697479248047e+00,1.638854265213012695e+00,8.165893554687500000e-01
-3.872520446777343750e+00,1.640709996223449707e+00,9.709727168083190918e-01
-3.708884954452514648e+00,1.509142041206359863e+00,-1.072911143302917480e+00
-3.825587987899780273e+00,1.556628346443176270e+00,-9.535209536552429199e-01
-3.830357074737548828e+00,1.558568835258483887e+00,-8.038212060928344727e-01
-3.834906578063964844e+00,1.560420036315917969e+00,-6.557453870773315430e-01
-3.839879035949707031e+00,1.562443375587463379e+00,-5.090134739875793457e-01
-3.844629287719726562e+00,1.564376235008239746e+00,-3.631401062011718750e-01
-3.849258661270141602e+00,1.566259860992431641e+00,-2.177914381027221680e-01
-3.853910446166992188e+00,1.568152666091918945e+00,-7.262581586837768555e-02
-3.858600139617919922e+00,1.570060968399047852e+00,7.271419465541839600e-02
-3.863202095031738281e+00,1.571933507919311523e+00,2.185803651809692383e-01
-3.867638349533081055e+00,1.573738574981689453e+00,3.653133809566497803e-01
-3.872580051422119141e+00,1.575749397277832031e+00,5.133482813835144043e-01
-3.877406835556030273e+00,1.577713370323181152e+00,6.630126833915710449e-01
-3.881897687911987305e+00,1.579540729522705078e+00,8.146373033523559570e-01
-3.887083530426025391e+00,1.581650733947753906e+00,9.688485264778137207e-01
-3.730488777160644531e+00,1.456056118011474609e+00,-1.073021769523620605e+00
-3.839881420135498047e+00,1.498753309249877930e+00,-9.516390562057495117e-01
-3.844862699508666992e+00,1.500697612762451172e+00,-8.022754192352294922e-01
-3.849513769149780273e+00,1.502513051033020020e+00,-6.544986963272094727e-01
-3.854032754898071289e+00,1.504276752471923828e+00,-5.079834461212158203e-01
-3.858570814132690430e+00,1.506048083305358887e+00,-3.623836934566497803e-01
-3.863324403762817383e+00,1.507903456687927246e+00,-2.173438370227813721e-01
-3.867994308471679688e+00,1.509726166725158691e+00,-7.247658073902130127e-02
-3.872593402862548828e+00,1.511521220207214355e+00,7.256275415420532227e-02
-3.877441406250000000e+00,1.513413429260253906e+00,2.181380242109298706e-01
-3.882368564605712891e+00,1.515336632728576660e+00,3.646186888217926025e-01
-3.887243986129760742e+00,1.517239570617675781e+00,5.123608708381652832e-01
-3.891893625259399414e+00,1.519054412841796875e+00,6.617041230201721191e-01
-3.896100282669067383e+00,1.520696282386779785e+00,8.129667043685913086e-01
-3.902175664901733398e+00,1.523067593574523926e+00,9.670774936676025391e-01
-3.752058982849121094e+00,1.402932405471801758e+00,-1.073340177536010742e+00
-3.854270696640014648e+00,1.441150426864624023e+00,-9.499956965446472168e-01
-3.858688592910766602e+00,1.442802309989929199e+00,-8.007691502571105957e-01
-3.863618373870849609e+00,1.444645643234252930e+00,-6.533141136169433594e-01
-3.868308305740356445e+00,1.446399211883544922e+00,-5.070843100547790527e-01
-3.872907161712646484e+00,1.448118805885314941e+00,-3.617463707923889160e-01
-3.877521038055419922e+00,1.449844002723693848e+00,-2.169528007507324219e-01
-3.882208108901977539e+00,1.451596498489379883e+00,-7.234618067741394043e-02
-3.886980533599853516e+00,1.453380942344665527e+00,7.243511825799942017e-02
-3.891803264617919922e+00,1.455184221267700195e+00,2.177519053220748901e-01
-3.896593809127807617e+00,1.456975460052490234e+00,3.639588057994842529e-01
-3.901224851608276367e+00,1.458706974983215332e+00,5.113992094993591309e-01
-3.906478404998779297e+00,1.460671424865722656e+00,6.605615019798278809e-01
-3.910393953323364258e+00,1.462135553359985352e+00,8.114992380142211914e-01
-3.916054487228393555e+00,1.464251995086669922e+00,9.652240872383117676e-01
-3.753633260726928711e+00,1.342607975006103516e+00,-1.068183779716491699e+00
-3.867769718170166016e+00,1.383432626724243164e+00,-9.483450651168823242e-01
-3.872581243515014648e+00,1.385153651237487793e+00,-7.994558811187744141e-01
-3.877791643142700195e+00,1.387017250061035156e+00,-6.522868871688842773e-01
-3.882218599319458008e+00,1.388600707054138184e+00,-5.062504410743713379e-01
-3.887054920196533203e+00,1.390330672264099121e+00,-3.611720800399780273e-01
-3.891797065734863281e+00,1.392026782035827637e+00,-2.166145592927932739e-01
-3.896501779556274414e+00,1.393709540367126465e+00,-7.223339378833770752e-02
-3.901181697845458984e+00,1.395383477210998535e+00,7.232015579938888550e-02
-3.905801296234130859e+00,1.397035837173461914e+00,2.173940241336822510e-01
-3.910888433456420898e+00,1.398855447769165039e+00,3.633866012096405029e-01
-3.915272235870361328e+00,1.400423407554626465e+00,5.105607509613037109e-01
-3.920163154602050781e+00,1.402172803878784180e+00,6.594142317771911621e-01
-3.925838470458984375e+00,1.404202818870544434e+00,8.104502558708190918e-01
-3.929969310760498047e+00,1.405680298805236816e+00,9.635959267616271973e-01
-3.778136014938354492e+00,1.290686130523681641e+00,-1.069789767265319824e+00
-3.881758451461791992e+00,1.326085567474365234e+00,-9.470239877700805664e-01
-3.886841058731079102e+00,1.327821969985961914e+00,-7.983943223953247070e-01
-3.891599178314208984e+00,1.329447388648986816e+00,-6.513418555259704590e-01
-3.896229743957519531e+00,1.331029295921325684e+00,-5.055413842201232910e-01
-3.901147603988647461e+00,1.332709312438964844e+00,-3.606721162796020508e-01
-3.905763626098632812e+00,1.334286212921142578e+00,-2.163067758083343506e-01
-3.910486459732055664e+00,1.335899710655212402e+00,-7.213078439235687256e-02
-3.915324211120605469e+00,1.337552428245544434e+00,7.222001999616622925e-02
-3.919896602630615234e+00,1.339114427566528320e+00,2.170894891023635864e-01
-3.924815177917480469e+00,1.340794682502746582e+00,3.628602623939514160e-01
-3.929688215255737305e+00,1.342459440231323242e+00,5.098826885223388672e-01
-3.934340953826904297e+00,1.344048857688903809e+00,6.584956645965576172e-01
-3.939650058746337891e+00,1.345862507820129395e+00,8.092418313026428223e-01
-3.944565773010253906e+00,1.347541928291320801e+00,9.623470306396484375e-01
-3.802536010742187500e+00,1.238538026809692383e+00,-1.071569204330444336e+00
-3.895814180374145508e+00,1.268920063972473145e+00,-9.459251761436462402e-01
-3.900415897369384766e+00,1.270418882369995117e+00,-7.973658442497253418e-01
-3.905496358871459961e+00,1.272073626518249512e+00,-6.505538225173950195e-01
-3.910332918167114258e+00,1.273648977279663086e+00,-5.049541592597961426e-01
-3.915075778961181641e+00,1.275193810462951660e+00,-3.602354228496551514e-01
-3.919830322265625000e+00,1.276742458343505859e+00,-2.160516083240509033e-01
-3.924570560455322266e+00,1.278286337852478027e+00,-7.204570621252059937e-02
-3.929304599761962891e+00,1.279828310012817383e+00,7.213260978460311890e-02
-3.934085369110107422e+00,1.281385540962219238e+00,2.168373167514801025e-01
-3.938831567764282227e+00,1.282931447029113770e+00,3.624212741851806641e-01
-3.943414211273193359e+00,1.284424066543579102e+00,5.092260837554931641e-01
-3.948587894439697266e+00,1.286109209060668945e+00,6.577317118644714355e-01
