6.336433291435241699e-01,1.273868083953857422e+00,-2.483431622385978699e-02
6.344546079635620117e-01,1.275498986244201660e+00,2.486611343920230865e-02
6.352347731590270996e-01,1.277067422866821289e+00,7.475080341100692749e-02
6.360541582107543945e-01,1.278714776039123535e+00,1.249487027525901794e-01
6.368600130081176758e-01,1.280334830284118652e+00,1.755794286727905273e-01
6.377367973327636719e-01,1.282097458839416504e+00,2.267983406782150269e-01
6.385742425918579102e-01,1.283781051635742188e+00,2.787080705165863037e-01
6.393287181854248047e-01,1.285297870635986328e+00,3.314165174961090088e-01
6.037343144416809082e-01,1.258597731590270996e+00,-3.740322291851043701e-01
6.045607328414916992e-01,1.260320544242858887e+00,-3.227117359638214111e-01
6.053230166435241699e-01,1.261909723281860352e+00,-2.720509171485900879e-01
6.061286926269531250e-01,1.263589262962341309e+00,-2.219668477773666382e-01
6.069009304046630859e-01,1.265199184417724609e+00,-1.722948551177978516e-01
6.076632738113403320e-01,1.266788363456726074e+00,-1.229208409786224365e-01
6.084413528442382812e-01,1.268410444259643555e+00,-7.372677326202392578e-02
6.092054843902587891e-01,1.270003437995910645e+00,-2.458646148443222046e-02
6.099556088447570801e-01,1.271567225456237793e+00,2.461673505604267120e-02
6.107286810874938965e-01,1.273178815841674805e+00,7.400394231081008911e-02
6.115007996559143066e-01,1.274788379669189453e+00,1.236971095204353333e-01
6.122521758079528809e-01,1.276354908943176270e+00,1.738140434026718140e-01
6.130657196044921875e-01,1.278050780296325684e+00,2.245072126388549805e-01
6.138349771499633789e-01,1.279654502868652344e+00,2.758764624595642090e-01
6.146654486656188965e-01,1.281385779380798340e+00,3.281055986881256104e-01
5.799544453620910645e-01,1.254766345024108887e+00,-3.703887462615966797e-01
5.807732343673706055e-01,1.256537914276123047e+00,-3.195818960666656494e-01
5.815219879150390625e-01,1.258157849311828613e+00,-2.694200277328491211e-01
5.823054909706115723e-01,1.259853005409240723e+00,-2.198238819837570190e-01
5.829983949661254883e-01,1.261352181434631348e+00,-1.706171184778213501e-01
5.837402343750000000e-01,1.262957215309143066e+00,-1.217258721590042114e-01
5.844784975051879883e-01,1.264554500579833984e+00,-7.300890237092971802e-02
5.852116942405700684e-01,1.266140818595886230e+00,-2.434702776372432709e-02
5.859419703483581543e-01,1.267720818519592285e+00,2.437741123139858246e-02
5.866742730140686035e-01,1.269305109977722168e+00,7.328317314386367798e-02
5.874658823013305664e-01,1.271017789840698242e+00,1.225027665495872498e-01
5.881774425506591797e-01,1.272557377815246582e+00,1.721327900886535645e-01
5.889413952827453613e-01,1.274210214614868164e+00,2.223289906978607178e-01
5.896546840667724609e-01,1.275753378868103027e+00,2.731879055500030518e-01
5.905656814575195312e-01,1.277724504470825195e+00,3.249703943729400635e-01
5.567129850387573242e-01,1.251197695732116699e+00,-3.669455647468566895e-01
5.574109554290771484e-01,1.252766489982604980e+00,-3.165610432624816895e-01
5.581530332565307617e-01,1.254434227943420410e+00,-2.668845355510711670e-01
5.588530898094177246e-01,1.256007552146911621e+00,-2.177348881959915161e-01
5.595880150794982910e-01,1.257659196853637695e+00,-1.690168529748916626e-01
5.602644681930541992e-01,1.259179592132568359e+00,-1.205765157938003540e-01
5.609742403030395508e-01,1.260774731636047363e+00,-7.231968641281127930e-02
5.616781711578369141e-01,1.262356758117675781e+00,-2.411719784140586853e-02
5.623771548271179199e-01,1.263927698135375977e+00,2.414721064269542694e-02
5.631159543991088867e-01,1.265588283538818359e+00,7.259579747915267944e-02
5.638037323951721191e-01,1.267133951187133789e+00,1.213382109999656677e-01
5.645393729209899902e-01,1.268787264823913574e+00,1.705123633146286011e-01
5.652483105659484863e-01,1.270380735397338867e+00,2.202265411615371704e-01
5.660228133201599121e-01,1.272121310234069824e+00,2.706475257873535156e-01
5.667352676391601562e-01,1.273722410202026367e+00,3.218564093112945557e-01
5.337607860565185547e-01,1.247380375862121582e+00,-3.635481894016265869e-01
5.344683527946472168e-01,1.249033927917480469e+00,-3.136526346206665039e-01
5.352097749710083008e-01,1.250766634941101074e+00,-2.644473314285278320e-01
5.358998179435729980e-01,1.252379298210144043e+00,-2.157540768384933472e-01
5.365658998489379883e-01,1.253935694694519043e+00,-1.674671769142150879e-01
5.372286438941955566e-01,1.255484580993652344e+00,-1.194741129875183105e-01
5.379121303558349609e-01,1.257081866264343262e+00,-7.165887206792831421e-02
5.385872125625610352e-01,1.258659601211547852e+00,-2.389683574438095093e-02
5.392540693283081055e-01,1.260217905044555664e+00,2.392642199993133545e-02
5.399476289749145508e-01,1.261838793754577637e+00,7.193003594875335693e-02
5.406463742256164551e-01,1.263471722602844238e+00,1.202341839671134949e-01
5.413321256637573242e-01,1.265074253082275391e+00,1.689547598361968994e-01
5.419811010360717773e-01,1.266590833663940430e+00,2.182023823261260986e-01
5.426838397979736328e-01,1.268233299255371094e+00,2.681402564048767090e-01
5.434561371803283691e-01,1.270038008689880371e+00,3.189271092414855957e-01
5.113300681114196777e-01,1.243887543678283691e+00,-3.603601753711700439e-01
5.120366215705871582e-01,1.245606422424316406e+00,-3.109196424484252930e-01
5.126842260360717773e-01,1.247181653976440430e+00,-2.621110081672668457e-01
5.133056044578552246e-01,1.248693346977233887e+00,-2.138314396142959595e-01
5.139728188514709473e-01,1.250316381454467773e+00,-1.659842729568481445e-01
5.146242976188659668e-01,1.251901268959045410e+00,-1.184200197458267212e-01
5.152740478515625000e-01,1.253481864929199219e+00,-7.102596014738082886e-02
5.159198045730590820e-01,1.255052685737609863e+00,-2.368572726845741272e-02
5.165640711784362793e-01,1.256620168685913086e+00,2.371530607342720032e-02
5.172109007835388184e-01,1.258193612098693848e+00,7.129293680191040039e-02
5.178500413894653320e-01,1.259748339653015137e+00,1.191622912883758545e-01
5.185473561286926270e-01,1.261444687843322754e+00,1.674616038799285889e-01
5.192328691482543945e-01,1.263112306594848633e+00,2.163006067276000977e-01
5.198763012886047363e-01,1.264677643775939941e+00,2.657879889011383057e-01
5.205774307250976562e-01,1.266383171081542969e+00,3.161058127880096436e-01
4.891217350959777832e-01,1.240041255950927734e+00,-3.571811020374298096e-01
4.897314608097076416e-01,1.241587042808532715e+00,-3.081350922584533691e-01
4.903860986232757568e-01,1.243246674537658691e+00,-2.597822546958923340e-01
4.910039305686950684e-01,1.244813084602355957e+00,-2.119417637586593628e-01
4.916543662548065186e-01,1.246462106704711914e+00,-1.645215302705764771e-01
4.922502338886260986e-01,1.247972846031188965e+00,-1.173699125647544861e-01
4.928756356239318848e-01,1.249558329582214355e+00,-7.039668411016464233e-02
4.934934973716735840e-01,1.251124739646911621e+00,-2.347588539123535156e-02
4.941050112247467041e-01,1.252675056457519531e+00,2.350497618317604065e-02
4.947517514228820801e-01,1.254314661026000977e+00,7.066464424133300781e-02
4.953500330448150635e-01,1.255831480026245117e+00,1.181090101599693298e-01
4.959928393363952637e-01,1.257461190223693848e+00,1.659733057022094727e-01
4.966120123863220215e-01,1.259030938148498535e+00,2.143624871969223022e-01
4.972949028015136719e-01,1.260762214660644531e+00,2.634421885013580322e-01
4.979254305362701416e-01,1.262360692024230957e+00,3.132906556129455566e-01
4.674710631370544434e-01,1.236720919609069824e+00,-3.542611002922058105e-01
4.680944383144378662e-01,1.238370180130004883e+00,-3.056426048278808594e-01
4.686721265316009521e-01,1.239898443222045898e+00,-2.576544880867004395e-01
4.692942798137664795e-01,1.241544365882873535e+00,-2.102200239896774292e-01
4.698911607265472412e-01,1.243123412132263184e+00,-1.631764024496078491e-01
4.704811871051788330e-01,1.244684338569641113e+00,-1.164153739809989929e-01
4.710849821567535400e-01,1.246281862258911133e+00,-6.982506811618804932e-02
4.716756045818328857e-01,1.247844338417053223e+00,-2.328526601195335388e-02
4.722533226013183594e-01,1.249372601509094238e+00,2.331378497183322906e-02
4.728504121303558350e-01,1.250952363014221191e+00,7.008673995733261108e-02
4.734473824501037598e-01,1.252531647682189941e+00,1.171493306756019592e-01
4.740289747714996338e-01,1.254070281982421875e+00,1.646133214235305786e-01
4.746696352958679199e-01,1.255765199661254883e+00,2.126279175281524658e-01
4.752804934978485107e-01,1.257381200790405273e+00,2.612874507904052734e-01
4.759564697742462158e-01,1.259169578552246094e+00,3.107761144638061523e-01
4.460347890853881836e-01,1.233087778091430664e+00,-3.513555824756622314e-01
4.466710090637207031e-01,1.234846591949462891e+00,-3.031639456748962402e-01
4.472505450248718262e-01,1.236448764801025391e+00,-2.555811703205108643e-01
4.478016793727874756e-01,1.237972497940063477e+00,-2.085085958242416382e-01
4.483896195888519287e-01,1.239597797393798828e+00,-1.618545949459075928e-01
4.489561319351196289e-01,1.241163969039916992e+00,-1.154732555150985718e-01
4.495135247707366943e-01,1.242704987525939941e+00,-6.925709545612335205e-02
4.500771164894104004e-01,1.244263052940368652e+00,-2.309585921466350555e-02
4.506477117538452148e-01,1.245840430259704590e+00,2.312513999640941620e-02
4.512130618095397949e-01,1.247403383255004883e+00,6.951893866062164307e-02
4.517638385295867920e-01,1.248926043510437012e+00,1.161954030394554138e-01
4.523619711399078369e-01,1.250579595565795898e+00,1.632884889841079712e-01
4.529440104961395264e-01,1.252188682556152344e+00,2.109029889106750488e-01
4.534842371940612793e-01,1.253682136535644531e+00,2.591434121131896973e-01
4.542003273963928223e-01,1.255661845207214355e+00,3.082742393016815186e-01
4.250718653202056885e-01,1.229885935783386230e+00,-3.486738801002502441e-01
4.256224334239959717e-01,1.231478929519653320e+00,-3.008106648921966553e-01
4.261355996131896973e-01,1.232963681221008301e+00,-2.535740137100219727e-01
4.266957044601440430e-01,1.234584331512451172e+00,-2.068880647420883179e-01
4.272363185882568359e-01,1.236148357391357422e+00,-1.605892777442932129e-01
4.277983903884887695e-01,1.237774729728698730e+00,-1.145765036344528198e-01
4.283283650875091553e-01,1.239308118820190430e+00,-6.871906667947769165e-02
4.288646876811981201e-01,1.240859866142272949e+00,-2.291640080511569977e-02
4.294096529483795166e-01,1.242436647415161133e+00,2.294552139937877655e-02
4.299254417419433594e-01,1.243929028511047363e+00,6.897529214620590210e-02
4.304699897766113281e-01,1.245504617691040039e+00,1.152920350432395935e-01
4.310041069984436035e-01,1.247050046920776367e+00,1.620055288076400757e-01
4.315985739231109619e-01,1.248769998550415039e+00,2.092652618885040283e-01
4.321701824665069580e-01,1.250423789024353027e+00,2.571648955345153809e-01
4.326888620853424072e-01,1.251924633979797363e+00,3.058048784732818604e-01
4.044581055641174316e-01,1.226840496063232422e+00,-3.461337983608245850e-01
4.049332439899444580e-01,1.228281736373901367e+00,-2.985833287239074707e-01
4.054582118988037109e-01,1.229874014854431152e+00,-2.517192363739013672e-01
4.060143232345581055e-01,1.231560945510864258e+00,-2.053865045309066772e-01
4.064970016479492188e-01,1.233024954795837402e+00,-1.594113111495971680e-01
4.070163667201995850e-01,1.234600424766540527e+00,-1.137317419052124023e-01
4.075283110141754150e-01,1.236153244972229004e+00,-6.821369379758834839e-02
4.080385863780975342e-01,1.237701058387756348e+00,-2.274787053465843201e-02
4.085488319396972656e-01,1.239248871803283691e+00,2.277631685137748718e-02
4.090553522109985352e-01,1.240785241127014160e+00,6.846929341554641724e-02
4.096057116985321045e-01,1.242454648017883301e+00,1.144552752375602722e-01
4.100897908210754395e-01,1.243922948837280273e+00,1.608202606439590454e-01
4.106175899505615234e-01,1.245523929595947266e+00,2.077151238918304443e-01
4.112112224102020264e-01,1.247324705123901367e+00,2.552908658981323242e-01
4.117696583271026611e-01,1.249018549919128418e+00,3.036242425441741943e-01
3.839493393898010254e-01,1.223236203193664551e+00,-3.435312211513519287e-01
3.844496607780456543e-01,1.224830150604248047e+00,-2.963762581348419189e-01
3.849851489067077637e-01,1.226536154747009277e+00,-2.498826384544372559e-01
3.854836821556091309e-01,1.228124380111694336e+00,-2.038723528385162354e-01
3.859645128250122070e-01,1.229656338691711426e+00,-1.582453548908233643e-01
3.864428699016571045e-01,1.231180310249328613e+00,-1.128955781459808350e-01
3.869365453720092773e-01,1.232753157615661621e+00,-6.771351397037506104e-02
3.874212503433227539e-01,1.234297394752502441e+00,-2.258108183741569519e-02
3.878974616527557373e-01,1.235814571380615234e+00,2.260883711278438568e-02
3.883932828903198242e-01,1.237394213676452637e+00,6.796844303607940674e-02
3.888924717903137207e-01,1.238984584808349609e+00,1.136111989617347717e-01
3.893822729587554932e-01,1.240545034408569336e+00,1.596466302871704102e-01
3.898453116416931152e-01,1.242020249366760254e+00,2.061790972948074341e-01
3.903581500053405762e-01,1.243654131889343262e+00,2.533700764179229736e-01
3.909365832805633545e-01,1.245496988296508789e+00,3.013770878314971924e-01
3.638713955879211426e-01,1.220116853713989258e+00,-3.411575555801391602e-01
3.643858432769775391e-01,1.221841931343078613e+00,-2.943609952926635742e-01
3.648552000522613525e-01,1.223415613174438477e+00,-2.481575310230255127e-01
3.653024435043334961e-01,1.224915385246276855e+00,-2.024509161710739136e-01
3.657830357551574707e-01,1.226526856422424316e+00,-1.571527421474456787e-01
3.662457168102264404e-01,1.228078246116638184e+00,-1.121189445257186890e-01
3.667001724243164062e-01,1.229602217674255371e+00,-6.724523752927780151e-02
3.671596050262451172e-01,1.231142759323120117e+00,-2.242492698132991791e-02
3.676245212554931641e-01,1.232701659202575684e+00,2.245332114398479462e-02
3.680845201015472412e-01,1.234244108200073242e+00,6.749910116195678711e-02
3.685319423675537109e-01,1.235744357109069824e+00,1.128188297152519226e-01
3.690217137336730957e-01,1.237386703491210938e+00,1.585441976785659790e-01
3.694993555545806885e-01,1.238988280296325684e+00,2.047768533229827881e-01
3.699439465999603271e-01,1.240478992462158203e+00,2.516186535358428955e-01
3.704382479190826416e-01,1.242136478424072266e+00,2.992502748966217041e-01
3.439900279045104980e-01,1.216774582862854004e+00,-3.388116359710693359e-01
3.444409370422363281e-01,1.218369603157043457e+00,-2.923067510128021240e-01
3.449240624904632568e-01,1.220078587532043457e+00,-2.464539557695388794e-01
3.453720510005950928e-01,1.221663117408752441e+00,-2.010757625102996826e-01
3.458021581172943115e-01,1.223184585571289062e+00,-1.560743302106857300e-01
3.462280333042144775e-01,1.224691033363342285e+00,-1.113458499312400818e-01
3.466589748859405518e-01,1.226215362548828125e+00,-6.678181886672973633e-02
3.470926284790039062e-01,1.227749347686767578e+00,-2.227034233510494232e-02
3.475310504436492920e-01,1.229300141334533691e+00,2.229847386479377747e-02
3.479777574539184570e-01,1.230880141258239746e+00,6.703587621450424194e-02
3.484253585338592529e-01,1.232463359832763672e+00,1.120525002479553223e-01
3.488623797893524170e-01,1.234009265899658203e+00,1.574555337429046631e-01
3.492734432220458984e-01,1.235463380813598633e+00,2.033471614122390747e-01
3.497298061847686768e-01,1.237077593803405762e+00,2.498877346515655518e-01
3.502470552921295166e-01,1.238907217979431152e+00,2.972340881824493408e-01
3.245037198066711426e-01,1.213954210281372070e+00,-3.366984724998474121e-01
3.248870670795440674e-01,1.215388417243957520e+00,-2.904461026191711426e-01
3.253126442432403564e-01,1.216980457305908203e+00,-2.448624968528747559e-01
3.257160484790802002e-01,1.218489646911621094e+00,-1.997656226158142090e-01
3.261476159095764160e-01,1.220104098320007324e+00,-1.550697237253189087e-01
3.265397250652313232e-01,1.221570968627929688e+00,-1.106259152293205261e-01
3.269548118114471436e-01,1.223123788833618164e+00,-6.635177880525588989e-02
3.273638784885406494e-01,1.224654078483581543e+00,-2.212693728506565094e-02
3.277681767940521240e-01,1.226166605949401855e+00,2.215426415205001831e-02
3.281992077827453613e-01,1.227779030799865723e+00,6.660431623458862305e-02
3.285946547985076904e-01,1.229258418083190918e+00,1.113220900297164917e-01
3.290262222290039062e-01,1.230872869491577148e+00,1.564383953809738159e-01
3.294445872306823730e-01,1.232437849044799805e+00,2.020523548126220703e-01
3.299179673194885254e-01,1.234208822250366211e+00,2.483289092779159546e-01
3.303615748882293701e-01,1.235868334770202637e+00,2.953402698040008545e-01
3.051180243492126465e-01,1.210624694824218750e+00,-3.345294296741485596e-01
3.055198192596435547e-01,1.212218999862670898e+00,-2.886140942573547363e-01
3.058916628360748291e-01,1.213694214820861816e+00,-2.432954162359237671e-01
3.062978386878967285e-01,1.215305924415588379e+00,-1.985045522451400757e-01
3.066844940185546875e-01,1.216840028762817383e+00,-1.540811806917190552e-01
3.070634305477142334e-01,1.218343615531921387e+00,-1.099243536591529846e-01
3.074430525302886963e-01,1.219849824905395508e+00,-6.592869758605957031e-02
3.078277707099914551e-01,1.221376299858093262e+00,-2.198585309088230133e-02
3.082188367843627930e-01,1.222927927970886230e+00,2.201378345489501953e-02
3.086133599281311035e-01,1.224493265151977539e+00,6.617966294288635254e-02
3.090047538280487061e-01,1.226046085357666016e+00,1.106193140149116516e-01
3.093829154968261719e-01,1.227546691894531250e+00,1.554369032382965088e-01
3.098052144050598145e-01,1.229222178459167480e+00,2.007776051759719849e-01
3.102078139781951904e-01,1.230819582939147949e+00,2.467283308506011963e-01
3.105694055557250977e-01,1.232254266738891602e+00,2.933842241764068604e-01
2.860184311866760254e-01,1.207513689994812012e+00,-3.325044512748718262e-01
2.864392697811126709e-01,1.209290385246276855e+00,-2.869112789630889893e-01
2.867641150951385498e-01,1.210661768913269043e+00,-2.418399602174758911e-01
2.871313095092773438e-01,1.212212085723876953e+00,-1.973077207803726196e-01
2.875199615955352783e-01,1.213852763175964355e+00,-1.531661301851272583e-01
2.878684401512145996e-01,1.215324044227600098e+00,-1.092689707875251770e-01
2.882329821586608887e-01,1.216863036155700684e+00,-6.553758680820465088e-02
2.885937392711639404e-01,1.218386173248291016e+00,-2.185543067753314972e-02
2.889511585235595703e-01,1.219895005226135254e+00,2.188249863684177399e-02
2.893280088901519775e-01,1.221485972404479980e+00,6.578656286001205444e-02
2.896679639816284180e-01,1.222921371459960938e+00,1.099520325660705566e-01
2.900364995002746582e-01,1.224477171897888184e+00,1.545067429542541504e-01
2.904565334320068359e-01,1.226250529289245605e+00,1.995927095413208008e-01
2.907886505126953125e-01,1.227652549743652344e+00,2.452339977025985718e-01
2.911588549613952637e-01,1.229215502738952637e+00,2.916386723518371582e-01
2.671712040901184082e-01,1.204558253288269043e+00,-3.306037485599517822e-01
2.674723267555236816e-01,1.205915927886962891e+00,-2.851731777191162109e-01
2.678673565387725830e-01,1.207696914672851562e+00,-2.404571771621704102e-01
2.681864202022552490e-01,1.209135532379150391e+00,-1.961620450019836426e-01
2.685347795486450195e-01,1.210706114768981934e+00,-1.522684842348098755e-01
2.688712477684020996e-01,1.212223052978515625e+00,-1.086330190300941467e-01
2.692029476165771484e-01,1.213718533515930176e+00,-6.515402346849441528e-02
2.695400118827819824e-01,1.215238213539123535e+00,-2.172753401100635529e-02
2.698827385902404785e-01,1.216783404350280762e+00,2.175516076385974884e-02
2.702231705188751221e-01,1.218318343162536621e+00,6.540095061063766479e-02
2.705556154251098633e-01,1.219817161560058594e+00,1.093135625123977661e-01
2.709240019321441650e-01,1.221478104591369629e+00,1.536232531070709229e-01
2.712224721908569336e-01,1.222823739051818848e+00,1.983827352523803711e-01
2.716267108917236328e-01,1.224646210670471191e+00,2.438318431377410889e-01
2.720120549201965332e-01,1.226383566856384277e+00,2.900133132934570312e-01
2.485069632530212402e-01,1.201503157615661621e+00,-3.287553191184997559e-01
2.488303631544113159e-01,1.203066825866699219e+00,-2.836281061172485352e-01
2.491812705993652344e-01,1.204763412475585938e+00,-2.391384690999984741e-01
2.495064437389373779e-01,1.206335544586181641e+00,-1.951084285974502563e-01
2.498183995485305786e-01,1.207843780517578125e+00,-1.514432579278945923e-01
2.501268982887268066e-01,1.209335327148437500e+00,-1.080423295497894287e-01
2.504387795925140381e-01,1.210843205451965332e+00,-6.480061262845993042e-02
2.507518231868743896e-01,1.212356805801391602e+00,-2.160963043570518494e-02
2.510674893856048584e-01,1.213883042335510254e+00,2.163683436810970306e-02
2.513888478279113770e-01,1.215436816215515137e+00,6.504644453525543213e-02
2.517104446887969971e-01,1.216991543769836426e+00,1.087263450026512146e-01
2.520241439342498779e-01,1.218508362770080566e+00,1.527804136276245117e-01
2.523186802864074707e-01,1.219932436943054199e+00,1.973075419664382935e-01
2.526502907276153564e-01,1.221535801887512207e+00,2.424676865339279175e-01
2.530322372913360596e-01,1.223382353782653809e+00,2.884175777435302734e-01
2.300748229026794434e-01,1.198628902435302734e+00,-3.270342648029327393e-01
2.304066121578216553e-01,1.200357437133789062e+00,-2.821829319000244141e-01
2.306614071130752563e-01,1.201684832572937012e+00,-2.378476858139038086e-01
2.309897392988204956e-01,1.203395366668701172e+00,-1.940782815217971802e-01
2.312673777341842651e-01,1.204841732978820801e+00,-1.506363749504089355e-01
2.315489798784255981e-01,1.206308841705322266e+00,-1.074648424983024597e-01
2.318457067012786865e-01,1.207854747772216797e+00,-6.445647776126861572e-02
2.321355938911437988e-01,1.209365010261535645e+00,-2.149487659335136414e-02
2.324193269014358521e-01,1.210843205451965332e+00,2.152114920318126678e-02
2.327209115028381348e-01,1.212414264678955078e+00,6.469979882240295410e-02
2.330300062894821167e-01,1.214024662971496582e+00,1.081522032618522644e-01
2.332923859357833862e-01,1.215391516685485840e+00,1.519553661346435547e-01
2.336367517709732056e-01,1.217185616493225098e+00,1.963023096323013306e-01
2.339104562997817993e-01,1.218611598014831543e+00,2.411979734897613525e-01
2.342195957899093628e-01,1.220222115516662598e+00,2.868527770042419434e-01
2.118025720119476318e-01,1.195623755455017090e+00,-3.253538906574249268e-01
2.120879441499710083e-01,1.197234749794006348e+00,-2.807064652442932129e-01
2.123503535985946655e-01,1.198716044425964355e+00,-2.366342395544052124e-01
2.126034349203109741e-01,1.200144648551940918e+00,-1.930434703826904297e-01
2.128819078207015991e-01,1.201716661453247070e+00,-1.498493403196334839e-01
2.131517082452774048e-01,1.203239679336547852e+00,-1.069086790084838867e-01
2.134184986352920532e-01,1.204745650291442871e+00,-6.412097811698913574e-02
2.136853784322738647e-01,1.206252217292785645e+00,-2.138299867510795593e-02
2.139530777931213379e-01,1.207763433456420898e+00,2.140978723764419556e-02
2.142196595668792725e-01,1.209268331527709961e+00,6.436169147491455078e-02
2.144807130098342896e-01,1.210741877555847168e+00,1.075752526521682739e-01
2.147724479436874390e-01,1.212388753890991211e+00,1.511801183223724365e-01
2.150608003139495850e-01,1.214016556739807129e+00,1.952747553586959839e-01
2.153332531452178955e-01,1.215554475784301758e+00,2.399582564830780029e-01
2.156453430652618408e-01,1.217316150665283203e+00,2.854148149490356445e-01
1.937470734119415283e-01,1.192855954170227051e+00,-3.238128721714019775e-01
1.939922124147415161e-01,1.194365143775939941e+00,-2.793540060520172119e-01
1.942217350006103516e-01,1.195778250694274902e+00,-2.354813963174819946e-01
1.944788247346878052e-01,1.197361111640930176e+00,-1.921283006668090820e-01
1.947258859872817993e-01,1.198882222175598145e+00,-1.491330713033676147e-01
1.949836611747741699e-01,1.200469255447387695e+00,-1.064036488533020020e-01
1.952221542596817017e-01,1.201937556266784668e+00,-6.381626427173614502e-02
1.954663097858428955e-01,1.203440785408020020e+00,-2.128138579428195953e-02
1.957168579101562500e-01,1.204983353614807129e+00,2.130866236984729767e-02
1.959493011236190796e-01,1.206414461135864258e+00,6.405396014451980591e-02
1.961959004402160645e-01,1.207932710647583008e+00,1.070651784539222717e-01
1.964365094900131226e-01,1.209414124488830566e+00,1.504431813955307007e-01
1.967109739780426025e-01,1.211103916168212891e+00,1.943334639072418213e-01
1.969764530658721924e-01,1.212738394737243652e+00,2.388213127851486206e-01
1.972192078828811646e-01,1.214232921600341797e+00,2.840009331703186035e-01
1.758368462324142456e-01,1.189969182014465332e+00,-3.223130106925964355e-01
1.760450452566146851e-01,1.191378235816955566e+00,-2.780375182628631592e-01
1.762799024581909180e-01,1.192967653274536133e+00,-2.344070076942443848e-01
1.765014827251434326e-01,1.194467067718505859e+00,-1.912389695644378662e-01
1.767389774322509766e-01,1.196074366569519043e+00,-1.484539061784744263e-01
1.769509911537170410e-01,1.197509169578552246e+00,-1.059059426188468933e-01
1.771745085716247559e-01,1.199021816253662109e+00,-6.352029740810394287e-02
1.773961186408996582e-01,1.200521469116210938e+00,-2.118268981575965881e-02
1.776160895824432373e-01,1.202010154724121094e+00,2.120895497500896454e-02
1.778496056795120239e-01,1.203590393066406250e+00,6.376232951879501343e-02
1.780596673488616943e-01,1.205011963844299316e+00,1.065694838762283325e-01
1.782900393009185791e-01,1.206571102142333984e+00,1.497567296028137207e-01
1.785118877887725830e-01,1.208072423934936523e+00,1.934172362089157104e-01
1.787673681974411011e-01,1.209801316261291504e+00,2.377146929502487183e-01
1.790070533752441406e-01,1.211423516273498535e+00,2.827155888080596924e-01
1.581147164106369019e-01,1.187308073043823242e+00,-3.209463655948638916e-01
1.583307385444641113e-01,1.188930153846740723e+00,-2.769089639186859131e-01
1.585287004709243774e-01,1.190416693687438965e+00,-2.334360182285308838e-01
1.587187349796295166e-01,1.191843748092651367e+00,-1.904357224702835083e-01
1.589273810386657715e-01,1.193410515785217285e+00,-1.478257924318313599e-01
1.591280251741409302e-01,1.194917082786560059e+00,-1.054644659161567688e-01
1.593248993158340454e-01,1.196395516395568848e+00,-6.325387209653854370e-02
1.595242321491241455e-01,1.197892427444458008e+00,-2.109385095536708832e-02
1.597262173891067505e-01,1.199409008026123047e+00,2.112055756151676178e-02
1.599258184432983398e-01,1.200907945632934570e+00,6.349244713783264160e-02
1.601197868585586548e-01,1.202364444732666016e+00,1.061217784881591797e-01
1.603363454341888428e-01,1.203990578651428223e+00,1.491363346576690674e-01
1.605493426322937012e-01,1.205590128898620605e+00,1.926321536302566528e-01
1.607495844364166260e-01,1.207093715667724609e+00,2.367063015699386597e-01
1.609802097082138062e-01,1.208825469017028809e+00,2.815427184104919434e-01
1.404851078987121582e-01,1.184217572212219238e+00,-3.195346593856811523e-01
1.406663954257965088e-01,1.185745596885681152e+00,-2.756700813770294189e-01
1.408354789018630981e-01,1.187170982360839844e+00,-2.323804348707199097e-01
1.410244107246398926e-01,1.188763618469238281e+00,-1.896016150712966919e-01
1.412046700716018677e-01,1.190283060073852539e+00,-1.471729576587677002e-01
1.413817107677459717e-01,1.191775441169738770e+00,-1.049978137016296387e-01
1.415593773126602173e-01,1.193272948265075684e+00,-6.297520548105239868e-02
1.417361795902252197e-01,1.194763422012329102e+00,-2.100087516009807587e-02
1.419129520654678345e-01,1.196253538131713867e+00,2.102706953883171082e-02
1.420916020870208740e-01,1.197759389877319336e+00,6.321197748184204102e-02
1.422691643238067627e-01,1.199256062507629395e+00,1.056568771600723267e-01
1.424410045146942139e-01,1.200704693794250488e+00,1.484615504741668701e-01
1.426371484994888306e-01,1.202358007431030273e+00,1.917698681354522705e-01
1.428258866071701050e-01,1.203948974609375000e+00,2.356646209955215454e-01
1.429973095655441284e-01,1.205394029617309570e+00,2.802380919456481934e-01
1.230276525020599365e-01,1.181357979774475098e+00,-3.182553052902221680e-01
1.232102215290069580e-01,1.183111071586608887e+00,-2.746194601058959961e-01
1.233481988310813904e-01,1.184435963630676270e+00,-2.314757704734802246e-01
1.235069036483764648e-01,1.185959935188293457e+00,-1.888531446456909180e-01
1.236611381173133850e-01,1.187440872192382812e+00,-1.465876847505569458e-01
1.238244324922561646e-01,1.189008951187133789e+00,-1.045872196555137634e-01
1.239768639206886292e-01,1.190472602844238281e+00,-6.272733956575393677e-02
1.241317242383956909e-01,1.191959619522094727e+00,-2.091822028160095215e-02
1.242897883057594299e-01,1.193477511405944824e+00,2.094485610723495483e-02
1.244377195835113525e-01,1.194897890090942383e+00,6.296051293611526489e-02
1.245969161391258240e-01,1.196426630020141602e+00,1.052396818995475769e-01
1.247542649507522583e-01,1.197937488555908203e+00,1.478834748268127441e-01
1.249364018440246582e-01,1.199686527252197266e+00,1.910389810800552368e-01
1.250773370265960693e-01,1.201039791107177734e+00,2.347206771373748779e-01
1.252383887767791748e-01,1.202586293220520020e+00,2.791399657726287842e-01
1.056964099407196045e-01,1.178414821624755859e+00,-3.170223832130432129e-01
1.058470457792282104e-01,1.180094361305236816e+00,-2.735395431518554688e-01
1.059843823313713074e-01,1.181625485420227051e+00,-2.306064218282699585e-01
1.061150208115577698e-01,1.183081984519958496e+00,-1.881337165832519531e-01
1.062571331858634949e-01,1.184666395187377930e+00,-1.460424661636352539e-01
1.063845828175544739e-01,1.186087369918823242e+00,-1.041856110095977783e-01
1.065203845500946045e-01,1.187601327896118164e+00,-6.248931586742401123e-02
1.066534742712974548e-01,1.189085245132446289e+00,-2.083884924650192261e-02
1.067841947078704834e-01,1.190542697906494141e+00,2.086439169943332672e-02
1.069245114922523499e-01,1.192107081413269043e+00,6.272639334201812744e-02
1.070514470338821411e-01,1.193522214889526367e+00,1.048386916518211365e-01
1.071924492716789246e-01,1.195094227790832520e+00,1.473279744386672974e-01
1.073296964168548584e-01,1.196624398231506348e+00,1.902872473001480103e-01
1.074571162462234497e-01,1.198045015335083008e+00,2.338108718395233154e-01
1.076047047972679138e-01,1.199690461158752441e+00,2.780818343162536621e-01
8.853629976511001587e-02,1.176036953926086426e+00,-3.160093724727630615e-01
8.865455538034439087e-02,1.177607655525207520e+00,-2.726410925388336182e-01
8.876352757215499878e-02,1.179055213928222656e+00,-2.298333197832107544e-01
8.886895328760147095e-02,1.180455565452575684e+00,-1.874945908784866333e-01
8.898609876632690430e-02,1.182011723518371582e+00,-1.455432623624801636e-01
8.909935504198074341e-02,1.183516025543212891e+00,-1.038370877504348755e-01
8.921107649803161621e-02,1.185000061988830566e+00,-6.227887049317359924e-02
8.932255953550338745e-02,1.186480879783630371e+00,-2.076867595314979553e-02
8.943410217761993408e-02,1.187962532043457031e+00,2.079460956156253815e-02
8.954489231109619141e-02,1.189434051513671875e+00,6.251190602779388428e-02
8.965308219194412231e-02,1.190871238708496094e+00,1.044824048876762390e-01
8.977525681257247925e-02,1.192494153976440430e+00,1.468339860439300537e-01
8.989635854959487915e-02,1.194102764129638672e+00,1.896622031927108765e-01
9.001114964485168457e-02,1.195627450942993164e+00,2.330637574195861816e-01
9.011349081993103027e-02,1.196986913681030273e+00,2.771278023719787598e-01
7.145427167415618896e-02,1.173217892646789551e+00,-3.149448037147521973e-01
7.154657691717147827e-02,1.174733519554138184e+00,-2.717107236385345459e-01
7.164857536554336548e-02,1.176408171653747559e+00,-2.290939539670944214e-01
7.174263894557952881e-02,1.177952766418457031e+00,-1.869148015975952148e-01
7.183235138654708862e-02,1.179425716400146484e+00,-1.450833827257156372e-01
7.192049920558929443e-02,1.180873036384582520e+00,-1.035042852163314819e-01
7.200903445482254028e-02,1.182326674461364746e+00,-6.207783892750740051e-02
7.209903001785278320e-02,1.183804392814636230e+00,-2.070163935422897339e-02
7.219073921442031860e-02,1.185310006141662598e+00,2.072796970605850220e-02
7.228349149227142334e-02,1.186833024024963379e+00,6.231444329023361206e-02
7.237575948238372803e-02,1.188347935676574707e+00,1.041594594717025757e-01
7.246518135070800781e-02,1.189816117286682129e+00,1.463615298271179199e-01
7.254855334758758545e-02,1.191185116767883301e+00,1.890144944190979004e-01
7.264440506696701050e-02,1.192758917808532715e+00,2.322781085968017578e-01
7.275756448507308960e-02,1.194616794586181641e+00,2.763096392154693604e-01
5.449615418910980225e-02,1.170689463615417480e+00,-3.140245079994201660e-01
5.456179007887840271e-02,1.172099471092224121e+00,-2.708930969238281250e-01
5.463612079620361328e-02,1.173696279525756836e+00,-2.283901423215866089e-01
5.470557138323783875e-02,1.175188183784484863e+00,-1.863328069448471069e-01
5.477293953299522400e-02,1.176635384559631348e+00,-1.446288973093032837e-01
5.484036728739738464e-02,1.178083896636962891e+00,-1.031804457306861877e-01
5.491065233945846558e-02,1.179593682289123535e+00,-6.188673898577690125e-02
5.497928336262702942e-02,1.181068062782287598e+00,-2.063791453838348389e-02
5.504632368683815002e-02,1.182508349418640137e+00,2.066308073699474335e-02
5.511685460805892944e-02,1.184023380279541016e+00,6.211914122104644775e-02
5.518828704953193665e-02,1.185557842254638672e+00,1.038350388407707214e-01
5.525878444314002991e-02,1.187072396278381348e+00,1.459117829799652100e-01
5.532588064670562744e-02,1.188513636589050293e+00,1.884456425905227661e-01
5.540383607149124146e-02,1.190188407897949219e+00,2.315993607044219971e-01
5.547650530934333801e-02,1.191749453544616699e+00,2.754345536231994629e-01
3.761933743953704834e-02,1.167738437652587891e+00,-3.130564093589782715e-01
3.767323866486549377e-02,1.169411540031433105e+00,-2.701195776462554932e-01
3.772221878170967102e-02,1.170931935310363770e+00,-2.277238368988037109e-01
3.776864707469940186e-02,1.172373056411743164e+00,-1.857817173004150391e-01
3.781449049711227417e-02,1.173796176910400391e+00,-1.441985964775085449e-01
3.786400705575942993e-02,1.175333142280578613e+00,-1.028815209865570068e-01
3.791170939803123474e-02,1.176813960075378418e+00,-6.170611083507537842e-02
3.795910626649856567e-02,1.178285241127014160e+00,-2.057768404483795166e-02
3.800623118877410889e-02,1.179748058319091797e+00,2.060323022305965424e-02
3.805186599493026733e-02,1.181164503097534180e+00,6.193423271179199219e-02
3.810187429189682007e-02,1.182716727256774902e+00,1.035278365015983582e-01
3.815209865570068359e-02,1.184275865554809570e+00,1.454860121011734009e-01
3.820080682635307312e-02,1.185787796974182129e+00,1.879074871540069580e-01
3.824583068490028381e-02,1.187185406684875488e+00,2.308848351240158081e-01
3.829838708043098450e-02,1.188816785812377930e+00,2.746019363403320312e-01
2.084824442863464355e-02,1.165107369422912598e+00,-3.122390806674957275e-01
2.087641879916191101e-02,1.166681885719299316e+00,-2.693924307823181152e-01
2.090229652822017670e-02,1.168128013610839844e+00,-2.270970940589904785e-01
2.092720754444599152e-02,1.169520139694213867e+00,-1.852631717920303345e-01
2.095486596226692200e-02,1.171065926551818848e+00,-1.438116282224655151e-01
2.098140493035316467e-02,1.172549009323120117e+00,-1.026010215282440186e-01
2.100737020373344421e-02,1.174000144004821777e+00,-6.153649836778640747e-02
2.103364281356334686e-02,1.175468325614929199e+00,-2.052113041281700134e-02
2.106022648513317108e-02,1.176953911781311035e+00,2.054706588387489319e-02
2.108642458915710449e-02,1.178418040275573730e+00,6.176806986331939697e-02
2.111181989312171936e-02,1.179837346076965332e+00,1.032387614250183105e-01
2.114048041403293610e-02,1.181439042091369629e+00,1.450854688882827759e-01
2.116876095533370972e-02,1.183019399642944336e+00,1.874015927314758301e-01
2.119544334709644318e-02,1.184510707855224609e+00,2.302820533514022827e-01
2.121907658874988556e-02,1.185831308364868164e+00,2.738141417503356934e-01
4.161636345088481903e-03,1.162642598152160645e+00,-3.115306794643402100e-01
4.166971426457166672e-03,1.164133191108703613e+00,-2.687626183032989502e-01
4.171926993876695633e-03,1.165517568588256836e+00,-2.265547811985015869e-01
4.177507478743791580e-03,1.167076587677001953e+00,-1.848476827144622803e-01
4.182256292551755905e-03,1.168403387069702148e+00,-1.434625983238220215e-01
4.187598824501037598e-03,1.169895887374877930e+00,-1.023531332612037659e-01
4.192911088466644287e-03,1.171380043029785156e+00,-6.138972938060760498e-02
4.198144655674695969e-03,1.172842025756835938e+00,-2.047213539481163025e-02
4.203321877866983414e-03,1.174288392066955566e+00,2.049738168716430664e-02
4.208507481962442398e-03,1.175737261772155762e+00,6.161807850003242493e-02
4.214365035295486450e-03,1.177373647689819336e+00,1.030073538422584534e-01
4.219463095068931580e-03,1.178797960281372070e+00,1.447388976812362671e-01
4.225322045385837555e-03,1.180434703826904297e+00,1.869634091854095459e-01
4.230941645801067352e-03,1.182004690170288086e+00,2.297595590353012085e-01
4.236029926687479019e-03,1.183426141738891602e+00,2.732167840003967285e-01
-1.244616881012916565e-02,1.159568667411804199e+00,-3.107228875160217285e-01
-1.246174331754446030e-02,1.161019563674926758e+00,-2.680575251579284668e-01
-1.247927825897932053e-02,1.162653326988220215e+00,-2.260095775127410889e-01
-1.249553915113210678e-02,1.164168357849121094e+00,-1.843964904546737671e-01
-1.251114998012781143e-02,1.165622711181640625e+00,-1.431284993886947632e-01
-1.252659875899553299e-02,1.167062044143676758e+00,-1.021104231476783752e-01
-1.254222821444272995e-02,1.168518185615539551e+00,-6.124287843704223633e-02
-1.255788840353488922e-02,1.169977188110351562e+00,-2.042317204177379608e-02
-1.257364265620708466e-02,1.171444892883300781e+00,2.044879458844661713e-02
-1.258969306945800781e-02,1.172940373420715332e+00,6.147464737296104431e-02
-1.260577142238616943e-02,1.174438238143920898e+00,1.027557924389839172e-01
-1.262146327644586563e-02,1.175900220870971680e+00,1.443904936313629150e-01
-1.263621076941490173e-02,1.177274227142333984e+00,1.864723712205886841e-01
-1.265341136604547501e-02,1.178876638412475586e+00,2.291632592678070068e-01
-1.266929507255554199e-02,1.180356502532958984e+00,2.725220620632171631e-01
-2.898420952260494232e-02,1.157019376754760742e+00,-3.101191818714141846e-01
-2.901858650147914886e-02,1.158391594886779785e+00,-2.675192654132843018e-01
-2.905812300741672516e-02,1.159969806671142578e+00,-2.255456894636154175e-01
-2.909523062407970428e-02,1.161451101303100586e+00,-1.840132325887680054e-01
-2.913139201700687408e-02,1.162894725799560547e+00,-1.428301036357879639e-01
-2.916996553540229797e-02,1.164434552192687988e+00,-1.019066274166107178e-01
-2.920580282807350159e-02,1.165865063667297363e+00,-6.111947819590568542e-02
-2.924226783215999603e-02,1.167320728302001953e+00,-2.038202062249183655e-02
-2.927952818572521210e-02,1.168808102607727051e+00,2.040799148380756378e-02
-2.931422367691993713e-02,1.170193195343017578e+00,6.134637445211410522e-02
-2.935186401009559631e-02,1.171695709228515625e+00,1.025421023368835449e-01
-2.938917279243469238e-02,1.173184990882873535e+00,1.440939903259277344e-01
-2.942483313381671906e-02,1.174608588218688965e+00,1.860978007316589355e-01
-2.946682460606098175e-02,1.176284790039062500e+00,2.287179827690124512e-01
-2.950627543032169342e-02,1.177859663963317871e+00,2.720152139663696289e-01
-4.545976594090461731e-02,1.154435873031616211e+00,-3.095694184303283691e-01
-4.551079124212265015e-02,1.155731678009033203e+00,-2.670280933380126953e-01
-4.557084664702415466e-02,1.157256841659545898e+00,-2.251219302415847778e-01
-4.563615471124649048e-02,1.158915281295776367e+00,-1.836961209774017334e-01
-4.569027572870254517e-02,1.160289645195007324e+00,-1.425758600234985352e-01
-4.574910923838615417e-02,1.161783695220947266e+00,-1.017215251922607422e-01
-4.580443352460861206e-02,1.163188695907592773e+00,-6.100728735327720642e-02
-4.586163163185119629e-02,1.164641141891479492e+00,-2.034461125731468201e-02
-4.592096805572509766e-02,1.166147947311401367e+00,2.037093415856361389e-02
-4.597707837820053101e-02,1.167572975158691406e+00,6.123723834753036499e-02
-4.603874310851097107e-02,1.169138789176940918e+00,1.023655161261558533e-01
-4.608998447656631470e-02,1.170440077781677246e+00,1.438231468200683594e-01
-4.614790901541709900e-02,1.171911001205444336e+00,1.857560575008392334e-01
-4.621670767664909363e-02,1.173658251762390137e+00,2.283125072717666626e-01
-4.628236964344978333e-02,1.175325632095336914e+00,2.715551853179931641e-01
-6.188525259494781494e-02,1.151952028274536133e+00,-3.091092109680175781e-01
-6.195154041051864624e-02,1.153185963630676270e+00,-2.666174471378326416e-01
-6.204563006758689880e-02,1.154937267303466797e+00,-2.248204499483108521e-01
-6.211920455098152161e-02,1.156306862831115723e+00,-1.834048181772232056e-01
-6.220103055238723755e-02,1.157829999923706055e+00,-1.423684358596801758e-01
-6.227419152855873108e-02,1.159191727638244629e+00,-1.015622317790985107e-01
-6.235327944159507751e-02,1.160663962364196777e+00,-6.091544777154922485e-02
-6.243114918470382690e-02,1.162113547325134277e+00,-2.031398750841617584e-02
-6.250799447298049927e-02,1.163543820381164551e+00,2.033898979425430298e-02
-6.259151548147201538e-02,1.165098667144775391e+00,6.114818900823593140e-02
-6.266712397336959839e-02,1.166505932807922363e+00,1.022030636668205261e-01
-6.275253742933273315e-02,1.168095946311950684e+00,1.436307430267333984e-01
-6.281875818967819214e-02,1.169328570365905762e+00,1.854702234268188477e-01
-6.291566789150238037e-02,1.171132445335388184e+00,2.279729992151260376e-01
-6.298547238111495972e-02,1.172431826591491699e+00,2.710671126842498779e-01
-7.825407385826110840e-02,1.149309635162353516e+00,-3.086691200733184814e-01
-7.835544645786285400e-02,1.150798559188842773e+00,-2.662974894046783447e-01
-7.844927161931991577e-02,1.152176499366760254e+00,-2.244786173105239868e-01
-7.854064553976058960e-02,1.153518557548522949e+00,-1.831221133470535278e-01
-7.864394038915634155e-02,1.155035614967346191e+00,-1.421486884355545044e-01
-7.874384522438049316e-02,1.156502962112426758e+00,-1.014150083065032959e-01
-7.884246110916137695e-02,1.157951235771179199e+00,-6.082606688141822815e-02
-7.894094288349151611e-02,1.159397602081298828e+00,-2.028418518602848053e-02
-7.903952896595001221e-02,1.160845518112182617e+00,2.030951902270317078e-02
-7.913753390312194824e-02,1.162284970283508301e+00,6.105371192097663879e-02
-7.923329621553421021e-02,1.163691401481628418e+00,1.020453721284866333e-01
-7.934299856424331665e-02,1.165302634239196777e+00,1.434122323989868164e-01
-7.945245504379272461e-02,1.166910171508789062e+00,1.852480471134185791e-01
-7.955702394247055054e-02,1.168445944786071777e+00,2.276483923196792603e-01
-7.965117692947387695e-02,1.169828772544860840e+00,2.707011401653289795e-01
-9.458557516336441040e-02,1.146745681762695312e+00,-3.083125352859497070e-01
-9.470380097627639771e-02,1.148179054260253906e+00,-2.659777700901031494e-01
-9.481441974639892578e-02,1.149520158767700195e+00,-2.242025285959243774e-01
-9.494104236364364624e-02,1.151055335998535156e+00,-1.829280704259872437e-01
-9.506139904260635376e-02,1.152514576911926270e+00,-1.419913321733474731e-01
-9.517911821603775024e-02,1.153941750526428223e+00,-1.012995019555091858e-01
-9.529678523540496826e-02,1.155368328094482422e+00,-6.075581535696983337e-02
-9.541583061218261719e-02,1.156811594963073730e+00,-2.026076242327690125e-02
-9.553657472133636475e-02,1.158275485038757324e+00,2.028639987111091614e-02
-9.565810859203338623e-02,1.159748911857604980e+00,6.098617613315582275e-02
-9.577845782041549683e-02,1.161208033561706543e+00,1.019373834133148193e-01
-9.589449316263198853e-02,1.162614822387695312e+00,1.432356983423233032e-01
-9.602963179349899292e-02,1.164253234863281250e+00,1.850255131721496582e-01
-9.616041928529739380e-02,1.165838837623596191e+00,2.273853272199630737e-01
-9.628009796142578125e-02,1.167289853096008301e+00,2.704048156738281250e-01
-1.108724400401115417e-01,1.144080996513366699e+00,-3.079912364482879639e-01
-1.110052019357681274e-01,1.145450949668884277e+00,-2.656866610050201416e-01
-1.111309602856636047e-01,1.146748661994934082e+00,-2.239492684602737427e-01
-1.112775504589080811e-01,1.148261308670043945e+00,-1.827184408903121948e-01
-1.114187389612197876e-01,1.149718165397644043e+00,-1.418287605047225952e-01
-1.115676462650299072e-01,1.151254773139953613e+00,-1.011934429407119751e-01
-1.117036268115043640e-01,1.152657985687255859e+00,-6.069115176796913147e-02
-1.118431985378265381e-01,1.154098153114318848e+00,-2.023920230567455292e-02
-1.119867041707038879e-01,1.155578970909118652e+00,2.026517130434513092e-02
-1.121179461479187012e-01,1.156933188438415527e+00,6.091625615954399109e-02
-1.122589036822319031e-01,1.158387780189514160e+00,1.018204241991043091e-01
-1.123967990279197693e-01,1.159810662269592285e+00,1.430737823247909546e-01
-1.125591769814491272e-01,1.161486268043518066e+00,1.848228871822357178e-01
-1.127184256911277771e-01,1.163129448890686035e+00,2.271482944488525391e-01
-1.128664985299110413e-01,1.164657473564147949e+00,2.701416015625000000e-01
-1.271342188119888306e-01,1.141470670700073242e+00,-3.077468872070312500e-01
-1.272812485694885254e-01,1.142790794372558594e+00,-2.654650211334228516e-01
-1.274525821208953857e-01,1.144329071044921875e+00,-2.238100916147232056e-01
-1.276130229234695435e-01,1.145769596099853516e+00,-1.825939118862152100e-01
-1.277690827846527100e-01,1.147170782089233398e+00,-1.417255997657775879e-01
-1.279258131980895996e-01,1.148577928543090820e+00,-1.011087447404861450e-01
-1.280899941921234131e-01,1.150052070617675781e+00,-6.064426526427268982e-02
-1.282500624656677246e-01,1.151489257812500000e+00,-2.022357098758220673e-02
-1.284060478210449219e-01,1.152889847755432129e+00,2.024816907942295074e-02
-1.285710036754608154e-01,1.154370784759521484e+00,6.087199971079826355e-02
-1.287386119365692139e-01,1.155875563621520996e+00,1.017511561512947083e-01
-1.289045214653015137e-01,1.157365322113037109e+00,1.429850757122039795e-01
-1.290630102157592773e-01,1.158788204193115234e+00,1.846686005592346191e-01
-1.292509138584136963e-01,1.160475373268127441e+00,2.269680052995681763e-01
-1.294279247522354126e-01,1.162064671516418457e+00,2.699422538280487061e-01
-1.433703452348709106e-01,1.138838529586791992e+00,-3.075590133666992188e-01
-1.435306668281555176e-01,1.140112042427062988e+00,-2.652928233146667480e-01
-1.437207460403442383e-01,1.141621947288513184e+00,-2.236600518226623535e-01
-1.439007073640823364e-01,1.143051385879516602e+00,-1.824702769517898560e-01
-1.440972536802291870e-01,1.144612669944763184e+00,-1.416498571634292603e-01
-1.442696750164031982e-01,1.145982146263122559e+00,-1.010516807436943054e-01
-1.444527208805084229e-01,1.147436261177062988e+00,-6.060915067791938782e-02
-1.446332633495330811e-01,1.148870348930358887e+00,-2.021186426281929016e-02
-1.448113471269607544e-01,1.150285005569458008e+00,2.023675106465816498e-02
-1.450017839670181274e-01,1.151797652244567871e+00,6.083952635526657104e-02
-1.451697200536727905e-01,1.153131604194641113e+00,1.016821041703224182e-01
-1.453578472137451172e-01,1.154626011848449707e+00,1.428890526294708252e-01
-1.455397754907608032e-01,1.156071186065673828e+00,1.845486760139465332e-01
-1.457572877407073975e-01,1.157798886299133301e+00,2.268293499946594238e-01
-1.459075808525085449e-01,1.158992648124694824e+00,2.696861624717712402e-01
-1.595875620841979980e-01,1.136191964149475098e+00,-3.074296712875366211e-01
-1.598071604967117310e-01,1.137755393981933594e+00,-2.652495205402374268e-01
-1.600074172019958496e-01,1.139181017875671387e+00,-2.236076444387435913e-01
-1.601984947919845581e-01,1.140541553497314453e+00,-1.824169754981994629e-01
-1.603888273239135742e-01,1.141896605491638184e+00,-1.415833383798599243e-01
-1.605977118015289307e-01,1.143383741378784180e+00,-1.010148972272872925e-01
-1.607992202043533325e-01,1.144818305969238281e+00,-6.058623641729354858e-02
-1.610002219676971436e-01,1.146249413490295410e+00,-2.020422741770744324e-02
-1.612007766962051392e-01,1.147677302360534668e+00,2.022939361631870270e-02
-1.613953411579132080e-01,1.149062514305114746e+00,6.081084534525871277e-02
