-2.416960000991821289e+00,-6.368268728256225586e-01,-3.068932592868804932e-01
-2.419994354248046875e+00,-6.376263499259948730e-01,-2.189476341009140015e-01
-2.422868013381958008e+00,-6.383835077285766602e-01,-1.313105672597885132e-01
-2.425819635391235352e+00,-6.391612291336059570e-01,-4.378790035843849182e-02
-2.428856849670410156e+00,-6.399614810943603516e-01,4.384272545576095581e-02
-2.431755304336547852e+00,-6.407251954078674316e-01,1.317922174930572510e-01
-2.434867382049560547e+00,-6.415451169013977051e-01,2.202932685613632202e-01
-2.437960147857666016e+00,-6.423600316047668457e-01,3.095597624778747559e-01
-2.440924167633056641e+00,-6.431409716606140137e-01,3.997982740402221680e-01
-2.443622112274169922e+00,-6.438518762588500977e-01,4.912023544311523438e-01
-2.447346687316894531e+00,-6.448332071304321289e-01,5.842970609664916992e-01
-2.412547588348388672e+00,-6.727332472801208496e-01,-6.711009740829467773e-01
-2.415174007415771484e+00,-6.734656691551208496e-01,-5.788580775260925293e-01
-2.418627738952636719e+00,-6.744287014007568359e-01,-4.880686104297637939e-01
-2.421422719955444336e+00,-6.752080917358398438e-01,-3.981463313102722168e-01
-2.424486875534057617e+00,-6.760624647140502930e-01,-3.090460300445556641e-01
-2.427461385726928711e+00,-6.768919825553894043e-01,-2.204772084951400757e-01
-2.430410861968994141e+00,-6.777144074440002441e-01,-1.322315335273742676e-01
-2.433372020721435547e+00,-6.785401105880737305e-01,-4.409502074122428894e-02
-2.436351537704467773e+00,-6.793709397315979004e-01,4.414901509881019592e-02
-2.439327716827392578e+00,-6.802008748054504395e-01,1.327166706323623657e-01
-2.442250251770019531e+00,-6.810157895088195801e-01,2.218204140663146973e-01
-2.445496320724487305e+00,-6.819209456443786621e-01,3.117240667343139648e-01
-2.448143482208251953e+00,-6.826591491699218750e-01,4.025399386882781982e-01
-2.451713323593139648e+00,-6.836545467376708984e-01,4.947451055049896240e-01
-2.454375267028808594e+00,-6.843968629837036133e-01,5.882536768913269043e-01
-2.420488119125366211e+00,-7.124366164207458496e-01,-6.760772466659545898e-01
-2.423458814620971680e+00,-7.133109569549560547e-01,-5.832310914993286133e-01
-2.426706314086914062e+00,-7.142667770385742188e-01,-4.917115271091461182e-01
-2.429729223251342773e+00,-7.151565551757812500e-01,-4.011541604995727539e-01
-2.432651281356811523e+00,-7.160165905952453613e-01,-3.113612234592437744e-01
-2.435567855834960938e+00,-7.168750762939453125e-01,-2.221226990222930908e-01
-2.438597440719604492e+00,-7.177667617797851562e-01,-1.332222521305084229e-01
-2.441567897796630859e+00,-7.186411023139953613e-01,-4.442538321018218994e-02
-2.444487333297729492e+00,-7.195003628730773926e-01,4.447850212454795837e-02
-2.447541713714599609e+00,-7.203993797302246094e-01,1.337108910083770752e-01
-2.450627803802490234e+00,-7.213077545166015625e-01,2.234961539506912231e-01
-2.453664064407348633e+00,-7.222014665603637695e-01,3.140507340431213379e-01
-2.456541299819946289e+00,-7.230482697486877441e-01,4.055808782577514648e-01
-2.459782361984252930e+00,-7.240022420883178711e-01,4.984135627746582031e-01
-2.462751150131225586e+00,-7.248761057853698730e-01,5.926871895790100098e-01
-2.427227735519409180e+00,-7.523318529129028320e-01,-6.808977723121643066e-01
-2.429957389831542969e+00,-7.531778812408447266e-01,-5.873293280601501465e-01
-2.433043718338012695e+00,-7.541345357894897461e-01,-4.951321184635162354e-01
-2.435978889465332031e+00,-7.550443410873413086e-01,-4.039289355278015137e-01
-2.439151048660278320e+00,-7.560275793075561523e-01,-3.135461211204528809e-01
-2.442186594009399414e+00,-7.569684386253356934e-01,-2.236915528774261475e-01
-2.445149421691894531e+00,-7.578867673873901367e-01,-1.341590881347656250e-01
-2.448127985000610352e+00,-7.588099837303161621e-01,-4.473778977990150452e-02
-2.451130390167236328e+00,-7.597405910491943359e-01,4.479265585541725159e-02
-2.454081296920776367e+00,-7.606552243232727051e-01,1.346491575241088867e-01
-2.456931114196777344e+00,-7.615386247634887695e-01,2.250420749187469482e-01
-2.460071802139282227e+00,-7.625120282173156738e-01,3.162353932857513428e-01
-2.463127851486206055e+00,-7.634593248367309570e-01,4.084307253360748291e-01
-2.466630697250366211e+00,-7.645450234413146973e-01,5.019671916961669922e-01
-2.469166040420532227e+00,-7.653307914733886719e-01,5.968061685562133789e-01
-2.435122489929199219e+00,-7.931527495384216309e-01,-6.862268447875976562e-01
-2.438254356384277344e+00,-7.941728234291076660e-01,-5.920215845108032227e-01
-2.441157817840576172e+00,-7.951185703277587891e-01,-4.990483224391937256e-01
-2.444360256195068359e+00,-7.961615920066833496e-01,-4.071666300296783447e-01
-2.447409868240356445e+00,-7.971549034118652344e-01,-3.160420954227447510e-01
-2.450401306152343750e+00,-7.981292605400085449e-01,-2.254672348499298096e-01
-2.453399658203125000e+00,-7.991058826446533203e-01,-1.352254897356033325e-01
-2.456388950347900391e+00,-8.000794649124145508e-01,-4.509340971708297729e-02
-2.459374904632568359e+00,-8.010520935058593750e-01,4.514822363853454590e-02
-2.462390422821044922e+00,-8.020343184471130371e-01,1.357210278511047363e-01
-2.465384244918823242e+00,-8.030093908309936523e-01,2.268458604812622070e-01
-2.468275547027587891e+00,-8.039512038230895996e-01,3.187365531921386719e-01
-2.471537828445434570e+00,-8.050137162208557129e-01,4.116937220096588135e-01
-2.474653244018554688e+00,-8.060284852981567383e-01,5.058958530426025391e-01
-2.478230476379394531e+00,-8.071935772895812988e-01,6.017280220985412598e-01
-2.442953109741210938e+00,-8.345611691474914551e-01,-6.917289495468139648e-01
-2.445853948593139648e+00,-8.355521559715270996e-01,-5.967095494270324707e-01
-2.449079513549804688e+00,-8.366541266441345215e-01,-5.030643939971923828e-01
-2.452100515365600586e+00,-8.376861810684204102e-01,-4.104112088680267334e-01
-2.455041170120239258e+00,-8.386906981468200684e-01,-3.185451030731201172e-01
-2.458162546157836914e+00,-8.397570252418518066e-01,-2.272640615701675415e-01
-2.461094379425048828e+00,-8.407586216926574707e-01,-1.362989246845245361e-01
-2.464092731475830078e+00,-8.417829275131225586e-01,-4.545136541128158569e-02
-2.467164278030395508e+00,-8.428322076797485352e-01,4.550801962614059448e-02
-2.470068454742431641e+00,-8.438243269920349121e-01,1.367959231138229370e-01
-2.473190784454345703e+00,-8.448909521102905273e-01,2.286534756422042847e-01
-2.476285219192504883e+00,-8.459481000900268555e-01,3.213015496730804443e-01
-2.479240417480468750e+00,-8.469576835632324219e-01,4.149536192417144775e-01
-2.482610464096069336e+00,-8.481088876724243164e-01,5.099519491195678711e-01
-2.485733032226562500e+00,-8.491756916046142578e-01,6.064388155937194824e-01
-2.451399564743041992e+00,-8.768221139907836914e-01,-6.976028084754943848e-01
-2.454068899154663086e+00,-8.777769207954406738e-01,-6.017173528671264648e-01
-2.457144737243652344e+00,-8.788771033287048340e-01,-5.072531104087829590e-01
-2.460473299026489258e+00,-8.800676465034484863e-01,-4.138785004615783691e-01
-2.463305711746215820e+00,-8.810807466506958008e-01,-3.212208747863769531e-01
-2.466397047042846680e+00,-8.821864724159240723e-01,-2.291693240404129028e-01
-2.469428539276123047e+00,-8.832708001136779785e-01,-1.374465823173522949e-01
-2.472436904907226562e+00,-8.843467831611633301e-01,-4.583406448364257812e-02
-2.475429058074951172e+00,-8.854170441627502441e-01,4.588953405618667603e-02
-2.478383064270019531e+00,-8.864737153053283691e-01,1.379449814558029175e-01
-2.481635093688964844e+00,-8.876368999481201172e-01,2.305852025747299194e-01
-2.484439611434936523e+00,-8.886399865150451660e-01,3.239767849445343018e-01
-2.487566947937011719e+00,-8.897585868835449219e-01,4.184359610080718994e-01
-2.491193056106567383e+00,-8.910555839538574219e-01,5.142820477485656738e-01
-2.493838787078857422e+00,-8.920018672943115234e-01,6.114685535430908203e-01
-2.458228349685668945e+00,-9.191561937332153320e-01,-7.032179832458496094e-01
-2.462001562118530273e+00,-9.205670356750488281e-01,-6.068309545516967773e-01
-2.464847087860107422e+00,-9.216309785842895508e-01,-5.115140676498413086e-01
-2.468019008636474609e+00,-9.228169918060302734e-01,-4.173268675804138184e-01
-2.471037387847900391e+00,-9.239456057548522949e-01,-3.239204883575439453e-01
-2.473998308181762695e+00,-9.250527620315551758e-01,-2.310822159051895142e-01
-2.476968526840209961e+00,-9.261633157730102539e-01,-1.385899037122726440e-01
-2.479985952377319336e+00,-9.272915720939636230e-01,-4.621532559394836426e-02
-2.483057975769042969e+00,-9.284402132034301758e-01,4.627257212996482849e-02
-2.486161708831787109e+00,-9.296007752418518066e-01,1.391042768955230713e-01
-2.489245176315307617e+00,-9.307537674903869629e-01,2.325063496828079224e-01
-2.492227077484130859e+00,-9.318686127662658691e-01,3.266981542110443115e-01
-2.495607137680053711e+00,-9.331325292587280273e-01,4.219918549060821533e-01
-2.498132705688476562e+00,-9.340767860412597656e-01,5.184215903282165527e-01
-2.501773357391357422e+00,-9.354381561279296875e-01,6.166338920593261719e-01
-2.466330528259277344e+00,-9.626393914222717285e-01,-7.094047665596008301e-01
-2.469922304153442383e+00,-9.640412926673889160e-01,-6.121216416358947754e-01
-2.473149299621582031e+00,-9.653008580207824707e-01,-5.160514116287231445e-01
-2.476164579391479492e+00,-9.664777517318725586e-01,-4.210003018379211426e-01
-2.479094266891479492e+00,-9.676212668418884277e-01,-3.267587125301361084e-01
-2.482036590576171875e+00,-9.687697291374206543e-01,-2.331043332815170288e-01
-2.485117197036743164e+00,-9.699720740318298340e-01,-1.398083269596099854e-01
-2.488144397735595703e+00,-9.711536765098571777e-01,-4.662162810564041138e-02
-2.491125583648681641e+00,-9.723172783851623535e-01,4.667748883366584778e-02
-2.494267702102661133e+00,-9.735436439514160156e-01,1.403231024742126465e-01
-2.497460603713989258e+00,-9.747898578643798828e-01,2.345529049634933472e-01
-2.500620603561401367e+00,-9.760232567787170410e-01,3.295960128307342529e-01
-2.503635644912719727e+00,-9.772000312805175781e-01,4.256709516048431396e-01
-2.506365537643432617e+00,-9.782655835151672363e-01,5.229823589324951172e-01
-2.510299444198608398e+00,-9.798009991645812988e-01,6.221283078193664551e-01
-2.475079536437988281e+00,-1.007107615470886230e+00,-7.159942388534545898e-01
-2.478492021560668945e+00,-1.008496165275573730e+00,-6.177597045898437500e-01
-2.481605529785156250e+00,-1.009763002395629883e+00,-5.207783579826354980e-01
-2.484576463699340820e+00,-1.010971903800964355e+00,-4.248472750186920166e-01
-2.487820863723754883e+00,-1.012292027473449707e+00,-3.297849297523498535e-01
-2.490921497344970703e+00,-1.013553738594055176e+00,-2.352771759033203125e-01
-2.493943452835083008e+00,-1.014783263206481934e+00,-1.411075592041015625e-01
-2.496981382369995117e+00,-1.016019463539123535e+00,-4.705488681793212891e-02
-2.500042915344238281e+00,-1.017265200614929199e+00,4.711257666349411011e-02
-2.503047466278076172e+00,-1.018487811088562012e+00,1.416226774454116821e-01
-2.505944728851318359e+00,-1.019666671752929688e+00,2.366961538791656494e-01
-2.509170532226562500e+00,-1.020979166030883789e+00,3.326150476932525635e-01
-2.512322187423706055e+00,-1.022261619567871094e+00,4.295916259288787842e-01
-2.515256166458129883e+00,-1.023455500602722168e+00,5.278401374816894531e-01
-2.518640995025634766e+00,-1.024832844734191895e+00,6.277667880058288574e-01
-2.483401060104370117e+00,-1.052167654037475586e+00,-7.226841449737548828e-01
-2.486558437347412109e+00,-1.053505420684814453e+00,-6.234648823738098145e-01
-2.489474058151245117e+00,-1.054740786552429199e+00,-5.255439877510070801e-01
-2.492309808731079102e+00,-1.055942177772521973e+00,-4.287101328372955322e-01
-2.495488166809082031e+00,-1.057288765907287598e+00,-3.327732980251312256e-01
-2.498585700988769531e+00,-1.058601140975952148e+00,-2.374079376459121704e-01
-2.501669168472290039e+00,-1.059907555580139160e+00,-1.423884779214859009e-01
-2.504716396331787109e+00,-1.061198592185974121e+00,-4.748202487826347351e-02
-2.507734775543212891e+00,-1.062477469444274902e+00,4.753924906253814697e-02
-2.510761499404907227e+00,-1.063759803771972656e+00,1.429059952497482300e-01
-2.513744354248046875e+00,-1.065023541450500488e+00,2.388482689857482910e-01
-2.517126083374023438e+00,-1.066456317901611328e+00,3.356587290763854980e-01
-2.520497560501098633e+00,-1.067884802818298340e+00,4.335587918758392334e-01
-2.523711442947387695e+00,-1.069246411323547363e+00,5.327717661857604980e-01
-2.526593923568725586e+00,-1.070467591285705566e+00,6.335030794143676758e-01
-2.493566274642944336e+00,-1.098829746246337891e+00,-7.301443815231323242e-01
-2.496548652648925781e+00,-1.100143909454345703e+00,-6.298534870147705078e-01
-2.499885559082031250e+00,-1.101614356040954590e+00,-5.310162305831909180e-01
-2.502983093261718750e+00,-1.102979421615600586e+00,-4.332173466682434082e-01
-2.505968809127807617e+00,-1.104295134544372559e+00,-3.362442255020141602e-01
-2.508939981460571289e+00,-1.105604410171508789e+00,-2.398708611726760864e-01
-2.511966705322265625e+00,-1.106938242912292480e+00,-1.438616663217544556e-01
-2.515026807785034180e+00,-1.108286619186401367e+00,-4.797329008579254150e-02
-2.518126726150512695e+00,-1.109652757644653320e+00,4.803242161870002747e-02
-2.521305561065673828e+00,-1.111053466796875000e+00,1.443964987993240356e-01
-2.524508714675903320e+00,-1.112465023994445801e+00,2.413593381643295288e-01
-2.527652502059936523e+00,-1.113850355148315430e+00,3.391536772251129150e-01
-2.530623674392700195e+00,-1.115159630775451660e+00,4.380014240741729736e-01
-2.534040927886962891e+00,-1.116665482521057129e+00,5.382714271545410156e-01
-2.537191390991210938e+00,-1.118053793907165527e+00,6.401072144508361816e-01
-2.500417470932006836e+00,-1.144859552383422852e+00,-7.368733286857604980e-01
-2.503929615020751953e+00,-1.146467685699462891e+00,-6.357905268669128418e-01
-2.506567001342773438e+00,-1.147675275802612305e+00,-5.358700156211853027e-01
-2.510089397430419922e+00,-1.149288058280944824e+00,-4.372497797012329102e-01
-2.513024330139160156e+00,-1.150631785392761230e+00,-3.393659889698028564e-01
-2.516186952590942383e+00,-1.152079939842224121e+00,-2.421154826879501343e-01
-2.519161939620971680e+00,-1.153442025184631348e+00,-1.452043801546096802e-01
-2.522230625152587891e+00,-1.154847025871276855e+00,-4.842104017734527588e-02
-2.525399923324584961e+00,-1.156298279762268066e+00,4.848188906908035278e-02
-2.528404474258422852e+00,-1.157673954963684082e+00,1.457371264696121216e-01
-2.531676054000854492e+00,-1.159171819686889648e+00,2.436058968305587769e-01
-2.534408092498779297e+00,-1.160422801971435547e+00,3.422537147998809814e-01
-2.538104534149169922e+00,-1.162115335464477539e+00,4.421299099922180176e-01
-2.541002988815307617e+00,-1.163442373275756836e+00,5.432319641113281250e-01
-2.544348716735839844e+00,-1.164974212646484375e+00,6.460536718368530273e-01
-2.509968519210815430e+00,-1.192977428436279297e+00,-7.446439266204833984e-01
-2.513349056243896484e+00,-1.194584131240844727e+00,-6.424581408500671387e-01
-2.516450405120849609e+00,-1.196058154106140137e+00,-5.415874123573303223e-01
-2.519856929779052734e+00,-1.197677373886108398e+00,-4.418922364711761475e-01
-2.522731304168701172e+00,-1.199043512344360352e+00,-3.429594039916992188e-01
-2.525900602340698242e+00,-1.200549840927124023e+00,-2.446785867214202881e-01
-2.529006719589233398e+00,-1.202026128768920898e+00,-1.467484980821609497e-01
-2.532087087631225586e+00,-1.203490257263183594e+00,-4.893595352768898010e-02
-2.535149097442626953e+00,-1.204945564270019531e+00,4.899512976408004761e-02
-2.538170576095581055e+00,-1.206381678581237793e+00,1.472802460193634033e-01
-2.541527032852172852e+00,-1.207977056503295898e+00,2.461922913789749146e-01
-2.544400453567504883e+00,-1.209342718124389648e+00,3.459052443504333496e-01
-2.547652244567871094e+00,-1.210888385772705078e+00,4.467664957046508789e-01
-2.550708055496215820e+00,-1.212340712547302246e+00,5.489603281021118164e-01
-2.554282426834106445e+00,-1.214039564132690430e+00,6.529214382171630859e-01
-2.518775224685668945e+00,-1.241662740707397461e+00,-7.524522542953491211e-01
-2.521942615509033203e+00,-1.243224263191223145e+00,-6.491370201110839844e-01
-2.524884939193725586e+00,-1.244674563407897949e+00,-5.471808910369873047e-01
-2.528193712234497070e+00,-1.246305704116821289e+00,-4.464367628097534180e-01
-2.531331777572631836e+00,-1.247852683067321777e+00,-3.465212881565093994e-01
-2.534395933151245117e+00,-1.249363183975219727e+00,-2.472084611654281616e-01
-2.537453889846801758e+00,-1.250870704650878906e+00,-1.482623964548110962e-01
-2.540544509887695312e+00,-1.252394199371337891e+00,-4.944078624248504639e-02
-2.543675422668457031e+00,-1.253937602043151855e+00,4.950171709060668945e-02
-2.546823263168334961e+00,-1.255489349365234375e+00,1.488098353147506714e-01
-2.549935102462768555e+00,-1.257023453712463379e+00,2.487241774797439575e-01
-2.552927970886230469e+00,-1.258498787879943848e+00,3.494776487350463867e-01
-2.556362390518188477e+00,-1.260191798210144043e+00,4.514108598232269287e-01
-2.559656381607055664e+00,-1.261815667152404785e+00,5.547164082527160645e-01
-2.562632560729980469e+00,-1.263282775878906250e+00,6.596104502677917480e-01
-2.527440071105957031e+00,-1.291221499443054199e+00,-7.604840397834777832e-01
-2.531183958053588867e+00,-1.293134212493896484e+00,-6.562126278877258301e-01
-2.533967971801757812e+00,-1.294556498527526855e+00,-5.531083345413208008e-01
-2.537182331085205078e+00,-1.296198725700378418e+00,-4.512539505958557129e-01
-2.540282011032104492e+00,-1.297782182693481445e+00,-3.502535223960876465e-01
-2.543366193771362305e+00,-1.299357891082763672e+00,-2.498719543218612671e-01
-2.546565294265747070e+00,-1.300992250442504883e+00,-1.498674750328063965e-01
-2.549666881561279297e+00,-1.302576661109924316e+00,-4.997602477669715881e-02
-2.552678346633911133e+00,-1.304115295410156250e+00,5.003505572676658630e-02
-2.555828332901000977e+00,-1.305724501609802246e+00,1.504126042127609253e-01
-2.559000968933105469e+00,-1.307345390319824219e+00,2.514079809188842773e-01
-2.562111377716064453e+00,-1.308934450149536133e+00,3.532633781433105469e-01
-2.565728425979614258e+00,-1.310782313346862793e+00,4.563310444355010986e-01
-2.568461418151855469e+00,-1.312178611755371094e+00,5.606374740600585938e-01
-2.571614742279052734e+00,-1.313789486885070801e+00,6.666944026947021484e-01
-2.537587642669677734e+00,-1.342544674873352051e+00,-7.692406773567199707e-01
-2.540451049804687500e+00,-1.344059586524963379e+00,-6.635347008705139160e-01
-2.543763160705566406e+00,-1.345811963081359863e+00,-5.593938231468200684e-01
-2.546886205673217773e+00,-1.347464203834533691e+00,-4.563633799552917480e-01
-2.550268411636352539e+00,-1.349253654479980469e+00,-3.542569577693939209e-01
-2.553248167037963867e+00,-1.350830197334289551e+00,-2.527164816856384277e-01
-2.556403636932373047e+00,-1.352499604225158691e+00,-1.515702456235885620e-01
-2.559517383575439453e+00,-1.354146957397460938e+00,-5.054384842514991760e-02
-2.562596559524536133e+00,-1.355775952339172363e+00,5.060465261340141296e-02
-2.565875053405761719e+00,-1.357510566711425781e+00,1.521318107843399048e-01
-2.568787574768066406e+00,-1.359051465988159180e+00,2.542545497417449951e-01
-2.572015047073364258e+00,-1.360759019851684570e+00,3.572777807712554932e-01
-2.575121879577636719e+00,-1.362402677536010742e+00,4.614227712154388428e-01
-2.578772544860839844e+00,-1.364334106445312500e+00,5.670926570892333984e-01
-2.582214355468750000e+00,-1.366155028343200684e+00,6.744428277015686035e-01
-2.547700166702270508e+00,-1.394924640655517578e+00,-7.782788872718811035e-01
-2.551166772842407227e+00,-1.396822571754455566e+00,-6.714867353439331055e-01
-2.554336309432983398e+00,-1.398558139801025391e+00,-5.660631060600280762e-01
-2.557819604873657227e+00,-1.400465250015258789e+00,-4.618670344352722168e-01
-2.560725927352905273e+00,-1.402056455612182617e+00,-3.584605455398559570e-01
-2.563925981521606445e+00,-1.403808593750000000e+00,-2.557359635829925537e-01
-2.567037820816040039e+00,-1.405512452125549316e+00,-1.533778160810470581e-01
-2.570164203643798828e+00,-1.407224178314208984e+00,-5.114661157131195068e-02
-2.573312759399414062e+00,-1.408948183059692383e+00,5.120927095413208008e-02
-2.576396703720092773e+00,-1.410636663436889648e+00,1.539369970560073853e-01
-2.579814434051513672e+00,-1.412507891654968262e+00,2.573207318782806396e-01
-2.582705020904541016e+00,-1.414090633392333984e+00,3.615372776985168457e-01
-2.585982799530029297e+00,-1.415885329246520996e+00,4.669524729251861572e-01
-2.589048385620117188e+00,-1.417563676834106445e+00,5.737556219100952148e-01
-2.592661619186401367e+00,-1.419541954994201660e+00,6.824085116386413574e-01
-2.559451580047607422e+00,-1.449351906776428223e+00,-7.881253957748413086e-01
-2.562728643417358398e+00,-1.451207756996154785e+00,-6.799276471138000488e-01
-2.565760135650634766e+00,-1.452924251556396484e+00,-5.731446743011474609e-01
-2.569164514541625977e+00,-1.454852104187011719e+00,-4.676278829574584961e-01
-2.572368621826171875e+00,-1.456666469573974609e+00,-3.629718422889709473e-01
-2.575274467468261719e+00,-1.458312034606933594e+00,-2.589233815670013428e-01
-2.578474044799804688e+00,-1.460123777389526367e+00,-1.552939265966415405e-01
-2.581614971160888672e+00,-1.461902499198913574e+00,-5.178558826446533203e-02
-2.584703207015991211e+00,-1.463651299476623535e+00,5.184753611683845520e-02
-2.588110208511352539e+00,-1.465580582618713379e+00,1.558742970228195190e-01
-2.591256141662597656e+00,-1.467361927032470703e+00,2.605302035808563232e-01
-2.594254493713378906e+00,-1.469059944152832031e+00,3.660600483417510986e-01
-2.597701549530029297e+00,-1.471011996269226074e+00,4.728220701217651367e-01
-2.600989341735839844e+00,-1.472873687744140625e+00,5.810142755508422852e-01
-2.603938817977905273e+00,-1.474543929100036621e+00,6.908612251281738281e-01
-2.569169044494628906e+00,-1.503817319869995117e+00,-7.976640462875366211e-01
-2.572282791137695312e+00,-1.505639910697937012e+00,-6.881097555160522461e-01
-2.575199127197265625e+00,-1.507346868515014648e+00,-5.800133347511291504e-01
-2.578543424606323242e+00,-1.509304404258728027e+00,-4.732186496257781982e-01
-2.581737041473388672e+00,-1.511173725128173828e+00,-3.673082292079925537e-01
-2.584879875183105469e+00,-1.513013362884521484e+00,-2.620396614074707031e-01
-2.588041067123413086e+00,-1.514863729476928711e+00,-1.571599245071411133e-01
-2.591193199157714844e+00,-1.516708731651306152e+00,-5.240782722830772400e-02
-2.594342947006225586e+00,-1.518552422523498535e+00,5.247153341770172119e-02
-2.597535371780395508e+00,-1.520421147346496582e+00,1.577364802360534668e-01
-2.600715398788452148e+00,-1.522282361984252930e+00,2.636449635028839111e-01
-2.603797912597656250e+00,-1.524086713790893555e+00,3.704468607902526855e-01
-2.607385396957397461e+00,-1.526186585426330566e+00,4.785117805004119873e-01
-2.610863208770751953e+00,-1.528222322463989258e+00,5.880460143089294434e-01
-2.614048480987548828e+00,-1.530086755752563477e+00,6.992824673652648926e-01
-2.578750610351562500e+00,-1.559401392936706543e+00,-8.074860572814941406e-01
-2.582543849945068359e+00,-1.561695218086242676e+00,-6.967629790306091309e-01
-2.585348606109619141e+00,-1.563391327857971191e+00,-5.872792601585388184e-01
-2.588638067245483398e+00,-1.565380454063415527e+00,-4.791341423988342285e-01
-2.592159032821655273e+00,-1.567509770393371582e+00,-3.719449937343597412e-01
-2.595213174819946289e+00,-1.569356560707092285e+00,-2.653371691703796387e-01
-2.598336935043334961e+00,-1.571245551109313965e+00,-1.591345667839050293e-01
-2.601501226425170898e+00,-1.573158979415893555e+00,-5.306629464030265808e-02
-2.604714393615722656e+00,-1.575101971626281738e+00,5.313184112310409546e-02
-2.608020782470703125e+00,-1.577101469039916992e+00,1.597276479005813599e-01
-2.610896110534667969e+00,-1.578840255737304688e+00,2.669406235218048096e-01
-2.614059686660766602e+00,-1.580753326416015625e+00,3.750874698162078857e-01
-2.617785453796386719e+00,-1.583006262779235840e+00,4.845290482044219971e-01
-2.620599746704101562e+00,-1.584708094596862793e+00,5.952867865562438965e-01
-2.623898506164550781e+00,-1.586702823638916016e+00,7.079203128814697266e-01
-2.589923858642578125e+00,-1.617226839065551758e+00,-8.181493878364562988e-01
-2.593572854995727539e+00,-1.619505286216735840e+00,-7.059203982353210449e-01
-2.596870422363281250e+00,-1.621564388275146484e+00,-5.951079130172729492e-01
-2.599978923797607422e+00,-1.623505353927612305e+00,-4.854846298694610596e-01
-2.603031873703002930e+00,-1.625411868095397949e+00,-3.768047988414764404e-01
-2.606338024139404297e+00,-1.627476215362548828e+00,-2.688287198543548584e-01
-2.609424114227294922e+00,-1.629403233528137207e+00,-1.612254530191421509e-01
-2.612601757049560547e+00,-1.631387591361999512e+00,-5.376354232430458069e-02
-2.615879535675048828e+00,-1.633434295654296875e+00,5.383099615573883057e-02
-2.618960142135620117e+00,-1.635357856750488281e+00,1.618146449327468872e-01
-2.622334003448486328e+00,-1.637464523315429688e+00,2.704786360263824463e-01
-2.625708341598510742e+00,-1.639571547508239746e+00,3.800873458385467529e-01
-2.628964185714721680e+00,-1.641604661941528320e+00,4.908969700336456299e-01
-2.631953001022338867e+00,-1.643471002578735352e+00,6.031475663185119629e-01
-2.635481595993041992e+00,-1.645674467086791992e+00,7.173271179199218750e-01
-2.601926088333129883e+00,-1.676952004432678223e+00,-8.294383287429809570e-01
-2.605435848236083984e+00,-1.679214000701904297e+00,-7.156178951263427734e-01
-2.608638286590576172e+00,-1.681278109550476074e+00,-6.032576560974121094e-01
-2.611699104309082031e+00,-1.683250784873962402e+00,-4.921215474605560303e-01
-2.615095615386962891e+00,-1.685439825057983398e+00,-3.820041418075561523e-01
-2.618113279342651367e+00,-1.687384843826293945e+00,-2.725065648555755615e-01
-2.621370315551757812e+00,-1.689484000205993652e+00,-1.634409576654434204e-01
-2.624562740325927734e+00,-1.691541552543640137e+00,-5.450234189629554749e-02
-2.627698183059692383e+00,-1.693562269210815430e+00,5.456745252013206482e-02
-2.631097078323364258e+00,-1.695752859115600586e+00,1.640474051237106323e-01
-2.634154319763183594e+00,-1.697723269462585449e+00,2.741761803627014160e-01
-2.637606143951416016e+00,-1.699947953224182129e+00,3.852923810482025146e-01
-2.640987634658813477e+00,-1.702127456665039062e+00,4.976404011249542236e-01
-2.644148588180541992e+00,-1.704164743423461914e+00,6.114695668220520020e-01
-2.647904872894287109e+00,-1.706585645675659180e+00,7.272825837135314941e-01
-2.611279010772705078e+00,-1.736374616622924805e+00,-8.402565717697143555e-01
-2.614675045013427734e+00,-1.738632917404174805e+00,-7.249165773391723633e-01
-2.617805004119873047e+00,-1.740714192390441895e+00,-6.110767722129821777e-01
-2.621317148208618164e+00,-1.743049621582031250e+00,-4.985839724540710449e-01
-2.624251365661621094e+00,-1.745000600814819336e+00,-3.869504928588867188e-01
-2.627536535263061523e+00,-1.747185230255126953e+00,-2.760620713233947754e-01
-2.630762100219726562e+00,-1.749329924583435059e+00,-1.655707210302352905e-01
-2.633965969085693359e+00,-1.751460433006286621e+00,-5.521255359053611755e-02
-2.637155771255493164e+00,-1.753581404685974121e+00,5.527941882610321045e-02
-2.640308618545532227e+00,-1.755677938461303711e+00,1.661715358495712280e-01
-2.643854379653930664e+00,-1.758035778999328613e+00,2.777765095233917236e-01
-2.646873712539672852e+00,-1.760043382644653320e+00,3.902861773967742920e-01
-2.650352239608764648e+00,-1.762356400489807129e+00,5.041065216064453125e-01
-2.653652191162109375e+00,-1.764550924301147461e+00,6.194446086883544922e-01
-2.656591415405273438e+00,-1.766505241394042969e+00,7.365378737449645996e-01
-2.624977588653564453e+00,-1.800189852714538574e+00,-8.528683781623840332e-01
-2.628245115280151367e+00,-1.802430629730224609e+00,-7.357562184333801270e-01
-2.631290674209594727e+00,-1.804519414901733398e+00,-6.201904416084289551e-01
-2.634770631790161133e+00,-1.806905984878540039e+00,-5.060102939605712891e-01
-2.638064384460449219e+00,-1.809164762496948242e+00,-3.927653431892395020e-01
-2.641273021697998047e+00,-1.811365127563476562e+00,-2.802006304264068604e-01
-2.644468545913696289e+00,-1.813556671142578125e+00,-1.680498719215393066e-01
-2.647688388824462891e+00,-1.815764904022216797e+00,-5.603925511240959167e-02
-2.650941848754882812e+00,-1.817996025085449219e+00,5.610811710357666016e-02
-2.654205322265625000e+00,-1.820234060287475586e+00,1.686686128377914429e-01
-2.657422780990600586e+00,-1.822440505027770996e+00,2.819138765335083008e-01
-2.660508632659912109e+00,-1.824556827545166016e+00,3.961069285869598389e-01
-2.664106607437133789e+00,-1.827024221420288086e+00,5.116442441940307617e-01
-2.667571544647216797e+00,-1.829400539398193359e+00,6.287418007850646973e-01
-2.670718193054199219e+00,-1.831558465957641602e+00,7.476462721824645996e-01
-2.635830402374267578e+00,-1.863654375076293945e+00,-8.649729490280151367e-01
-2.638995409011840820e+00,-1.865892052650451660e+00,-7.461657524108886719e-01
-2.642606496810913086e+00,-1.868445277214050293e+00,-6.290966272354125977e-01
-2.645444631576538086e+00,-1.870452046394348145e+00,-5.131493806838989258e-01
-2.648765563964843750e+00,-1.872799992561340332e+00,-3.983087837696075439e-01
-2.652256727218627930e+00,-1.875268459320068359e+00,-2.841842174530029297e-01
-2.655422687530517578e+00,-1.877506852149963379e+00,-1.704362630844116211e-01
-2.658655881881713867e+00,-1.879792928695678711e+00,-5.683504790067672729e-02
-2.661965370178222656e+00,-1.882133007049560547e+00,5.690579488873481750e-02
-2.664971828460693359e+00,-1.884258627891540527e+00,1.710491776466369629e-01
-2.668188571929931641e+00,-1.886532902717590332e+00,2.858912646770477295e-01
-2.671948909759521484e+00,-1.889191627502441406e+00,4.017949700355529785e-01
-2.675002574920654297e+00,-1.891350746154785156e+00,5.188828110694885254e-01
-2.678599357604980469e+00,-1.893893957138061523e+00,6.376650929450988770e-01
-2.681916713714599609e+00,-1.896239399909973145e+00,7.583016157150268555e-01
-2.647441148757934570e+00,-1.929282546043395996e+00,-8.777552247047424316e-01
-2.650510072708129883e+00,-1.931519031524658203e+00,-7.571609616279602051e-01
-2.654070377349853516e+00,-1.934113502502441406e+00,-6.383507251739501953e-01
-2.657389640808105469e+00,-1.936532378196716309e+00,-5.207897424697875977e-01
-2.660602807998657227e+00,-1.938873887062072754e+00,-4.042206108570098877e-01
-2.663813591003417969e+00,-1.941213607788085938e+00,-2.883701324462890625e-01
-2.667166709899902344e+00,-1.943657159805297852e+00,-1.729579716920852661e-01
-2.670414686203002930e+00,-1.946024179458618164e+00,-5.767596140503883362e-02
-2.673565149307250977e+00,-1.948320031166076660e+00,5.774400755763053894e-02
-2.676880598068237305e+00,-1.950736045837402344e+00,1.735878884792327881e-01
-2.680235147476196289e+00,-1.953180551528930664e+00,2.901478409767150879e-01
-2.683539390563964844e+00,-1.955588459968566895e+00,4.077053368091583252e-01
-2.686672925949096680e+00,-1.957872033119201660e+00,5.265285968780517578e-01
-2.690397262573242188e+00,-1.960586190223693848e+00,6.470879912376403809e-01
-2.693881750106811523e+00,-1.963125348091125488e+00,7.695507407188415527e-01
-2.659870386123657227e+00,-1.997244834899902344e+00,-8.912629485130310059e-01
-2.663625240325927734e+00,-2.000064373016357422e+00,-7.690067291259765625e-01
-2.666365623474121094e+00,-2.002121925354003906e+00,-6.481341123580932617e-01
-2.669680118560791016e+00,-2.004610538482666016e+00,-5.287674069404602051e-01
-2.673289537429809570e+00,-2.007320880889892578e+00,-4.104712009429931641e-01
-2.676434040069580078e+00,-2.009682178497314453e+00,-2.928203642368316650e-01
-2.679763078689575195e+00,-2.012181997299194336e+00,-1.756245046854019165e-01
-2.683026790618896484e+00,-2.014632463455200195e+00,-5.856516957283020020e-02
-2.686230897903442383e+00,-2.017038345336914062e+00,5.863511189818382263e-02
-2.689644575119018555e+00,-2.019601583480834961e+00,1.762721091508865356e-01
-2.692630767822265625e+00,-2.021843910217285156e+00,2.945923805236816406e-01
-2.695969820022583008e+00,-2.024351119995117188e+00,4.139536321163177490e-01
-2.699965715408325195e+00,-2.027351617813110352e+00,5.347658991813659668e-01
-2.703026771545410156e+00,-2.029650211334228516e+00,6.570456624031066895e-01
-2.706673383712768555e+00,-2.032388210296630859e+00,7.814350128173828125e-01
-2.673181533813476562e+00,-2.067725658416748047e+00,-9.055474996566772461e-01
-2.676860570907592773e+00,-2.070571422576904297e+00,-7.813042402267456055e-01
-2.680203437805175781e+00,-2.073157072067260742e+00,-6.586434841156005859e-01
-2.683378458023071289e+00,-2.075613021850585938e+00,-5.373098254203796387e-01
-2.686526060104370117e+00,-2.078047752380371094e+00,-4.170279502868652344e-01
-2.689971446990966797e+00,-2.080712795257568359e+00,-2.975293397903442383e-01
-2.693278074264526367e+00,-2.083270311355590820e+00,-1.784462034702301025e-01
-2.696557998657226562e+00,-2.085807561874389648e+00,-5.950611457228660583e-02
-2.699817419052124023e+00,-2.088328599929809570e+00,5.957804247736930847e-02
-2.702961683273315430e+00,-2.090760946273803711e+00,1.790878027677536011e-01
-2.706445455551147461e+00,-2.093455553054809570e+00,2.993514835834503174e-01
-2.709959983825683594e+00,-2.096174001693725586e+00,4.206655919551849365e-01
-2.713380336761474609e+00,-2.098819732666015625e+00,5.433173179626464844e-01
-2.716552495956420898e+00,-2.101273298263549805e+00,6.675759553909301758e-01
-2.720356225967407227e+00,-2.104215621948242188e+00,7.939994931221008301e-01
-2.687443017959594727e+00,-2.140927076339721680e+00,-9.206650853157043457e-01
-2.691053867340087891e+00,-2.143803596496582031e+00,-7.943217754364013672e-01
-2.694364309310913086e+00,-2.146440744400024414e+00,-6.696047782897949219e-01
-2.698060274124145508e+00,-2.149385213851928711e+00,-5.463539958000183105e-01
-2.701107740402221680e+00,-2.151813030242919922e+00,-4.240290820598602295e-01
-2.704495906829833984e+00,-2.154512166976928711e+00,-3.025158345699310303e-01
-2.707782030105590820e+00,-2.157129764556884766e+00,-1.814343184232711792e-01
-2.711079120635986328e+00,-2.159756422042846680e+00,-6.050254404544830322e-02
-2.714394807815551758e+00,-2.162397861480712891e+00,6.057653948664665222e-02
-2.717631816864013672e+00,-2.164976596832275391e+00,1.820942908525466919e-01
-2.721252918243408203e+00,-2.167861223220825195e+00,3.043901920318603516e-01
-2.724277496337890625e+00,-2.170270919799804688e+00,4.276663661003112793e-01
-2.727766275405883789e+00,-2.173050165176391602e+00,5.523694157600402832e-01
-2.731043815612792969e+00,-2.175661325454711914e+00,6.787204146385192871e-01
-2.734999895095825195e+00,-2.178812742233276367e+00,8.072933554649353027e-01
-2.702729225158691406e+00,-2.217070579528808594e+00,-9.366773366928100586e-01
-2.706279516220092773e+00,-2.219983100891113281e+00,-8.081124424934387207e-01
-2.710228443145751953e+00,-2.223222255706787109e+00,-6.813859939575195312e-01
-2.713278293609619141e+00,-2.225723981857299805e+00,-5.558298826217651367e-01
-2.716750144958496094e+00,-2.228572130203247070e+00,-4.314480423927307129e-01
-2.720083713531494141e+00,-2.231306552886962891e+00,-3.078003227710723877e-01
-2.723350286483764648e+00,-2.233986139297485352e+00,-1.846011132001876831e-01
-2.726666450500488281e+00,-2.236706495285034180e+00,-6.155857071280479431e-02
-2.730039119720458984e+00,-2.239473104476928711e+00,6.163471192121505737e-02
-2.733369350433349609e+00,-2.242205142974853516e+00,1.852802485227584839e-01
-2.736600875854492188e+00,-2.244855880737304688e+00,3.096694052219390869e-01
-2.740316390991210938e+00,-2.247903585433959961e+00,4.351905882358551025e-01
-2.743198394775390625e+00,-2.250267744064331055e+00,5.619592070579528809e-01
-2.746576547622680664e+00,-2.253038883209228516e+00,6.905243396759033203e-01
-2.750679254531860352e+00,-2.256404399871826172e+00,8.213704824447631836e-01
-2.715002298355102539e+00,-2.292921543121337891e+00,-9.522074460983276367e-01
-2.718378067016601562e+00,-2.295772552490234375e+00,-8.214532732963562012e-01
-2.721515655517578125e+00,-2.298422574996948242e+00,-6.924238801002502441e-01
-2.725117444992065430e+00,-2.301464319229125977e+00,-5.649456381797790527e-01
-2.728507280349731445e+00,-2.304327011108398438e+00,-4.385083019733428955e-01
-2.731561422348022461e+00,-2.306906461715698242e+00,-3.128035664558410645e-01
-2.734959602355957031e+00,-2.309776306152343750e+00,-1.876098364591598511e-01
-2.738290786743164062e+00,-2.312589406967163086e+00,-6.256190687417984009e-02
-2.741559028625488281e+00,-2.315349817276000977e+00,6.263657659292221069e-02
-2.745197772979736328e+00,-2.318422794342041016e+00,1.883121430873870850e-01
-2.748540639877319336e+00,-2.321246147155761719e+00,3.147479295730590820e-01
-2.751728057861328125e+00,-2.323937892913818359e+00,4.422401785850524902e-01
-2.755459547042846680e+00,-2.327089309692382812e+00,5.712358951568603516e-01
-2.759046792984008789e+00,-2.330118656158447266e+00,7.019727230072021484e-01
-2.762295961380004883e+00,-2.332862854003906250e+00,8.347246050834655762e-01
-2.732349872589111328e+00,-2.375396013259887695e+00,-9.701167941093444824e-01
-2.735678911209106445e+00,-2.378290176391601562e+00,-8.368825316429138184e-01
-2.739483118057250977e+00,-2.381597280502319336e+00,-7.055960893630981445e-01
-2.742437601089477539e+00,-2.384166002273559570e+00,-5.755519866943359375e-01
-2.745892524719238281e+00,-2.387169361114501953e+00,-4.467479288578033447e-01
-2.749275445938110352e+00,-2.390110492706298828e+00,-3.187170624732971191e-01
-2.752660512924194336e+00,-2.393053293228149414e+00,-1.911541372537612915e-01
-2.756011962890625000e+00,-2.395967006683349609e+00,-6.374378502368927002e-02
-2.759337425231933594e+00,-2.398857831954956055e+00,6.382069736719131470e-02
-2.762688875198364258e+00,-2.401771545410156250e+00,1.918505430221557617e-01
-2.766009092330932617e+00,-2.404658079147338867e+00,3.206569552421569824e-01
-2.769893407821655273e+00,-2.408034801483154297e+00,4.506528079509735107e-01
-2.772995471954345703e+00,-2.410731792449951172e+00,5.819651484489440918e-01
-2.776674032211303711e+00,-2.413929700851440430e+00,7.151751518249511719e-01
-2.780047893524169922e+00,-2.416862964630126953e+00,8.504555821418762207e-01
-2.745434284210205078e+00,-2.456637144088745117e+00,-9.871457815170288086e-01
-2.749567508697509766e+00,-2.460335493087768555e+00,-8.518169522285461426e-01
-2.752555370330810547e+00,-2.463009119033813477e+00,-7.179697751998901367e-01
-2.756084442138671875e+00,-2.466166734695434570e+00,-5.857642292976379395e-01
-2.759464025497436523e+00,-2.469191074371337891e+00,-4.546595513820648193e-01
-2.762801885604858398e+00,-2.472177743911743164e+00,-3.243540823459625244e-01
-2.766172409057617188e+00,-2.475193738937377930e+00,-1.945327967405319214e-01
-2.769540309906005859e+00,-2.478207349777221680e+00,-6.487046182155609131e-02
-2.772912979125976562e+00,-2.481225252151489258e+00,6.494946032762527466e-02
-2.776342630386352539e+00,-2.484294176101684570e+00,1.952480226755142212e-01
-2.779771804809570312e+00,-2.487362623214721680e+00,3.263463675975799561e-01
-2.783109903335571289e+00,-2.490349531173706055e+00,4.585555493831634521e-01
-2.787071704864501953e+00,-2.493894577026367188e+00,5.923501253128051758e-01
-2.789968252182006836e+00,-2.496486425399780273e+00,7.277284264564514160e-01
-2.793430805206298828e+00,-2.499584674835205078e+00,8.654058575630187988e-01
-2.766124963760375977e+00,-2.547370433807373047e+00,-1.007592320442199707e+00
-2.769259452819824219e+00,-2.550256967544555664e+00,-8.691371679306030273e-01
-2.772943496704101562e+00,-2.553649663925170898e+00,-7.327467203140258789e-01
-2.776366949081420898e+00,-2.556802511215209961e+00,-5.977918505668640137e-01
-2.779671669006347656e+00,-2.559845685958862305e+00,-4.639784991741180420e-01
-2.782966375350952148e+00,-2.562879800796508789e+00,-3.309941589832305908e-01
-2.786328077316284180e+00,-2.565975666046142578e+00,-1.985128521919250488e-01
-2.789720058441162109e+00,-2.569099426269531250e+00,-6.619767099618911743e-02
-2.793150663375854492e+00,-2.572258710861206055e+00,6.627907603979110718e-02
-2.796673059463500977e+00,-2.575502634048461914e+00,1.992498785257339478e-01
-2.800227880477905273e+00,-2.578776121139526367e+00,3.330471813678741455e-01
-2.803722143173217773e+00,-2.581994295120239258e+00,4.679929912090301514e-01
-2.807030916213989258e+00,-2.585041284561157227e+00,6.043941974639892578e-01
-2.810992956161499023e+00,-2.588689804077148438e+00,7.428011894226074219e-01
-2.814707517623901367e+00,-2.592110872268676758e+00,8.834011554718017578e-01
-2.781250476837158203e+00,-2.635853290557861328e+00,-1.026739597320556641e+00
-2.784376859664916992e+00,-2.638816356658935547e+00,-8.856454491615295410e-01
-2.788087368011474609e+00,-2.642333030700683594e+00,-7.466660737991333008e-01
-2.791567325592041016e+00,-2.645630836486816406e+00,-6.091558337211608887e-01
-2.794958353042602539e+00,-2.648844718933105469e+00,-4.728102684020996094e-01
-2.798607110977172852e+00,-2.652302742004394531e+00,-3.373350799083709717e-01
-2.801957845687866211e+00,-2.655478239059448242e+00,-2.023136317729949951e-01
-2.805368900299072266e+00,-2.658710956573486328e+00,-6.746511161327362061e-02
-2.808847904205322266e+00,-2.662008047103881836e+00,6.754877418279647827e-02
-2.812052965164184570e+00,-2.665045738220214844e+00,2.030425518751144409e-01
-2.815557718276977539e+00,-2.668367385864257812e+00,3.393782675266265869e-01
-2.819033145904541016e+00,-2.671660900115966797e+00,4.768828749656677246e-01
-2.822352647781372070e+00,-2.674807071685791016e+00,6.158736348152160645e-01
-2.826361179351806641e+00,-2.678606033325195312e+00,7.569160461425781250e-01
-2.830152273178100586e+00,-2.682199001312255859e+00,9.002055525779724121e-01
-2.797381639480590820e+00,-2.728189945220947266e+00,-1.047003269195556641e+00
-2.801361083984375000e+00,-2.732070922851562500e+00,-9.033936858177185059e-01
-2.804959535598754883e+00,-2.735580444335937500e+00,-7.615926265716552734e-01
-2.808349609375000000e+00,-2.738886594772338867e+00,-6.213089227676391602e-01
-2.811677455902099609e+00,-2.742132186889648438e+00,-4.822288155555725098e-01
-2.815293550491333008e+00,-2.745658874511718750e+00,-3.440482616424560547e-01
-2.818635702133178711e+00,-2.748918294906616211e+00,-2.063377201557159424e-01
-2.822066783905029297e+00,-2.752264738082885742e+00,-6.880700588226318359e-02
-2.825595378875732422e+00,-2.755705833435058594e+00,6.889303773641586304e-02
-2.828873395919799805e+00,-2.758902788162231445e+00,2.070871591567993164e-01
-2.832483053207397461e+00,-2.762423276901245117e+00,3.461489379405975342e-01
-2.836090803146362305e+00,-2.765941619873046875e+00,4.864159226417541504e-01
-2.839566946029663086e+00,-2.769331932067871094e+00,6.282153129577636719e-01
-2.842751979827880859e+00,-2.772438049316406250e+00,7.718539237976074219e-01
-2.846612215042114258e+00,-2.776202678680419922e+00,9.179864525794982910e-01
-2.815600395202636719e+00,-2.825704336166381836e+00,-1.068850636482238770e+00
-2.818589448928833008e+00,-2.828703880310058594e+00,-9.219120144844055176e-01
-2.822229385375976562e+00,-2.832356929779052734e+00,-7.772095799446105957e-01
-2.826248168945312500e+00,-2.836390256881713867e+00,-6.341856718063354492e-01
-2.829516172409057617e+00,-2.839669942855834961e+00,-4.922089874744415283e-01
-2.833102941513061523e+00,-2.843269586563110352e+00,-3.511621654033660889e-01
-2.836438417434692383e+00,-2.846616983413696289e+00,-2.106021046638488770e-01
-2.839890956878662109e+00,-2.850081920623779297e+00,-7.022903859615325928e-02
-2.843469142913818359e+00,-2.853672981262207031e+00,7.031752914190292358e-02
-2.846820592880249023e+00,-2.857036352157592773e+00,2.113729566335678101e-01
-2.850534677505493164e+00,-2.860763788223266602e+00,3.533228337764739990e-01
-2.853551387786865234e+00,-2.863791465759277344e+00,4.963900148868560791e-01
-2.857028245925903320e+00,-2.867280960083007812e+00,6.410924196243286133e-01
-2.861263751983642578e+00,-2.871531486511230469e+00,7.879592180252075195e-01
-2.865333080291748047e+00,-2.875615596771240234e+00,9.372011423110961914e-01
-2.789297103881835938e+00,-2.880610704421997070e+00,-1.074407696723937988e+00
-2.837857484817504883e+00,-2.930760622024536133e+00,-9.418387413024902344e-01
-2.841397047042846680e+00,-2.934416055679321289e+00,-7.939735651016235352e-01
-2.844779491424560547e+00,-2.937909364700317383e+00,-6.477136015892028809e-01
-2.848557233810424805e+00,-2.941810607910156250e+00,-5.027945637702941895e-01
-2.851871490478515625e+00,-2.945233583450317383e+00,-3.586770892143249512e-01
-2.855448007583618164e+00,-2.948926925659179688e+00,-2.151255011558532715e-01
-2.858923435211181641e+00,-2.952516317367553711e+00,-7.173743844032287598e-02
-2.862305402755737305e+00,-2.956008911132812500e+00,7.182230055332183838e-02
-2.865976572036743164e+00,-2.959800481796264648e+00,2.159187197685241699e-01
-2.869224071502685547e+00,-2.963154077529907227e+00,3.608594834804534912e-01
-2.872930288314819336e+00,-2.966981649398803711e+00,5.070966482162475586e-01
-2.876556396484375000e+00,-2.970726490020751953e+00,6.549487113952636719e-01
-2.879939794540405273e+00,-2.974220514297485352e+00,8.047436475753784180e-01
-2.884065389633178711e+00,-2.978481292724609375e+00,9.571743607521057129e-01
-2.738655328750610352e+00,-2.910534143447875977e+00,-1.070838093757629395e+00
-2.858402490615844727e+00,-3.037796735763549805e+00,-9.629894495010375977e-01
-2.861847400665283203e+00,-3.041457653045654297e+00,-8.117695450782775879e-01
-2.865155696868896484e+00,-3.044973850250244141e+00,-6.622085571289062500e-01
-2.868888854980468750e+00,-3.048941135406494141e+00,-5.140336155891418457e-01
-2.872176408767700195e+00,-3.052435159683227539e+00,-3.666882216930389404e-01
-2.875754833221435547e+00,-3.056237936019897461e+00,-2.199285775423049927e-01
-2.879254579544067383e+00,-3.059957504272460938e+00,-7.333909720182418823e-02
-2.882683992385864258e+00,-3.063602209091186523e+00,7.342645525932312012e-02
-2.886431455612182617e+00,-3.067584991455078125e+00,2.207451015710830688e-01
-2.889773845672607422e+00,-3.071136951446533203e+00,3.689348399639129639e-01
-2.893604993820190430e+00,-3.075208425521850586e+00,5.184621214866638184e-01
-2.897379636764526367e+00,-3.079220056533813477e+00,6.696562767028808594e-01
-2.900929450988769531e+00,-3.082992792129516602e+00,8.228552937507629395e-01
-2.904057979583740234e+00,-3.086317777633666992e+00,9.783706665039062500e-01
-2.706526279449462891e+00,-2.960157871246337891e+00,-1.074732422828674316e+00
-2.879427194595336914e+00,-3.149261474609375000e+00,-9.851579666137695312e-01
-2.882939577102661133e+00,-3.153102874755859375e+00,-8.304690718650817871e-01
-2.886916875839233398e+00,-3.157452821731567383e+00,-6.776141524314880371e-01
-2.890194177627563477e+00,-3.161037206649780273e+00,-5.259039998054504395e-01
-2.893873453140258789e+00,-3.165061473846435547e+00,-3.752036094665527344e-01
-2.897455453872680664e+00,-3.168978929519653320e+00,-2.250340282917022705e-01
-2.900981187820434570e+00,-3.172835111618041992e+00,-7.504159212112426758e-02
-2.904459476470947266e+00,-3.176639556884765625e+00,7.513157278299331665e-02
-2.907866954803466797e+00,-3.180366039276123047e+00,2.258426398038864136e-01
-2.911720037460327148e+00,-3.184580564498901367e+00,3.775174915790557861e-01
-2.914930105209350586e+00,-3.188091278076171875e+00,5.304049849510192871e-01
-2.918688535690307617e+00,-3.192201852798461914e+00,6.850715875625610352e-01
-2.922248840332031250e+00,-3.196095943450927734e+00,8.417927026748657227e-01
-2.926615476608276367e+00,-3.200871706008911133e+00,1.001302838325500488e+00
-2.656032800674438477e+00,-2.989753484725952148e+00,-1.071565151214599609e+00
-2.902811527252197266e+00,-3.267539024353027344e+00,-1.009056925773620605e+00
-2.906244277954101562e+00,-3.271403074264526367e+00,-8.505837917327880859e-01
-2.910167932510375977e+00,-3.275819778442382812e+00,-6.940060853958129883e-01
-2.913404226303100586e+00,-3.279462575912475586e+00,-5.386134982109069824e-01
-2.917069673538208008e+00,-3.283588647842407227e+00,-3.842654526233673096e-01
-2.920657873153686523e+00,-3.287627696990966797e+00,-2.304672300815582275e-01
-2.924212217330932617e+00,-3.291628360748291016e+00,-7.685340195894241333e-02
