2.828412055969238281e+00,-9.436850547790527344e-01,5.204546079039573669e-02
2.831724643707275391e+00,-9.447903037071228027e-01,1.564463675022125244e-01
2.835026025772094727e+00,-9.458917379379272461e-01,2.614734172821044922e-01
2.838223934173583984e+00,-9.469587206840515137e-01,3.673745691776275635e-01
2.842038631439208984e+00,-9.482314586639404297e-01,4.745272696018218994e-01
2.844767570495605469e+00,-9.491419792175292969e-01,5.829317569732666016e-01
2.849188804626464844e+00,-9.506171345710754395e-01,6.934322118759155273e-01
3.008280038833618164e+00,-9.560722708702087402e-01,-8.457943201065063477e-01
3.011554241180419922e+00,-9.571129679679870605e-01,-7.295396327972412109e-01
3.015423297882080078e+00,-9.583425521850585938e-01,-6.150276064872741699e-01
3.018999576568603516e+00,-9.594790935516357422e-01,-5.017294883728027344e-01
3.022435426712036133e+00,-9.605711102485656738e-01,-3.893990516662597656e-01
3.025849580764770508e+00,-9.616562128067016602e-01,-2.777750492095947266e-01
3.029325962066650391e+00,-9.627609848976135254e-01,-1.665849834680557251e-01
3.032831907272338867e+00,-9.638752341270446777e-01,-5.554741993546485901e-02
3.036359310150146484e+00,-9.649963378906250000e-01,5.561202764511108398e-02
3.039976119995117188e+00,-9.661457538604736328e-01,1.671706438064575195e-01
3.043617248535156250e+00,-9.673029184341430664e-01,2.794061005115509033e-01
3.047181606292724609e+00,-9.684358239173889160e-01,3.925872743129730225e-01
3.050534009933471680e+00,-9.695012569427490234e-01,5.069702863693237305e-01
3.054575920104980469e+00,-9.707857370376586914e-01,6.230131983757019043e-01
3.058339595794677734e+00,-9.719818830490112305e-01,7.408731579780578613e-01
3.830890417098999023e+00,-1.157410740852355957e+00,-1.072308063507080078e+00
4.535181045532226562e+00,-1.370195031166076660e+00,-1.093770384788513184e+00
5.607644081115722656e+00,-1.694213867187500000e+00,-1.138675928115844727e+00
7.244613647460937500e+00,-2.188784360885620117e+00,-1.198657751083374023e+00
8.583665847778320312e+00,-2.593346834182739258e+00,-1.100991606712341309e+00
8.593251228332519531e+00,-2.596242666244506836e+00,-7.853744029998779297e-01
8.603105545043945312e+00,-2.599220037460327148e+00,-4.709973633289337158e-01
8.613131523132324219e+00,-2.602249145507812500e+00,-1.570543646812438965e-01
8.623313903808593750e+00,-2.605325222015380859e+00,1.572400331497192383e-01
8.633822441101074219e+00,-2.608500242233276367e+00,4.726790189743041992e-01
8.642802238464355469e+00,-2.611213445663452148e+00,7.899031043052673340e-01
8.652850151062011719e+00,-2.614249229431152344e+00,1.109865665435791016e+00
3.832140684127807617e+00,-1.098188161849975586e+00,-1.068148851394653320e+00
4.572895526885986328e+00,-1.310468554496765137e+00,-1.098229765892028809e+00
5.608935832977294922e+00,-1.607369780540466309e+00,-1.134150266647338867e+00
7.246079921722412109e+00,-2.076531171798706055e+00,-1.193860411643981934e+00
9.106563568115234375e+00,-2.609695672988891602e+00,-1.163151264190673828e+00
9.117832183837890625e+00,-2.612924814224243164e+00,-8.298149704933166504e-01
9.128161430358886719e+00,-2.615885019302368164e+00,-4.976419508457183838e-01
9.138769149780273438e+00,-2.618924856185913086e+00,-1.659384667873382568e-01
9.149636268615722656e+00,-2.622039079666137695e+00,1.661357879638671875e-01
9.159690856933593750e+00,-2.624920368194580078e+00,4.993607997894287109e-01
9.170729637145996094e+00,-2.628083944320678711e+00,8.346291780471801758e-01
9.181723594665527344e+00,-2.631234407424926758e+00,1.172751188278198242e+00
3.858857631683349609e+00,-1.046319127082824707e+00,-1.071311593055725098e+00
4.573929309844970703e+00,-1.240208864212036133e+00,-1.094102859497070312e+00
5.609982013702392578e+00,-1.521131873130798340e+00,-1.129843592643737793e+00
7.247241020202636719e+00,-1.965070247650146484e+00,-1.189295649528503418e+00
9.698319435119628906e+00,-2.629673719406127930e+00,-1.233800172805786133e+00
9.710101127624511719e+00,-2.632868289947509766e+00,-8.801975250244140625e-01
9.720968246459960938e+00,-2.635814905166625977e+00,-5.278491973876953125e-01
9.732229232788085938e+00,-2.638868570327758789e+00,-1.760104447603225708e-01
9.743858337402343750e+00,-2.642021656036376953e+00,1.762207448482513428e-01
9.754712104797363281e+00,-2.644964456558227539e+00,5.296815037727355957e-01
9.766744613647460938e+00,-2.648227214813232422e+00,8.853321075439453125e-01
9.778785705566406250e+00,-2.651491880416870117e+00,1.244036912918090820e+00
3.885782480239868164e+00,-9.941423535346984863e-01,-1.074725985527038574e+00
4.611877918243408203e+00,-1.179907321929931641e+00,-1.099027872085571289e+00
5.667359352111816406e+00,-1.449942708015441895e+00,-1.137103080749511719e+00
7.343608379364013672e+00,-1.878795981407165527e+00,-1.200573801994323730e+00
1.022477054595947266e+01,-2.615915298461914062e+00,-1.295878052711486816e+00
1.038329601287841797e+01,-2.656472444534301758e+00,-9.376782178878784180e-01
1.039569377899169922e+01,-2.659644365310668945e+00,-5.623621344566345215e-01
1.040769290924072266e+01,-2.662714481353759766e+00,-1.875179260969161987e-01
1.041932201385498047e+01,-2.665689468383789062e+00,1.877274364233016968e-01
1.043193149566650391e+01,-2.668915748596191406e+00,5.643224716186523438e-01
1.044300937652587891e+01,-2.671749591827392578e+00,9.430707693099975586e-01
3.886543750762939453e+00,-9.352822899818420410e-01,-1.071124196052551270e+00
4.612574577331542969e+00,-1.109998941421508789e+00,-1.095295548439025879e+00
5.668009757995605469e+00,-1.363985419273376465e+00,-1.133200287818908691e+00
7.344294071197509766e+00,-1.767377018928527832e+00,-1.196427583694458008e+00
1.022567558288574219e+01,-2.460770845413208008e+00,-1.291396498680114746e+00
1.337805747985839844e+01,-3.219379663467407227e+00,-1.203839778900146484e+00
1.339472675323486328e+01,-3.223391294479370117e+00,-7.220270633697509766e-01
1.341099548339843750e+01,-3.227306127548217773e+00,-2.407722026109695435e-01
1.342690372467041016e+01,-3.231134176254272461e+00,2.410577982664108276e-01
1.344424247741699219e+01,-3.235306739807128906e+00,7.246960997581481934e-01
3.913582086563110352e+00,-8.827314972877502441e-01,-1.074983596801757812e+00
4.650872230529785156e+00,-1.049031615257263184e+00,-1.100711345672607422e+00
5.668517589569091797e+00,-1.278567552566528320e+00,-1.129527330398559570e+00
7.344800472259521484e+00,-1.656663060188293457e+00,-1.192525029182434082e+00
1.022634506225585938e+01,-2.306612491607666016e+00,-1.287179708480834961e+00
1.333440685272216797e+01,-3.007654190063476562e+00,-1.195915460586547852e+00
1.335079288482666016e+01,-3.011350154876708984e+00,-7.172619700431823730e-01
1.336688709259033203e+01,-3.014980077743530273e+00,-2.391810268163681030e-01
1.338272953033447266e+01,-3.018553495407104492e+00,2.394645065069198608e-01
1.340011119842529297e+01,-3.022474050521850586e+00,7.199115753173828125e-01
3.914122581481933594e+00,-8.241679668426513672e-01,-1.071781992912292480e+00
4.651331424713134766e+00,-9.793965816497802734e-01,-1.097389936447143555e+00
5.726662635803222656e+00,-1.205821156501770020e+00,-1.137557744979858398e+00
7.345169544219970703e+00,-1.546618223190307617e+00,-1.188868880271911621e+00
1.041913700103759766e+01,-2.193881034851074219e+00,-1.307359814643859863e+00
1.335397624969482422e+01,-2.811848402023315430e+00,-1.193938493728637695e+00
1.337028408050537109e+01,-2.815282344818115234e+00,-7.160708904266357422e-01
1.338640213012695312e+01,-2.818675994873046875e+00,-2.387838363647460938e-01
1.340236759185791016e+01,-2.822037696838378906e+00,2.390686273574829102e-01
1.341806507110595703e+01,-2.825343132019042969e+00,7.186298370361328125e-01
3.914584636688232422e+00,-7.659255862236022949e-01,-1.068797111511230469e+00
4.651708126068115234e+00,-9.101508259773254395e-01,-1.094293236732482910e+00
5.726959228515625000e+00,-1.120533823966979980e+00,-1.134314537048339844e+00
7.345437049865722656e+00,-1.437204480171203613e+00,-1.185461163520812988e+00
1.041951274871826172e+01,-2.038676500320434570e+00,-1.303611993789672852e+00
1.337345027923583984e+01,-2.616642475128173828e+00,-1.192209005355834961e+00
1.338968658447265625e+01,-2.619819164276123047e+00,-7.150284051895141602e-01
1.340582656860351562e+01,-2.622977018356323242e+00,-2.384362220764160156e-01
1.342191219329833984e+01,-2.626124382019042969e+00,2.387223094701766968e-01
1.343782329559326172e+01,-2.629237413406372070e+00,7.175990343093872070e-01
3.941757440567016602e+00,-7.128256559371948242e-01,-1.073320388793945312e+00
4.690401554107666016e+00,-8.482101559638977051e-01,-1.100426793098449707e+00
5.727194309234619141e+00,-1.035703301429748535e+00,-1.131308913230895996e+00
7.443723678588867188e+00,-1.346119761466979980e+00,-1.198091030120849609e+00
1.041981315612792969e+01,-1.884314417839050293e+00,-1.300141930580139160e+00
1.339289760589599609e+01,-2.421965837478637695e+00,-1.190730333328247070e+00
1.340906715393066406e+01,-2.424889802932739258e+00,-7.141367793083190918e-01
1.342523193359375000e+01,-2.427813053131103516e+00,-2.381388843059539795e-01
1.344143009185791016e+01,-2.430742263793945312e+00,2.384262084960937500e-01
1.345754241943359375e+01,-2.433655977249145508e+00,7.167184352874755859e-01
3.943118810653686523e+00,-6.549369692802429199e-01,-1.071028828620910645e+00
4.691891670227050781e+00,-7.793052792549133301e-01,-1.098046898841857910e+00
5.787898063659667969e+00,-9.613476991653442383e-01,-1.140465021133422852e+00
7.445854187011718750e+00,-1.236727952957153320e+00,-1.195462346076965332e+00
1.042282104492187500e+01,-1.731190681457519531e+00,-1.297292470932006836e+00
1.341377353668212891e+01,-2.227976322174072266e+00,-1.189629077911376953e+00
1.342989253997802734e+01,-2.230653762817382812e+00,-7.134723663330078125e-01
1.344608116149902344e+01,-2.233342647552490234e+00,-2.379173040390014648e-01
1.346238040924072266e+01,-2.236049890518188477e+00,2.382057160139083862e-01
1.347866630554199219e+01,-2.238754987716674805e+00,7.160634994506835938e-01
3.943353891372680664e+00,-5.971133708953857422e-01,-1.068661689758300781e+00
4.692038059234619141e+00,-7.104812264442443848e-01,-1.095589041709899902e+00
5.787950515747070312e+00,-8.764271736145019531e-01,-1.137887001037597656e+00
7.445852279663085938e+00,-1.127471208572387695e+00,-1.192748785018920898e+00
1.042286109924316406e+01,-1.578258037567138672e+00,-1.294353127479553223e+00
1.343302822113037109e+01,-2.034065723419189453e+00,-1.188632965087890625e+00
1.344909286499023438e+01,-2.036498069763183594e+00,-7.128707766532897949e-01
1.346530342102050781e+01,-2.038952827453613281e+00,-2.377167046070098877e-01
1.348170375823974609e+01,-2.041436195373535156e+00,2.380062192678451538e-01
1.349816894531250000e+01,-2.043929338455200195e+00,7.154720425605773926e-01
3.970741510391235352e+00,-5.432479977607727051e-01,-1.073866605758666992e+00
4.692180156707763672e+00,-6.419500112533569336e-01,-1.093364715576171875e+00
5.788013458251953125e+00,-7.918739914894104004e-01,-1.135554790496826172e+00
7.445878982543945312e+00,-1.018691062927246094e+00,-1.190295457839965820e+00
1.042295742034912109e+01,-1.425993204116821289e+00,-1.291697978973388672e+00
1.345242595672607422e+01,-1.840463161468505859e+00,-1.187896728515625000e+00
1.346844196319580078e+01,-1.842654347419738770e+00,-7.124254107475280762e-01
1.348467731475830078e+01,-1.844875574111938477e+00,-2.375681996345520020e-01
1.350117015838623047e+01,-1.847132086753845215e+00,2.378587722778320312e-01
1.351780223846435547e+01,-1.849407434463500977e+00,7.150363922119140625e-01
3.971710681915283203e+00,-4.855807721614837646e-01,-1.072139143943786621e+00
4.732291698455810547e+00,-5.785693526268005371e-01,-1.100669026374816895e+00
5.789227962493896484e+00,-7.077901959419250488e-01,-1.133689284324645996e+00
7.447405338287353516e+00,-9.105187058448791504e-01,-1.188334345817565918e+00
1.042515945434570312e+01,-1.274578571319580078e+00,-1.289577960968017578e+00
1.347246646881103516e+01,-1.647141814231872559e+00,-1.187462806701660156e+00
1.348844909667968750e+01,-1.649095773696899414e+00,-7.121621966361999512e-01
1.350470638275146484e+01,-1.651083469390869141e+00,-2.374803870916366577e-01
1.352128219604492188e+01,-1.653110027313232422e+00,2.377718687057495117e-01
1.353805255889892578e+01,-1.655160427093505859e+00,7.147811651229858398e-01
3.971845149993896484e+00,-4.279973804950714111e-01,-1.070412158966064453e+00
4.732360363006591797e+00,-5.099488496780395508e-01,-1.098874688148498535e+00
5.789232254028320312e+00,-6.238350868225097656e-01,-1.131825566291809082e+00
7.447383880615234375e+00,-8.025138974189758301e-01,-1.186376571655273438e+00
1.042521953582763672e+01,-1.123399019241333008e+00,-1.287464499473571777e+00
1.349195957183837891e+01,-1.453864216804504395e+00,-1.187225222587585449e+00
1.350790691375732422e+01,-1.455582737922668457e+00,-7.120165824890136719e-01
1.352418899536132812e+01,-1.457337260246276855e+00,-2.374318540096282959e-01
1.354084587097167969e+01,-1.459132075309753418e+00,2.377242892980575562e-01
1.355775547027587891e+01,-1.460954308509826660e+00,7.146441936492919922e-01
3.972577333450317383e+00,-3.706432878971099854e-01,-1.069070219993591309e+00
4.733163356781005859e+00,-4.416063129901885986e-01,-1.097481012344360352e+00
5.790155887603759766e+00,-5.402241945266723633e-01,-1.130378603935241699e+00
7.549423694610595703e+00,-7.043647170066833496e-01,-1.200902462005615234e+00
1.062693691253662109e+01,-9.914981126785278320e-01,-1.310488820075988770e+00
1.351154041290283203e+01,-1.260632991790771484e+00,-1.187238812446594238e+00
1.352746486663818359e+01,-1.262118697166442871e+00,-7.120223045349121094e-01
1.354377079010009766e+01,-1.263640046119689941e+00,-2.374337762594223022e-01
1.356049728393554688e+01,-1.265200614929199219e+00,2.377270013093948364e-01
1.357554435729980469e+01,-1.266604542732238770e+00,7.145529985427856445e-01
4.000244617462158203e+00,-3.155459165573120117e-01,-1.075190186500549316e+00
4.733211040496826172e+00,-3.733635246753692627e-01,-1.096140623092651367e+00
5.850447177886962891e+00,-4.614929556846618652e-01,-1.140742540359497070e+00
7.549437999725341797e+00,-5.955122113227844238e-01,-1.199426054954528809e+00
1.062708854675292969e+01,-8.382823467254638672e-01,-1.308893680572509766e+00
1.353127765655517578e+01,-1.067369580268859863e+00,-1.187509059906005859e+00
1.354718208312988281e+01,-1.068624138832092285e+00,-7.121821045875549316e-01
1.356350994110107422e+01,-1.069912195205688477e+00,-2.374870330095291138e-01
1.358030605316162109e+01,-1.071237087249755859e+00,2.377811074256896973e-01
1.359545707702636719e+01,-1.072432160377502441e+00,7.147199511528015137e-01
4.000774383544921875e+00,-2.580314278602600098e-01,-1.074229836463928223e+00
4.733795642852783203e+00,-3.053079545497894287e-01,-1.095151901245117188e+00
5.851137161254882812e+00,-3.773712813854217529e-01,-1.139707088470458984e+00
7.550347805023193359e+00,-4.869625270366668701e-01,-1.198340415954589844e+00
1.062850189208984375e+01,-6.854892373085021973e-01,-1.307725310325622559e+00
1.355051612854003906e+01,-8.739456534385681152e-01,-1.187977910041809082e+00
1.356641006469726562e+01,-8.749707341194152832e-01,-7.124615311622619629e-01
1.358276081085205078e+01,-8.760252594947814941e-01,-2.375802099704742432e-01
1.359961223602294922e+01,-8.771121501922607422e-01,2.378749698400497437e-01
1.361484622955322266e+01,-8.780946731567382812e-01,7.150052785873413086e-01
4.000854969024658203e+00,-2.005854099988937378e-01,-1.073370695114135742e+00
4.733859062194824219e+00,-2.373350411653518677e-01,-1.094268560409545898e+00
5.851192474365234375e+00,-2.933532595634460449e-01,-1.138783454895019531e+00
7.550457954406738281e+00,-3.785469830036163330e-01,-1.197375297546386719e+00
1.062882232666015625e+01,-5.328827500343322754e-01,-1.306692481040954590e+00
1.357061386108398438e+01,-6.803712844848632812e-01,-1.188764333724975586e+00
1.358650112152099609e+01,-6.811678409576416016e-01,-7.129316329956054688e-01
1.360287666320800781e+01,-6.819888353347778320e-01,-2.377369701862335205e-01
1.361978244781494141e+01,-6.828364133834838867e-01,2.380324304103851318e-01
1.363509464263916016e+01,-6.836041212081909180e-01,7.154814600944519043e-01
4.001204013824462891e+00,-1.432290375232696533e-01,-1.072804331779479980e+00
4.734255790710449219e+00,-1.694697290658950806e-01,-1.093687534332275391e+00
5.851676464080810547e+00,-2.094694525003433228e-01,-1.138177514076232910e+00
7.551129341125488281e+00,-2.703039050102233887e-01,-1.196745634078979492e+00
1.062992954254150391e+01,-3.805141150951385498e-01,-1.306025266647338867e+00
1.358959484100341797e+01,-4.864597320556640625e-01,-1.189695239067077637e+00
1.360548400878906250e+01,-4.870285093784332275e-01,-7.134888172149658203e-01
1.362188148498535156e+01,-4.876154959201812744e-01,-2.379227727651596069e-01
1.363883113861083984e+01,-4.882222414016723633e-01,2.382188141345977783e-01
1.365420150756835938e+01,-4.887724220752716064e-01,7.160436511039733887e-01
4.001296520233154297e+00,-8.591593056917190552e-02,-1.072389602661132812e+00
4.734361171722412109e+00,-1.016563177108764648e-01,-1.093263626098632812e+00
5.851815223693847656e+00,-1.256503164768218994e-01,-1.137738108634948730e+00
7.551377296447753906e+00,-1.621433496475219727e-01,-1.196294546127319336e+00
1.063047790527343750e+01,-2.282578647136688232e-01,-1.305557370185852051e+00
1.361012935638427734e+01,-2.922370135784149170e-01,-1.191004753112792969e+00
1.362602710723876953e+01,-2.925783693790435791e-01,-7.142733931541442871e-01
1.364245033264160156e+01,-2.929310202598571777e-01,-2.381843924522399902e-01
1.365944004058837891e+01,-2.932958304882049561e-01,2.384810149669647217e-01
1.367486095428466797e+01,-2.936269342899322510e-01,7.168332338333129883e-01
4.001479148864746094e+00,-2.863604016602039337e-02,-1.072218894958496094e+00
4.774343490600585938e+00,-3.416693955659866333e-02,-1.102270603179931641e+00
5.852115154266357422e+00,-4.187986254692077637e-02,-1.137563347816467285e+00
7.551839351654052734e+00,-5.404371023178100586e-02,-1.196122646331787109e+00
1.063131999969482422e+01,-7.608158886432647705e-02,-1.305393457412719727e+00
1.362890434265136719e+01,-9.753338992595672607e-02,-1.192403316497802734e+00
1.364481830596923828e+01,-9.764727950096130371e-02,-7.151119112968444824e-01
1.366126251220703125e+01,-9.776496142148971558e-02,-2.384639829397201538e-01
1.367828273773193359e+01,-9.788676351308822632e-02,2.387610673904418945e-01
1.369373607635498047e+01,-9.799735993146896362e-02,7.176756262779235840e-01
4.001593112945556641e+00,2.863685414195060730e-02,-1.072249412536621094e+00
4.774505615234375000e+00,3.416809812188148499e-02,-1.102308034896850586e+00
5.852352142333984375e+00,4.188156127929687500e-02,-1.137609481811523438e+00
7.552246570587158203e+00,5.404662340879440308e-02,-1.196187138557434082e+00
1.063212680816650391e+01,7.608736306428909302e-02,-1.305492401123046875e+00
1.364992046356201172e+01,9.768379479646682739e-02,-1.194242119789123535e+00
1.366585731506347656e+01,9.779784828424453735e-02,-7.162145376205444336e-01
1.368232631683349609e+01,9.791570156812667847e-02,-2.388316541910171509e-01
1.369937229156494141e+01,9.803768992424011230e-02,2.391292005777359009e-01
1.371485137939453125e+01,9.814845770597457886e-02,7.187822461128234863e-01
4.001613616943359375e+00,8.592274039983749390e-02,-1.072474598884582520e+00
4.734803676605224609e+00,1.016658097505569458e-01,-1.093365788459777832e+00
5.852475166320800781e+00,1.256644874811172485e-01,-1.137866377830505371e+00
7.552508831024169922e+00,1.621676534414291382e-01,-1.196473836898803711e+00
1.063271713256835938e+01,2.283059656620025635e-01,-1.305832505226135254e+00
1.366850471496582031e+01,2.934904694557189941e-01,-1.196113109588623047e+00
1.368447017669677734e+01,2.938332557678222656e-01,-7.173369526863098145e-01
1.370096397399902344e+01,2.941873967647552490e-01,-2.392059862613677979e-01
1.371802520751953125e+01,2.945537567138671875e-01,2.395038604736328125e-01
1.373351192474365234e+01,2.948862910270690918e-01,7.199076414108276367e-01
4.001749038696289062e+00,1.432485431432723999e-01,-1.072950482368469238e+00
4.735017776489257812e+00,1.694969981908798218e-01,-1.093863487243652344e+00
5.852811813354492188e+00,2.095100879669189453e-01,-1.138398289680480957e+00
7.553075313568115234e+00,2.703735530376434326e-01,-1.197054028511047363e+00
1.063378143310546875e+01,3.806520104408264160e-01,-1.306498527526855469e+00
1.369000434875488281e+01,4.900540411472320557e-01,-1.198485493659973145e+00
1.370600795745849609e+01,4.906269311904907227e-01,-7.187604308128356934e-01
1.372252655029296875e+01,4.912182092666625977e-01,-2.396806478500366211e-01
1.373959922790527344e+01,4.918293654918670654e-01,2.399788498878479004e-01
1.375508213043212891e+01,4.923835992813110352e-01,7.213339209556579590e-01
4.001603126525878906e+00,2.006229162216186523e-01,-1.073571443557739258e+00
4.734905242919921875e+00,2.373874783515930176e-01,-1.094510316848754883e+00
5.852750301361083984e+00,2.934313416481018066e-01,-1.139086604118347168e+00
7.553127765655517578e+00,3.786808550357818604e-01,-1.197798728942871094e+00
1.063410758972167969e+01,5.331477522850036621e-01,-1.307342290878295898e+00
1.370838165283203125e+01,6.872783899307250977e-01,-1.200832486152648926e+00
1.372442722320556641e+01,6.880828738212585449e-01,-7.201691269874572754e-01
1.374096679687500000e+01,6.889120936393737793e-01,-2.401503771543502808e-01
1.375804328918457031e+01,6.897682547569274902e-01,2.404488176107406616e-01
1.377350902557373047e+01,6.905435919761657715e-01,7.227445840835571289e-01
4.001750469207763672e+00,2.580944001674652100e-01,-1.074491977691650391e+00
4.735160350799560547e+00,3.053959608078002930e-01,-1.095467567443847656e+00
5.853170394897460938e+00,3.775024116039276123e-01,-1.140103220939636230e+00
7.553832054138183594e+00,4.871872365474700928e-01,-1.198893427848815918e+00
1.063539886474609375e+01,6.859340667724609375e-01,-1.308573961257934570e+00
1.373032665252685547e+01,8.855425715446472168e-01,-1.203741908073425293e+00
1.374642753601074219e+01,8.865810036659240723e-01,-7.219154834747314453e-01
1.376299381256103516e+01,8.876494765281677246e-01,-2.407327294349670410e-01
1.378006649017333984e+01,8.887506127357482910e-01,2.410313487052917480e-01
1.379550075531005859e+01,8.897460103034973145e-01,7.244926095008850098e-01
4.001423358917236328e+00,3.156388998031616211e-01,-1.075507044792175293e+00
4.734858989715576172e+00,3.734935224056243896e-01,-1.096522331237792969e+00
5.852902412414550781e+00,4.616866409778594971e-01,-1.141221284866333008e+00
7.553645610809326172e+00,5.958440899848937988e-01,-1.200094461441040039e+00
1.063541889190673828e+01,8.389394879341125488e-01,-1.309919714927673340e+00
1.374844264984130859e+01,1.084499955177307129e+00,-1.206567525863647461e+00
1.376459884643554688e+01,1.085774302482604980e+00,-7.236117720603942871e-01
1.378118515014648438e+01,1.087082743644714355e+00,-2.412983626127243042e-01
1.379824733734130859e+01,1.088428616523742676e+00,2.415971010923385620e-01
1.381363868713378906e+01,1.089642763137817383e+00,7.261898517608642578e-01
3.973964214324951172e+00,3.707726895809173584e-01,-1.069443464279174805e+00
4.735129833221435547e+00,4.417898058891296387e-01,-1.097936987876892090e+00
5.793071746826171875e+00,5.404962897300720215e-01,-1.130947947502136230e+00
7.554447650909423828e+00,7.048334479331970215e-01,-1.201701641082763672e+00
1.063688087463378906e+01,9.924259185791015625e-01,-1.311715006828308105e+00
1.377076053619384766e+01,1.284818291664123535e+00,-1.210016131401062012e+00
1.378698635101318359e+01,1.286332130432128906e+00,-7.256823182106018066e-01
1.380360126495361328e+01,1.287882328033447266e+00,-2.419888228178024292e-01
1.382064533233642578e+01,1.289472579956054688e+00,2.422876209020614624e-01
1.383597755432128906e+01,1.290903091430664062e+00,7.282609939575195312e-01
3.973431825637817383e+00,4.281683862209320068e-01,-1.070839762687683105e+00
4.734610557556152344e+00,5.101913213729858398e-01,-1.099397182464599609e+00
5.792565822601318359e+00,6.241943240165710449e-01,-1.132477402687072754e+00
7.452976226806640625e+00,8.031165599822998047e-01,-1.187267422676086426e+00
1.043616867065429688e+01,1.124578833580017090e+00,-1.288816571235656738e+00
1.378852462768554688e+01,1.485821485519409180e+00,-1.213321447372436523e+00
1.380481910705566406e+01,1.487577319145202637e+00,-7.276671528816223145e-01
1.382145500183105469e+01,1.489369869232177734e+00,-2.426506876945495605e-01
1.383847427368164062e+01,1.491203904151916504e+00,2.429494708776473999e-01
1.385575103759765625e+01,1.493065595626831055e+00,7.303518056869506836e-01
3.973521947860717773e+00,4.858022332191467285e-01,-1.072628140449523926e+00
4.734860897064208984e+00,5.788834095001220703e-01,-1.101266503334045410e+00
5.793032646179199219e+00,7.082553505897521973e-01,-1.134434342384338379e+00
7.453790664672851562e+00,9.112994074821472168e-01,-1.189353227615356445e+00
1.043766117095947266e+01,1.276106953620910645e+00,-1.291124463081359863e+00
1.381110191345214844e+01,1.688543438911437988e+00,-1.217310190200805664e+00
1.382748222351074219e+01,1.690546035766601562e+00,-7.300624251365661621e-01
1.384414482116699219e+01,1.692583203315734863e+00,-2.434494197368621826e-01
1.386113262176513672e+01,1.694660067558288574e+00,2.437481433153152466e-01
1.387831878662109375e+01,1.696761369705200195e+00,7.327465415000915527e-01
3.972752332687377930e+00,5.435230731964111328e-01,-1.074410319328308105e+00
4.694984436035156250e+00,6.423336863517761230e-01,-1.094018220901489258e+00
5.792235851287841797e+00,7.924516797065734863e-01,-1.136383175849914551e+00
7.452968120574951172e+00,1.019660949707031250e+00,-1.191428661346435547e+00
1.043683815002441406e+01,1.427892327308654785e+00,-1.293418288230895996e+00
1.382839202880859375e+01,1.891900062561035156e+00,-1.221095800399780273e+00
1.384485054016113281e+01,1.894151926040649414e+00,-7.323359251022338867e-01
1.386153411865234375e+01,1.896434426307678223e+00,-2.442075312137603760e-01
1.387848377227783203e+01,1.898753285408020020e+00,2.445061355829238892e-01
1.389557361602783203e+01,1.901091456413269043e+00,7.350189685821533203e-01
3.945558071136474609e+00,5.974471569061279297e-01,-1.069259047508239746e+00
4.695155620574951172e+00,7.109532356262207031e-01,-1.096316933631896973e+00
5.792644023895263672e+00,8.771379590034484863e-01,-1.138809680938720703e+00
7.453734874725341797e+00,1.128664731979370117e+00,-1.194011449813842773e+00
1.043829536437988281e+01,1.580595016479492188e+00,-1.296269774436950684e+00
1.385107707977294922e+01,2.097367763519287109e+00,-1.225624442100524902e+00
1.386763572692871094e+01,2.099875211715698242e+00,-7.350557446479797363e-01
1.388434696197509766e+01,2.102405548095703125e+00,-2.451144903898239136e-01
1.390124988555908203e+01,2.104965209960937500e+00,2.454129010438919067e-01
1.391822242736816406e+01,2.107535123825073242e+00,7.377370595932006836e-01
3.945544719696044922e+00,6.553398966789245605e-01,-1.071687698364257812e+00
4.695322990417480469e+00,7.798752188682556152e-01,-1.098850011825561523e+00
5.793061733245849609e+00,9.622053503990173340e-01,-1.141482472419738770e+00
7.454528808593750000e+00,1.238168716430664062e+00,-1.196855068206787109e+00
1.043980693817138672e+01,1.734012007713317871e+00,-1.299406647682189941e+00
1.387392044067382812e+01,2.304405212402343750e+00,-1.230438232421875000e+00
1.389058780670166016e+01,2.307173490524291992e+00,-7.379471063613891602e-01
1.390732574462890625e+01,2.309953689575195312e+00,-2.460786551237106323e-01
1.392417621612548828e+01,2.312752485275268555e+00,2.463768124580383301e-01
1.394101619720458984e+01,2.315549373626708984e+00,7.406261563301086426e-01
3.944379329681396484e+00,7.132998108863830566e-01,-1.074034333229064941e+00
4.694110393524169922e+00,8.488808870315551758e-01,-1.101296901702880859e+00
5.732699871063232422e+00,1.036698937416076660e+00,-1.132396459579467773e+00
7.453100681304931641e+00,1.347815513610839844e+00,-1.199600219726562500e+00
1.043817520141601562e+01,1.887634992599487305e+00,-1.302433013916015625e+00
1.389033794403076172e+01,2.511922597885131836e+00,-1.234956502914428711e+00
1.390710067749023438e+01,2.514954090118408203e+00,-7.406609058380126953e-01
1.392385864257812500e+01,2.517984628677368164e+00,-2.469836175441741943e-01
1.394065189361572266e+01,2.521021366119384766e+00,2.472814917564392090e-01
1.395735549926757812e+01,2.524042129516601562e+00,7.433373928070068359e-01
3.917388677597045898e+00,7.664741873741149902e-01,-1.069562673568725586e+00
4.655663490295410156e+00,9.109246730804443359e-01,-1.095223665237426758e+00
5.732925891876220703e+00,1.121701359748840332e+00,-1.135496377944946289e+00
7.355339050292968750e+00,1.439141750335693359e+00,-1.187059164047241211e+00
1.043942832946777344e+01,2.042572975158691406e+00,-1.306103587150573730e+00
1.391298961639404297e+01,2.722208261489868164e+00,-1.240307569503784180e+00
1.392987346649169922e+01,2.725511789321899414e+00,-7.438752055168151855e-01
1.394665908813476562e+01,2.728796005249023438e+00,-2.480554729700088501e-01
1.396338653564453125e+01,2.732068777084350586e+00,2.483529746532440186e-01
1.397993183135986328e+01,2.735306024551391602e+00,7.465483546257019043e-01
3.917144536972045898e+00,8.248043060302734375e-01,-1.072609543800354004e+00
4.655594348907470703e+00,9.802941679954528809e-01,-1.098395705223083496e+00
5.733090400695800781e+00,1.207174539566040039e+00,-1.138834595680236816e+00
7.355843067169189453e+00,1.548865675926208496e+00,-1.190596461296081543e+00
1.044060420989990234e+01,2.198401212692260742e+00,-1.310053467750549316e+00
1.393562412261962891e+01,2.934321641921997070e+00,-1.245941996574401855e+00
1.395263576507568359e+01,2.937903642654418945e+00,-7.472597956657409668e-01
1.396944808959960938e+01,2.941443920135498047e+00,-2.491841018199920654e-01
1.398610210418701172e+01,2.944950342178344727e+00,2.494811713695526123e-01
1.400247478485107422e+01,2.948397874832153320e+00,7.499290108680725098e-01
3.916821956634521484e+00,8.834622502326965332e-01,-1.075873613357543945e+00
4.655443668365478516e+00,1.050062656402587891e+00,-1.101793289184570312e+00
5.675300121307373047e+00,1.280097365379333496e+00,-1.130878806114196777e+00
7.356243610382080078e+00,1.659244179725646973e+00,-1.194382905960083008e+00
1.024851894378662109e+01,2.311613798141479492e+00,-1.289970636367797852e+00
1.395817184448242188e+01,3.148347854614257812e+00,-1.251858592033386230e+00
1.397531700134277344e+01,3.152215242385864258e+00,-7.508140802383422852e-01
1.399215602874755859e+01,3.156013011932373047e+00,-2.503693103790283203e-01
1.400872993469238281e+01,3.159751653671264648e+00,2.506658732891082764e-01
1.402691364288330078e+01,3.163852930068969727e+00,7.535860538482666016e-01
3.889954328536987305e+00,9.361029863357543945e-01,-1.072064161300659180e+00
4.617373466491699219e+00,1.111153721809387207e+00,-1.096435070037841797e+00
5.675247669219970703e+00,1.365727186203002930e+00,-1.134647369384765625e+00
7.356505393981933594e+00,1.770315527915954590e+00,-1.198416829109191895e+00
1.024934482574462891e+01,2.466466665267944336e+00,-1.294385671615600586e+00
1.398055839538574219e+01,3.364369392395019531e+00,-1.258056521415710449e+00
1.399784278869628906e+01,3.368528604507446289e+00,-7.545372843742370605e-01
1.401470756530761719e+01,3.372587203979492188e+00,-2.516108453273773193e-01
1.403119468688964844e+01,3.376554727554321289e+00,2.519068419933319092e-01
1.404917144775390625e+01,3.380880832672119141e+00,7.573041319847106934e-01
3.889406919479370117e+00,9.950696825981140137e-01,-1.075728416442871094e+00
4.616978645324707031e+00,1.181212306022644043e+00,-1.100243449211120605e+00
5.675047874450683594e+00,1.451909780502319336e+00,-1.138645648956298828e+00
7.356587886810302734e+00,1.882116675376892090e+00,-1.202695727348327637e+00
1.024993324279785156e+01,2.622353076934814453e+00,-1.299067258834838867e+00
1.400270366668701172e+01,3.582465171813964844e+00,-1.264533996582031250e+00
1.402013301849365234e+01,3.586924552917480469e+00,-7.584286332130432129e-01
1.403702545166015625e+01,3.591246128082275391e+00,-2.529084682464599609e-01
1.405341815948486328e+01,3.595440387725830078e+00,2.532038390636444092e-01
1.407117366790771484e+01,3.599982738494873047e+00,7.611896991729736328e-01
3.862643718719482422e+00,1.047345638275146484e+00,-1.072362661361694336e+00
4.579244613647460938e+00,1.241650104522705078e+00,-1.095374226570129395e+00
5.617970943450927734e+00,1.523298025131225586e+00,-1.131452560424804688e+00
7.260623455047607422e+00,1.968698978424072266e+00,-1.191491723060607910e+00
1.025022697448730469e+01,2.779322147369384766e+00,-1.304012775421142578e+00
1.402572631835937500e+01,3.803038835525512695e+00,-1.271398663520812988e+00
1.404210472106933594e+01,3.807479619979858398e+00,-7.624872326850891113e-01
1.405902290344238281e+01,3.812067031860351562e+00,-2.542618513107299805e-01
1.407650566101074219e+01,3.816807508468627930e+00,2.545780539512634277e-01
1.409283828735351562e+01,3.821236133575439453e+00,7.652420997619628906e-01
3.836083650588989258e+00,1.099318146705627441e+00,-1.069247841835021973e+00
4.578506946563720703e+00,1.312076568603515625e+00,-1.099577546119689941e+00
5.617371559143066406e+00,1.609787106513977051e+00,-1.135856032371520996e+00
7.260209083557128906e+00,2.080579996109008789e+00,-1.196188211441040039e+00
1.025016307830810547e+01,2.937420368194580078e+00,-1.309219360351562500e+00
1.404713058471679688e+01,4.025528907775878906e+00,-1.278430938720703125e+00
1.406367301940917969e+01,4.030269622802734375e+00,-7.667122483253479004e-01
1.408061695098876953e+01,4.035125255584716797e+00,-2.556707561016082764e-01
1.409798622131347656e+01,4.040102481842041016e+00,2.559861242771148682e-01
1.411407947540283203e+01,4.044714450836181641e+00,7.694602608680725098e-01
3.835041999816894531e+00,1.158664941787719727e+00,-1.073470234870910645e+00
4.540993690490722656e+00,1.371951222419738770e+00,-1.095172286033630371e+00
5.616525650024414062e+00,1.696897149085998535e+00,-1.140479445457458496e+00
7.259488582611083984e+00,2.193278551101684570e+00,-1.201118826866149902e+00
1.006349468231201172e+01,3.040441036224365234e+00,-1.290803194046020508e+00
1.406803321838378906e+01,4.250315189361572266e+00,-1.285738348960876465e+00
1.408474349975585938e+01,4.255363941192626953e+00,-7.711025476455688477e-01
1.410171318054199219e+01,4.260490894317626953e+00,-2.571347653865814209e-01
1.411896324157714844e+01,4.265702724456787109e+00,2.574492990970611572e-01
1.413678264617919922e+01,4.271086215972900391e+00,7.739515900611877441e-01
3.808445692062377930e+00,1.210375905036926270e+00,-1.070765376091003418e+00
4.539807319641113281e+00,1.442812561988830566e+00,-1.099754214286804199e+00
5.559851169586181641e+00,1.766996264457702637e+00,-1.133990764617919922e+00
7.165085792541503906e+00,2.277161836624145508e+00,-1.190770268440246582e+00
1.006251049041748047e+01,3.198002576828002930e+00,-1.296415448188781738e+00
1.408833980560302734e+01,4.477466106414794922e+00,-1.293319106101989746e+00
1.410522270202636719e+01,4.482831478118896484e+00,-7.756571173667907715e-01
1.412221622467041016e+01,4.488232612609863281e+00,-2.586535513401031494e-01
1.413934135437011719e+01,4.493675231933593750e+00,2.589671909809112549e-01
1.415688514709472656e+01,4.499250411987304688e+00,7.784981131553649902e-01
3.808810472488403320e+00,1.270789861679077148e+00,-1.075871706008911133e+00
4.504613876342773438e+00,1.502941012382507324e+00,-1.096327543258666992e+00
5.561182022094726562e+00,1.855459570884704590e+00,-1.139562249183654785e+00
7.167232513427734375e+00,2.391309976577758789e+00,-1.196692824363708496e+00
1.006612586975097656e+01,3.358510971069335938e+00,-1.302941203117370605e+00
1.411759090423583984e+01,4.710260868072509766e+00,-1.302060246467590332e+00
1.413468170166015625e+01,4.715963363647460938e+00,-7.809091210365295410e-01
1.415170955657958984e+01,4.721644401550292969e+00,-2.604048550128936768e-01
1.416869831085205078e+01,4.727313041687011719e+00,2.607174813747406006e-01
1.418593120574951172e+01,4.733062267303466797e+00,7.837405204772949219e-01
3.782135009765625000e+00,1.322340250015258789e+00,-1.073573112487792969e+00
4.502948284149169922e+00,1.574356675148010254e+00,-1.101293802261352539e+00
5.505035877227783203e+00,1.924714565277099609e+00,-1.133586287498474121e+00
7.165438652038574219e+00,2.505237817764282227e+00,-1.202257394790649414e+00
1.006415843963623047e+01,3.518711090087890625e+00,-1.309071540832519531e+00
1.413667869567871094e+01,4.942578315734863281e+00,-1.310211300849914551e+00
1.415395355224609375e+01,4.948617935180664062e+00,-7.858065962791442871e-01
1.417100334167480469e+01,4.954578876495361328e+00,-2.620379924774169922e-01
1.418785667419433594e+01,4.960471630096435547e+00,2.623496055603027344e-01
1.420479202270507812e+01,4.966392517089843750e+00,7.886291146278381348e-01
3.757485866546630859e+00,1.374382734298706055e+00,-1.072050571441650391e+00
4.467938423156738281e+00,1.634246349334716797e+00,-1.098339915275573730e+00
5.505899906158447266e+00,2.013903379440307617e+00,-1.139583230018615723e+00
7.076049804687500000e+00,2.588220119476318359e+00,-1.193352818489074707e+00
9.887387275695800781e+00,3.616528272628784180e+00,-1.292679309844970703e+00
1.416626453399658203e+01,5.181621551513671875e+00,-1.319692134857177734e+00
1.418256568908691406e+01,5.187583923339843750e+00,-7.914364933967590332e-01
1.419965267181396484e+01,5.193833827972412109e+00,-2.639153599739074707e-01
1.421752548217773438e+01,5.200371265411376953e+00,2.642475664615631104e-01
1.423490715026855469e+01,5.206728935241699219e+00,7.943572998046875000e-01
3.730970144271850586e+00,1.425550580024719238e+00,-1.070197343826293945e+00
4.430854320526123047e+00,1.692966222763061523e+00,-1.095068335533142090e+00
5.450103759765625000e+00,2.082406997680664062e+00,-1.134087920188903809e+00
7.073339462280273438e+00,2.702622175216674805e+00,-1.199296832084655762e+00
9.884157180786132812e+00,3.776595354080200195e+00,-1.299191117286682129e+00
1.418367958068847656e+01,5.419381618499755859e+00,-1.328404545783996582e+00
1.420057678222656250e+01,5.425837993621826172e+00,-7.966938018798828125e-01
1.421766471862792969e+01,5.432366847991943359e+00,-2.656680941581726074e-01
1.423499965667724609e+01,5.438990592956542969e+00,2.659920156002044678e-01
1.425205516815185547e+01,5.445507049560546875e+00,7.995818853378295898e-01
3.706517934799194336e+00,1.477340340614318848e+00,-1.069139480590820312e+00
4.430693626403808594e+00,1.765981435775756836e+00,-1.101163029670715332e+00
5.450326442718505859e+00,2.172385692596435547e+00,-1.140487670898437500e+00
6.985445022583007812e+00,2.784251928329467773e+00,-1.191029191017150879e+00
9.885862350463867188e+00,3.940297603607177734e+00,-1.306694746017456055e+00
1.421071052551269531e+01,5.664091110229492188e+00,-1.338392138481140137e+00
1.422784137725830078e+01,5.670919418334960938e+00,-8.026950955390930176e-01
1.424496078491210938e+01,5.677742481231689453e+00,-2.676692903041839600e-01
1.426212978363037109e+01,5.684585571289062500e+00,2.679919004440307617e-01
1.427882480621337891e+01,5.691240310668945312e+00,8.055714368820190430e-01
3.705812454223632812e+00,1.538881421089172363e+00,-1.075179338455200195e+00
4.395986557006835938e+00,1.825484275817871094e+00,-1.098918557167053223e+00
5.397876739501953125e+00,2.241530895233154297e+00,-1.136109709739685059e+00
6.985770702362060547e+00,2.900922060012817383e+00,-1.198041677474975586e+00
9.713646888732910156e+00,4.033704280853271484e+00,-1.291430830955505371e+00
1.423700809478759766e+01,5.912082672119140625e+00,-1.348700761795043945e+00
1.425437736511230469e+01,5.919295310974121094e+00,-8.088892698287963867e-01
1.427152538299560547e+01,5.926416397094726562e+00,-2.697347700595855713e-01
1.428852176666259766e+01,5.933474063873291016e+00,2.700560092926025391e-01
1.430677604675292969e+01,5.941054344177246094e+00,8.118627667427062988e-01
3.681152343750000000e+00,1.590786457061767578e+00,-1.074520826339721680e+00
4.361497402191162109e+00,1.884793162345886230e+00,-1.096928477287292480e+00
5.346049785614013672e+00,2.310261249542236328e+00,-1.132045507431030273e+00
6.899145126342773438e+00,2.981421709060668945e+00,-1.190382242202758789e+00
9.714055061340332031e+00,4.197866916656494141e+00,-1.299340367317199707e+00
1.426243019104003906e+01,6.163418292999267578e+00,-1.359326958656311035e+00
1.428003501892089844e+01,6.171025753021240234e+00,-8.152741193771362305e-01
1.429721546173095703e+01,6.178450584411621094e+00,-2.718639075756072998e-01
1.431403255462646484e+01,6.185718059539794922e+00,2.721836864948272705e-01
1.433188724517822266e+01,6.193433284759521484e+00,8.182344436645507812e-01
3.290840387344360352e+00,1.478363394737243652e+00,-9.666672945022583008e-01
3.295834064483642578e+00,1.480606675148010254e+00,-8.341558575630187988e-01
3.299523115158081055e+00,1.482263922691345215e+00,-7.031066417694091797e-01
3.303846836090087891e+00,1.484206318855285645e+00,-5.736541748046875000e-01
3.308023452758789062e+00,1.486082553863525391e+00,-4.452768266201019287e-01
3.312183141708374023e+00,1.487951278686523438e+00,-3.176756203174591064e-01
3.316497564315795898e+00,1.489889502525329590e+00,-1.905431002378463745e-01
3.320672988891601562e+00,1.491765260696411133e+00,-6.354265660047531128e-02
3.324707031250000000e+00,1.493577480316162109e+00,6.361984461545944214e-02
3.328937292098999023e+00,1.495477914810180664e+00,1.912578046321868896e-01
3.333200454711914062e+00,1.497393012046813965e+00,3.196914196014404297e-01
3.337386846542358398e+00,1.499273657798767090e+00,4.492293000221252441e-01
3.342319726943969727e+00,1.501489639282226562e+00,5.803343057632446289e-01
3.346032619476318359e+00,1.503157615661621094e+00,7.130175232887268066e-01
3.350406885147094727e+00,1.505122780799865723e+00,8.479678630828857422e-01
3.168076276779174805e+00,1.478063583374023438e+00,-9.367244839668273926e-01
3.172100782394409180e+00,1.479941248893737793e+00,-8.081182241439819336e-01
3.176640033721923828e+00,1.482059001922607422e+00,-6.813716888427734375e-01
3.180829763412475586e+00,1.484013676643371582e+00,-5.559257268905639648e-01
3.184827089309692383e+00,1.485878705978393555e+00,-4.315125644207000732e-01
3.188756465911865234e+00,1.487711906433105469e+00,-3.078484535217285156e-01
3.192704200744628906e+00,1.489553689956665039e+00,-1.846368014812469482e-01
3.196718931198120117e+00,1.491426706314086914e+00,-6.157292053103446960e-02
3.200810670852661133e+00,1.493335723876953125e+00,6.165173277258872986e-02
3.204949855804443359e+00,1.495266914367675781e+00,1.853449791669845581e-01
3.209068775177001953e+00,1.497188568115234375e+00,3.098094463348388672e-01
3.213062524795532227e+00,1.499051809310913086e+00,4.353381991386413574e-01
3.216789484024047852e+00,1.500790596008300781e+00,5.622105002403259277e-01
3.221159219741821289e+00,1.502829432487487793e+00,6.909208297729492188e-01
3.225181102752685547e+00,1.504705786705017090e+00,8.216408491134643555e-01
3.044792890548706055e+00,1.473970413208007812e+00,-9.064177870750427246e-01
3.048820257186889648e+00,1.475920081138610840e+00,-7.820132970809936523e-01
3.053286075592041016e+00,1.478081941604614258e+00,-6.593833565711975098e-01
3.056803703308105469e+00,1.479784846305847168e+00,-5.378959774971008301e-01
3.060800790786743164e+00,1.481719851493835449e+00,-4.175390303134918213e-01
3.064680337905883789e+00,1.483597874641418457e+00,-2.978895008563995361e-01
3.068524599075317383e+00,1.485458850860595703e+00,-1.786666959524154663e-01
3.072378873825073242e+00,1.487324595451354980e+00,-5.958191677927970886e-02
3.076251983642578125e+00,1.489199519157409668e+00,5.965702608227729797e-02
3.080116987228393555e+00,1.491070628166198730e+00,1.793416738510131836e-01
3.083909988403320312e+00,1.492906808853149414e+00,2.997586429119110107e-01
3.088262557983398438e+00,1.495013833045959473e+00,4.212852120399475098e-01
3.091731548309326172e+00,1.496693253517150879e+00,5.440421104431152344e-01
3.095760107040405273e+00,1.498643398284912109e+00,6.685560345649719238e-01
3.100587129592895508e+00,1.500980138778686523e+00,7.952913045883178711e-01
2.938775062561035156e+00,1.474931597709655762e+00,-8.810513615608215332e-01
2.942795276641845703e+00,1.476949334144592285e+00,-7.601627707481384277e-01
2.946503877639770508e+00,1.478810548782348633e+00,-6.408283710479736328e-01
2.950622797012329102e+00,1.480877876281738281e+00,-5.228880047798156738e-01
2.954084157943725586e+00,1.482615113258361816e+00,-4.058346152305603027e-01
2.957920789718627930e+00,1.484540581703186035e+00,-2.895481288433074951e-01
2.961675405502319336e+00,1.486424922943115234e+00,-1.736663430929183960e-01
2.965391397476196289e+00,1.488290071487426758e+00,-5.791432037949562073e-02
2.969077825546264648e+00,1.490140199661254883e+00,5.798631533980369568e-02
2.972708463668823242e+00,1.491962313652038574e+00,1.743132919073104858e-01
2.976770401000976562e+00,1.494001030921936035e+00,2.913933098316192627e-01
2.980223178863525391e+00,1.495733857154846191e+00,4.094256162643432617e-01
2.984182119369506836e+00,1.497720837593078613e+00,5.288351178169250488e-01
2.987927198410034180e+00,1.499600410461425781e+00,6.498374342918395996e-01
2.992388486862182617e+00,1.501839518547058105e+00,7.729733586311340332e-01
2.831886291503906250e+00,1.472396969795227051e+00,-8.552366495132446289e-01
2.835922002792358398e+00,1.474495291709899902e+00,-7.379321455955505371e-01
2.839607477188110352e+00,1.476411461830139160e+00,-6.221120953559875488e-01
2.843121767044067383e+00,1.478238701820373535e+00,-5.075350403785705566e-01
2.846976757049560547e+00,1.480243086814880371e+00,-3.939904868602752686e-01
2.850407361984252930e+00,1.482026696205139160e+00,-2.810714542865753174e-01
2.854073286056518555e+00,1.483932852745056152e+00,-1.685850024223327637e-01
2.857650756835937500e+00,1.485792875289916992e+00,-5.621972307562828064e-02
2.861148118972778320e+00,1.487611174583435059e+00,5.628852546215057373e-02
2.864915609359741211e+00,1.489570140838623047e+00,1.692254394292831421e-01
2.868290424346923828e+00,1.491324782371520996e+00,2.828348875045776367e-01
2.872078418731689453e+00,1.493294358253479004e+00,3.974643051624298096e-01
2.875773191452026367e+00,1.495215296745300293e+00,5.133637189865112305e-01
2.879210472106933594e+00,1.497002482414245605e+00,6.307883858680725098e-01
2.883280038833618164e+00,1.499118328094482422e+00,7.502551078796386719e-01
2.733111143112182617e+00,1.471108675003051758e+00,-8.316802382469177246e-01
2.736278772354125977e+00,1.472813725471496582e+00,-7.174160480499267578e-01
2.739948272705078125e+00,1.474788784980773926e+00,-6.048410534858703613e-01
2.743401288986206055e+00,1.476647377014160156e+00,-4.934560954570770264e-01
2.746778488159179688e+00,1.478465199470520020e+00,-3.830134868621826172e-01
2.750398159027099609e+00,1.480413556098937988e+00,-2.732713222503662109e-01
2.753773212432861328e+00,1.482230067253112793e+00,-1.638968437910079956e-01
2.757221460342407227e+00,1.484086155891418457e+00,-5.465624481439590454e-02
2.760760068893432617e+00,1.485990881919860840e+00,5.472639203071594238e-02
2.764069318771362305e+00,1.487771987915039062e+00,1.645096391439437866e-01
2.767672061920166016e+00,1.489711165428161621e+00,2.749875783920288086e-01
2.771257400512695312e+00,1.491641044616699219e+00,3.864268362522125244e-01
2.774699926376342773e+00,1.493494033813476562e+00,4.990857839584350586e-01
2.778756141662597656e+00,1.495677232742309570e+00,6.134079098701477051e-01
2.782584667205810547e+00,1.497738003730773926e+00,7.295568585395812988e-01
2.639864921569824219e+00,1.470029592514038086e+00,-8.096254467964172363e-01
2.643093585968017578e+00,1.471827507019042969e+00,-6.984360814094543457e-01
2.646752834320068359e+00,1.473865151405334473e+00,-5.888649225234985352e-01
2.650153636932373047e+00,1.475759029388427734e+00,-4.804338812828063965e-01
2.653429985046386719e+00,1.477583527565002441e+00,-3.729077875614166260e-01
2.656686067581176758e+00,1.479396581649780273e+00,-2.660370171070098877e-01
2.659994363784790039e+00,1.481238842010498047e+00,-1.595609188079833984e-01
2.663322448730468750e+00,1.483092188835144043e+00,-5.321024358272552490e-02
2.666685819625854492e+00,1.484965085983276367e+00,5.327744036912918091e-02
2.670125722885131836e+00,1.486880660057067871e+00,1.601686477661132812e-01
2.673585653305053711e+00,1.488807320594787598e+00,2.677293121814727783e-01
