-9.633915126323699951e-02,-2.446501255035400391e+00,3.877874612808227539e-01
-9.647959470748901367e-02,-2.450067758560180664e+00,4.766133129596710205e-01
-9.661347419023513794e-02,-2.453467607498168945e+00,5.668657422065734863e-01
-6.044467538595199585e-02,-2.412888288497924805e+00,-6.467332839965820312e-01
-6.051435694098472595e-02,-2.415669918060302734e+00,-5.578754544258117676e-01
-6.059488281607627869e-02,-2.418884277343750000e+00,-4.703302681446075439e-01
-6.067034229636192322e-02,-2.421896696090698242e+00,-3.837105035781860352e-01
-6.074382364749908447e-02,-2.424829959869384766e+00,-2.978246510028839111e-01
-6.082242354750633240e-02,-2.427967548370361328e+00,-2.124859690666198730e-01
-6.089522689580917358e-02,-2.430873870849609375e+00,-1.274364739656448364e-01
-6.096941605210304260e-02,-2.433835268020629883e+00,-4.249601811170578003e-02
-6.104518473148345947e-02,-2.436859846115112305e+00,4.254882782697677612e-02
-6.111566722393035889e-02,-2.439673662185668945e+00,1.278977990150451660e-01
-6.119221076369285583e-02,-2.442728996276855469e+00,2.137778252363204956e-01
-6.126806885004043579e-02,-2.445757150650024414e+00,3.003949820995330811e-01
-6.134048104286193848e-02,-2.448647975921630859e+00,3.879488110542297363e-01
-6.142599880695343018e-02,-2.452061653137207031e+00,4.767813086509704590e-01
-6.150622293353080750e-02,-2.455264091491699219e+00,5.670193433761596680e-01
-2.591926790773868561e-02,-2.414813041687011719e+00,-6.470834612846374512e-01
-2.595085278153419495e-02,-2.417755603790283203e+00,-5.582141280174255371e-01
-2.598655037581920624e-02,-2.421081304550170898e+00,-4.706369340419769287e-01
-2.601959183812141418e-02,-2.424159765243530273e+00,-3.839707374572753906e-01
-2.605128102004528046e-02,-2.427112102508544922e+00,-2.980286180973052979e-01
-2.608263120055198669e-02,-2.430032968521118164e+00,-2.126122564077377319e-01
-2.611435949802398682e-02,-2.432988882064819336e+00,-1.275147050619125366e-01
-2.614617533981800079e-02,-2.435953140258789062e+00,-4.252210631966590881e-02
-2.617815695703029633e-02,-2.438932657241821289e+00,4.257411882281303406e-02
-2.621075324714183807e-02,-2.441969633102416992e+00,1.279853880405426025e-01
-2.624340541660785675e-02,-2.445011615753173828e+00,2.139228135347366333e-01
-2.627525106072425842e-02,-2.447978734970092773e+00,3.005908429622650146e-01
-2.630512788891792297e-02,-2.450762271881103516e+00,3.881843686103820801e-01
-2.634007669985294342e-02,-2.454018354415893555e+00,4.770395755767822266e-01
-2.637227997183799744e-02,-2.457018613815307617e+00,5.672792792320251465e-01
8.653579279780387878e-03,-2.417563676834106445e+00,-6.477873921394348145e-01
8.664394728839397430e-03,-2.420585155487060547e+00,-5.588388442993164062e-01
8.674415759742259979e-03,-2.423384666442871094e+00,-4.710605740547180176e-01
8.685746230185031891e-03,-2.426550149917602539e+00,-3.843296766281127930e-01
8.695337921380996704e-03,-2.429229736328125000e+00,-2.982733845710754395e-01
8.706171996891498566e-03,-2.432256698608398438e+00,-2.127959281206130981e-01
8.716946467757225037e-03,-2.435266733169555664e+00,-1.276275515556335449e-01
8.727568201720714569e-03,-2.438234090805053711e+00,-4.255974292755126953e-02
8.738057687878608704e-03,-2.441164731979370117e+00,4.261089861392974854e-02
8.748566731810569763e-03,-2.444100379943847656e+00,1.280905008316040039e-01
8.760458789765834808e-03,-2.447422742843627930e+00,2.141227871179580688e-01
8.770783431828022003e-03,-2.450307130813598633e+00,3.008613586425781250e-01
8.782677352428436279e-03,-2.453629970550537109e+00,3.886187076568603516e-01
8.794073946774005890e-03,-2.456814050674438477e+00,4.775586128234863281e-01
8.804364129900932312e-03,-2.459688663482666016e+00,5.678666234016418457e-01
4.329203814268112183e-02,-2.419382333755493164e+00,-6.483743190765380859e-01
4.334916546940803528e-02,-2.422574758529663086e+00,-5.593841075897216797e-01
4.340148717164993286e-02,-2.425498723983764648e+00,-4.715439677238464355e-01
4.345181211829185486e-02,-2.428311109542846680e+00,-3.846676945686340332e-01
4.350788518786430359e-02,-2.431444883346557617e+00,-2.985912263393402100e-01
4.356162995100021362e-02,-2.434448480606079102e+00,-2.130204141139984131e-01
4.361420124769210815e-02,-2.437386512756347656e+00,-1.277582645416259766e-01
4.366733506321907043e-02,-2.440355777740478516e+00,-4.260332509875297546e-02
4.372117295861244202e-02,-2.443364381790161133e+00,4.265584796667098999e-02
4.377421364188194275e-02,-2.446328639984130859e+00,1.282269805669784546e-01
4.382557049393653870e-02,-2.449198722839355469e+00,2.143111079931259155e-01
4.388365894556045532e-02,-2.452445030212402344e+00,3.011701405048370361e-01
4.394094645977020264e-02,-2.455646753311157227e+00,3.889979124069213867e-01
4.399491474032402039e-02,-2.458662509918212891e+00,4.779913723468780518e-01
4.404255002737045288e-02,-2.461324691772460938e+00,5.683316588401794434e-01
7.800300419330596924e-02,-2.421284198760986328e+00,-6.491166949272155762e-01
7.811230421066284180e-02,-2.424676895141601562e+00,-5.600702762603759766e-01
7.821134477853775024e-02,-2.427751302719116211e+00,-4.721511602401733398e-01
7.830509543418884277e-02,-2.430661201477050781e+00,-3.851780593395233154e-01
7.839760184288024902e-02,-2.433532953262329102e+00,-2.989548444747924805e-01
7.849785685539245605e-02,-2.436644792556762695e+00,-2.132890671491622925e-01
7.859431952238082886e-02,-2.439639329910278320e+00,-1.279222071170806885e-01
7.869006693363189697e-02,-2.442611217498779297e+00,-4.265799000859260559e-02
7.878534495830535889e-02,-2.445568561553955078e+00,4.270964115858078003e-02
7.887751609086990356e-02,-2.448429822921752930e+00,1.283831447362899780e-01
7.897864282131195068e-02,-2.451568841934204102e+00,2.145954370498657227e-01
7.908021658658981323e-02,-2.454721927642822266e+00,3.015578687191009521e-01
7.917864620685577393e-02,-2.457777261734008789e+00,3.894750475883483887e-01
7.926943153142929077e-02,-2.460595130920410156e+00,4.785386323928833008e-01
7.937572896480560303e-02,-2.463894605636596680e+00,5.691291689872741699e-01
1.128332316875457764e-01,-2.423889875411987305e+00,-6.501816511154174805e-01
1.129654645919799805e-01,-2.426730632781982422e+00,-5.608607530593872070e-01
1.131157502532005310e-01,-2.429959058761596680e+00,-4.728469550609588623e-01
1.132559329271316528e-01,-2.432970285415649414e+00,-3.857613503932952881e-01
1.133917570114135742e-01,-2.435888290405273438e+00,-2.994129061698913574e-01
1.135277226567268372e-01,-2.438808917999267578e+00,-2.135988771915435791e-01
1.136697381734848022e-01,-2.441859960556030273e+00,-1.281108409166336060e-01
1.138082221150398254e-01,-2.444834709167480469e+00,-4.272089526057243347e-02
1.139435097575187683e-01,-2.447741031646728516e+00,4.277168214321136475e-02
1.140858754515647888e-01,-2.450799226760864258e+00,1.285798400640487671e-01
1.142300963401794434e-01,-2.453897476196289062e+00,2.149203717708587646e-01
1.143723875284194946e-01,-2.456954240798950195e+00,3.020022809505462646e-01
1.145076155662536621e-01,-2.459859132766723633e+00,3.900247216224670410e-01
1.146651580929756165e-01,-2.463243484497070312e+00,4.793238043785095215e-01
1.148117631673812866e-01,-2.466392755508422852e+00,5.700273513793945312e-01
1.477333307266235352e-01,-2.425654888153076172e+00,-6.511555910110473633e-01
1.479194015264511108e-01,-2.428709745407104492e+00,-5.617499351501464844e-01
1.481256037950515747e-01,-2.432095527648925781e+00,-4.736267328262329102e-01
1.483153849840164185e-01,-2.435211420059204102e+00,-3.864137232303619385e-01
1.484961360692977905e-01,-2.438179492950439453e+00,-2.999250590801239014e-01
1.486736238002777100e-01,-2.441093683242797852e+00,-2.139634341001510620e-01
1.488519310951232910e-01,-2.444020986557006836e+00,-1.283228695392608643e-01
1.490332633256912231e-01,-2.446998596191406250e+00,-4.279160127043724060e-02
1.492181271314620972e-01,-2.450033664703369141e+00,4.284467920660972595e-02
1.494051069021224976e-01,-2.453103780746459961e+00,1.287997514009475708e-01
1.495911031961441040e-01,-2.456157922744750977e+00,2.152838259935379028e-01
1.497711688280105591e-01,-2.459114313125610352e+00,3.025003075599670410e-01
1.499387472867965698e-01,-2.461865901947021484e+00,3.906431794166564941e-01
1.501319259405136108e-01,-2.465037584304809570e+00,4.800418913364410400e-01
1.503606736660003662e-01,-2.468793392181396484e+00,5.710211396217346191e-01
1.827931404113769531e-01,-2.428060293197631836e+00,-6.524368524551391602e-01
1.830313950777053833e-01,-2.431225299835205078e+00,-5.628800392150878906e-01
1.832504719495773315e-01,-2.434135198593139648e+00,-4.744861423969268799e-01
1.834620535373687744e-01,-2.436945676803588867e+00,-3.870659172534942627e-01
1.836981326341629028e-01,-2.440081357955932617e+00,-3.004516959190368652e-01
1.839261353015899658e-01,-2.443109989166259766e+00,-2.143489718437194824e-01
1.841509491205215454e-01,-2.446096181869506836e+00,-1.285570561885833740e-01
1.843753010034561157e-01,-2.449076414108276367e+00,-4.286969453096389771e-02
1.845997273921966553e-01,-2.452057361602783203e+00,4.292187467217445374e-02
1.848226040601730347e-01,-2.455017805099487305e+00,1.290259361267089844e-01
1.850401163101196289e-01,-2.457907199859619141e+00,2.156472206115722656e-01
1.852862089872360229e-01,-2.461176156997680664e+00,3.030491173267364502e-01
1.855300962924957275e-01,-2.464415788650512695e+00,3.914290666580200195e-01
1.857609599828720093e-01,-2.467482328414916992e+00,4.809865057468414307e-01
1.859661191701889038e-01,-2.470207452774047852e+00,5.719052553176879883e-01
2.179187834262847900e-01,-2.429588079452514648e+00,-6.536185741424560547e-01
2.182224094867706299e-01,-2.432973146438598633e+00,-5.639501214027404785e-01
2.184985429048538208e-01,-2.436051845550537109e+00,-4.754206836223602295e-01
2.187607586383819580e-01,-2.438975334167480469e+00,-3.878459036350250244e-01
2.190468609333038330e-01,-2.442164897918701172e+00,-3.010634779930114746e-01
2.193024307489395142e-01,-2.445014238357543945e+00,-2.147694528102874756e-01
2.195755094289779663e-01,-2.448059082031250000e+00,-1.288121789693832397e-01
2.198430448770523071e-01,-2.451041698455810547e+00,-4.295477643609046936e-02
2.201056033372879028e-01,-2.453969001770019531e+00,4.300607740879058838e-02
2.203877121210098267e-01,-2.457114219665527344e+00,1.292886435985565186e-01
2.206424325704574585e-01,-2.459954261779785156e+00,2.160817533731460571e-01
2.209258824586868286e-01,-2.463114261627197266e+00,3.036460578441619873e-01
2.212015688419342041e-01,-2.466187953948974609e+00,3.921732902526855469e-01
2.214569598436355591e-01,-2.469035387039184570e+00,4.818577766418457031e-01
2.217536717653274536e-01,-2.472343444824218750e+00,5.730759501457214355e-01
2.532750964164733887e-01,-2.432043075561523438e+00,-6.551871895790100098e-01
2.536429464817047119e-01,-2.435575246810913086e+00,-5.653368830680847168e-01
2.539186477661132812e-01,-2.438222646713256836e+00,-4.765048623085021973e-01
2.542371153831481934e-01,-2.441280603408813477e+00,-3.887513577938079834e-01
2.545463442802429199e-01,-2.444250106811523438e+00,-3.017387688159942627e-01
2.548745572566986084e-01,-2.447401762008666992e+00,-2.152775526046752930e-01
2.551800310611724854e-01,-2.450335025787353516e+00,-1.291109025478363037e-01
2.554909288883209229e-01,-2.453320503234863281e+00,-4.305439069867134094e-02
2.558079659938812256e-01,-2.456364631652832031e+00,4.310781508684158325e-02
2.561044692993164062e-01,-2.459211826324462891e+00,1.295786350965499878e-01
2.564239203929901123e-01,-2.462279081344604492e+00,2.165862023830413818e-01
2.567394375801086426e-01,-2.465308904647827148e+00,3.043384552001953125e-01
2.571056485176086426e-01,-2.468825578689575195e+00,3.931376338005065918e-01
2.573873698711395264e-01,-2.471530675888061523e+00,4.830142557621002197e-01
2.577101588249206543e-01,-2.474630355834960938e+00,5.744022130966186523e-01
2.887916266918182373e-01,-2.434365510940551758e+00,-6.568591594696044922e-01
2.891549170017242432e-01,-2.437427759170532227e+00,-5.666695833206176758e-01
2.894930839538574219e-01,-2.440278291702270508e+00,-4.776674509048461914e-01
2.898721396923065186e-01,-2.443473577499389648e+00,-3.897213339805603027e-01
2.902332842350006104e-01,-2.446517944335937500e+00,-3.025005757808685303e-01
2.905878722667694092e-01,-2.449506998062133789e+00,-2.158064842224121094e-01
2.909436821937561035e-01,-2.452506065368652344e+00,-1.294314712285995483e-01
2.912981212139129639e-01,-2.455493927001953125e+00,-4.316128417849540710e-02
2.916520833969116211e-01,-2.458477497100830078e+00,4.321373254060745239e-02
2.920098602771759033e-01,-2.461493730545043945e+00,1.299057900905609131e-01
2.923654019832611084e-01,-2.464490652084350586e+00,2.171265780925750732e-01
2.927091419696807861e-01,-2.467388153076171875e+00,3.050810992717742920e-01
2.931025028228759766e-01,-2.470703840255737305e+00,3.940644562244415283e-01
2.934806048870086670e-01,-2.473891019821166992e+00,4.842469394207000732e-01
2.938230633735656738e-01,-2.476777791976928711e+00,5.758178830146789551e-01
3.245283663272857666e-01,-2.436934232711791992e+00,-6.587381362915039062e-01
3.249612152576446533e-01,-2.440184593200683594e+00,-5.683336257934570312e-01
3.253569900989532471e-01,-2.443156480789184570e+00,-4.790933430194854736e-01
3.257363140583038330e-01,-2.446004629135131836e+00,-3.908286392688751221e-01
3.261540234088897705e-01,-2.449141502380371094e+00,-3.033711314201354980e-01
3.265554010868072510e-01,-2.452155590057373047e+00,-2.164294570684432983e-01
3.269490003585815430e-01,-2.455111026763916016e+00,-1.298026293516159058e-01
3.273472785949707031e-01,-2.458101749420166016e+00,-4.328504949808120728e-02
3.277513086795806885e-01,-2.461135864257812500e+00,4.333847761154174805e-02
3.281504809856414795e-01,-2.464133024215698242e+00,1.302796304225921631e-01
3.285380303859710693e-01,-2.467043399810791016e+00,2.177434712648391724e-01
3.289715349674224854e-01,-2.470298528671264648e+00,3.059918284416198730e-01
3.293976783752441406e-01,-2.473498582839965820e+00,3.952216804027557373e-01
3.297975957393646240e-01,-2.476501464843750000e+00,4.856321811676025391e-01
3.302594125270843506e-01,-2.479969263076782227e+00,5.775997638702392578e-01
3.603907525539398193e-01,-2.438930749893188477e+00,-6.606045961380004883e-01
3.608054816722869873e-01,-2.441737413406372070e+00,-5.698397159576416016e-01
3.612751364707946777e-01,-2.444915771484375000e+00,-4.804031550884246826e-01
3.617175519466400146e-01,-2.447909832000732422e+00,-3.919201791286468506e-01
3.621928393840789795e-01,-2.451126337051391602e+00,-3.042279779911041260e-01
3.626153767108917236e-01,-2.453985691070556641e+00,-2.170268744230270386e-01
3.630618751049041748e-01,-2.457007408142089844e+00,-1.301643103361129761e-01
3.635041713714599609e-01,-2.460000753402709961e+00,-4.340566322207450867e-02
3.639433383941650391e-01,-2.462972879409790039e+00,4.345810413360595703e-02
3.644098341464996338e-01,-2.466129779815673828e+00,1.306475698947906494e-01
3.648287653923034668e-01,-2.468965053558349609e+00,2.183516025543212891e-01
3.652887642383575439e-01,-2.472077846527099609e+00,3.068284094333648682e-01
3.657312989234924316e-01,-2.475072860717773438e+00,3.962690532207489014e-01
3.662423193454742432e-01,-2.478530883789062500e+00,4.870082139968872070e-01
3.667208552360534668e-01,-2.481769561767578125e+00,5.791822075843811035e-01
3.965013623237609863e-01,-2.441167116165161133e+00,-6.626796126365661621e-01
3.969898521900177002e-01,-2.444174528121948242e+00,-5.716760158538818359e-01
3.974463641643524170e-01,-2.446985244750976562e+00,-4.818782210350036621e-01
3.979598283767700195e-01,-2.450146436691284180e+00,-3.931499719619750977e-01
3.984523415565490723e-01,-2.453178882598876953e+00,-3.051593303680419922e-01
3.989672064781188965e-01,-2.456348657608032227e+00,-2.177185863256454468e-01
3.994421362876892090e-01,-2.459272623062133789e+00,-1.305738389492034912e-01
3.999287486076354980e-01,-2.462268590927124023e+00,-4.354222118854522705e-02
4.004282951354980469e-01,-2.465344190597534180e+00,4.359661042690277100e-02
4.008913636207580566e-01,-2.468195199966430664e+00,1.310475617647171021e-01
4.013827145099639893e-01,-2.471220254898071289e+00,2.190367281436920166e-01
4.018619358539581299e-01,-2.474170923233032227e+00,3.077706098556518555e-01
4.024097919464111328e-01,-2.477543830871582031e+00,3.975461423397064209e-01
4.029392898082733154e-01,-2.480803966522216797e+00,4.885380268096923828e-01
4.034222364425659180e-01,-2.483777284622192383e+00,5.809388160705566406e-01
4.328091144561767578e-01,-2.443203926086425781e+00,-6.648461818695068359e-01
4.333780109882354736e-01,-2.446415424346923828e+00,-5.735922455787658691e-01
4.338999092578887939e-01,-2.449361562728881836e+00,-4.835197031497955322e-01
4.344027340412139893e-01,-2.452199935913085938e+00,-3.944367766380310059e-01
4.349577128887176514e-01,-2.455332756042480469e+00,-3.061703741550445557e-01
4.354948401451110840e-01,-2.458364963531494141e+00,-2.184274047613143921e-01
4.360257387161254883e-01,-2.461361885070800781e+00,-1.310026943683624268e-01
4.365569651126861572e-01,-2.464360475540161133e+00,-4.368523880839347839e-02
4.370896518230438232e-01,-2.467367649078369141e+00,4.373854771256446838e-02
4.376201033592224121e-01,-2.470361948013305664e+00,1.314817219972610474e-01
4.381391704082489014e-01,-2.473292112350463867e+00,2.197537124156951904e-01
4.387204945087432861e-01,-2.476573705673217773e+00,3.088189959526062012e-01
4.392947554588317871e-01,-2.479815483093261719e+00,3.988787233829498291e-01
4.398365914821624756e-01,-2.482874155044555664e+00,4.901352822780609131e-01
4.404586553573608398e-01,-2.486385583877563477e+00,5.829637646675109863e-01
4.694123864173889160e-01,-2.445514202117919922e+00,-6.672348380088806152e-01
4.700739681720733643e-01,-2.448961019515991211e+00,-5.757076740264892578e-01
4.705778360366821289e-01,-2.451586008071899414e+00,-4.852387607097625732e-01
4.712329208850860596e-01,-2.454998731613159180e+00,-3.959313333034515381e-01
4.717837274074554443e-01,-2.457868099212646484e+00,-3.072970807552337646e-01
4.723424017429351807e-01,-2.460778951644897461e+00,-2.192201465368270874e-01
4.729324877262115479e-01,-2.463853120803833008e+00,-1.314821094274520874e-01
4.735086560249328613e-01,-2.466854810714721680e+00,-4.384510964155197144e-02
4.740722179412841797e-01,-2.469790697097778320e+00,4.389728978276252747e-02
4.746714830398559570e-01,-2.472912788391113281e+00,1.319655776023864746e-01
4.752862155437469482e-01,-2.476115226745605469e+00,2.205864042043685913e-01
4.758059978485107422e-01,-2.478823184967041016e+00,3.099170029163360596e-01
4.764918386936187744e-01,-2.482396364212036133e+00,4.003498852252960205e-01
4.770342707633972168e-01,-2.485222339630126953e+00,4.918963313102722168e-01
4.776482880115509033e-01,-2.488420963287353516e+00,5.849840641021728516e-01
5.062385797500610352e-01,-2.447606325149536133e+00,-6.697140932083129883e-01
5.068802833557128906e-01,-2.450709104537963867e+00,-5.777650475502014160e-01
5.075786709785461426e-01,-2.454085588455200195e+00,-4.871215820312500000e-01
5.082246065139770508e-01,-2.457208633422851562e+00,-3.974202275276184082e-01
5.088434815406799316e-01,-2.460201025009155273e+00,-3.084677457809448242e-01
5.094549059867858887e-01,-2.463157176971435547e+00,-2.200590968132019043e-01
5.100731849670410156e-01,-2.466146469116210938e+00,-1.319805830717086792e-01
5.106945633888244629e-01,-2.469150781631469727e+00,-4.401133209466934204e-02
5.113206505775451660e-01,-2.472177743911743164e+00,4.406528547406196594e-02
5.119581222534179688e-01,-2.475259780883789062e+00,1.324682980775833130e-01
5.125961899757385254e-01,-2.478344678878784180e+00,2.214159667491912842e-01
5.132179260253906250e-01,-2.481350898742675781e+00,3.111195862293243408e-01
5.138007402420043945e-01,-2.484168529510498047e+00,4.017806351184844971e-01
5.144584774971008301e-01,-2.487348556518554688e+00,4.937241077423095703e-01
5.152179002761840820e-01,-2.491020679473876953e+00,5.872686505317687988e-01
5.434361100196838379e-01,-2.450115919113159180e+00,-6.724601984024047852e-01
5.440299510955810547e-01,-2.452793359756469727e+00,-5.800328254699707031e-01
5.448157787322998047e-01,-2.456336259841918945e+00,-4.890661537647247314e-01
5.454466938972473145e-01,-2.459181070327758789e+00,-3.989610671997070312e-01
5.461376905441284180e-01,-2.462296247482299805e+00,-3.096788823604583740e-01
5.468038916587829590e-01,-2.465300083160400391e+00,-2.209271490573883057e-01
5.474604368209838867e-01,-2.468260049819946289e+00,-1.324994862079620361e-01
5.481272935867309570e-01,-2.471266746520996094e+00,-4.418436437845230103e-02
5.488063693046569824e-01,-2.474328279495239258e+00,4.423910379409790039e-02
5.494805574417114258e-01,-2.477367877960205078e+00,1.329884082078933716e-01
5.501385331153869629e-01,-2.480334281921386719e+00,2.222744524478912354e-01
5.508688092231750488e-01,-2.483627080917358398e+00,3.123616278171539307e-01
5.514576435089111328e-01,-2.486281871795654297e+00,4.033577442169189453e-01
5.522600412368774414e-01,-2.489899396896362305e+00,4.957486987113952637e-01
5.530241727828979492e-01,-2.493344545364379883e+00,5.896223187446594238e-01
5.808474421501159668e-01,-2.452223777770996094e+00,-6.752514243125915527e-01
5.816828608512878418e-01,-2.455750703811645508e+00,-5.826414227485656738e-01
5.823227167129516602e-01,-2.458452224731445312e+00,-4.910966753959655762e-01
5.830489397048950195e-01,-2.461518287658691406e+00,-4.006531238555908203e-01
5.838196277618408203e-01,-2.464771986007690430e+00,-3.110093474388122559e-01
5.845074653625488281e-01,-2.467675685882568359e+00,-2.218670696020126343e-01
5.852285623550415039e-01,-2.470720052719116211e+00,-1.330675780773162842e-01
5.859414339065551758e-01,-2.473729610443115234e+00,-4.437380656599998474e-02
5.866479277610778809e-01,-2.476712465286254883e+00,4.442731291055679321e-02
5.873931646347045898e-01,-2.479858636856079102e+00,1.335597634315490723e-01
5.880643129348754883e-01,-2.482692003250122070e+00,2.232171744108200073e-01
5.887925624847412109e-01,-2.485766649246215820e+00,3.136585354804992676e-01
5.896247029304504395e-01,-2.489279747009277344e+00,4.051717817783355713e-01
5.902789235115051270e-01,-2.492041826248168945e+00,4.978064596652984619e-01
5.910097956657409668e-01,-2.495127201080322266e+00,5.919836759567260742e-01
6.186673045158386230e-01,-2.454702377319335938e+00,-6.783028244972229004e-01
6.194609999656677246e-01,-2.457851409912109375e+00,-5.851835012435913086e-01
6.201938390731811523e-01,-2.460759162902832031e+00,-4.932802617549896240e-01
6.209970712661743164e-01,-2.463946104049682617e+00,-4.024538397789001465e-01
6.217606067657470703e-01,-2.466975688934326172e+00,-3.123784065246582031e-01
6.225081682205200195e-01,-2.469941854476928711e+00,-2.228491008281707764e-01
6.232568025588989258e-01,-2.472912073135375977e+00,-1.336524188518524170e-01
6.240159869194030762e-01,-2.475924491882324219e+00,-4.456882923841476440e-02
6.247878074645996094e-01,-2.478986740112304688e+00,4.462395608425140381e-02
6.255664825439453125e-01,-2.482076406478881836e+00,1.341477185487747192e-01
6.263388991355895996e-01,-2.485141277313232422e+00,2.242204546928405762e-01
6.270844936370849609e-01,-2.488099575042724609e+00,3.150531649589538574e-01
6.279187798500061035e-01,-2.491409540176391602e+00,4.069396555423736572e-01
6.287130117416381836e-01,-2.494560956954956055e+00,5.000560879707336426e-01
6.294239759445190430e-01,-2.497381925582885742e+00,5.945951938629150391e-01
6.569010019302368164e-01,-2.457437992095947266e+00,-6.815871596336364746e-01
6.576540470123291016e-01,-2.460255384445190430e+00,-5.879368185997009277e-01
6.584933996200561523e-01,-2.463395357131958008e+00,-4.956473112106323242e-01
6.592878103256225586e-01,-2.466367244720458984e+00,-4.043492376804351807e-01
6.601399779319763184e-01,-2.469554901123046875e+00,-3.138692975044250488e-01
6.609112620353698730e-01,-2.472440242767333984e+00,-2.239051014184951782e-01
6.617292165756225586e-01,-2.475500106811523438e+00,-1.342904418706893921e-01
6.625353097915649414e-01,-2.478515625000000000e+00,-4.478159174323081970e-02
6.633315086364746094e-01,-2.481494426727294922e+00,4.483541101217269897e-02
6.641809344291687012e-01,-2.484672069549560547e+00,1.347880065441131592e-01
6.649591922760009766e-01,-2.487583398818969727e+00,2.252764701843261719e-01
6.658098101615905762e-01,-2.490765571594238281e+00,3.165650665760040283e-01
6.666333079338073730e-01,-2.493846416473388672e+00,4.088543057441711426e-01
6.675674915313720703e-01,-2.497340917587280273e+00,5.024773478507995605e-01
6.684414148330688477e-01,-2.500610351562500000e+00,5.975806117057800293e-01
6.952306032180786133e-01,-2.459196090698242188e+00,-6.847646236419677734e-01
6.961178183555603027e-01,-2.462334632873535156e+00,-5.907542705535888672e-01
6.970709562301635742e-01,-2.465705871582031250e+00,-4.980687201023101807e-01
6.979529857635498047e-01,-2.468825817108154297e+00,-4.063485264778137207e-01
6.987990140914916992e-01,-2.471818447113037109e+00,-3.153959214687347412e-01
6.996361613273620605e-01,-2.474779844284057617e+00,-2.250007987022399902e-01
7.004830837249755859e-01,-2.477775573730468750e+00,-1.349439620971679688e-01
7.013363242149353027e-01,-2.480793714523315430e+00,-4.499951750040054321e-02
7.021982073783874512e-01,-2.483842134475708008e+00,4.505481570959091187e-02
7.030767798423767090e-01,-2.486949920654296875e+00,1.354436129331588745e-01
7.039570808410644531e-01,-2.490063905715942383e+00,2.263903915882110596e-01
7.048160433769226074e-01,-2.493102073669433594e+00,3.181116282939910889e-01
7.056224346160888672e-01,-2.495954513549804688e+00,4.108137190341949463e-01
7.065196633338928223e-01,-2.499128341674804688e+00,5.048199892044067383e-01
7.075389623641967773e-01,-2.502733945846557617e+00,6.004467010498046875e-01
7.341859936714172363e-01,-2.461838722229003906e+00,-6.883561015129089355e-01
7.351987957954406738e-01,-2.465234756469726562e+00,-5.939139723777770996e-01
7.361206412315368652e-01,-2.468325853347778320e+00,-5.006749629974365234e-01
7.369979023933410645e-01,-2.471267461776733398e+00,-4.084448516368865967e-01
7.379429936408996582e-01,-2.474436521530151367e+00,-3.170452415943145752e-01
7.388521432876586914e-01,-2.477484941482543945e+00,-2.261850982904434204e-01
7.397439479827880859e-01,-2.480475425720214844e+00,-1.356537640094757080e-01
7.406451106071472168e-01,-2.483497142791748047e+00,-4.523621872067451477e-02
7.415577769279479980e-01,-2.486557483673095703e+00,4.529196023941040039e-02
7.424605488777160645e-01,-2.489584445953369141e+00,1.361519247293472290e-01
7.433379888534545898e-01,-2.492526769638061523e+00,2.275583446025848389e-01
7.442997694015502930e-01,-2.495751857757568359e+00,3.197763264179229736e-01
7.452371716499328613e-01,-2.498894929885864258e+00,4.130110442638397217e-01
7.461077570915222168e-01,-2.501814126968383789e+00,5.074677467346191406e-01
7.470778226852416992e-01,-2.505066871643066406e+00,6.035101413726806641e-01
7.734290361404418945e-01,-2.464091539382934570e+00,-6.920105814933776855e-01
7.744098305702209473e-01,-2.467216491699218750e+00,-5.970005989074707031e-01
7.754621505737304688e-01,-2.470568895339965820e+00,-5.033298730850219727e-01
7.764398455619812012e-01,-2.473683834075927734e+00,-4.106389582157135010e-01
7.773821353912353516e-01,-2.476685762405395508e+00,-3.187264800071716309e-01
7.783192396163940430e-01,-2.479671478271484375e+00,-2.273785024881362915e-01
7.792876362800598145e-01,-2.482756853103637695e+00,-1.363745629787445068e-01
7.802369594573974609e-01,-2.485781192779541016e+00,-4.547658562660217285e-02
7.811697721481323242e-01,-2.488752841949462891e+00,4.553095251321792603e-02
7.821412086486816406e-01,-2.491847753524780273e+00,1.368739306926727295e-01
7.831193804740905762e-01,-2.494964361190795898e+00,2.287808060646057129e-01
7.840784192085266113e-01,-2.498019933700561523e+00,3.214719593524932861e-01
7.849836349487304688e-01,-2.500903844833374023e+00,4.151575565338134766e-01
7.859880924224853516e-01,-2.504103899002075195e+00,5.101619362831115723e-01
7.871239781379699707e-01,-2.507722616195678711e+00,6.068020462989807129e-01
8.133606314659118652e-01,-2.467162132263183594e+00,-6.960710883140563965e-01
8.142867088317871094e-01,-2.469971179962158203e+00,-6.004259586334228516e-01
8.153141736984252930e-01,-2.473087787628173828e+00,-5.061686635017395020e-01
8.164049386978149414e-01,-2.476396322250366211e+00,-4.129868149757385254e-01
8.173472285270690918e-01,-2.479254484176635742e+00,-3.205297887325286865e-01
8.183640837669372559e-01,-2.482339143753051758e+00,-2.286737859249114990e-01
8.193656206130981445e-01,-2.485376834869384766e+00,-1.371486485004425049e-01
8.203636407852172852e-01,-2.488404273986816406e+00,-4.573471099138259888e-02
8.213613629341125488e-01,-2.491430521011352539e+00,4.579032957553863525e-02
8.223511576652526855e-01,-2.494433164596557617e+00,1.376483887434005737e-01
8.234284520149230957e-01,-2.497700929641723633e+00,2.300889194011688232e-01
8.243734836578369141e-01,-2.500567436218261719e+00,3.232851922512054443e-01
8.254051208496093750e-01,-2.503696680068969727e+00,4.175396263599395752e-01
8.265681266784667969e-01,-2.507224321365356445e+00,5.131554603576660156e-01
8.276602625846862793e-01,-2.510537147521972656e+00,6.102871298789978027e-01
8.533912301063537598e-01,-2.469167947769165039e+00,-7.000116109848022461e-01
8.544661402702331543e-01,-2.472278118133544922e+00,-6.038979887962341309e-01
8.554660081863403320e-01,-2.475171089172363281e+00,-5.090490579605102539e-01
8.565609455108642578e-01,-2.478339195251464844e+00,-4.153128862380981445e-01
8.576167821884155273e-01,-2.481394052505493164e+00,-3.223603963851928711e-01
8.587164282798767090e-01,-2.484575510025024414e+00,-2.299885302782058716e-01
8.597508072853088379e-01,-2.487568378448486328e+00,-1.379345208406448364e-01
8.607981204986572266e-01,-2.490598917007446289e+00,-4.599678143858909607e-02
8.618615865707397461e-01,-2.493675708770751953e+00,4.605360701680183411e-02
8.628673553466796875e-01,-2.496585845947265625e+00,1.384345442056655884e-01
8.639300465583801270e-01,-2.499660491943359375e+00,2.313848882913589478e-01
8.649716377258300781e-01,-2.502674341201782227e+00,3.251249194145202637e-01
8.661332130432128906e-01,-2.506035089492797852e+00,4.199541211128234863e-01
8.672488927841186523e-01,-2.509263277053833008e+00,5.160605311393737793e-01
8.682582378387451172e-01,-2.512183666229248047e+00,6.136456131935119629e-01
8.939374685287475586e-01,-2.471339464187622070e+00,-7.041825652122497559e-01
8.951809406280517578e-01,-2.474777221679687500e+00,-6.075760126113891602e-01
8.963109850883483887e-01,-2.477901220321655273e+00,-5.121966004371643066e-01
8.973839879035949707e-01,-2.480867624282836914e+00,-4.178462922573089600e-01
8.985313773155212402e-01,-2.484039545059204102e+00,-3.243416547775268555e-01
8.996362686157226562e-01,-2.487094163894653320e+00,-2.313899248838424683e-01
9.007224440574645996e-01,-2.490097045898437500e+00,-1.387753933668136597e-01
9.018195867538452148e-01,-2.493129968643188477e+00,-4.627717658877372742e-02
9.029314517974853516e-01,-2.496203660964965820e+00,4.633422940969467163e-02
9.040325880050659180e-01,-2.499248027801513672e+00,1.392853856086730957e-01
9.051044583320617676e-01,-2.502211093902587891e+00,2.327963709831237793e-01
9.062705636024475098e-01,-2.505434989929199219e+00,3.271352350711822510e-01
9.074041247367858887e-01,-2.508568763732910156e+00,4.225119352340698242e-01
9.084536433219909668e-01,-2.511470079421997070e+00,5.191355347633361816e-01
9.098533391952514648e-01,-2.515339851379394531e+00,6.175344586372375488e-01
9.352425336837768555e-01,-2.474236488342285156e+00,-7.087498307228088379e-01
9.364560246467590332e-01,-2.477447032928466797e+00,-6.114596128463745117e-01
9.375779628753662109e-01,-2.480415105819702148e+00,-5.154374241828918457e-01
9.387899637222290039e-01,-2.483621597290039062e+00,-4.205302894115447998e-01
9.399514198303222656e-01,-2.486694335937500000e+00,-3.264115154743194580e-01
9.410987496376037598e-01,-2.489729642868041992e+00,-2.328644990921020508e-01
9.422748088836669922e-01,-2.492841005325317383e+00,-1.396656632423400879e-01
9.434230327606201172e-01,-2.495878696441650391e+00,-4.657407850027084351e-02
9.445460438728332520e-01,-2.498849630355834961e+00,4.662951827049255371e-02
9.457063674926757812e-01,-2.501919269561767578e+00,1.401742994785308838e-01
9.468668699264526367e-01,-2.504989385604858398e+00,2.342917621135711670e-01
9.479961991310119629e-01,-2.507977247238159180e+00,3.292051851749420166e-01
9.492429494857788086e-01,-2.511275529861450195e+00,4.252126812934875488e-01
9.504294991493225098e-01,-2.514414548873901367e+00,5.225026011466979980e-01
9.517453312873840332e-01,-2.517895698547363281e+00,6.214427947998046875e-01
9.768613576889038086e-01,-2.476578474044799805e+00,-7.133529186248779297e-01
9.780433177947998047e-01,-2.479575157165527344e+00,-6.153769493103027344e-01
9.793159365653991699e-01,-2.482801437377929688e+00,-5.187930464744567871e-01
9.805147051811218262e-01,-2.485840559005737305e+00,-4.232389926910400391e-01
9.817799329757690430e-01,-2.489048242568969727e+00,-3.285314738750457764e-01
9.829348325729370117e-01,-2.491976261138916016e+00,-2.343665212392807007e-01
9.841498136520385742e-01,-2.495056629180908203e+00,-1.405646353960037231e-01
9.853492975234985352e-01,-2.498097419738769531e+00,-4.687386378645896912e-02
9.865356087684631348e-01,-2.501105070114135742e+00,4.693029820919036865e-02
9.877911210060119629e-01,-2.504288196563720703e+00,1.410847008228302002e-01
9.889507889747619629e-01,-2.507228136062622070e+00,2.358009368181228638e-01
9.901981353759765625e-01,-2.510390520095825195e+00,3.313484489917755127e-01
9.913982748985290527e-01,-2.513433218002319336e+00,4.279369115829467773e-01
9.927242994308471680e-01,-2.516794919967651367e+00,5.258961319923400879e-01
9.939456582069396973e-01,-2.519891262054443359e+00,6.253826022148132324e-01
1.019316673278808594e+00,-2.479641675949096680e+00,-7.183640599250793457e-01
1.020687937736511230e+00,-2.482977628707885742e+00,-6.197836995124816895e-01
1.021941900253295898e+00,-2.486027956008911133e+00,-5.224701762199401855e-01
1.023143291473388672e+00,-2.488950490951538086e+00,-4.262182414531707764e-01
1.024437069892883301e+00,-2.492097854614257812e+00,-3.308355212211608887e-01
1.025699853897094727e+00,-2.495169878005981445e+00,-2.360234409570693970e-01
1.026958823204040527e+00,-2.498232364654541016e+00,-1.415571719408035278e-01
1.028210759162902832e+00,-2.501277923583984375e+00,-4.720485582947731018e-02
1.029457569122314453e+00,-2.504311084747314453e+00,4.726209864020347595e-02
1.030709981918334961e+00,-2.507357597351074219e+00,1.420742273330688477e-01
1.031946182250976562e+00,-2.510365009307861328e+00,2.374607920646667480e-01
1.033297777175903320e+00,-2.513653039932250977e+00,3.336970210075378418e-01
1.034625291824340820e+00,-2.516882181167602539e+00,4.310013651847839355e-01
1.035869240760803223e+00,-2.519908189773559570e+00,5.295905470848083496e-01
1.037226676940917969e+00,-2.523210287094116211e+00,6.298263072967529297e-01
1.062095403671264648e+00,-2.482079982757568359e+00,-7.234005331993103027e-01
1.063463807106018066e+00,-2.485277891159057617e+00,-6.240935325622558594e-01
1.064900755882263184e+00,-2.488636016845703125e+00,-5.261678099632263184e-01
1.066235780715942383e+00,-2.491755723953247070e+00,-4.292680919170379639e-01
1.067522525787353516e+00,-2.494763135910034180e+00,-3.331836760044097900e-01
1.068803191184997559e+00,-2.497755765914916992e+00,-2.376908212900161743e-01
1.070125579833984375e+00,-2.500846385955810547e+00,-1.425585895776748657e-01
1.071430325508117676e+00,-2.503895282745361328e+00,-4.753880575299263000e-02
1.072719097137451172e+00,-2.506907224655151367e+00,4.759599268436431885e-02
1.074059486389160156e+00,-2.510039567947387695e+00,1.430826485157012939e-01
1.075409650802612305e+00,-2.513195037841796875e+00,2.391600310802459717e-01
1.076734304428100586e+00,-2.516290664672851562e+00,3.360587358474731445e-01
1.077985525131225586e+00,-2.519214630126953125e+00,4.339985847473144531e-01
1.079342722892761230e+00,-2.522386312484741211e+00,5.333036184310913086e-01
1.080836892127990723e+00,-2.525878190994262695e+00,6.342889070510864258e-01
1.105709671974182129e+00,-2.485053300857543945e+00,-7.288051247596740723e-01
1.107054233551025391e+00,-2.488075256347656250e+00,-6.287106871604919434e-01
1.108487486839294434e+00,-2.491296291351318359e+00,-5.300305485725402832e-01
1.109837412834167480e+00,-2.494330167770385742e+00,-4.324040114879608154e-01
1.111257195472717285e+00,-2.497521162033081055e+00,-3.356419503688812256e-01
1.112560153007507324e+00,-2.500449657440185547e+00,-2.394380420446395874e-01
1.113930583000183105e+00,-2.503529548645019531e+00,-1.436057239770889282e-01
1.115288496017456055e+00,-2.506581306457519531e+00,-4.788798466324806213e-02
1.116636633872985840e+00,-2.509611368179321289e+00,4.794587194919586182e-02
1.118061900138854980e+00,-2.512814521789550781e+00,1.441383212804794312e-01
1.119386792182922363e+00,-2.515792131423950195e+00,2.409072071313858032e-01
1.120805740356445312e+00,-2.518981218338012695e+00,3.385259211063385010e-01
1.122171401977539062e+00,-2.522050380706787109e+00,4.372094571590423584e-01
1.123665332794189453e+00,-2.525408267974853516e+00,5.372879505157470703e-01
1.125036954879760742e+00,-2.528490781784057617e+00,6.389232873916625977e-01
1.149691462516784668e+00,-2.487426757812500000e+00,-7.342521548271179199e-01
1.151271700859069824e+00,-2.490845680236816406e+00,-6.335098743438720703e-01
1.152713060379028320e+00,-2.493964195251464844e+00,-5.340537428855895996e-01
1.154224634170532227e+00,-2.497234344482421875e+00,-4.357268214225769043e-01
1.155555009841918945e+00,-2.500113010406494141e+00,-3.381783962249755859e-01
1.156983733177185059e+00,-2.503203868865966797e+00,-2.412628680467605591e-01
1.158405423164367676e+00,-2.506279945373535156e+00,-1.446997672319412231e-01
1.159817695617675781e+00,-2.509335517883300781e+00,-4.825281724333763123e-02
1.161223053932189941e+00,-2.512376070022583008e+00,4.831128567457199097e-02
1.162631392478942871e+00,-2.515423059463500977e+00,1.452276408672332764e-01
1.164155960083007812e+00,-2.518721580505371094e+00,2.427584826946258545e-01
1.165522813796997070e+00,-2.521678924560546875e+00,3.410955071449279785e-01
1.166992664337158203e+00,-2.524858951568603516e+00,4.405468404293060303e-01
1.168361544609069824e+00,-2.527820587158203125e+00,5.413036942481994629e-01
1.170120120048522949e+00,-2.531625509262084961e+00,6.438816189765930176e-01
1.194532394409179688e+00,-2.490227460861206055e+00,-7.400500774383544922e-01
1.196122288703918457e+00,-2.493541955947875977e+00,-6.384845972061157227e-01
1.197584986686706543e+00,-2.496591329574584961e+00,-5.382318496704101562e-01
1.199135065078735352e+00,-2.499822616577148438e+00,-4.391282796859741211e-01
1.200618863105773926e+00,-2.502916097640991211e+00,-3.408471941947937012e-01
1.202082872390747070e+00,-2.505967855453491211e+00,-2.431627064943313599e-01
1.203579545021057129e+00,-2.509088039398193359e+00,-1.458415687084197998e-01
1.205046772956848145e+00,-2.512146711349487305e+00,-4.863357171416282654e-02
1.206487894058227539e+00,-2.515151023864746094e+00,4.869173094630241394e-02
1.207971334457397461e+00,-2.518243551254272461e+00,1.463737487792968750e-01
1.209453225135803223e+00,-2.521332740783691406e+00,2.446536123752593994e-01
1.210893869400024414e+00,-2.524336099624633789e+00,3.437641561031341553e-01
1.212455868721008301e+00,-2.527592420578002930e+00,4.440063834190368652e-01
1.213930845260620117e+00,-2.530667304992675781e+00,5.455781817436218262e-01
1.215525031089782715e+00,-2.533990621566772461e+00,6.488416790962219238e-01
1.240247726440429688e+00,-2.493377208709716797e+00,-7.461853623390197754e-01
1.241826772689819336e+00,-2.496551752090454102e+00,-6.437407135963439941e-01
1.243286728858947754e+00,-2.499486923217773438e+00,-5.426370501518249512e-01
1.244848608970642090e+00,-2.502626657485961914e+00,-4.427054822444915771e-01
1.246357798576354980e+00,-2.505660772323608398e+00,-3.436151742935180664e-01
1.247924208641052246e+00,-2.508810043334960938e+00,-2.451465874910354614e-01
1.249418735504150391e+00,-2.511814594268798828e+00,-1.470244675874710083e-01
1.250941872596740723e+00,-2.514876842498779297e+00,-4.902803525328636169e-02
1.252497315406799316e+00,-2.518003702163696289e+00,4.908899217844009399e-02
1.253990650177001953e+00,-2.521005868911743164e+00,1.475624740123748779e-01
1.255560278892517090e+00,-2.524161577224731445e+00,2.466466575860977173e-01
1.257103323936462402e+00,-2.527263641357421875e+00,3.465777039527893066e-01
1.258784532546997070e+00,-2.530643463134765625e+00,4.476615190505981445e-01
1.260388612747192383e+00,-2.533868312835693359e+00,5.501011610031127930e-01
1.261827945709228516e+00,-2.536761999130249023e+00,6.541090011596679688e-01
1.286329984664916992e+00,-2.495790958404541016e+00,-7.523406744003295898e-01
1.287951707839965820e+00,-2.498937368392944336e+00,-6.490428447723388672e-01
1.289644122123718262e+00,-2.502220869064331055e+00,-5.471820235252380371e-01
1.291228890419006348e+00,-2.505295753479003906e+00,-4.464012980461120605e-01
1.292772293090820312e+00,-2.508290290832519531e+00,-3.464778661727905273e-01
1.294387102127075195e+00,-2.511423587799072266e+00,-2.471870332956314087e-01
1.295964598655700684e+00,-2.514484405517578125e+00,-1.482513397932052612e-01
1.297544479370117188e+00,-2.517549514770507812e+00,-4.943715035915374756e-02
1.299130558967590332e+00,-2.520627021789550781e+00,4.949758201837539673e-02
1.300689697265625000e+00,-2.523652076721191406e+00,1.487918645143508911e-01
1.302339911460876465e+00,-2.526854038238525391e+00,2.487057596445083618e-01
1.303976058959960938e+00,-2.530028343200683594e+00,3.494805991649627686e-01
1.305539608001708984e+00,-2.533061981201171875e+00,4.513487517833709717e-01
1.307219386100769043e+00,-2.536321401596069336e+00,5.546390414237976074e-01
1.309039950370788574e+00,-2.539853572845458984e+00,6.596699357032775879e-01
1.333622932434082031e+00,-2.499058961868286133e+00,-7.590022683143615723e-01
1.335282444953918457e+00,-2.502168893814086914e+00,-6.547791361808776855e-01
1.337016463279724121e+00,-2.505418062210083008e+00,-5.520095229148864746e-01
1.338646650314331055e+00,-2.508472919464111328e+00,-4.503353536128997803e-01
1.340241909027099609e+00,-2.511462211608886719e+00,-3.495300710201263428e-01
1.341917395591735840e+00,-2.514601945877075195e+00,-2.493648082017898560e-01
1.343564271926879883e+00,-2.517687797546386719e+00,-1.495587378740310669e-01
1.345202088356018066e+00,-2.520756959915161133e+00,-4.987312480807304382e-02
1.346834778785705566e+00,-2.523816585540771484e+00,4.993365705013275146e-02
1.348450183868408203e+00,-2.526843547821044922e+00,1.501026153564453125e-01
1.350165843963623047e+00,-2.530058622360229492e+00,2.508975863456726074e-01
1.351875185966491699e+00,-2.533261775970458984e+00,3.525639772415161133e-01
1.353516936302185059e+00,-2.536338090896606445e+00,4.553378820419311523e-01
1.355280399322509766e+00,-2.539642572402954102e+00,5.595501065254211426e-01
1.356884717941284180e+00,-2.542649030685424805e+00,6.653721928596496582e-01
1.381539106369018555e+00,-2.501966714859008789e+00,-7.658127546310424805e-01
1.383255600929260254e+00,-2.505075216293334961e+00,-6.606531739234924316e-01
1.385047078132629395e+00,-2.508319616317749023e+00,-5.569596886634826660e-01
1.386735677719116211e+00,-2.511377573013305664e+00,-4.543736875057220459e-01
1.388498067855834961e+00,-2.514569282531738281e+00,-3.526923358440399170e-01
1.390199661254882812e+00,-2.517650842666625977e+00,-2.516146600246429443e-01
1.391856789588928223e+00,-2.520651817321777344e+00,-1.509028077125549316e-01
1.393553614616394043e+00,-2.523724794387817383e+00,-5.032133311033248901e-02
1.395294070243835449e+00,-2.526876688003540039e+00,5.038417875766754150e-02
1.397002339363098145e+00,-2.529970407485961914e+00,1.514606773853302002e-01
1.398668885231018066e+00,-2.532988786697387695e+00,2.531475424766540527e-01
1.400439739227294922e+00,-2.536195755004882812e+00,3.557256460189819336e-01
1.402145266532897949e+00,-2.539284229278564453e+00,4.594227373600006104e-01
1.403975009918212891e+00,-2.542598009109497070e+00,5.645710825920104980e-01
1.405642271041870117e+00,-2.545617341995239258e+00,6.713451743125915527e-01
1.430063247680664062e+00,-2.504455089569091797e+00,-7.727605700492858887e-01
1.432084918022155762e+00,-2.507995367050170898e+00,-6.667608618736267090e-01
1.433721542358398438e+00,-2.510861873626708984e+00,-5.620233416557312012e-01
1.435630559921264648e+00,-2.514204978942871094e+00,-4.585561156272888184e-01
1.437318205833435059e+00,-2.517160654067993164e+00,-3.559049069881439209e-01
1.439095020294189453e+00,-2.520272254943847656e+00,-2.539092600345611572e-01
1.440850853919982910e+00,-2.523347377777099609e+00,-1.522832214832305908e-01
1.442607164382934570e+00,-2.526422977447509766e+00,-5.078165233135223389e-02
1.444368600845336914e+00,-2.529507637023925781e+00,5.084365606307983398e-02
1.446121811866760254e+00,-2.532578229904174805e+00,1.528403162956237793e-01
1.447985053062438965e+00,-2.535841226577758789e+00,2.554777562618255615e-01
1.449655652046203613e+00,-2.538767099380493164e+00,3.589598536491394043e-01
1.451641678810119629e+00,-2.542245149612426758e+00,4.636702239513397217e-01
1.453287124633789062e+00,-2.545126914978027344e+00,5.696930885314941406e-01
1.455306649208068848e+00,-2.548663377761840820e+00,6.775726079940795898e-01
1.480123996734619141e+00,-2.508070230484008789e+00,-7.803331017494201660e-01
1.482127547264099121e+00,-2.511465311050415039e+00,-6.732543110847473145e-01
1.483956456184387207e+00,-2.514564514160156250e+00,-5.675483942031860352e-01
1.485705018043518066e+00,-2.517527341842651367e+00,-4.629931747913360596e-01
1.487560868263244629e+00,-2.520672082901000977e+00,-3.593751192092895508e-01
1.489384889602661133e+00,-2.523762941360473633e+00,-2.563824057579040527e-01
1.491239428520202637e+00,-2.526905536651611328e+00,-1.537703573703765869e-01
1.493057131767272949e+00,-2.529985666275024414e+00,-5.127756670117378235e-02
1.494842529296875000e+00,-2.533010721206665039e+00,5.133888125419616699e-02
1.496671557426452637e+00,-2.536110162734985352e+00,1.543305069208145142e-01
1.498489856719970703e+00,-2.539191484451293945e+00,2.579497396945953369e-01
1.500448584556579590e+00,-2.542510271072387695e+00,3.624885976314544678e-01
1.502367615699768066e+00,-2.545762062072753906e+00,4.681857824325561523e-01
1.504161119461059570e+00,-2.548801183700561523e+00,5.752757787704467773e-01
1.506050467491149902e+00,-2.552002668380737305e+00,6.841212511062622070e-01
1.530963182449340820e+00,-2.511392354965209961e+00,-7.881038188934326172e-01
1.532770514488220215e+00,-2.514357089996337891e+00,-6.798411607742309570e-01
1.534692764282226562e+00,-2.517510175704956055e+00,-5.731126070022583008e-01
1.536695480346679688e+00,-2.520795583724975586e+00,-4.675914645195007324e-01
1.538602471351623535e+00,-2.523923635482788086e+00,-3.629413247108459473e-01
1.540472865104675293e+00,-2.526992082595825195e+00,-2.589238584041595459e-01
1.542348623275756836e+00,-2.530068874359130859e+00,-1.552903801202774048e-01
1.544228434562683105e+00,-2.533152580261230469e+00,-5.178443714976310730e-02
1.546117424964904785e+00,-2.536251068115234375e+00,5.184778198599815369e-02
1.548025727272033691e+00,-2.539381504058837891e+00,1.558619737625122070e-01
1.549919605255126953e+00,-2.542488336563110352e+00,2.605116665363311768e-01
1.551749229431152344e+00,-2.545489549636840820e+00,3.660425245761871338e-01
1.553702592849731445e+00,-2.548693895339965820e+00,4.727664291858673096e-01
1.555826067924499512e+00,-2.552177190780639648e+00,5.810045599937438965e-01
1.557799458503723145e+00,-2.555414438247680664e+00,6.909424662590026855e-01
1.582409381866455078e+00,-2.514104127883911133e+00,-7.959810495376586914e-01
1.584297299385070801e+00,-2.517103672027587891e+00,-6.866449117660522461e-01
1.586304187774658203e+00,-2.520292043685913086e+00,-5.788555145263671875e-01
1.588390111923217773e+00,-2.523606300354003906e+00,-4.722817242145538330e-01
1.590367436408996582e+00,-2.526747703552246094e+00,-3.665833175182342529e-01
1.592296600341796875e+00,-2.529812812805175781e+00,-2.615213990211486816e-01
1.594220876693725586e+00,-2.532870054244995117e+00,-1.568468064069747925e-01
1.596163988113403320e+00,-2.535957336425781250e+00,-5.230345949530601501e-02
