9.754844903945922852e-01,-2.580698966979980469e+00,4.369675517082214355e-01
9.767092466354370117e-01,-2.583939075469970703e+00,5.369500517845153809e-01
9.780669808387756348e-01,-2.587531089782714844e+00,6.386295557022094727e-01
1.003885388374328613e+00,-2.545090913772583008e+00,-7.330871820449829102e-01
1.005105376243591309e+00,-2.548183917999267578e+00,-6.324042081832885742e-01
1.006418228149414062e+00,-2.551512241363525391e+00,-5.331504940986633301e-01
1.007655382156372070e+00,-2.554648637771606445e+00,-4.349542558193206787e-01
1.008960485458374023e+00,-2.557957649230957031e+00,-3.376268744468688965e-01
1.010152578353881836e+00,-2.560979843139648438e+00,-2.408562004566192627e-01
1.011406302452087402e+00,-2.564158439636230469e+00,-1.444576382637023926e-01
1.012644410133361816e+00,-2.567297220230102539e+00,-4.817231371998786926e-02
1.013869762420654297e+00,-2.570403814315795898e+00,4.823060706257820129e-02
1.015166401863098145e+00,-2.573691129684448242e+00,1.449946761131286621e-01
1.016364216804504395e+00,-2.576727867126464844e+00,2.423372864723205566e-01
1.017652392387390137e+00,-2.579993486404418945e+00,3.405354022979736328e-01
1.018892049789428711e+00,-2.583136320114135742e+00,4.398045837879180908e-01
1.020260453224182129e+00,-2.586605787277221680e+00,5.404834151268005371e-01
1.021521329879760742e+00,-2.589802503585815430e+00,6.427329778671264648e-01
1.047610044479370117e+00,-2.548469543457031250e+00,-7.383038997650146484e-01
1.049024939537048340e+00,-2.551911592483520508e+00,-6.369905471801757812e-01
1.050319194793701172e+00,-2.555059909820556641e+00,-5.369781255722045898e-01
1.051559448242187500e+00,-2.558077096939086914e+00,-4.380557537078857422e-01
1.052894592285156250e+00,-2.561324834823608398e+00,-3.400256633758544922e-01
1.054197669029235840e+00,-2.564495086669921875e+00,-2.425810694694519043e-01
1.055497050285339355e+00,-2.567656040191650391e+00,-1.454909145832061768e-01
1.056789040565490723e+00,-2.570798873901367188e+00,-4.851687699556350708e-02
1.058077096939086914e+00,-2.573932170867919922e+00,4.857600852847099304e-02
1.059370636940002441e+00,-2.577079057693481445e+00,1.460248529911041260e-01
1.060647845268249512e+00,-2.580185890197753906e+00,2.440652996301651001e-01
1.062043786048889160e+00,-2.583581686019897461e+00,3.429803550243377686e-01
1.063414812088012695e+00,-2.586916923522949219e+00,4.429944157600402832e-01
1.064699053764343262e+00,-2.590041160583496094e+00,5.443298816680908203e-01
1.066100358963012695e+00,-2.593450069427490234e+00,6.473590731620788574e-01
1.091673254966735840e+00,-2.551202297210693359e+00,-7.435461878776550293e-01
1.093085527420043945e+00,-2.554502725601196289e+00,-6.414769887924194336e-01
1.094568133354187012e+00,-2.557967424392700195e+00,-5.408264398574829102e-01
1.095945954322814941e+00,-2.561187505722045898e+00,-4.412294924259185791e-01
1.097274184226989746e+00,-2.564291715621948242e+00,-3.424694240093231201e-01
1.098596215248107910e+00,-2.567380905151367188e+00,-2.443164736032485962e-01
1.099961042404174805e+00,-2.570570707321166992e+00,-1.465331763029098511e-01
1.101307630538940430e+00,-2.573717594146728516e+00,-4.886444658041000366e-02
1.102638959884643555e+00,-2.576828956604003906e+00,4.892351850867271423e-02
1.104023694992065430e+00,-2.580064773559570312e+00,1.470743715763092041e-01
1.105418562889099121e+00,-2.583324432373046875e+00,2.458336800336837769e-01
1.106786966323852539e+00,-2.586522579193115234e+00,3.454384505748748779e-01
1.108080029487609863e+00,-2.589544296264648438e+00,4.461146593093872070e-01
1.109481453895568848e+00,-2.592819690704345703e+00,5.481951236724853516e-01
1.111023664474487305e+00,-2.596423625946044922e+00,6.520040035247802734e-01
1.136604666709899902e+00,-2.554488897323608398e+00,-7.491688728332519531e-01
1.137992858886718750e+00,-2.557608842849731445e+00,-6.462811231613159180e-01
1.139472126960754395e+00,-2.560933351516723633e+00,-5.448460578918457031e-01
1.140865683555603027e+00,-2.564065456390380859e+00,-4.444929659366607666e-01
1.142331004142761230e+00,-2.567358732223510742e+00,-3.450273871421813965e-01
1.143676400184631348e+00,-2.570382356643676758e+00,-2.461346685886383057e-01
1.145090937614440918e+00,-2.573561668395996094e+00,-1.476228684186935425e-01
1.146492719650268555e+00,-2.576712131500244141e+00,-4.922782629728317261e-02
1.147885322570800781e+00,-2.579841852188110352e+00,4.928761720657348633e-02
1.149357795715332031e+00,-2.583151102066040039e+00,1.481729149818420410e-01
1.150726675987243652e+00,-2.586227893829345703e+00,2.476519942283630371e-01
1.152192592620849609e+00,-2.589522361755371094e+00,3.480059802532196045e-01
1.153603911399841309e+00,-2.592694282531738281e+00,4.494559168815612793e-01
1.155146718025207520e+00,-2.596161842346191406e+00,5.523409843444824219e-01
1.156563282012939453e+00,-2.599345445632934570e+00,6.568275690078735352e-01
1.181923747062683105e+00,-2.557163238525390625e+00,-7.548373341560363770e-01
1.183554649353027344e+00,-2.560691833496093750e+00,-6.512742638587951660e-01
1.185042738914489746e+00,-2.563911437988281250e+00,-5.490320920944213867e-01
1.186602830886840820e+00,-2.567286729812622070e+00,-4.479498267173767090e-01
1.187976956367492676e+00,-2.570259809494018555e+00,-3.476668298244476318e-01
1.189451813697814941e+00,-2.573450565338134766e+00,-2.480333596467971802e-01
1.190919637680053711e+00,-2.576626539230346680e+00,-1.487612128257751465e-01
1.192377567291259766e+00,-2.579780578613281250e+00,-4.960742965340614319e-02
1.193829298019409180e+00,-2.582921743392944336e+00,4.966783151030540466e-02
1.195284366607666016e+00,-2.586069822311401367e+00,1.493064165115356445e-01
1.196859598159790039e+00,-2.589477777481079102e+00,2.495780885219573975e-01
1.198272228240966797e+00,-2.592534303665161133e+00,3.506798148155212402e-01
1.199791073799133301e+00,-2.595820188522338867e+00,4.529284536838531494e-01
1.201205730438232422e+00,-2.598881006240844727e+00,5.565204620361328125e-01
1.203020811080932617e+00,-2.602807998657226562e+00,6.619858145713806152e-01
1.228136301040649414e+00,-2.560281276702880859e+00,-7.608687877655029297e-01
1.229777693748474121e+00,-2.563703060150146484e+00,-6.564497351646423340e-01
1.231288075447082520e+00,-2.566851615905761719e+00,-5.533790588378906250e-01
1.232888221740722656e+00,-2.570187568664550781e+00,-4.514888226985931396e-01
1.234420418739318848e+00,-2.573381423950195312e+00,-3.504431843757629395e-01
1.235932111740112305e+00,-2.576532840728759766e+00,-2.500098645687103271e-01
1.237477183341979980e+00,-2.579754114151000977e+00,-1.499490588903427124e-01
1.238992452621459961e+00,-2.582912683486938477e+00,-5.000355467200279236e-02
1.240480661392211914e+00,-2.586015224456787109e+00,5.006361752748489380e-02
1.242013812065124512e+00,-2.589211463928222656e+00,1.504987627267837524e-01
1.243545293807983398e+00,-2.592404127120971680e+00,2.515498995780944824e-01
1.245034217834472656e+00,-2.595508098602294922e+00,3.534563779830932617e-01
1.246648669242858887e+00,-2.598873853683471680e+00,4.565279483795166016e-01
1.248172998428344727e+00,-2.602051496505737305e+00,5.609676241874694824e-01
1.249819517135620117e+00,-2.605483770370483398e+00,6.671479344367980957e-01
1.275257468223571777e+00,-2.563760519027709961e+00,-7.672487497329711914e-01
1.276888370513916016e+00,-2.567039012908935547e+00,-6.619159579277038574e-01
1.278396487236022949e+00,-2.570070981979370117e+00,-5.579608082771301270e-01
1.280009269714355469e+00,-2.573313474655151367e+00,-4.552097022533416748e-01
1.281567931175231934e+00,-2.576446771621704102e+00,-3.533224761486053467e-01
1.283185124397277832e+00,-2.579698085784912109e+00,-2.520733773708343506e-01
1.284728884696960449e+00,-2.582801580429077148e+00,-1.511795669794082642e-01
1.286301612854003906e+00,-2.585963487625122070e+00,-5.041388422250747681e-02
1.287907958030700684e+00,-2.589192867279052734e+00,5.047684162855148315e-02
1.289451599121093750e+00,-2.592296123504638672e+00,1.517353206872940063e-01
1.291074037551879883e+00,-2.595557928085327148e+00,2.536230981349945068e-01
1.292669057846069336e+00,-2.598764419555664062e+00,3.563829958438873291e-01
1.294406414031982422e+00,-2.602257013320922852e+00,4.603297114372253418e-01
1.296064019203186035e+00,-2.605589628219604492e+00,5.656718611717224121e-01
1.297551751136779785e+00,-2.608580589294433594e+00,6.726275682449340820e-01
1.322766900062561035e+00,-2.566487073898315430e+00,-7.736515998840332031e-01
1.324441790580749512e+00,-2.569736957550048828e+00,-6.674314141273498535e-01
1.326189160346984863e+00,-2.573127031326293945e+00,-5.626876950263977051e-01
1.327826142311096191e+00,-2.576303243637084961e+00,-4.590536057949066162e-01
1.329420447349548340e+00,-2.579396724700927734e+00,-3.562999963760375977e-01
1.331088185310363770e+00,-2.582632541656494141e+00,-2.541957795619964600e-01
1.332717418670654297e+00,-2.585793733596801758e+00,-1.524556577205657959e-01
1.334349393844604492e+00,-2.588959932327270508e+00,-5.083943530917167664e-02
1.335987329483032227e+00,-2.592138051986694336e+00,5.090184509754180908e-02
1.337598800659179688e+00,-2.595264673233032227e+00,1.530140638351440430e-01
1.339304447174072266e+00,-2.598574161529541016e+00,2.557648122310638428e-01
1.340996026992797852e+00,-2.601855993270874023e+00,3.594023883342742920e-01
1.342612624168395996e+00,-2.604992628097534180e+00,4.641655981540679932e-01
1.344349145889282227e+00,-2.608361959457397461e+00,5.703927874565124512e-01
1.346229553222656250e+00,-2.612010240554809570e+00,6.784110069274902344e-01
1.371535301208496094e+00,-2.570102691650390625e+00,-7.805792689323425293e-01
1.373249769210815430e+00,-2.573315143585205078e+00,-6.733970046043395996e-01
1.375040531158447266e+00,-2.576670885086059570e+00,-5.677084326744079590e-01
1.376724720001220703e+00,-2.579826831817626953e+00,-4.631452262401580811e-01
1.378372669219970703e+00,-2.582915067672729492e+00,-3.594744503498077393e-01
1.380103230476379395e+00,-2.586157798767089844e+00,-2.564607560634613037e-01
1.381804227828979492e+00,-2.589345216751098633e+00,-1.538154184818267822e-01
1.383496165275573730e+00,-2.592515945434570312e+00,-5.129287391901016235e-02
1.385182976722717285e+00,-2.595676660537719727e+00,5.135541036725044250e-02
1.386852383613586426e+00,-2.598804950714111328e+00,1.543773561716079712e-01
1.388626098632812500e+00,-2.602128744125366211e+00,2.580445706844329834e-01
1.390393257141113281e+00,-2.605440139770507812e+00,3.626093566417694092e-01
1.392090916633605957e+00,-2.608621358871459961e+00,4.683145880699157715e-01
1.393914222717285156e+00,-2.612038135528564453e+00,5.755007266998291016e-01
1.395572662353515625e+00,-2.615145683288574219e+00,6.843434572219848633e-01
1.420955300331115723e+00,-2.573349237442016602e+00,-7.876618504524230957e-01
1.422728657722473145e+00,-2.576560735702514648e+00,-6.795057654380798340e-01
1.424579143524169922e+00,-2.579911947250366211e+00,-5.728564858436584473e-01
1.426323890686035156e+00,-2.583071947097778320e+00,-4.673450589179992676e-01
1.428144216537475586e+00,-2.586368560791015625e+00,-3.627628684043884277e-01
1.429902434349060059e+00,-2.589552640914916992e+00,-2.588005363941192627e-01
1.431614398956298828e+00,-2.592653036117553711e+00,-1.552132666110992432e-01
1.433367371559143066e+00,-2.595827579498291016e+00,-5.175901204347610474e-02
1.435165762901306152e+00,-2.599084377288818359e+00,5.182395130395889282e-02
1.436930656433105469e+00,-2.602280616760253906e+00,1.557896435260772705e-01
1.438654541969299316e+00,-2.605402708053588867e+00,2.603845894336700439e-01
1.440485477447509766e+00,-2.608718633651733398e+00,3.658976852893829346e-01
1.442249298095703125e+00,-2.611912727355957031e+00,4.725631177425384521e-01
1.444141268730163574e+00,-2.615339040756225586e+00,5.807228684425354004e-01
1.445865392684936523e+00,-2.618461370468139648e+00,6.905560493469238281e-01
1.471010923385620117e+00,-2.576166152954101562e+00,-7.948873043060302734e-01
1.473098635673522949e+00,-2.579822540283203125e+00,-6.858564019203186035e-01
1.474790573120117188e+00,-2.582785606384277344e+00,-5.781224966049194336e-01
1.476762413978576660e+00,-2.586238861083984375e+00,-4.716940522193908691e-01
1.478506445884704590e+00,-2.589293241500854492e+00,-3.661038279533386230e-01
1.480342268943786621e+00,-2.592508077621459961e+00,-2.611867785453796387e-01
1.482156515121459961e+00,-2.595685482025146484e+00,-1.566488146781921387e-01
1.483971357345581055e+00,-2.598863840103149414e+00,-5.223772674798965454e-02
1.485791325569152832e+00,-2.602051019668579102e+00,5.230179429054260254e-02
1.487603068351745605e+00,-2.605223894119262695e+00,1.572244465351104736e-01
1.489529848098754883e+00,-2.608598232269287109e+00,2.628078162670135498e-01
1.491258025169372559e+00,-2.611624717712402344e+00,3.692613244056701660e-01
1.493311285972595215e+00,-2.615220785140991211e+00,4.769799709320068359e-01
1.495014309883117676e+00,-2.618203163146972656e+00,5.860502719879150391e-01
1.497101664543151855e+00,-2.621858596801757812e+00,6.970318555831909180e-01
1.522658824920654297e+00,-2.580145597457885742e+00,-8.027577996253967285e-01
1.524728894233703613e+00,-2.583653211593627930e+00,-6.926059126853942871e-01
1.526619434356689453e+00,-2.586856842041015625e+00,-5.838651061058044434e-01
1.528426408767700195e+00,-2.589918851852416992e+00,-4.763065278530120850e-01
1.530344605445861816e+00,-2.593169212341308594e+00,-3.697111010551452637e-01
1.532230019569396973e+00,-2.596364021301269531e+00,-2.637577652931213379e-01
1.534146428108215332e+00,-2.599611520767211914e+00,-1.581947505474090576e-01
1.536025285720825195e+00,-2.602795124053955078e+00,-5.275326222181320190e-02
1.537870645523071289e+00,-2.605922222137451172e+00,5.281664058566093445e-02
1.539761185646057129e+00,-2.609125614166259766e+00,1.587737202644348145e-01
1.541641712188720703e+00,-2.612312078475952148e+00,2.653778791427612305e-01
1.543667078018188477e+00,-2.615744113922119141e+00,3.729296326637268066e-01
1.545651793479919434e+00,-2.619107246398925781e+00,4.816745221614837646e-01
1.547507286071777344e+00,-2.622251510620117188e+00,5.918538570404052734e-01
1.549461603164672852e+00,-2.625562906265258789e+00,7.038407325744628906e-01
1.575125098228454590e+00,-2.583835363388061523e+00,-8.108372688293457031e-01
1.576994061470031738e+00,-2.586901187896728516e+00,-6.994559764862060547e-01
1.578981161117553711e+00,-2.590160846710205078e+00,-5.896515250205993652e-01
1.581050157546997070e+00,-2.593554973602294922e+00,-4.810878634452819824e-01
1.583021521568298340e+00,-2.596788644790649414e+00,-3.734193444252014160e-01
1.584954977035522461e+00,-2.599960327148437500e+00,-2.664004266262054443e-01
1.586893916130065918e+00,-2.603141069412231445e+00,-1.597753912210464478e-01
1.588837146759033203e+00,-2.606328725814819336e+00,-5.328035354614257812e-02
1.590790033340454102e+00,-2.609532356262207031e+00,5.334584414958953857e-02
1.592762589454650879e+00,-2.612767934799194336e+00,1.603662669658660889e-01
1.594721198081970215e+00,-2.615980863571166992e+00,2.680419683456420898e-01
1.596614122390747070e+00,-2.619086027145385742e+00,3.766257166862487793e-01
1.598634719848632812e+00,-2.622400522232055664e+00,4.864385426044464111e-01
1.600831031799316406e+00,-2.626003503799438477e+00,5.978111028671264648e-01
1.602872371673583984e+00,-2.629352092742919922e+00,7.109339833259582520e-01
1.628227114677429199e+00,-2.586898565292358398e+00,-8.190281987190246582e-01
1.630179882049560547e+00,-2.590001106262207031e+00,-7.065306901931762695e-01
1.632254242897033691e+00,-2.593296766281127930e+00,-5.956230759620666504e-01
1.634409785270690918e+00,-2.596721649169921875e+00,-4.859649240970611572e-01
1.636453866958618164e+00,-2.599969148635864258e+00,-3.772063255310058594e-01
1.638448596000671387e+00,-2.603138446807861328e+00,-2.691014707088470459e-01
1.640438318252563477e+00,-2.606299638748168945e+00,-1.613938957452774048e-01
1.642447471618652344e+00,-2.609491586685180664e+00,-5.382008850574493408e-02
1.644481062889099121e+00,-2.612722635269165039e+00,5.388672649860382080e-02
1.646524429321289062e+00,-2.615968942642211914e+00,1.619926691055297852e-01
1.648542761802673340e+00,-2.619175672531127930e+00,2.707593441009521484e-01
1.650483012199401855e+00,-2.622258424758911133e+00,3.804400861263275146e-01
1.652551293373107910e+00,-2.625544309616088867e+00,4.913589656352996826e-01
1.654800891876220703e+00,-2.629118680953979492e+00,6.038505434989929199e-01
1.656885147094726562e+00,-2.632430076599121094e+00,7.181049585342407227e-01
1.682525396347045898e+00,-2.590180635452270508e+00,-8.276073336601257324e-01
1.684879422187805176e+00,-2.593804836273193359e+00,-7.140739560127258301e-01
1.686774611473083496e+00,-2.596722126007080078e+00,-6.018934249877929688e-01
1.689035773277282715e+00,-2.600203275680541992e+00,-4.910906255245208740e-01
1.691167235374450684e+00,-2.603484392166137695e+00,-3.811891973018646240e-01
1.693151235580444336e+00,-2.606538772583007812e+00,-2.719304263591766357e-01
1.695250034332275391e+00,-2.609769821166992188e+00,-1.630946844816207886e-01
1.697325944900512695e+00,-2.612965583801269531e+00,-5.438723787665367126e-02
1.699384808540344238e+00,-2.616135120391845703e+00,5.445320904254913330e-02
1.701575040817260742e+00,-2.619506835937500000e+00,1.637031883001327515e-01
1.703641891479492188e+00,-2.622688770294189453e+00,2.736153006553649902e-01
1.705613017082214355e+00,-2.625723361968994141e+00,3.844452798366546631e-01
1.708002924919128418e+00,-2.629402399063110352e+00,4.966053664684295654e-01
1.709986090660095215e+00,-2.632455348968505859e+00,6.101759672164916992e-01
1.712084650993347168e+00,-2.635685920715332031e+00,7.256038784980773926e-01
1.738419175148010254e+00,-2.594181537628173828e+00,-8.367503881454467773e-01
1.740573406219482422e+00,-2.597396135330200195e+00,-7.218474149703979492e-01
1.742843747138977051e+00,-2.600784063339233398e+00,-6.085547804832458496e-01
1.744979739189147949e+00,-2.603971481323242188e+00,-4.964687228202819824e-01
1.747072100639343262e+00,-2.607093811035156250e+00,-3.853395283222198486e-01
1.749275088310241699e+00,-2.610381364822387695e+00,-2.749152779579162598e-01
1.751436114311218262e+00,-2.613606214523315430e+00,-1.648841947317123413e-01
1.753581285476684570e+00,-2.616807222366333008e+00,-5.498400330543518066e-02
1.755715727806091309e+00,-2.619992494583129883e+00,5.505092814564704895e-02
1.757823944091796875e+00,-2.623138427734375000e+00,1.654855757951736450e-01
1.760069966316223145e+00,-2.626490116119384766e+00,2.766118049621582031e-01
1.762309312820434570e+00,-2.629831790924072266e+00,3.887003064155578613e-01
1.764462113380432129e+00,-2.633044242858886719e+00,5.020117163658142090e-01
1.766793608665466309e+00,-2.636523723602294922e+00,6.169174909591674805e-01
1.768924355506896973e+00,-2.639703035354614258e+00,7.336050868034362793e-01
1.795623540878295898e+00,-2.598344564437866211e+00,-8.462965488433837891e-01
1.797898411750793457e+00,-2.601636409759521484e+00,-7.301028966903686523e-01
1.800010919570922852e+00,-2.604693174362182617e+00,-6.154350638389587402e-01
1.802285909652709961e+00,-2.607985258102416992e+00,-5.021009445190429688e-01
1.804643034934997559e+00,-2.611396312713623047e+00,-3.897534012794494629e-01
1.806791305541992188e+00,-2.614504814147949219e+00,-2.780447006225585938e-01
1.809020400047302246e+00,-2.617730617523193359e+00,-1.667608469724655151e-01
1.811236500740051270e+00,-2.620937108993530273e+00,-5.560981854796409607e-02
1.813444495201110840e+00,-2.624132156372070312e+00,5.567761138081550598e-02
1.815750122070312500e+00,-2.627468585968017578e+00,1.673812121152877808e-01
1.817872285842895508e+00,-2.630539655685424805e+00,2.797499597072601318e-01
1.820115566253662109e+00,-2.633785486221313477e+00,3.930950462818145752e-01
1.822575092315673828e+00,-2.637344598770141602e+00,5.077533721923828125e-01
1.824933290481567383e+00,-2.640757083892822266e+00,6.239562034606933594e-01
1.827063202857971191e+00,-2.643839120864868164e+00,7.419463396072387695e-01
1.854164958000183105e+00,-2.602611303329467773e+00,-8.562425971031188965e-01
1.856594324111938477e+00,-2.606021404266357422e+00,-7.387153506278991699e-01
1.858829855918884277e+00,-2.609158992767333984e+00,-6.227129697799682617e-01
1.861210465431213379e+00,-2.612500905990600586e+00,-5.080471634864807129e-01
1.863489866256713867e+00,-2.615700244903564453e+00,-3.943363726139068604e-01
1.865739703178405762e+00,-2.618858098983764648e+00,-2.813188731670379639e-01
1.868010759353637695e+00,-2.622045993804931641e+00,-1.687217950820922852e-01
1.870298862457275391e+00,-2.625257730484008789e+00,-5.626372992992401123e-02
1.872610092163085938e+00,-2.628501892089843750e+00,5.633325874805450439e-02
1.874959588050842285e+00,-2.631799697875976562e+00,1.693494170904159546e-01
1.877307772636413574e+00,-2.635095834732055664e+00,2.830631136894226074e-01
1.879592895507812500e+00,-2.638303279876708984e+00,3.977439403533935547e-01
1.882078051567077637e+00,-2.641791582107543945e+00,5.137432813644409180e-01
1.884431481361389160e+00,-2.645095109939575195e+00,6.312896013259887695e-01
1.886987328529357910e+00,-2.648682594299316406e+00,7.508083581924438477e-01
1.913023948669433594e+00,-2.605499505996704102e+00,-8.661125898361206055e-01
1.915666937828063965e+00,-2.609099149703979492e+00,-7.472838759422302246e-01
1.918073892593383789e+00,-2.612377405166625977e+00,-6.299689412117004395e-01
1.920365452766418457e+00,-2.615498542785644531e+00,-5.139228701591491699e-01
1.922809481620788574e+00,-2.618827104568481445e+00,-3.989160656929016113e-01
1.925181865692138672e+00,-2.622058391571044922e+00,-2.845935523509979248e-01
1.927534341812133789e+00,-2.625262260437011719e+00,-1.706865876913070679e-01
1.929895758628845215e+00,-2.628478527069091797e+00,-5.691894516348838806e-02
1.932271480560302734e+00,-2.631714344024658203e+00,5.698901414871215820e-02
1.934644818305969238e+00,-2.634946584701538086e+00,1.713162362575531006e-01
1.936974763870239258e+00,-2.638120174407958984e+00,2.863368690013885498e-01
1.939499855041503906e+00,-2.641559123992919922e+00,4.023787379264831543e-01
1.941962718963623047e+00,-2.644913434982299805e+00,5.197026133537292480e-01
1.944252848625183105e+00,-2.648032665252685547e+00,6.385670304298400879e-01
1.946725487709045410e+00,-2.651400327682495117e+00,7.593995332717895508e-01
1.974606513977050781e+00,-2.610224723815917969e+00,-8.769887685775756836e-01
1.977044463157653809e+00,-2.613447427749633789e+00,-7.565568685531616211e-01
1.979640364646911621e+00,-2.616878986358642578e+00,-6.378221511840820312e-01
1.982077836990356445e+00,-2.620101213455200195e+00,-5.203484296798706055e-01
1.984457135200500488e+00,-2.623246431350708008e+00,-4.038746058940887451e-01
1.986962199211120605e+00,-2.626557826995849609e+00,-2.881392538547515869e-01
1.989401221275329590e+00,-2.629781961441040039e+00,-1.728141158819198608e-01
1.991838574409484863e+00,-2.633003950119018555e+00,-5.762841552495956421e-02
1.994279742240905762e+00,-2.636230945587158203e+00,5.769904330372810364e-02
1.996672272682189941e+00,-2.639393568038940430e+00,1.734457314014434814e-01
1.999222040176391602e+00,-2.642763853073120117e+00,2.899171113967895508e-01
2.001755952835083008e+00,-2.646113634109497070e+00,4.073952436447143555e-01
2.004183769226074219e+00,-2.649322986602783203e+00,5.261518955230712891e-01
2.006842374801635742e+00,-2.652837514877319336e+00,6.465864181518554688e-01
2.009275197982788086e+00,-2.656053304672241211e+00,7.688906192779541016e-01
2.037560701370239258e+00,-2.614804506301879883e+00,-8.882352709770202637e-01
2.040192842483520508e+00,-2.618182659149169922e+00,-7.663027048110961914e-01
2.042619943618774414e+00,-2.621297121047973633e+00,-6.459589004516601562e-01
2.045232057571411133e+00,-2.624649524688720703e+00,-5.270115733146667480e-01
2.047734022140502930e+00,-2.627860069274902344e+00,-4.090556204319000244e-01
2.050204992294311523e+00,-2.631031274795532227e+00,-2.918193936347961426e-01
2.052701473236083984e+00,-2.634234905242919922e+00,-1.750195622444152832e-01
2.055216073989868164e+00,-2.637461900711059570e+00,-5.836386233568191528e-02
2.057755947113037109e+00,-2.640721321105957031e+00,5.843598768115043640e-02
2.060339927673339844e+00,-2.644037246704101562e+00,1.756708472967147827e-01
2.062923908233642578e+00,-2.647353410720825195e+00,2.936297655105590820e-01
2.065440416336059570e+00,-2.650582790374755859e+00,4.125926494598388672e-01
2.068201303482055664e+00,-2.654125690460205078e+00,5.329302549362182617e-01
2.070826292037963867e+00,-2.657494544982910156e+00,6.548789143562316895e-01
2.073173284530639648e+00,-2.660506486892700195e+00,7.786903381347656250e-01
2.101850986480712891e+00,-2.619114398956298828e+00,-8.998268246650695801e-01
2.104304552078247070e+00,-2.622171878814697266e+00,-7.762064933776855469e-01
2.106982946395874023e+00,-2.625509738922119141e+00,-6.543617248535156250e-01
2.109802722930908203e+00,-2.629023313522338867e+00,-5.338988304138183594e-01
2.112255573272705078e+00,-2.632079839706420898e+00,-4.143762290477752686e-01
2.114887952804565430e+00,-2.635359764099121094e+00,-2.956267595291137695e-01
2.117485523223876953e+00,-2.638596773147583008e+00,-1.773049235343933105e-01
2.120079994201660156e+00,-2.641829729080200195e+00,-5.912597477436065674e-02
2.122677564620971680e+00,-2.645066499710083008e+00,5.919841676950454712e-02
2.125259160995483398e+00,-2.648283481597900391e+00,1.779558360576629639e-01
2.128054380416870117e+00,-2.651766538619995117e+00,2.974672019481658936e-01
2.130523681640625000e+00,-2.654843568801879883e+00,4.179599881172180176e-01
2.133194208145141602e+00,-2.658171415328979492e+00,5.398181676864624023e-01
2.136168003082275391e+00,-2.661877155303955078e+00,6.634256839752197266e-01
2.138944625854492188e+00,-2.665336847305297852e+00,7.889840602874755859e-01
2.167418479919433594e+00,-2.623010873794555664e+00,-9.117304682731628418e-01
2.170140027999877930e+00,-2.626304626464843750e+00,-7.865442037582397461e-01
2.173039674758911133e+00,-2.629813671112060547e+00,-6.631185412406921387e-01
2.175741195678710938e+00,-2.633083105087280273e+00,-5.409922003746032715e-01
2.178354501724243164e+00,-2.636245727539062500e+00,-4.198977947235107422e-01
2.180964946746826172e+00,-2.639405012130737305e+00,-2.995516955852508545e-01
2.183673858642578125e+00,-2.642683267593383789e+00,-1.796614080667495728e-01
2.186349630355834961e+00,-2.645921468734741211e+00,-5.991180241107940674e-02
2.188998460769653320e+00,-2.649127244949340820e+00,5.998438596725463867e-02
2.191765785217285156e+00,-2.652476072311401367e+00,1.803271770477294922e-01
2.194564342498779297e+00,-2.655862808227539062e+00,3.014195263385772705e-01
2.197320222854614258e+00,-2.659198045730590820e+00,4.235536158084869385e-01
2.199935436248779297e+00,-2.662363052368164062e+00,5.470080971717834473e-01
2.202808380126953125e+00,-2.665839910507202148e+00,6.722027063369750977e-01
2.205419063568115234e+00,-2.668999195098876953e+00,7.993306517601013184e-01
2.235817193984985352e+00,-2.628257513046264648e+00,-9.245831370353698730e-01
2.238835334777832031e+00,-2.631805658340454102e+00,-7.977072000503540039e-01
2.241599082946777344e+00,-2.635054349899291992e+00,-6.724615097045898438e-01
2.244549989700317383e+00,-2.638523578643798828e+00,-5.486546754837036133e-01
2.247125387191772461e+00,-2.641550779342651367e+00,-4.258222281932830811e-01
2.249923944473266602e+00,-2.644840478897094727e+00,-3.037923574447631836e-01
2.252708196640014648e+00,-2.648113489151000977e+00,-1.822040230035781860e-01
2.255468368530273438e+00,-2.651358127593994141e+00,-6.075967848300933838e-02
2.258211612701416016e+00,-2.654582977294921875e+00,6.083357706665992737e-02
2.260960578918457031e+00,-2.657814502716064453e+00,1.828714907169342041e-01
2.263969659805297852e+00,-2.661351680755615234e+00,3.056888878345489502e-01
2.266646862030029297e+00,-2.664498805999755859e+00,4.295215010643005371e-01
2.269576072692871094e+00,-2.667942047119140625e+00,5.547719597816467285e-01
2.272325754165649414e+00,-2.671174526214599609e+00,6.816793084144592285e-01
2.275365114212036133e+00,-2.674747228622436523e+00,8.107228875160217285e-01
2.304365873336791992e+00,-2.631576538085937500e+00,-9.372577667236328125e-01
2.307200431823730469e+00,-2.634813547134399414e+00,-8.085457086563110352e-01
2.310256242752075195e+00,-2.638303279876708984e+00,-6.816596388816833496e-01
2.313116312026977539e+00,-2.641569375991821289e+00,-5.561156868934631348e-01
2.315897464752197266e+00,-2.644745588302612305e+00,-4.316366016864776611e-01
2.318826198577880859e+00,-2.648090124130249023e+00,-3.079464137554168701e-01
2.321605682373046875e+00,-2.651264190673828125e+00,-1.846882998943328857e-01
2.324450492858886719e+00,-2.654513120651245117e+00,-6.158811971545219421e-02
2.327368736267089844e+00,-2.657845735549926758e+00,6.166544184088706970e-02
2.330157279968261719e+00,-2.661030292510986328e+00,1.853686124086380005e-01
2.333130121231079102e+00,-2.664425134658813477e+00,3.098460137844085693e-01
2.336073160171508789e+00,-2.667786121368408203e+00,4.353969395160675049e-01
2.338881492614746094e+00,-2.670993328094482422e+00,5.623101592063903809e-01
2.341996431350708008e+00,-2.674550533294677734e+00,6.910248398780822754e-01
2.344851970672607422e+00,-2.677811384201049805e+00,8.217404484748840332e-01
2.377223968505859375e+00,-2.637639284133911133e+00,-9.514383077621459961e-01
2.380422115325927734e+00,-2.641187667846679688e+00,-8.208733797073364258e-01
2.383361339569091797e+00,-2.644448757171630859e+00,-6.919906735420227051e-01
2.386521339416503906e+00,-2.647955179214477539e+00,-5.645936131477355957e-01
2.389515638351440430e+00,-2.651277542114257812e+00,-4.382397234439849854e-01
2.392435550689697266e+00,-2.654517173767089844e+00,-3.126440346240997314e-01
2.395345211029052734e+00,-2.657745599746704102e+00,-1.875089406967163086e-01
2.398281097412109375e+00,-2.661003112792968750e+00,-6.252873688936233521e-02
2.401249885559082031e+00,-2.664297103881835938e+00,6.260614097118377686e-02
2.404230117797851562e+00,-2.667603731155395508e+00,1.882044523954391479e-01
2.407171726226806641e+00,-2.670867681503295898e+00,3.145697414875030518e-01
2.409996747970581055e+00,-2.674002170562744141e+00,4.419959783554077148e-01
2.413110971450805664e+00,-2.677457571029663086e+00,5.708841085433959961e-01
2.416046857833862305e+00,-2.680715084075927734e+00,7.014806866645812988e-01
2.419323205947875977e+00,-2.684350490570068359e+00,8.342881798744201660e-01
2.450013875961303711e+00,-2.641385793685913086e+00,-9.653404951095581055e-01
2.453578948974609375e+00,-2.645229339599609375e+00,-8.329591155052185059e-01
2.456344127655029297e+00,-2.648210525512695312e+00,-7.021033167839050293e-01
2.459432601928710938e+00,-2.651540279388427734e+00,-5.728052854537963867e-01
2.462685346603393555e+00,-2.655046939849853516e+00,-4.446437954902648926e-01
2.465609312057495117e+00,-2.658199310302734375e+00,-3.172017633914947510e-01
2.468664407730102539e+00,-2.661493062973022461e+00,-1.902468055486679077e-01
2.471690177917480469e+00,-2.664755105972290039e+00,-6.344173848628997803e-02
2.474693536758422852e+00,-2.667993068695068359e+00,6.351882219314575195e-02
2.477851629257202148e+00,-2.671397924423217773e+00,1.909548193216323853e-01
2.480715036392211914e+00,-2.674485206604003906e+00,3.191451430320739746e-01
2.483797311782836914e+00,-2.677808046340942383e+00,4.484556317329406738e-01
2.487275123596191406e+00,-2.681557416915893555e+00,5.792897939682006836e-01
2.490028381347656250e+00,-2.684525728225708008e+00,7.117313742637634277e-01
2.493767499923706055e+00,-2.688557147979736328e+00,8.466026186943054199e-01
2.526096820831298828e+00,-2.646416187286376953e+00,-9.802928566932678223e-01
2.529510259628295898e+00,-2.649992227554321289e+00,-8.457732796669006348e-01
2.532642364501953125e+00,-2.653273582458496094e+00,-7.129836082458496094e-01
2.536010503768920898e+00,-2.656802177429199219e+00,-5.817239880561828613e-01
2.538929939270019531e+00,-2.659860610961914062e+00,-4.514897763729095459e-01
2.542114019393920898e+00,-2.663196563720703125e+00,-3.221070766448974609e-01
2.545273303985595703e+00,-2.666506290435791016e+00,-1.931895464658737183e-01
2.548392772674560547e+00,-2.669774293899536133e+00,-6.442304700613021851e-02
2.551480770111083984e+00,-2.673009157180786133e+00,6.450110673904418945e-02
2.554565906524658203e+00,-2.676241397857666016e+00,1.938948631286621094e-01
2.557957649230957031e+00,-2.679794549942016602e+00,3.241145610809326172e-01
2.560950517654418945e+00,-2.682929992675781250e+00,4.554055929183959961e-01
2.564253091812133789e+00,-2.686389923095703125e+00,5.882024168968200684e-01
2.567356824874877930e+00,-2.689641475677490234e+00,7.227563261985778809e-01
2.570837020874023438e+00,-2.693287372589111328e+00,8.595913648605346680e-01
2.605851173400878906e+00,-2.652889966964721680e+00,-9.964051246643066406e-01
2.609683036804199219e+00,-2.656790971755981445e+00,-8.597768545150756836e-01
2.612638235092163086e+00,-2.659799575805664062e+00,-7.247120141983032227e-01
2.615938186645507812e+00,-2.663159132003784180e+00,-5.912537574768066406e-01
2.619136095046997070e+00,-2.666414737701416016e+00,-4.589186906814575195e-01
2.622496604919433594e+00,-2.669836044311523438e+00,-3.274165689945220947e-01
2.625658512115478516e+00,-2.673054695129394531e+00,-1.963667273521423340e-01
2.628876924514770508e+00,-2.676331281661987305e+00,-6.548255681991577148e-02
2.632160425186157227e+00,-2.679674148559570312e+00,6.556434929370880127e-02
2.635267734527587891e+00,-2.682837486267089844e+00,1.970853805541992188e-01
2.638578414916992188e+00,-2.686208009719848633e+00,3.294243514537811279e-01
2.641842603683471680e+00,-2.689531087875366211e+00,4.628972709178924561e-01
2.645530462265014648e+00,-2.693285465240478516e+00,5.979421734809875488e-01
2.648417234420776367e+00,-2.696224451065063477e+00,7.346366643905639648e-01
2.652386426925659180e+00,-2.700265169143676758e+00,8.738457560539245605e-01
2.687639474868774414e+00,-2.658939599990844727e+00,-1.013022303581237793e+00
2.690645456314086914e+00,-2.661913394927978516e+00,-8.738082051277160645e-01
2.694041252136230469e+00,-2.665272951126098633e+00,-7.366345524787902832e-01
2.697678804397583008e+00,-2.668871879577636719e+00,-6.010330319404602051e-01
2.700803279876708984e+00,-2.671962738037109375e+00,-4.664792120456695557e-01
2.704192876815795898e+00,-2.675316333770751953e+00,-3.328013122081756592e-01
2.707527160644531250e+00,-2.678614854812622070e+00,-1.996016800403594971e-01
2.710846424102783203e+00,-2.681898832321166992e+00,-6.656133383512496948e-02
2.714158535003662109e+00,-2.685175418853759766e+00,6.664264947175979614e-02
2.717439174652099609e+00,-2.688421249389648438e+00,2.003324031829833984e-01
2.721029281616210938e+00,-2.691972970962524414e+00,3.348733484745025635e-01
2.724157810211181641e+00,-2.695068120956420898e+00,4.705129861831665039e-01
2.727607011795043945e+00,-2.698480367660522461e+00,6.077009439468383789e-01
2.731545925140380859e+00,-2.702377319335937500e+00,7.468895316123962402e-01
2.734447717666625977e+00,-2.705247879028320312e+00,8.880333900451660156e-01
2.769806861877441406e+00,-2.662876129150390625e+00,-1.029521107673645020e+00
2.773319244384765625e+00,-2.666252851486206055e+00,-8.881723880767822266e-01
2.776590585708618164e+00,-2.669397830963134766e+00,-7.486820816993713379e-01
2.780206441879272461e+00,-2.672874212265014648e+00,-6.108335852622985840e-01
2.783674716949462891e+00,-2.676208496093750000e+00,-4.741279780864715576e-01
2.787280082702636719e+00,-2.679674863815307617e+00,-3.382717669010162354e-01
2.790624618530273438e+00,-2.682890176773071289e+00,-2.028759419918060303e-01
2.794046163558959961e+00,-2.686179637908935547e+00,-6.765320897102355957e-02
2.797553300857543945e+00,-2.689551353454589844e+00,6.773813068866729736e-02
2.800822496414184570e+00,-2.692694425582885742e+00,2.036173045635223389e-01
2.804272413253784180e+00,-2.696011066436767578e+00,3.403339982032775879e-01
2.807632684707641602e+00,-2.699241399765014648e+00,4.782086014747619629e-01
2.811420202255249023e+00,-2.702883005142211914e+00,6.176915168762207031e-01
2.815058946609497070e+00,-2.706381082534790039e+00,7.590547204017639160e-01
2.818352699279785156e+00,-2.709547758102416992e+00,9.025946855545043945e-01
2.855978965759277344e+00,-2.668126821517944336e+00,-1.047248482704162598e+00
2.860047340393066406e+00,-2.671927690505981445e+00,-9.036070704460144043e-01
2.863731145858764648e+00,-2.675368785858154297e+00,-7.617751359939575195e-01
2.867206573486328125e+00,-2.678615808486938477e+00,-6.214608550071716309e-01
2.870621919631958008e+00,-2.681806564331054688e+00,-4.823497533798217773e-01
2.874275207519531250e+00,-2.685219526290893555e+00,-3.441298902034759521e-01
2.877814054489135742e+00,-2.688525676727294922e+00,-2.063957750797271729e-01
2.881343126296997070e+00,-2.691822767257690430e+00,-6.882698833942413330e-02
2.884869337081909180e+00,-2.695116996765136719e+00,6.891121715307235718e-02
2.888306856155395508e+00,-2.698328256607055664e+00,2.071482986211776733e-01
2.892028331756591797e+00,-2.701804876327514648e+00,3.462554514408111572e-01
2.895750999450683594e+00,-2.705282688140869141e+00,4.865721762180328369e-01
2.899343490600585938e+00,-2.708638906478881836e+00,6.284264922142028809e-01
2.902642488479614258e+00,-2.711720943450927734e+00,7.721258997917175293e-01
2.906350374221801758e+00,-2.715184926986694336e+00,9.182360768318176270e-01
2.947412729263305664e+00,-2.675580978393554688e+00,-1.066623806953430176e+00
2.951284170150756836e+00,-2.679095268249511719e+00,-9.202228188514709473e-01
2.954850435256958008e+00,-2.682332515716552734e+00,-7.757211327552795410e-01
2.958745718002319336e+00,-2.685868740081787109e+00,-6.329042911529541016e-01
2.962102890014648438e+00,-2.688916206359863281e+00,-4.912038743495941162e-01
2.965807914733886719e+00,-2.692279577255249023e+00,-3.504392206668853760e-01
2.969491481781005859e+00,-2.695623397827148438e+00,-2.101821005344390869e-01
2.973132133483886719e+00,-2.698928356170654297e+00,-7.008960098028182983e-02
2.976740360260009766e+00,-2.702203512191772461e+00,7.017465680837631226e-02
2.980353355407714844e+00,-2.705483436584472656e+00,2.109509110450744629e-01
2.984362840652465820e+00,-2.709123373031616211e+00,3.526316583156585693e-01
2.987891912460327148e+00,-2.712326765060424805e+00,4.954804480075836182e-01
2.991838216781616211e+00,-2.715909004211425781e+00,6.399830579757690430e-01
2.995575428009033203e+00,-2.719301700592041016e+00,7.864124774932861328e-01
2.999838590621948242e+00,-2.723171710968017578e+00,9.353622794151306152e-01
3.004289388656616211e+00,-2.649780511856079102e+00,-1.073371171951293945e+00
3.043684959411621094e+00,-2.684527635574340820e+00,-9.369567632675170898e-01
3.047153472900390625e+00,-2.687586545944213867e+00,-7.897731065750122070e-01
3.051060438156127930e+00,-2.691032648086547852e+00,-6.443458795547485352e-01
3.055173873901367188e+00,-2.694660663604736328e+00,-5.001904964447021484e-01
3.058807373046875000e+00,-2.697865486145019531e+00,-3.568286299705505371e-01
3.062513113021850586e+00,-2.701133728027343750e+00,-2.140077352523803711e-01
3.066268444061279297e+00,-2.704446077346801758e+00,-7.136534899473190308e-02
3.070083856582641602e+00,-2.707811355590820312e+00,7.145415246486663818e-02
3.074000597000122070e+00,-2.711265802383422852e+00,2.148104906082153320e-01
3.077477931976318359e+00,-2.714332818984985352e+00,3.590066432952880859e-01
3.081229925155639648e+00,-2.717642068862915039e+00,5.044564008712768555e-01
3.085512876510620117e+00,-2.721419572830200195e+00,6.516218185424804688e-01
3.089673519134521484e+00,-2.725089311599731445e+00,8.007935881614685059e-01
3.093494653701782227e+00,-2.728459596633911133e+00,9.522899389266967773e-01
3.053572416305541992e+00,-2.616508960723876953e+00,-1.077488064765930176e+00
3.624195337295532227e+00,-3.105457544326782227e+00,-1.101862788200378418e+00
4.453677177429199219e+00,-3.816214084625244141e+00,-1.140047073364257812e+00
5.770813941955566406e+00,-4.944826602935791016e+00,-1.203653335571289062e+00
7.603331089019775391e+00,-6.515052318572998047e+00,-1.229417800903320312e+00
7.612428188323974609e+00,-6.522847175598144531e+00,-8.770549893379211426e-01
7.622101783752441406e+00,-6.531136512756347656e+00,-5.260443091392517090e-01
7.631627559661865234e+00,-6.539298534393310547e+00,-1.754245907068252563e-01
7.641026496887207031e+00,-6.547352790832519531e+00,1.756406426429748535e-01
7.651094436645507812e+00,-6.555979251861572266e+00,5.280452966690063477e-01
7.660285949707031250e+00,-6.563855171203613281e+00,8.825688958168029785e-01
7.670412063598632812e+00,-6.572532176971435547e+00,1.240264415740966797e+00
3.089360475540161133e+00,-2.571417331695556641e+00,-1.077018618583679199e+00
3.674041271209716797e+00,-3.058074235916137695e+00,-1.103596448898315430e+00
4.528468132019042969e+00,-3.769253253936767578e+00,-1.145264506340026855e+00
5.834484577178955078e+00,-4.856311321258544922e+00,-1.202312111854553223e+00
7.438915252685546875e+00,-6.191752910614013672e+00,-1.188380718231201172e+00
7.448215484619140625e+00,-6.199493885040283203e+00,-8.478249907493591309e-01
7.457465171813964844e+00,-6.207192420959472656e+00,-5.084978938102722168e-01
7.466779232025146484e+00,-6.214945316314697266e+00,-1.695731133222579956e-01
7.476182937622070312e+00,-6.222772598266601562e+00,1.697866767644882202e-01
7.485608100891113281e+00,-6.230617523193359375e+00,5.104169249534606934e-01
7.494897365570068359e+00,-6.238349437713623047e+00,8.531387448310852051e-01
7.503810405731201172e+00,-6.245768070220947266e+00,1.198747754096984863e+00
3.122584342956542969e+00,-2.524302482604980469e+00,-1.075894832611083984e+00
3.721171140670776367e+00,-3.008200645446777344e+00,-1.104706525802612305e+00
4.563342571258544922e+00,-3.689013481140136719e+00,-1.140613555908203125e+00
5.893002033233642578e+00,-4.763912200927734375e+00,-1.200196266174316406e+00
7.262335777282714844e+00,-5.870884418487548828e+00,-1.146629929542541504e+00
7.271298408508300781e+00,-5.878129482269287109e+00,-8.180257081985473633e-01
7.280596256256103516e+00,-5.885645866394042969e+00,-4.906433224678039551e-01
7.289685726165771484e+00,-5.892993927001953125e+00,-1.636188924312591553e-01
7.298575401306152344e+00,-5.900180339813232422e+00,1.638184189796447754e-01
7.307883262634277344e+00,-5.907704830169677734e+00,4.924822151660919189e-01
7.317281246185302734e+00,-5.915302276611328125e+00,8.231987953186035156e-01
7.326529502868652344e+00,-5.922778606414794922e+00,1.156765341758728027e+00
3.160681486129760742e+00,-2.481150388717651367e+00,-1.076674580574035645e+00
3.749692201614379883e+00,-2.943526744842529297e+00,-1.100553035736083984e+00
4.604984760284423828e+00,-3.614935636520385742e+00,-1.137972474098205566e+00
5.960898399353027344e+00,-4.679334163665771484e+00,-1.200260519981384277e+00
7.124837398529052734e+00,-5.593031883239746094e+00,-1.112167000770568848e+00
7.134066581726074219e+00,-5.600276947021484375e+00,-7.934877276420593262e-01
7.143002033233642578e+00,-5.607291221618652344e+00,-4.759132862091064453e-01
7.151916980743408203e+00,-5.614289760589599609e+00,-1.587066799402236938e-01
7.160818576812744141e+00,-5.621277332305908203e+00,1.589042097330093384e-01
7.169489383697509766e+00,-5.628084182739257812e+00,4.776780307292938232e-01
7.178943634033203125e+00,-5.635505676269531250e+00,7.984792590141296387e-01
7.188437461853027344e+00,-5.642958641052246094e+00,1.122094750404357910e+00
3.196309566497802734e+00,-2.435997247695922852e+00,-1.076823353767395020e+00
3.799853086471557617e+00,-2.895974636077880859e+00,-1.102996349334716797e+00
4.681057453155517578e+00,-3.567565202713012695e+00,-1.144035339355468750e+00
6.023846626281738281e+00,-4.590942382812500000e+00,-1.199581146240234375e+00
6.975636482238769531e+00,-5.316328048706054688e+00,-1.076888680458068848e+00
6.983796596527099609e+00,-5.322546958923339844e+00,-7.682216763496398926e-01
6.992671012878417969e+00,-5.329310417175292969e+00,-4.607677161693572998e-01
7.001382827758789062e+00,-5.335949897766113281e+00,-1.536556333303451538e-01
7.009962558746337891e+00,-5.342488765716552734e+00,1.538439244031906128e-01
7.019337177276611328e+00,-5.349633693695068359e+00,4.625248610973358154e-01
7.028029441833496094e+00,-5.356258392333984375e+00,7.730873227119445801e-01
7.036315917968750000e+00,-5.362573623657226562e+00,1.086256265640258789e+00
3.234465837478637695e+00,-2.392679691314697266e+00,-1.078029751777648926e+00
3.827570199966430664e+00,-2.831425666809082031e+00,-1.099165320396423340e+00
4.722397804260253906e+00,-3.493369817733764648e+00,-1.141801357269287109e+00
6.091630935668945312e+00,-4.506252765655517578e+00,-1.200112104415893555e+00
6.845475673675537109e+00,-5.063905715942382812e+00,-1.045497775077819824e+00
6.853922367095947266e+00,-5.070154190063476562e+00,-7.458761334419250488e-01
6.862452507019042969e+00,-5.076464653015136719e+00,-4.473535418510437012e-01
6.870998382568359375e+00,-5.082786083221435547e+00,-1.491822302341461182e-01
6.879593372344970703e+00,-5.089144229888916016e+00,1.493688374757766724e-01
6.888331413269042969e+00,-5.095608234405517578e+00,4.490405321121215820e-01
6.897069931030273438e+00,-5.102072238922119141e+00,7.505716085433959961e-01
6.905581951141357422e+00,-5.108369350433349609e+00,1.054677724838256836e+00
3.254294157028198242e+00,-2.336032629013061523e+00,-1.073384165763854980e+00
3.881099224090576172e+00,-2.785972833633422852e+00,-1.102972745895385742e+00
4.763360023498535156e+00,-3.419286966323852539e+00,-1.139755368232727051e+00
6.159523487091064453e+00,-4.421495914459228516e+00,-1.200896501541137695e+00
6.718590259552001953e+00,-4.822811603546142578e+00,-1.015471816062927246e+00
6.727329254150390625e+00,-4.829084396362304688e+00,-7.245033979415893555e-01
6.735524177551269531e+00,-4.834967136383056641e+00,-4.345233738422393799e-01
6.743909358978271484e+00,-4.840986251831054688e+00,-1.449036002159118652e-01
6.752517700195312500e+00,-4.847165584564208984e+00,1.450885534286499023e-01
6.760624885559082031e+00,-4.852984905242919922e+00,4.361426234245300293e-01
6.769397258758544922e+00,-4.859282016754150391e+00,7.290338873863220215e-01
6.778120994567871094e+00,-4.865544319152832031e+00,1.024469494819641113e+00
6.786488056182861328e+00,-4.871550559997558594e+00,1.323133230209350586e+00
3.292353153228759766e+00,-2.292671203613281250e+00,-1.075003385543823242e+00
3.908243894577026367e+00,-2.721554517745971680e+00,-1.099503755569458008e+00
4.804018020629882812e+00,-3.345338106155395508e+00,-1.137909889221191406e+00
6.227632999420166016e+00,-4.336690425872802734e+00,-1.201950311660766602e+00
6.595703601837158203e+00,-4.593000888824462891e+00,-9.868607521057128906e-01
6.603474617004394531e+00,-4.598412036895751953e+00,-7.040042281150817871e-01
6.611819744110107422e+00,-4.604223728179931641e+00,-4.222481548786163330e-01
6.620048046112060547e+00,-4.609953403472900391e+00,-1.408100277185440063e-01
6.628177165985107422e+00,-4.615613937377929688e+00,1.409829407930374146e-01
6.636956691741943359e+00,-4.621727943420410156e+00,4.238534569740295410e-01
6.644947052001953125e+00,-4.627292156219482422e+00,7.084257006645202637e-01
6.653867244720458984e+00,-4.633503913879394531e+00,9.955633282661437988e-01
6.662600517272949219e+00,-4.639585018157958984e+00,1.285900235176086426e+00
3.333141803741455078e+00,-2.250930309295654297e+00,-1.077691197395324707e+00
3.965438127517700195e+00,-2.677931547164916992e+00,-1.104697585105895996e+00
4.848158836364746094e+00,-3.274048566818237305e+00,-1.137148618698120117e+00
6.300954341888427734e+00,-4.255147457122802734e+00,-1.204223155975341797e+00
6.489100933074951172e+00,-4.382205963134765625e+00,-9.614272117614746094e-01
6.497222900390625000e+00,-4.387691020965576172e+00,-6.859108805656433105e-01
6.505281925201416016e+00,-4.393133640289306641e+00,-4.113864898681640625e-01
6.513374805450439453e+00,-4.398598670959472656e+00,-1.371878534555435181e-01
6.521520614624023438e+00,-4.404099464416503906e+00,1.373594254255294800e-01
6.529661178588867188e+00,-4.409597396850585938e+00,4.129281938076019287e-01
6.537659168243408203e+00,-4.414998531341552734e+00,6.901797056198120117e-01
6.546728134155273438e+00,-4.421122550964355469e+00,9.699652791023254395e-01
6.554035663604736328e+00,-4.426057815551757812e+00,1.252591490745544434e+00
3.354606866836547852e+00,-2.196181535720825195e+00,-1.074357628822326660e+00
3.995219469070434570e+00,-2.615575313568115234e+00,-1.102451682090759277e+00
4.935039520263671875e+00,-3.230853080749511719e+00,-1.146562457084655762e+00
