-3.783600091934204102e+00,-1.625681072473526001e-01,-1.014746427536010742e+00
-3.788720130920410156e+00,-1.627880930900573730e-01,-8.755006790161132812e-01
-3.793442249298095703e+00,-1.629909873008728027e-01,-7.380496859550476074e-01
-3.798422336578369141e+00,-1.632049679756164551e-01,-6.021651625633239746e-01
-3.803211450576782227e+00,-1.634107381105422974e-01,-4.674057960510253906e-01
-3.807956933975219727e+00,-1.636146306991577148e-01,-3.334599435329437256e-01
-3.812819242477416992e+00,-1.638235449790954590e-01,-2.000054568052291870e-01
-3.817621707916259766e+00,-1.640298962593078613e-01,-6.669821590185165405e-02
-3.822368144989013672e+00,-1.642338335514068604e-01,6.678114086389541626e-02
-3.827273368835449219e+00,-1.644445955753326416e-01,2.007636576890945435e-01
-3.832192897796630859e+00,-1.646559685468673706e-01,3.355822563171386719e-01
-3.837000846862792969e+00,-1.648625433444976807e-01,4.715584218502044678e-01
-3.842183828353881836e+00,-1.650852411985397339e-01,6.091026663780212402e-01
-3.847095251083374023e+00,-1.652962714433670044e-01,7.484883666038513184e-01
-3.852349758148193359e+00,-1.655220389366149902e-01,8.902042508125305176e-01
-3.788240909576416016e+00,-2.171238660812377930e-01,-1.016720414161682129e+00
-3.793485164642333984e+00,-2.174244523048400879e-01,-8.772310614585876465e-01
-3.798305511474609375e+00,-2.177007347345352173e-01,-7.395263910293579102e-01
-3.803367614746093750e+00,-2.179908603429794312e-01,-6.033819913864135742e-01
-3.808205366134643555e+00,-2.182681411504745483e-01,-4.683555066585540771e-01
-3.812965869903564453e+00,-2.185409963130950928e-01,-3.341382741928100586e-01
-3.817752838134765625e+00,-2.188153564929962158e-01,-2.004080116748809814e-01
-3.822557449340820312e+00,-2.190907299518585205e-01,-6.683239340782165527e-02
-3.827399015426635742e+00,-2.193682342767715454e-01,6.691704690456390381e-02
-3.832301616668701172e+00,-2.196492254734039307e-01,2.011717408895492554e-01
-3.837184190750122070e+00,-2.199290692806243896e-01,3.362605869770050049e-01
-3.841921567916870117e+00,-2.202005833387374878e-01,4.725021421909332275e-01
-3.847017288208007812e+00,-2.204926460981369019e-01,6.103067398071289062e-01
-3.851814746856689453e+00,-2.207676321268081665e-01,7.499445676803588867e-01
-3.856951236724853516e+00,-2.210620194673538208e-01,8.919073343276977539e-01
-3.793101072311401367e+00,-2.719179093837738037e-01,-1.018965005874633789e+00
-3.798456907272338867e+00,-2.723018527030944824e-01,-8.791919350624084473e-01
-3.803343772888183594e+00,-2.726521790027618408e-01,-7.411912083625793457e-01
-3.808001995086669922e+00,-2.729861140251159668e-01,-6.046751141548156738e-01
-3.812939405441284180e+00,-2.733400762081146240e-01,-4.693708419799804688e-01
-3.817748546600341797e+00,-2.736848294734954834e-01,-3.348663747310638428e-01
-3.822531461715698242e+00,-2.740277051925659180e-01,-2.008441835641860962e-01
-3.827345371246337891e+00,-2.743727862834930420e-01,-6.697790324687957764e-02
-3.832202196121215820e+00,-2.747209668159484863e-01,6.706289947032928467e-02
-3.837067127227783203e+00,-2.750697433948516846e-01,2.016079276800155640e-01
-3.841860055923461914e+00,-2.754133343696594238e-01,3.369812667369842529e-01
-3.847024917602539062e+00,-2.757835686206817627e-01,4.735667407512664795e-01
-3.852065563201904297e+00,-2.761449217796325684e-01,6.116719841957092285e-01
-3.856762647628784180e+00,-2.764816284179687500e-01,7.516013979911804199e-01
-3.861773967742919922e+00,-2.768408954143524170e-01,8.938473463058471680e-01
-3.798328161239624023e+00,-3.269953727722167969e-01,-1.021521925926208496e+00
-3.803125381469726562e+00,-3.274083733558654785e-01,-8.812670111656188965e-01
-3.808211326599121094e+00,-3.278462290763854980e-01,-7.429782152175903320e-01
-3.813022136688232422e+00,-3.282603621482849121e-01,-6.061562895774841309e-01
-3.818069696426391602e+00,-3.286949098110198975e-01,-4.705333411693572998e-01
-3.822933673858642578e+00,-3.291136324405670166e-01,-3.356999754905700684e-01
-3.827714920043945312e+00,-3.295252621173858643e-01,-2.013437300920486450e-01
-3.832539081573486328e+00,-3.299405574798583984e-01,-6.714455783367156982e-02
-3.837409257888793945e+00,-3.303598463535308838e-01,6.722988933324813843e-02
-3.842231273651123047e+00,-3.307749629020690918e-01,2.021073102951049805e-01
-3.846925258636474609e+00,-3.311790525913238525e-01,3.378067314624786377e-01
-3.851948261260986328e+00,-3.316114842891693115e-01,4.747084677219390869e-01
-3.856798887252807617e+00,-3.320290744304656982e-01,6.131154894828796387e-01
-3.862083196640014648e+00,-3.324840068817138672e-01,7.534885406494140625e-01
-3.866950511932373047e+00,-3.329030275344848633e-01,8.960567116737365723e-01
-3.802899122238159180e+00,-3.822926282882690430e-01,-1.024117946624755859e+00
-3.807911872863769531e+00,-3.827964961528778076e-01,-8.835552334785461426e-01
-3.813165187835693359e+00,-3.833246231079101562e-01,-7.449388504028320312e-01
-3.818074941635131836e+00,-3.838181793689727783e-01,-6.077706217765808105e-01
-3.822835206985473633e+00,-3.842967152595520020e-01,-4.717501997947692871e-01
-3.827789545059204102e+00,-3.847947418689727783e-01,-3.365755379199981689e-01
-3.832522392272949219e+00,-3.852705359458923340e-01,-2.018660157918930054e-01
-3.837347984313964844e+00,-3.857556283473968506e-01,-6.731864809989929199e-02
-3.842285394668579102e+00,-3.862519860267639160e-01,6.740526854991912842e-02
-3.847027063369750977e+00,-3.867286443710327148e-01,2.026299983263015747e-01
-3.852030277252197266e+00,-3.872315883636474609e-01,3.387070298194885254e-01
-3.856964111328125000e+00,-3.877275884151458740e-01,4.759618043899536133e-01
-3.861656665802001953e+00,-3.881992995738983154e-01,6.147080659866333008e-01
-3.866733551025390625e+00,-3.887096643447875977e-01,7.554039359092712402e-01
-3.872294425964355469e+00,-3.892686665058135986e-01,8.984940052032470703e-01
-3.808091402053833008e+00,-4.379517138004302979e-01,-1.027099132537841797e+00
-3.813262462615966797e+00,-4.385463893413543701e-01,-8.861624598503112793e-01
-3.818020343780517578e+00,-4.390935599803924561e-01,-7.470386624336242676e-01
-3.822609424591064453e+00,-4.396213591098785400e-01,-6.094316840171813965e-01
-3.827559232711791992e+00,-4.401906132698059082e-01,-4.730622172355651855e-01
-3.832625865936279297e+00,-4.407733082771301270e-01,-3.375209867954254150e-01
-3.837381601333618164e+00,-4.413202106952667236e-01,-2.024339288473129272e-01
-3.842216491699218750e+00,-4.418762624263763428e-01,-6.750809401273727417e-02
-3.847141504287719727e+00,-4.424426853656768799e-01,6.759463250637054443e-02
-3.851780414581298828e+00,-4.429761767387390137e-01,2.031935155391693115e-01
-3.856602430343627930e+00,-4.435307383537292480e-01,3.396324813365936279e-01
-3.861879587173461914e+00,-4.441376328468322754e-01,4.773039817810058594e-01
-3.867094039916992188e+00,-4.447373449802398682e-01,6.165237426757812500e-01
-3.872022390365600586e+00,-4.453041255474090576e-01,7.576047778129577637e-01
-3.877381324768066406e+00,-4.459204375743865967e-01,9.010630846023559570e-01
-3.812883853912353516e+00,-4.938914179801940918e-01,-1.030192852020263672e+00
-3.818355083465576172e+00,-4.946001172065734863e-01,-8.889001011848449707e-01
-3.823337078094482422e+00,-4.952454566955566406e-01,-7.493891119956970215e-01
-3.828070640563964844e+00,-4.958586096763610840e-01,-6.113712191581726074e-01
-3.833091497421264648e+00,-4.965089559555053711e-01,-4.745756983757019043e-01
-3.837942123413085938e+00,-4.971372783184051514e-01,-3.385811150074005127e-01
-3.842723846435546875e+00,-4.977566599845886230e-01,-2.030708044767379761e-01
-3.847568988800048828e+00,-4.983842670917510986e-01,-6.772054731845855713e-02
-3.852479219436645508e+00,-4.990202784538269043e-01,6.780696660280227661e-02
-3.857355833053588867e+00,-4.996519982814788818e-01,2.038440406322479248e-01
-3.862118959426879883e+00,-5.002689361572265625e-01,3.407140076160430908e-01
-3.867262125015258789e+00,-5.009351968765258789e-01,4.788063764572143555e-01
-3.872261524200439453e+00,-5.015827417373657227e-01,6.184288263320922852e-01
-3.876896381378173828e+00,-5.021831393241882324e-01,7.598869800567626953e-01
-3.882908821105957031e+00,-5.029619336128234863e-01,9.039279818534851074e-01
-3.817603349685668945e+00,-5.501658916473388672e-01,-1.033489823341369629e+00
-3.822615623474121094e+00,-5.508882403373718262e-01,-8.916361927986145020e-01
-3.827914714813232422e+00,-5.516518950462341309e-01,-7.517570257186889648e-01
-3.832867383956909180e+00,-5.523656606674194336e-01,-6.133371591567993164e-01
-3.837667226791381836e+00,-5.530573725700378418e-01,-4.760735630989074707e-01
-3.842670202255249023e+00,-5.537783503532409668e-01,-3.396627306938171387e-01
-3.847430229187011719e+00,-5.544643402099609375e-01,-2.037180364131927490e-01
-3.852275371551513672e+00,-5.551625490188598633e-01,-6.793627887964248657e-02
-3.857226371765136719e+00,-5.558760762214660645e-01,6.802359223365783691e-02
-3.861958980560302734e+00,-5.565581321716308594e-01,2.044873237609863281e-01
-3.866962432861328125e+00,-5.572791695594787598e-01,3.418099880218505859e-01
-3.871894598007202148e+00,-5.579899549484252930e-01,4.803195595741271973e-01
-3.876581907272338867e+00,-5.586655139923095703e-01,6.203324198722839355e-01
-3.881701946258544922e+00,-5.594033598899841309e-01,7.623202204704284668e-01
-3.887376070022583008e+00,-5.602210164070129395e-01,9.067417383193969727e-01
-3.822771310806274414e+00,-6.068795919418334961e-01,-1.037134289741516113e+00
-3.828076601028442383e+00,-6.077218651771545410e-01,-8.948473334312438965e-01
-3.832956552505493164e+00,-6.084965467453002930e-01,-7.543804049491882324e-01
-3.838144302368164062e+00,-6.093201041221618652e-01,-6.155141592025756836e-01
-3.843071937561035156e+00,-6.101024150848388672e-01,-4.777784049510955811e-01
-3.847887277603149414e+00,-6.108668446540832520e-01,-3.408618271350860596e-01
-3.852693319320678711e+00,-6.116298437118530273e-01,-2.044393271207809448e-01
-3.857547998428344727e+00,-6.124005317687988281e-01,-6.817687302827835083e-02
-3.862463951110839844e+00,-6.131809353828430176e-01,6.826374679803848267e-02
-3.867405176162719727e+00,-6.139653921127319336e-01,2.052199989557266235e-01
-3.872291326522827148e+00,-6.147410869598388672e-01,3.430236577987670898e-01
-3.876996755599975586e+00,-6.154881119728088379e-01,4.819959998130798340e-01
-3.882129192352294922e+00,-6.163029074668884277e-01,6.225678920745849609e-01
-3.886963844299316406e+00,-6.170704364776611328e-01,7.650098204612731934e-01
-3.892274618148803711e+00,-6.179134845733642578e-01,9.098541736602783203e-01
-3.828536510467529297e+00,-6.641035079956054688e-01,-1.041170716285705566e+00
-3.833297729492187500e+00,-6.649293899536132812e-01,-8.982005715370178223e-01
-3.838427305221557617e+00,-6.658191680908203125e-01,-7.572551965713500977e-01
-3.843259572982788086e+00,-6.666573882102966309e-01,-6.178014278411865234e-01
-3.847991228103637695e+00,-6.674781441688537598e-01,-4.795286357402801514e-01
-3.852988004684448242e+00,-6.683449149131774902e-01,-3.421260416507720947e-01
-3.857851743698120117e+00,-6.691885590553283691e-01,-2.052002996206283569e-01
-3.862716674804687500e+00,-6.700324416160583496e-01,-6.843070685863494873e-02
-3.867584466934204102e+00,-6.708768010139465332e-01,6.851693987846374512e-02
-3.872353076934814453e+00,-6.717039942741394043e-01,2.059716284275054932e-01
-3.877456188201904297e+00,-6.725891828536987305e-01,3.442986905574798584e-01
-3.882540941238403320e+00,-6.734711527824401855e-01,4.838341176509857178e-01
-3.887431859970092773e+00,-6.743195652961730957e-01,6.249021291732788086e-01
-3.892839908599853516e+00,-6.752576828002929688e-01,7.679899334907531738e-01
-3.897835969924926758e+00,-6.761242747306823730e-01,9.133228659629821777e-01
-3.833016157150268555e+00,-7.215357422828674316e-01,-1.045090436935424805e+00
-3.838191986083984375e+00,-7.225100398063659668e-01,-9.016782045364379883e-01
-3.842978000640869141e+00,-7.234109640121459961e-01,-7.601178884506225586e-01
-3.848129510879516602e+00,-7.243806719779968262e-01,-6.201874613761901855e-01
-3.853050708770751953e+00,-7.253070473670959473e-01,-4.814035296440124512e-01
-3.857890844345092773e+00,-7.262181639671325684e-01,-3.434492051601409912e-01
-3.862753629684448242e+00,-7.271335721015930176e-01,-2.059935182332992554e-01
-3.867618322372436523e+00,-7.280492782592773438e-01,-6.869512051343917847e-02
-3.872505187988281250e+00,-7.289692759513854980e-01,6.878191977739334106e-02
-3.877450466156005859e+00,-7.299001216888427734e-01,2.067772895097732544e-01
-3.882372379302978516e+00,-7.308266758918762207e-01,3.456286787986755371e-01
-3.887143611907958984e+00,-7.317247986793518066e-01,4.856631755828857422e-01
-3.892401218414306641e+00,-7.327145338058471680e-01,6.273225545883178711e-01
-3.897398471832275391e+00,-7.336552143096923828e-01,7.708819508552551270e-01
-3.902946949005126953e+00,-7.346996665000915527e-01,9.168906211853027344e-01
-3.838944435119628906e+00,-7.797011137008666992e-01,-1.049642205238342285e+00
-3.843622684478759766e+00,-7.806512117385864258e-01,-9.054862260818481445e-01
-3.848724365234375000e+00,-7.816874384880065918e-01,-7.633893489837646484e-01
-3.853553295135498047e+00,-7.826682329177856445e-01,-6.228033304214477539e-01
-3.858677864074707031e+00,-7.837089896202087402e-01,-4.834586381912231445e-01
-3.863359451293945312e+00,-7.846598625183105469e-01,-3.449006080627441406e-01
-3.868294954299926758e+00,-7.856622338294982910e-01,-2.068675458431243896e-01
-3.873169660568237305e+00,-7.866523265838623047e-01,-6.898664683103561401e-02
-3.877994775772094727e+00,-7.876323461532592773e-01,6.907258927822113037e-02
-3.883120059967041016e+00,-7.886732816696166992e-01,2.076603621244430542e-01
-3.887847661972045898e+00,-7.896334528923034668e-01,3.470867574214935303e-01
-3.892965793609619141e+00,-7.906729578971862793e-01,4.877546131610870361e-01
-3.897915601730346680e+00,-7.916783094406127930e-01,6.299730539321899414e-01
-3.903439998626708984e+00,-7.928003072738647461e-01,7.742421030998229980e-01
-3.908583402633666992e+00,-7.938449978828430176e-01,9.207898378372192383e-01
-3.843483448028564453e+00,-8.380728960037231445e-01,-1.054055094718933105e+00
-3.848658561706542969e+00,-8.392013311386108398e-01,-9.094092249870300293e-01
-3.854136228561401367e+00,-8.403957486152648926e-01,-7.667701840400695801e-01
-3.858669996261596680e+00,-8.413842916488647461e-01,-6.255125403404235840e-01
-3.863655805587768555e+00,-8.424714803695678711e-01,-4.855434298515319824e-01
-3.868796110153198242e+00,-8.435923457145690918e-01,-3.464284241199493408e-01
-3.873589992523193359e+00,-8.446376323699951172e-01,-2.077759653329849243e-01
-3.878474712371826172e+00,-8.457027077674865723e-01,-6.928963959217071533e-02
-3.883461713790893555e+00,-8.467901349067687988e-01,6.937873363494873047e-02
-3.888125181198120117e+00,-8.478069901466369629e-01,2.085556089878082275e-01
-3.893011569976806641e+00,-8.488724827766418457e-01,3.485967814922332764e-01
-3.898448228836059570e+00,-8.500579595565795898e-01,4.899157881736755371e-01
-3.903028011322021484e+00,-8.510565757751464844e-01,6.327032446861267090e-01
-3.908056259155273438e+00,-8.521530628204345703e-01,7.774974703788757324e-01
-3.913692235946655273e+00,-8.533819317817687988e-01,9.247761964797973633e-01
-3.848402261734008789e+00,-8.970290422439575195e-01,-1.058816790580749512e+00
-3.854007482528686523e+00,-8.983355760574340820e-01,-9.136178493499755859e-01
-3.859091043472290039e+00,-8.995205163955688477e-01,-7.702385187149047852e-01
-3.863892555236816406e+00,-9.006397128105163574e-01,-6.283845901489257812e-01
-3.868613481521606445e+00,-9.017401337623596191e-01,-4.877385199069976807e-01
-3.873633384704589844e+00,-9.029102325439453125e-01,-3.479831814765930176e-01
-3.878520488739013672e+00,-9.040493965148925781e-01,-2.087131440639495850e-01
-3.883414268493652344e+00,-9.051901102066040039e-01,-6.960222870111465454e-02
-3.888316154479980469e+00,-9.063326716423034668e-01,6.969008594751358032e-02
-3.893118619918823242e+00,-9.074521064758300781e-01,2.094987183809280396e-01
-3.898292541503906250e+00,-9.086580872535705566e-01,3.501984179019927979e-01
-3.903467416763305664e+00,-9.098642468452453613e-01,4.921327531337738037e-01
-3.908465862274169922e+00,-9.110293388366699219e-01,6.356335282325744629e-01
-3.913067579269409180e+00,-9.121019840240478516e-01,7.810117006301879883e-01
-3.918146133422851562e+00,-9.132857322692871094e-01,9.288223385810852051e-01
-3.853867292404174805e+00,-9.566568732261657715e-01,-1.063978910446166992e+00
-3.859085559844970703e+00,-9.579522013664245605e-01,-9.179781079292297363e-01
-3.864615201950073242e+00,-9.593248367309570312e-01,-7.740024328231811523e-01
-3.869158983230590820e+00,-9.604527354240417480e-01,-6.314120888710021973e-01
-3.874154567718505859e+00,-9.616928100585937500e-01,-4.901223778724670410e-01
-3.879055738449096680e+00,-9.629094004631042480e-01,-3.496726155281066895e-01
-3.883966445922851562e+00,-9.641284346580505371e-01,-2.097273319959640503e-01
-3.888859987258911133e+00,-9.653431773185729980e-01,-6.994032114744186401e-02
-3.893758058547973633e+00,-9.665589928627014160e-01,7.002840936183929443e-02
-3.898700952529907227e+00,-9.677860140800476074e-01,2.105229645967483521e-01
-3.903606414794921875e+00,-9.690037369728088379e-01,3.518857061862945557e-01
-3.909063339233398438e+00,-9.703582525253295898e-01,4.945386946201324463e-01
-3.913619279861450195e+00,-9.714891910552978516e-01,6.386675834655761719e-01
-3.918635129928588867e+00,-9.727343320846557617e-01,7.848215103149414062e-01
-3.924281597137451172e+00,-9.741359949111938477e-01,9.334865212440490723e-01
-3.858648538589477539e+00,-1.016686677932739258e+00,-1.069206953048706055e+00
-3.864380121231079102e+00,-1.018196821212768555e+00,-9.226098060607910156e-01
-3.869560718536376953e+00,-1.019561767578125000e+00,-7.778360247611999512e-01
-3.874429941177368164e+00,-1.020844817161560059e+00,-6.345918178558349609e-01
-3.879186153411865234e+00,-1.022097945213317871e+00,-4.925592839717864990e-01
-3.884219884872436523e+00,-1.023424267768859863e+00,-3.514226078987121582e-01
-3.889002799987792969e+00,-1.024684429168701172e+00,-2.107696831226348877e-01
-3.893905401229858398e+00,-1.025976181030273438e+00,-7.028796523809432983e-02
-3.898951292037963867e+00,-1.027305722236633301e+00,7.037904858589172363e-02
-3.903768539428710938e+00,-1.028575062751770020e+00,2.115699350833892822e-01
-3.908935785293579102e+00,-1.029936552047729492e+00,3.536587953567504883e-01
-3.914072036743164062e+00,-1.031289815902709961e+00,4.969889223575592041e-01
-3.919001817703247070e+00,-1.032588720321655273e+00,6.418921947479248047e-01
-3.923504829406738281e+00,-1.033775210380554199e+00,7.886795401573181152e-01
-3.929667949676513672e+00,-1.035399079322814941e+00,9.381970763206481934e-01
-3.865018367767333984e+00,-1.077751398086547852e+00,-1.075136423110961914e+00
-3.869405031204223633e+00,-1.078974604606628418e+00,-9.274016022682189941e-01
-3.875104665756225586e+00,-1.080563902854919434e+00,-7.819793224334716797e-01
-3.879756450653076172e+00,-1.081861019134521484e+00,-6.379351615905761719e-01
-3.884833812713623047e+00,-1.083276867866516113e+00,-4.951944649219512939e-01
-3.889768123626708984e+00,-1.084652781486511230e+00,-3.532930314540863037e-01
-3.894662141799926758e+00,-1.086017489433288574e+00,-2.118971496820449829e-01
-3.899574995040893555e+00,-1.087387442588806152e+00,-7.066401839256286621e-02
-3.904518365859985352e+00,-1.088765859603881836e+00,7.075359672307968140e-02
-3.909456491470336914e+00,-1.090142846107482910e+00,2.127020806074142456e-01
-3.914309501647949219e+00,-1.091496109962463379e+00,3.555220365524291992e-01
-3.919686794281005859e+00,-1.092995524406433105e+00,4.996371269226074219e-01
-3.924098730087280273e+00,-1.094225764274597168e+00,6.452262401580810547e-01
-3.930001974105834961e+00,-1.095871925354003906e+00,7.930573821067810059e-01
-3.934444427490234375e+00,-1.097110629081726074e+00,9.429900050163269043e-01
-3.855623483657836914e+00,-1.134848475456237793e+00,-1.076931238174438477e+00
-3.875983715057373047e+00,-1.140841245651245117e+00,-9.327965974807739258e-01
-3.881348133087158203e+00,-1.142420053482055664e+00,-7.864584326744079590e-01
-3.886353969573974609e+00,-1.143893480300903320e+00,-6.416464447975158691e-01
-3.891199350357055664e+00,-1.145319700241088867e+00,-4.980445206165313721e-01
-3.896036148071289062e+00,-1.146743297576904297e+00,-3.553167581558227539e-01
-3.901047945022583008e+00,-1.148218512535095215e+00,-2.131169438362121582e-01
-3.905972242355346680e+00,-1.149667859077453613e+00,-7.107085734605789185e-02
-3.910808801651000977e+00,-1.151091456413269043e+00,7.115885615348815918e-02
-3.915867805480957031e+00,-1.152580499649047852e+00,2.139265537261962891e-01
-3.920977592468261719e+00,-1.154084444046020508e+00,3.575913906097412109e-01
-3.926008462905883789e+00,-1.155565261840820312e+00,5.024998188018798828e-01
-3.930784702301025391e+00,-1.156971096992492676e+00,6.489820480346679688e-01
-3.936150312423706055e+00,-1.158550381660461426e+00,7.975627779960632324e-01
-3.941080331802368164e+00,-1.160001397132873535e+00,9.484627842903137207e-01
-3.831516027450561523e+00,-1.187598347663879395e+00,-1.074835538864135742e+00
-3.880224943161010742e+00,-1.202695846557617188e+00,-9.378641247749328613e-01
-3.885326623916625977e+00,-1.204277157783508301e+00,-7.906762957572937012e-01
-3.890189170837402344e+00,-1.205784320831298828e+00,-6.450630426406860352e-01
-3.895423650741577148e+00,-1.207406759262084961e+00,-5.007458925247192383e-01
-3.900440216064453125e+00,-1.208961725234985352e+00,-3.572599589824676514e-01
-3.905341386795043945e+00,-1.210480809211730957e+00,-2.142760753631591797e-01
-3.910273790359497070e+00,-1.212009668350219727e+00,-7.145746052265167236e-02
-3.915238857269287109e+00,-1.213548660278320312e+00,7.154819369316101074e-02
-3.920122146606445312e+00,-1.215062260627746582e+00,2.150870710611343384e-01
-3.924844264984130859e+00,-1.216525912284851074e+00,3.594952523708343506e-01
-3.930037021636962891e+00,-1.218135356903076172e+00,5.051953196525573730e-01
-3.935095548629760742e+00,-1.219703316688537598e+00,6.525093317031860352e-01
-3.940874576568603516e+00,-1.221494555473327637e+00,8.019804954528808594e-01
-3.945101737976074219e+00,-1.222804784774780273e+00,9.535450935363769531e-01
-3.823901653289794922e+00,-1.245497107505798340e+00,-1.077590107917785645e+00
-3.886635541915893555e+00,-1.265930414199829102e+00,-9.436965584754943848e-01
-3.891441106796264648e+00,-1.267495632171630859e+00,-7.955311536788940430e-01
-3.896718025207519531e+00,-1.269214391708374023e+00,-6.490915417671203613e-01
-3.901751995086669922e+00,-1.270854115486145020e+00,-5.038461089134216309e-01
-3.906693220138549805e+00,-1.272463440895080566e+00,-3.594641387462615967e-01
-3.911647319793701172e+00,-1.274077177047729492e+00,-2.156005799770355225e-01
-3.916579484939575195e+00,-1.275683522224426270e+00,-7.189900428056716919e-02
-3.921513319015502930e+00,-1.277290582656860352e+00,7.198958098888397217e-02
-3.926495552062988281e+00,-1.278913378715515137e+00,2.164189815521240234e-01
-3.931442737579345703e+00,-1.280524730682373047e+00,3.617413938045501709e-01
-3.936227083206176758e+00,-1.282083153724670410e+00,5.082979798316955566e-01
-3.941609621047973633e+00,-1.283836245536804199e+00,6.565693616867065430e-01
-3.946758508682250977e+00,-1.285513281822204590e+00,8.068397045135498047e-01
-3.952649593353271484e+00,-1.287432074546813965e+00,9.597251415252685547e-01
-3.799562454223632812e+00,-1.298005819320678711e+00,-1.075856685638427734e+00
-3.892066955566406250e+00,-1.329607129096984863e+00,-9.495389461517333984e-01
-3.897375583648681641e+00,-1.331420779228210449e+00,-8.005582094192504883e-01
-3.902358293533325195e+00,-1.333122849464416504e+00,-6.531426310539245605e-01
-3.907213687896728516e+00,-1.334781646728515625e+00,-5.069665908813476562e-01
-3.912350893020629883e+00,-1.336536645889282227e+00,-3.617078959941864014e-01
-3.917193412780761719e+00,-1.338190913200378418e+00,-2.169397771358489990e-01
-3.922136068344116211e+00,-1.339879393577575684e+00,-7.234566658735275269e-02
-3.927201747894287109e+00,-1.341609954833984375e+00,7.243910431861877441e-02
-3.931994915008544922e+00,-1.343247413635253906e+00,2.177595049142837524e-01
-3.937142610549926758e+00,-1.345005989074707031e+00,3.639999628067016602e-01
-3.942245960235595703e+00,-1.346749424934387207e+00,5.115121006965637207e-01
-3.947128295898437500e+00,-1.348417282104492188e+00,6.606358885765075684e-01
-3.952677011489868164e+00,-1.350312829017639160e+00,8.119176626205444336e-01
-3.957833290100097656e+00,-1.352074265480041504e+00,9.655838608741760254e-01
-3.775120973587036133e+00,-1.350293755531311035e+00,-1.074298501014709473e+00
-3.898175477981567383e+00,-1.394308209419250488e+00,-9.558002948760986328e-01
-3.903240442276000977e+00,-1.396119832992553711e+00,-8.057851195335388184e-01
-3.908700704574584961e+00,-1.398072838783264160e+00,-6.574861407279968262e-01
-3.913379430770874023e+00,-1.399746417999267578e+00,-5.103139281272888184e-01
-3.918463945388793945e+00,-1.401564955711364746e+00,-3.640904724597930908e-01
-3.923453807830810547e+00,-1.403349876403808594e+00,-2.183765470981597900e-01
-3.928407192230224609e+00,-1.405121564865112305e+00,-7.282486557960510254e-02
-3.933335304260253906e+00,-1.406884312629699707e+00,7.291621714830398560e-02
-3.938203334808349609e+00,-1.408625483512878418e+00,2.191974967718124390e-01
-3.943551778793334961e+00,-1.410538554191589355e+00,3.664215803146362305e-01
-3.948182582855224609e+00,-1.412194848060607910e+00,5.148523449897766113e-01
-3.953333854675292969e+00,-1.414037346839904785e+00,6.649939417839050293e-01
-3.959284305572509766e+00,-1.416165709495544434e+00,8.173548579216003418e-01
-3.963670492172241211e+00,-1.417734622955322266e+00,9.718591570854187012e-01
-3.773868322372436523e+00,-1.411087155342102051e+00,-1.079579234123229980e+00
-3.904001474380493164e+00,-1.459745287895202637e+00,-9.622532725334167480e-01
-3.908696413040161133e+00,-1.461500763893127441e+00,-8.111469745635986328e-01
-3.913902282714843750e+00,-1.463447213172912598e+00,-6.618168354034423828e-01
-3.918865680694580078e+00,-1.465303182601928711e+00,-5.137117505073547363e-01
-3.923738002777099609e+00,-1.467124938964843750e+00,-3.664942085742950439e-01
-3.928626537322998047e+00,-1.468952894210815430e+00,-2.198122292757034302e-01
-3.933588981628417969e+00,-1.470808267593383789e+00,-7.330368459224700928e-02
-3.938639163970947266e+00,-1.472696661949157715e+00,7.339779287576675415e-02
-3.943740129470825195e+00,-1.474603891372680664e+00,2.206578552722930908e-01
-3.948809385299682617e+00,-1.476499319076538086e+00,3.688359856605529785e-01
-3.953716754913330078e+00,-1.478334307670593262e+00,5.182802677154541016e-01
-3.959264516830444336e+00,-1.480408668518066406e+00,6.694872975349426270e-01
-3.963449001312255859e+00,-1.481973290443420410e+00,8.225094079971313477e-01
-3.969417333602905273e+00,-1.484204888343811035e+00,9.783768653869628906e-01
-3.752388715744018555e+00,-1.464603900909423828e+00,-1.079321026802062988e+00
-3.909518003463745117e+00,-1.525933384895324707e+00,-9.688971638679504395e-01
-3.914805650711059570e+00,-1.527997136116027832e+00,-8.168697953224182129e-01
-3.919757843017578125e+00,-1.529930114746093750e+00,-6.664416790008544922e-01
-3.924575567245483398e+00,-1.531810522079467773e+00,-5.172813534736633301e-01
-3.929414510726928711e+00,-1.533699274063110352e+00,-3.690370917320251465e-01
-3.934464931488037109e+00,-1.535670518875122070e+00,-2.213460803031921387e-01
-3.939438581466674805e+00,-1.537611722946166992e+00,-7.381526380777359009e-02
-3.944332838058471680e+00,-1.539522051811218262e+00,7.390697300434112549e-02
-3.949489116668701172e+00,-1.541534543037414551e+00,2.221913039684295654e-01
-3.954726219177246094e+00,-1.543578624725341797e+00,3.714142739772796631e-01
-3.959912300109863281e+00,-1.545602917671203613e+00,5.219389796257019043e-01
-3.964868307113647461e+00,-1.547537326812744141e+00,6.741113662719726562e-01
-3.969373703002929688e+00,-1.549295783042907715e+00,8.282560706138610840e-01
-3.975798845291137695e+00,-1.551803588867187500e+00,9.853235483169555664e-01
-3.730875253677368164e+00,-1.518089771270751953e+00,-1.079272508621215820e+00
-3.915745019912719727e+00,-1.593313097953796387e+00,-9.759923815727233887e-01
-3.920847415924072266e+00,-1.595389246940612793e+00,-8.228110671043395996e-01
-3.925724267959594727e+00,-1.597373604774475098e+00,-6.712746620178222656e-01
-3.931027412414550781e+00,-1.599531531333923340e+00,-5.210960507392883301e-01
-3.936104059219360352e+00,-1.601597189903259277e+00,-3.717802166938781738e-01
-3.941057443618774414e+00,-1.603612661361694336e+00,-2.229854166507720947e-01
-3.946042299270629883e+00,-1.605641007423400879e+00,-7.436201721429824829e-02
-3.951058149337768555e+00,-1.607681989669799805e+00,7.445653527975082397e-02
-3.955984830856323242e+00,-1.609686732292175293e+00,2.238300144672393799e-01
-3.960742712020874023e+00,-1.611622571945190430e+00,3.741074502468109131e-01
-3.966026782989501953e+00,-1.613772749900817871e+00,5.257355570793151855e-01
-3.971193552017211914e+00,-1.615875124931335449e+00,6.790496110916137695e-01
-3.976016759872436523e+00,-1.617837667465209961e+00,8.343887329101562500e-01
-3.981560707092285156e+00,-1.620093464851379395e+00,9.923968315124511719e-01
-3.691637992858886719e+00,-1.564073681831359863e+00,-1.074288010597229004e+00
-3.921390533447265625e+00,-1.661415338516235352e+00,-9.832261204719543457e-01
-3.926175832748413086e+00,-1.663442730903625488e+00,-8.288410305976867676e-01
-3.930835247039794922e+00,-1.665416717529296875e+00,-6.761554479598999023e-01
-3.936028003692626953e+00,-1.667616844177246094e+00,-5.248693227767944336e-01
-3.941094636917114258e+00,-1.669763445854187012e+00,-3.744707107543945312e-01
-3.946139097213745117e+00,-1.671900749206542969e+00,-2.246039509773254395e-01
-3.951120138168334961e+00,-1.674011111259460449e+00,-7.490157335996627808e-02
-3.956063508987426758e+00,-1.676105499267578125e+00,7.499528676271438599e-02
-3.961019515991210938e+00,-1.678205251693725586e+00,2.254508882761001587e-01
-3.965907573699951172e+00,-1.680276274681091309e+00,3.768283724784851074e-01
-3.971431493759155273e+00,-1.682616710662841797e+00,5.295903682708740234e-01
-3.976939678192138672e+00,-1.684950351715087891e+00,6.840860247611999512e-01
-3.982200622558593750e+00,-1.687179327011108398e+00,8.406682014465332031e-01
-3.986938238143920898e+00,-1.689186453819274902e+00,9.996611475944519043e-01
-3.670025825500488281e+00,-1.617255449295043945e+00,-1.074625134468078613e+00
-3.929185390472412109e+00,-1.731458187103271484e+00,-9.912929534912109375e-01
-3.934620618820190430e+00,-1.733853220939636230e+00,-8.357772231101989746e-01
-3.939680337905883789e+00,-1.736082911491394043e+00,-6.818814873695373535e-01
-3.944563388824462891e+00,-1.738234758377075195e+00,-5.292710065841674805e-01
-3.949425458908081055e+00,-1.740377187728881836e+00,-3.775905668735504150e-01
-3.954375267028808594e+00,-1.742558479309082031e+00,-2.264691591262817383e-01
-3.959370374679565430e+00,-1.744759678840637207e+00,-7.552365958690643311e-02
-3.964436531066894531e+00,-1.746992111206054688e+00,7.562029361724853516e-02
-3.969626665115356445e+00,-1.749279141426086426e+00,2.273426055908203125e-01
-3.974855184555053711e+00,-1.751583218574523926e+00,3.800218105316162109e-01
-3.979991197586059570e+00,-1.753846526145935059e+00,5.340246558189392090e-01
-3.984856128692626953e+00,-1.755990386009216309e+00,6.897005438804626465e-01
-3.990430593490600586e+00,-1.758446812629699707e+00,8.476321697235107422e-01
-3.995585203170776367e+00,-1.760718226432800293e+00,1.008044958114624023e+00
-3.654093742370605469e+00,-1.673090338706970215e+00,-1.076861858367919922e+00
-3.933696985244750977e+00,-1.801111459732055664e+00,-9.988329410552978516e-01
-3.938034772872924805e+00,-1.803097605705261230e+00,-8.418983817100524902e-01
-3.943749427795410156e+00,-1.805714130401611328e+00,-6.869888305664062500e-01
-3.948547363281250000e+00,-1.807911038398742676e+00,-5.332231521606445312e-01
-3.953697443008422852e+00,-1.810269117355346680e+00,-3.804373145103454590e-01
-3.958560705184936523e+00,-1.812495827674865723e+00,-2.281712591648101807e-01
-3.963563680648803711e+00,-1.814786553382873535e+00,-7.609133422374725342e-02
-3.968733787536621094e+00,-1.817153811454772949e+00,7.619059085845947266e-02
-3.973636627197265625e+00,-1.819398641586303711e+00,2.290402501821517944e-01
-3.978968143463134766e+00,-1.821839690208435059e+00,3.828689157962799072e-01
-3.983443975448608398e+00,-1.823889017105102539e+00,5.379356741905212402e-01
-3.989451408386230469e+00,-1.826639652252197266e+00,6.949499845504760742e-01
-3.994196653366088867e+00,-1.828812241554260254e+00,8.539050221443176270e-01
-3.999653100967407227e+00,-1.831310629844665527e+00,1.015580296516418457e+00
-3.635373592376708984e+00,-1.727877616882324219e+00,-1.078523039817810059e+00
-3.940492153167724609e+00,-1.872899293899536133e+00,-1.007262110710144043e+00
-3.945546150207519531e+00,-1.875301361083984375e+00,-8.491557240486145020e-01
-3.951071500778198242e+00,-1.877927541732788086e+00,-6.928756833076477051e-01
-3.955769777297973633e+00,-1.880160570144653320e+00,-5.377776026725769043e-01
-3.960923671722412109e+00,-1.882610321044921875e+00,-3.836862146854400635e-01
-3.965979814529418945e+00,-1.885013341903686523e+00,-2.301305085420608521e-01
-3.970995426177978516e+00,-1.887397289276123047e+00,-7.674477249383926392e-02
-3.975982904434204102e+00,-1.889767885208129883e+00,7.684116810560226440e-02
-3.980907678604125977e+00,-1.892108559608459473e+00,2.309967130422592163e-01
-3.986365079879760742e+00,-1.894702434539794922e+00,3.861506879329681396e-01
-3.991058349609375000e+00,-1.896933197975158691e+00,5.425750017166137695e-01
-3.996352434158325195e+00,-1.899449348449707031e+00,7.008163332939147949e-01
-4.001339435577392578e+00,-1.901819705963134766e+00,8.611634969711303711e-01
-4.007148742675781250e+00,-1.904580712318420410e+00,1.024300694465637207e+00
-3.598486423492431641e+00,-1.773920297622680664e+00,-1.075002312660217285e+00
-3.946270942687988281e+00,-1.945365190505981445e+00,-1.015752911567687988e+00
-3.951069116592407227e+00,-1.947730541229248047e+00,-8.562567234039306641e-01
-3.956435441970825195e+00,-1.950375914573669434e+00,-6.986404061317443848e-01
-3.961533546447753906e+00,-1.952889084815979004e+00,-5.423057079315185547e-01
-3.966517210006713867e+00,-1.955345869064331055e+00,-3.868995308876037598e-01
-3.971492290496826172e+00,-1.957798361778259277e+00,-2.320526689291000366e-01
-3.976518154144287109e+00,-1.960276007652282715e+00,-7.738584280014038086e-02
-3.981607437133789062e+00,-1.962784767150878906e+00,7.748488336801528931e-02
-3.986724615097045898e+00,-1.965307354927062988e+00,2.329426854848861694e-01
-3.991785049438476562e+00,-1.967801928520202637e+00,3.893641829490661621e-01
-3.996659755706787109e+00,-1.970204949378967285e+00,5.471142530441284180e-01
-4.002234458923339844e+00,-1.972953081130981445e+00,7.067276835441589355e-01
-4.007588863372802734e+00,-1.975592613220214844e+00,8.685053586959838867e-01
-4.012446403503417969e+00,-1.977987170219421387e+00,1.032786130905151367e+00
-3.582427740097045898e+00,-1.830194830894470215e+00,-1.077920436859130859e+00
-3.952726602554321289e+00,-2.019373655319213867e+00,-1.024749398231506348e+00
-3.957273006439208984e+00,-2.021696090698242188e+00,-8.637838363647460938e-01
-3.962484836578369141e+00,-2.024358987808227539e+00,-7.047530412673950195e-01
-3.967517137527465820e+00,-2.026929616928100586e+00,-5.470404028892517090e-01
-3.972525119781494141e+00,-2.029488325119018555e+00,-3.902790844440460205e-01
-3.977706909179687500e+00,-2.032135486602783203e+00,-2.340913563966751099e-01
-3.982744216918945312e+00,-2.034708976745605469e+00,-7.806578278541564941e-02
-3.987633943557739258e+00,-2.037207126617431641e+00,7.816162705421447754e-02
-3.992747306823730469e+00,-2.039819240570068359e+00,2.349764853715896606e-01
-3.997896909713745117e+00,-2.042450189590454102e+00,3.927716910839080811e-01
-4.002950191497802734e+00,-2.045031785964965820e+00,5.519258975982666016e-01
-4.008802890777587891e+00,-2.048022031784057617e+00,7.129909992218017578e-01
-4.013266086578369141e+00,-2.050302028656005859e+00,8.760059475898742676e-01
-4.018395423889160156e+00,-2.052922487258911133e+00,1.041774153709411621e+00
-3.545393943786621094e+00,-1.875738024711608887e+00,-1.074745535850524902e+00
-3.958873748779296875e+00,-2.094495058059692383e+00,-1.034009337425231934e+00
-3.964230537414550781e+00,-2.097329139709472656e+00,-8.717659711837768555e-01
-3.969292402267456055e+00,-2.100007295608520508e+00,-7.112370133399963379e-01
-3.974751472473144531e+00,-2.102895498275756836e+00,-5.521314144134521484e-01
-3.979591369628906250e+00,-2.105456113815307617e+00,-3.938936591148376465e-01
-3.984698057174682617e+00,-2.108157873153686523e+00,-2.362544089555740356e-01
-3.989748001098632812e+00,-2.110829591751098633e+00,-7.878720015287399292e-02
-3.994736671447753906e+00,-2.113468885421752930e+00,7.888571918010711670e-02
-4.000044345855712891e+00,-2.116276979446411133e+00,2.371642887592315674e-01
-4.004774570465087891e+00,-2.118779420852661133e+00,3.963862657546997070e-01
-4.010003089904785156e+00,-2.121545791625976562e+00,5.570282340049743652e-01
-4.015044689178466797e+00,-2.124213218688964844e+00,7.194351553916931152e-01
-4.020942687988281250e+00,-2.127333641052246094e+00,8.842374086380004883e-01
-4.026515960693359375e+00,-2.130282163619995117e+00,1.051676630973815918e+00
-3.529318571090698242e+00,-1.932383418083190918e+00,-1.078146576881408691e+00
-3.966888189315795898e+00,-2.171962738037109375e+00,-1.044115543365478516e+00
-3.972016811370849609e+00,-2.174770832061767578e+00,-8.802334666252136230e-01
-3.977624893188476562e+00,-2.177841424942016602e+00,-7.182421088218688965e-01
-3.982343912124633789e+00,-2.180425167083740234e+00,-5.574643015861511230e-01
-3.987511634826660156e+00,-2.183254718780517578e+00,-3.977299332618713379e-01
-3.992543935775756836e+00,-2.186009883880615234e+00,-2.385503053665161133e-01
-3.997607231140136719e+00,-2.188782215118408203e+00,-7.955291867256164551e-02
-4.002697467803955078e+00,-2.191569089889526367e+00,7.965421676635742188e-02
-4.007687568664550781e+00,-2.194301366806030273e+00,2.394551336765289307e-01
-4.013205051422119141e+00,-2.197322368621826172e+00,4.002926945686340332e-01
-4.017895221710205078e+00,-2.199890375137329102e+00,5.624409317970275879e-01
-4.023196697235107422e+00,-2.202793121337890625e+00,7.264710664749145508e-01
-4.028167724609375000e+00,-2.205514669418334961e+00,8.926769495010375977e-01
-4.033999443054199219e+00,-2.208707571029663086e+00,1.061779737472534180e+00
-3.492250680923461914e+00,-1.977572083473205566e+00,-1.075359821319580078e+00
-3.975806236267089844e+00,-2.251397371292114258e+00,-1.054836750030517578e+00
-3.980713367462158203e+00,-2.254176139831542969e+00,-8.892198204994201660e-01
-3.986190557479858398e+00,-2.257277727127075195e+00,-7.255486249923706055e-01
-3.991357803344726562e+00,-2.260203838348388672e+00,-5.631970763206481934e-01
-3.996070623397827148e+00,-2.262872457504272461e+00,-4.017731249332427979e-01
-4.001232147216796875e+00,-2.265795469284057617e+00,-2.409824877977371216e-01
-4.006294250488281250e+00,-2.268661975860595703e+00,-8.036376535892486572e-02
-4.011284351348876953e+00,-2.271487712860107422e+00,8.046386390924453735e-02
-4.016777515411376953e+00,-2.274598121643066406e+00,2.419187277555465698e-01
-4.021857738494873047e+00,-2.277475118637084961e+00,4.043658375740051270e-01
-4.026709556579589844e+00,-2.280222415924072266e+00,5.681853294372558594e-01
-4.032265663146972656e+00,-2.283368825912475586e+00,7.339350581169128418e-01
-4.037575721740722656e+00,-2.286375761032104492e+00,9.019218087196350098e-01
-4.042360305786132812e+00,-2.289085149765014648e+00,1.072494506835937500e+00
-3.457664728164672852e+00,-2.023882389068603516e+00,-1.073520183563232422e+00
-3.981980323791503906e+00,-2.330781221389770508e+00,-1.065217018127441406e+00
-3.986702203750610352e+00,-2.333545207977294922e+00,-8.979268670082092285e-01
-3.992079019546508789e+00,-2.336692333221435547e+00,-7.326330542564392090e-01
-3.997222900390625000e+00,-2.339703321456909180e+00,-5.686919093132019043e-01
-4.002288818359375000e+00,-2.342668294906616211e+00,-4.057281017303466797e-01
-4.007383823394775391e+00,-2.345650672912597656e+00,-2.433501332998275757e-01
-4.012456893920898438e+00,-2.348620176315307617e+00,-8.115340769290924072e-02
-4.017535686492919922e+00,-2.351593017578125000e+00,8.125612884759902954e-02
-4.022680282592773438e+00,-2.354604244232177734e+00,2.442790418863296509e-01
-4.027806758880615234e+00,-2.357604980468750000e+00,4.083149731159210205e-01
-4.032782077789306641e+00,-2.360517024993896484e+00,5.737509131431579590e-01
-4.038548946380615234e+00,-2.363892555236816406e+00,7.411612868309020996e-01
-4.044146537780761719e+00,-2.367169141769409180e+00,9.108650684356689453e-01
-4.049291133880615234e+00,-2.370180368423461914e+00,1.083223223686218262e+00
-3.443997383117675781e+00,-2.082626581192016602e+00,-1.078421473503112793e+00
-3.988863468170166016e+00,-2.412113428115844727e+00,-1.076184034347534180e+00
-3.993407487869262695e+00,-2.414861440658569336e+00,-9.071292281150817871e-01
-3.998691558837890625e+00,-2.418056726455688477e+00,-7.401226758956909180e-01
-4.004326343536376953e+00,-2.421464204788208008e+00,-5.745747089385986328e-01
-4.009247779846191406e+00,-2.424440145492553711e+00,-4.099094867706298828e-01
-4.014277935028076172e+00,-2.427481889724731445e+00,-2.458535432815551758e-01
-4.019362926483154297e+00,-2.430557012557983398e+00,-8.198831975460052490e-02
-4.024531841278076172e+00,-2.433682680130004883e+00,8.209376037120819092e-02
-4.029846191406250000e+00,-2.436896324157714844e+00,2.468070238828659058e-01
-4.034486293792724609e+00,-2.439702272415161133e+00,4.124898910522460938e-01
-4.039580345153808594e+00,-2.442782640457153320e+00,5.796332359313964844e-01
-4.045551776885986328e+00,-2.446393728256225586e+00,7.487961053848266602e-01
-4.050107479095458984e+00,-2.449148654937744141e+00,9.200090169906616211e-01
-4.055420875549316406e+00,-2.452361583709716797e+00,1.094141006469726562e+00
-3.409277677536010742e+00,-2.128855943679809570e+00,-1.076980829238891602e+00
-3.996521234512329102e+00,-2.495548725128173828e+00,-1.087775826454162598e+00
-4.001809597015380859e+00,-2.498850822448730469e+00,-9.170686602592468262e-01
-4.006807327270507812e+00,-2.501971721649169922e+00,-7.481766939163208008e-01
-4.011720180511474609e+00,-2.505039453506469727e+00,-5.807210803031921387e-01
-4.017014980316162109e+00,-2.508345603942871094e+00,-4.143319427967071533e-01
-4.021980285644531250e+00,-2.511445999145507812e+00,-2.485014200210571289e-01
-4.027078628540039062e+00,-2.514629840850830078e+00,-8.287142217159271240e-02
-4.032339572906494141e+00,-2.517914772033691406e+00,8.297967910766601562e-02
-4.037289619445800781e+00,-2.521005630493164062e+00,2.494473159313201904e-01
-4.042700290679931641e+00,-2.524384021759033203e+00,4.169812202453613281e-01
-4.048112392425537109e+00,-2.527763605117797852e+00,5.859889984130859375e-01
-4.053342342376708984e+00,-2.531029462814331055e+00,7.568659782409667969e-01
-4.058161258697509766e+00,-2.534038543701171875e+00,9.299824237823486328e-01
-4.063821315765380859e+00,-2.537573099136352539e+00,1.106093645095825195e+00
-3.374562978744506836e+00,-2.174919605255126953e+00,-1.075738430023193359e+00
-4.005022048950195312e+00,-2.581253290176391602e+00,-1.100033044815063477e+00
-4.010156631469726562e+00,-2.584562540054321289e+00,-9.273642301559448242e-01
-4.015074253082275391e+00,-2.587731838226318359e+00,-7.565590143203735352e-01
-4.020499706268310547e+00,-2.591228723526000977e+00,-5.873007178306579590e-01
-4.025352001190185547e+00,-2.594355821609497070e+00,-4.189791083335876465e-01
-4.030563354492187500e+00,-2.597714424133300781e+00,-2.513033151626586914e-01
-4.035676479339599609e+00,-2.601010084152221680e+00,-8.380588889122009277e-02
-4.040702819824218750e+00,-2.604249715805053711e+00,8.391027152538299561e-02
-4.046142578125000000e+00,-2.607755661010742188e+00,2.522746920585632324e-01
-4.051049709320068359e+00,-2.610918045043945312e+00,4.216538667678833008e-01
-4.056572914123535156e+00,-2.614478111267089844e+00,5.925701856613159180e-01
-4.061988830566406250e+00,-2.617968320846557617e+00,7.653990983963012695e-01
-4.067065238952636719e+00,-2.621240377426147461e+00,9.405245184898376465e-01
-4.073066711425781250e+00,-2.625108242034912109e+00,1.118722438812255859e+00
-3.342031717300415039e+00,-2.222290039062500000e+00,-1.075397968292236328e+00
-3.973296642303466797e+00,-2.642050743103027344e+00,-1.101593375205993652e+00
-4.014990806579589844e+00,-2.669775247573852539e+00,-9.372231364250183105e-01
-4.020584583282470703e+00,-2.673494815826416016e+00,-7.647296190261840820e-01
-4.025300979614257812e+00,-2.676631212234497070e+00,-5.935377478599548340e-01
-4.030548572540283203e+00,-2.680120706558227539e+00,-4.234695434570312500e-01
-4.035703659057617188e+00,-2.683548688888549805e+00,-2.539927065372467041e-01
-4.040827274322509766e+00,-2.686955451965332031e+00,-8.470284193754196167e-02
-4.045928955078125000e+00,-2.690347909927368164e+00,8.480978757143020630e-02
-4.050975322723388672e+00,-2.693703174591064453e+00,2.549538314342498779e-01
-4.056633472442626953e+00,-2.697465896606445312e+00,4.262101352214813232e-01
-4.061476707458496094e+00,-2.700686216354370117e+00,5.988718867301940918e-01
-4.067033290863037109e+00,-2.704380989074707031e+00,7.735643386840820312e-01
-4.072315692901611328e+00,-2.707893848419189453e+00,9.506046175956726074e-01
-4.077045440673828125e+00,-2.711038827896118164e+00,1.130357623100280762e+00
-3.307309627532958984e+00,-2.268128156661987305e+00,-1.074561595916748047e+00
-3.936613559722900391e+00,-2.699700117111206055e+00,-1.102023601531982422e+00
-4.025051116943359375e+00,-2.760349750518798828e+00,-9.486973285675048828e-01
-4.030586242675781250e+00,-2.764145612716674805e+00,-7.740780115127563477e-01
-4.035836696624755859e+00,-2.767746448516845703e+00,-6.008711457252502441e-01
-4.040957927703857422e+00,-2.771258592605590820e+00,-4.286867976188659668e-01
-4.046058654785156250e+00,-2.774756431579589844e+00,-2.571176588535308838e-01
-4.051199436187744141e+00,-2.778281927108764648e+00,-8.574505150318145752e-02
-4.056390285491943359e+00,-2.781841993331909180e+00,8.585492521524429321e-02
-4.061597824096679688e+00,-2.785413265228271484e+00,2.581051588058471680e-01
-4.066735744476318359e+00,-2.788936614990234375e+00,4.314214289188385010e-01
-4.071671485900878906e+00,-2.792321681976318359e+00,6.062064170837402344e-01
-4.077401638031005859e+00,-2.796251535415649414e+00,7.830690145492553711e-01
-4.082929611206054688e+00,-2.800042629241943359e+00,9.623392224311828613e-01
-4.087970256805419922e+00,-2.803499221801757812e+00,1.144394636154174805e+00
-3.274666786193847656e+00,-2.315341234207153320e+00,-1.074613094329833984e+00
-3.902437448501586914e+00,-2.759204149246215820e+00,-1.103399157524108887e+00
-4.032281398773193359e+00,-2.851009845733642578e+00,-9.599214792251586914e-01
-4.036837577819824219e+00,-2.854231119155883789e+00,-7.830443978309631348e-01
-4.042121410369873047e+00,-2.857967138290405273e+00,-6.078350543975830078e-01
-4.047656536102294922e+00,-2.861880779266357422e+00,-4.336986243724822998e-01
-4.052703857421875000e+00,-2.865449428558349609e+00,-2.601196765899658203e-01
-4.057855606079101562e+00,-2.869091987609863281e+00,-8.674624562263488770e-02
-4.063125610351562500e+00,-2.872817993164062500e+00,8.685889840126037598e-02
-4.067923069000244141e+00,-2.876210212707519531e+00,2.610965371131896973e-01
-4.073050498962402344e+00,-2.879835367202758789e+00,4.364195466041564941e-01
-4.079019546508789062e+00,-2.884055852890014648e+00,6.133835911750793457e-01
-4.083899974822998047e+00,-2.887506484985351562e+00,7.921732664108276367e-01
-4.089619636535644531e+00,-2.891550540924072266e+00,9.735713601112365723e-01
-4.094913959503173828e+00,-2.895293951034545898e+00,1.157821178436279297e+00
-3.241955041885375977e+00,-2.362525463104248047e+00,-1.074865341186523438e+00
-3.868169784545898438e+00,-2.818870067596435547e+00,-1.105005145072937012e+00
-4.039283275604248047e+00,-2.943566322326660156e+00,-9.715188145637512207e-01
-4.044555187225341797e+00,-2.947408199310302734e+00,-7.926436066627502441e-01
