-1.704436689615249634e-01,-1.099044322967529297e+00,-2.980078756809234619e-01
-1.706687808036804199e-01,-1.100495815277099609e+00,-2.571062445640563965e-01
-1.708751469850540161e-01,-1.101826548576354980e+00,-2.167332768440246582e-01
-1.710741519927978516e-01,-1.103109836578369141e+00,-1.768037080764770508e-01
-1.712980419397354126e-01,-1.104553461074829102e+00,-1.372431367635726929e-01
-1.715116649866104126e-01,-1.105930924415588379e+00,-9.791290014982223511e-02
-1.717195063829421997e-01,-1.107271075248718262e+00,-5.872321873903274536e-02
-1.719286590814590454e-01,-1.108619809150695801e+00,-1.958232372999191284e-02
-1.721398383378982544e-01,-1.109981536865234375e+00,1.960637606680393219e-02
-1.723467111587524414e-01,-1.111315488815307617e+00,5.893770605325698853e-02
-1.725458204746246338e-01,-1.112599253654479980e+00,9.850327670574188232e-02
-1.727735400199890137e-01,-1.114067673683166504e+00,1.384252905845642090e-01
-1.729984730482101440e-01,-1.115518093109130859e+00,1.787924766540527344e-01
-1.732107698917388916e-01,-1.116886973381042480e+00,2.196957170963287354e-01
-1.733984947204589844e-01,-1.118097424507141113e+00,2.612184584140777588e-01
-1.542674750089645386e-01,-1.098315238952636719e+00,-2.971810400485992432e-01
-1.544748842716217041e-01,-1.099792003631591797e+00,-2.563989758491516113e-01
-1.546634733676910400e-01,-1.101134657859802246e+00,-2.161395847797393799e-01
-1.548432260751724243e-01,-1.102414369583129883e+00,-1.763189584016799927e-01
-1.550221890211105347e-01,-1.103688478469848633e+00,-1.368459463119506836e-01
-1.552193462848663330e-01,-1.105092167854309082e+00,-9.763193875551223755e-02
-1.554092764854431152e-01,-1.106444358825683594e+00,-5.855540558695793152e-02
-1.555987894535064697e-01,-1.107793688774108887e+00,-1.952639222145080566e-02
-1.557878702878952026e-01,-1.109139919281005859e+00,1.955012045800685883e-02
-1.559711694717407227e-01,-1.110444784164428711e+00,5.876711755990982056e-02
-1.561750471591949463e-01,-1.111896395683288574e+00,9.823307394981384277e-02
-1.563816368579864502e-01,-1.113367199897766113e+00,1.380459964275360107e-01
-1.565836220979690552e-01,-1.114805221557617188e+00,1.783007383346557617e-01
-1.567719429731369019e-01,-1.116145968437194824e+00,2.190861403942108154e-01
-1.569361090660095215e-01,-1.117314696311950684e+00,2.604841291904449463e-01
-1.381325423717498779e-01,-1.097232937812805176e+00,-2.963228523731231689e-01
-1.382825225591659546e-01,-1.098424315452575684e+00,-2.555924952030181885e-01
-1.384610533714294434e-01,-1.099842429161071777e+00,-2.154748439788818359e-01
-1.386300623416900635e-01,-1.101184844970703125e+00,-1.757869422435760498e-01
-1.388152092695236206e-01,-1.102655649185180664e+00,-1.364575326442718506e-01
-1.389769315719604492e-01,-1.103940248489379883e+00,-9.734445810317993164e-02
-1.391490250825881958e-01,-1.105307102203369141e+00,-5.838383361697196960e-02
-1.393186002969741821e-01,-1.106654286384582520e+00,-1.946916431188583374e-02
-1.394859254360198975e-01,-1.107983350753784180e+00,1.949254609644412994e-02
-1.396649926900863647e-01,-1.109405755996704102e+00,5.860032513737678528e-02
-1.398225575685501099e-01,-1.110657215118408203e+00,9.793675690889358521e-02
-1.399993747472763062e-01,-1.112061858177185059e+00,1.376215815544128418e-01
-1.401701718568801880e-01,-1.113418579101562500e+00,1.777398586273193359e-01
-1.403750777244567871e-01,-1.115046143531799316e+00,2.184534817934036255e-01
-1.405155062675476074e-01,-1.116161704063415527e+00,2.597197890281677246e-01
-1.220903545618057251e-01,-1.096184492111206055e+00,-2.955374717712402344e-01
-1.222274824976921082e-01,-1.097415685653686523e+00,-2.549245655536651611e-01
-1.223880425095558167e-01,-1.098857283592224121e+00,-2.149166315793991089e-01
-1.225382983684539795e-01,-1.100206255912780762e+00,-1.753327846527099609e-01
-1.226842030882835388e-01,-1.101516246795654297e+00,-1.360852867364883423e-01
-1.228308752179145813e-01,-1.102833271026611328e+00,-9.708186239004135132e-02
-1.229848340153694153e-01,-1.104215502738952637e+00,-5.822722613811492920e-02
-1.231347322463989258e-01,-1.105561375617980957e+00,-1.941694132983684540e-02
-1.232808008790016174e-01,-1.106872916221618652e+00,1.943997479975223541e-02
-1.234352588653564453e-01,-1.108259677886962891e+00,5.844047665596008301e-02
-1.235923245549201965e-01,-1.109669923782348633e+00,9.768369048833847046e-02
-1.237477511167526245e-01,-1.111065387725830078e+00,1.372650116682052612e-01
-1.238960400223731995e-01,-1.112396717071533203e+00,1.772754937410354614e-01
-1.240724027156829834e-01,-1.113980174064636230e+00,2.178744077682495117e-01
-1.242383196949958801e-01,-1.115469932556152344e+00,2.591184973716735840e-01
-1.061315387487411499e-01,-1.095160126686096191e+00,-2.948215305805206299e-01
-1.062550842761993408e-01,-1.096434950828552246e+00,-2.543174326419830322e-01
-1.063719689846038818e-01,-1.097641110420227051e+00,-2.143590301275253296e-01
-1.065089404582977295e-01,-1.099054455757141113e+00,-1.748883575201034546e-01
-1.066407263278961182e-01,-1.100414395332336426e+00,-1.357466727495193481e-01
-1.067801043391227722e-01,-1.101852655410766602e+00,-9.685108065605163574e-02
-1.069068759679794312e-01,-1.103160738945007324e+00,-5.808496475219726562e-02
-1.070371791720390320e-01,-1.104505300521850586e+00,-1.936950348317623138e-02
-1.071710884571075439e-01,-1.105887055397033691e+00,1.939373463392257690e-02
-1.072935312986373901e-01,-1.107150554656982422e+00,5.829504132270812988e-02
-1.074251309037208557e-01,-1.108508586883544922e+00,9.743612259626388550e-02
-1.075537428259849548e-01,-1.109835624694824219e+00,1.369088739156723022e-01
-1.077056229114532471e-01,-1.111402869224548340e+00,1.768533140420913696e-01
-1.078545674681663513e-01,-1.112939953804016113e+00,2.173467427492141724e-01
-1.079927086830139160e-01,-1.114365339279174805e+00,2.584763467311859131e-01
-9.022571891546249390e-02,-1.093887209892272949e+00,-2.941010892391204834e-01
-9.033559262752532959e-02,-1.095219373703002930e+00,-2.537095546722412109e-01
-9.043811261653900146e-02,-1.096462249755859375e+00,-2.138541191816329956e-01
-9.055604040622711182e-02,-1.097891926765441895e+00,-1.744792461395263672e-01
-9.066810458898544312e-02,-1.099250674247741699e+00,-1.354291439056396484e-01
-9.077756106853485107e-02,-1.100577712059020996e+00,-9.661490470170974731e-02
-9.088687598705291748e-02,-1.101902961730957031e+00,-5.794430896639823914e-02
-9.099766612052917480e-02,-1.103246212005615234e+00,-1.932260021567344666e-02
-9.111000597476959229e-02,-1.104608178138732910e+00,1.934645511209964752e-02
-9.122309088706970215e-02,-1.105979204177856445e+00,5.815865844488143921e-02
-9.133499115705490112e-02,-1.107335925102233887e+00,9.720818698406219482e-02
-9.144289046525955200e-02,-1.108644008636474609e+00,1.365864276885986328e-01
-9.156881272792816162e-02,-1.110170722007751465e+00,1.764306128025054932e-01
-9.169056266546249390e-02,-1.111646890640258789e+00,2.168157100677490234e-01
-9.180172532796859741e-02,-1.112994551658630371e+00,2.578272223472595215e-01
-7.441413402557373047e-02,-1.092912912368774414e+00,-2.935226857662200928e-01
-7.450814545154571533e-02,-1.094293594360351562e+00,-2.532221376895904541e-01
-7.459488511085510254e-02,-1.095567464828491211e+00,-2.134494781494140625e-01
-7.467937469482421875e-02,-1.096808433532714844e+00,-1.741193234920501709e-01
-7.477529346942901611e-02,-1.098217129707336426e+00,-1.351561099290847778e-01
-7.486794143915176392e-02,-1.099577784538269043e+00,-9.642318636178970337e-02
-7.495938241481781006e-02,-1.100920915603637695e+00,-5.783031880855560303e-02
-7.505068928003311157e-02,-1.102261900901794434e+00,-1.928457058966159821e-02
-7.514216750860214233e-02,-1.103605389595031738e+00,1.930807530879974365e-02
-7.523301988840103149e-02,-1.104939699172973633e+00,5.804142355918884277e-02
-7.532176375389099121e-02,-1.106243133544921875e+00,9.700766950845718384e-02
-7.542365044355392456e-02,-1.107739567756652832e+00,1.363280266523361206e-01
-7.552524656057357788e-02,-1.109231591224670410e+00,1.760915219783782959e-01
-7.562222331762313843e-02,-1.110656023025512695e+00,2.163891792297363281e-01
-7.570929080247879028e-02,-1.111934781074523926e+00,2.573043406009674072e-01
-5.864954367280006409e-02,-1.091721415519714355e+00,-2.929472327232360840e-01
-5.871039256453514099e-02,-1.092854142189025879e+00,-2.526686787605285645e-01
-5.879771336913108826e-02,-1.094479560852050781e+00,-2.130517214536666870e-01
-5.886557698249816895e-02,-1.095742702484130859e+00,-1.737985908985137939e-01
-5.894128978252410889e-02,-1.097152113914489746e+00,-1.349073946475982666e-01
-5.900874733924865723e-02,-1.098407745361328125e+00,-9.623666107654571533e-02
-5.908185616135597229e-02,-1.099768638610839844e+00,-5.771945789456367493e-02
-5.915385484695434570e-02,-1.101108908653259277e+00,-1.924761384725570679e-02
-5.922484025359153748e-02,-1.102430224418640137e+00,1.927071064710617065e-02
-5.930211022496223450e-02,-1.103868484497070312e+00,5.793463066220283508e-02
-5.937192961573600769e-02,-1.105168223381042480e+00,9.682896733283996582e-02
-5.945094302296638489e-02,-1.106639027595520020e+00,1.360739171504974365e-01
-5.951187014579772949e-02,-1.107773065567016602e+00,1.757067590951919556e-01
-5.960169807076454163e-02,-1.109445095062255859e+00,2.159649282693862915e-01
-5.966593697667121887e-02,-1.110640883445739746e+00,2.567810118198394775e-01
-4.295231774449348450e-02,-1.090760111808776855e+00,-2.924943566322326660e-01
-4.299909248948097229e-02,-1.091947913169860840e+00,-2.522910535335540771e-01
-4.305444657802581787e-02,-1.093353629112243652e+00,-2.126908004283905029e-01
-4.311482980847358704e-02,-1.094887018203735352e+00,-1.735472083091735840e-01
-4.316458478569984436e-02,-1.096150517463684082e+00,-1.346944719552993774e-01
-4.321883991360664368e-02,-1.097528338432312012e+00,-9.609556198120117188e-02
-4.326974228024482727e-02,-1.098821043968200684e+00,-5.763131380081176758e-02
-4.332247003912925720e-02,-1.100160002708435059e+00,-1.921821758151054382e-02
-4.337713867425918579e-02,-1.101548314094543457e+00,1.924247108399868011e-02
-4.342882707715034485e-02,-1.102860927581787109e+00,5.784320086240768433e-02
-4.348570480942726135e-02,-1.104305267333984375e+00,9.668892621994018555e-02
-4.353277385234832764e-02,-1.105500578880310059e+00,1.358433961868286133e-01
-4.358611255884170532e-02,-1.106855034828186035e+00,1.754442304372787476e-01
-4.364965856075286865e-02,-1.108468890190124512e+00,2.156311869621276855e-01
-4.371022433042526245e-02,-1.110006928443908691e+00,2.564634978771209717e-01
-2.729554660618305206e-02,-1.089609622955322266e+00,-2.920511662960052490e-01
-2.732701413333415985e-02,-1.090865850448608398e+00,-2.519248425960540771e-01
-2.736336924135684967e-02,-1.092317104339599609e+00,-2.123912125825881958e-01
-2.739743702113628387e-02,-1.093677043914794922e+00,-1.732755005359649658e-01
-2.743063308298587799e-02,-1.095002174377441406e+00,-1.344913393259048462e-01
-2.746612206101417542e-02,-1.096418857574462891e+00,-9.595417231321334839e-02
-2.749897912144660950e-02,-1.097730517387390137e+00,-5.754758045077323914e-02
-2.753249928355216980e-02,-1.099068641662597656e+00,-1.919030398130416870e-02
-2.756671234965324402e-02,-1.100434303283691406e+00,1.921415142714977264e-02
-2.759854868054389954e-02,-1.101705193519592285e+00,5.775595083832740784e-02
-2.763311192393302917e-02,-1.103084921836853027e+00,9.653755277395248413e-02
-2.766736969351768494e-02,-1.104452490806579590e+00,1.356520503759384155e-01
-2.770007774233818054e-02,-1.105758070945739746e+00,1.751895546913146973e-01
-2.773869782686233521e-02,-1.107299804687500000e+00,2.153044790029525757e-01
-2.777492627501487732e-02,-1.108746051788330078e+00,2.560541033744812012e-01
-1.168310455977916718e-02,-1.088476419448852539e+00,-2.916727066040039062e-01
-1.169733889400959015e-02,-1.089802622795104980e+00,-2.516148686408996582e-01
-1.171342004090547562e-02,-1.091300725936889648e+00,-2.121392786502838135e-01
-1.172831840813159943e-02,-1.092688918113708496e+00,-1.730746179819107056e-01
-1.174260210245847702e-02,-1.094019651412963867e+00,-1.343362480401992798e-01
-1.175672933459281921e-02,-1.095335841178894043e+00,-9.583484381437301636e-02
-1.177103258669376373e-02,-1.096668362617492676e+00,-5.747717991471290588e-02
-1.178537495434284210e-02,-1.098004579544067383e+00,-1.916681788861751556e-02
-1.179979089647531509e-02,-1.099347710609436035e+00,1.919026300311088562e-02
-1.181448716670274734e-02,-1.100716948509216309e+00,5.768936872482299805e-02
-1.182920392602682114e-02,-1.102087974548339844e+00,9.642561525106430054e-02
-1.184355933219194412e-02,-1.103425502777099609e+00,1.354912072420120239e-01
-1.185702905058860779e-02,-1.104680418968200684e+00,1.749740093946456909e-01
-1.187278330326080322e-02,-1.106148123741149902e+00,2.150254696607589722e-01
-1.188729796558618546e-02,-1.107500433921813965e+00,2.557009756565093994e-01
3.892917884513735771e-03,-1.087570428848266602e+00,-2.914150357246398926e-01
3.897781250998377800e-03,-1.088929057121276855e+00,-2.514003217220306396e-01
3.902287688106298447e-03,-1.090188145637512207e+00,-2.119121402502059937e-01
3.907385747879743576e-03,-1.091612219810485840e+00,-1.728952527046203613e-01
3.911700565367937088e-03,-1.092817783355712891e+00,-1.341818124055862427e-01
3.916574642062187195e-03,-1.094179391860961914e+00,-9.572876244783401489e-02
3.921422641724348068e-03,-1.095533847808837891e+00,-5.741478130221366882e-02
3.926199860870838165e-03,-1.096868395805358887e+00,-1.914600469172000885e-02
3.930918406695127487e-03,-1.098186731338500977e+00,1.916901394724845886e-02
3.935646265745162964e-03,-1.099507451057434082e+00,5.762302875518798828e-02
3.940996248275041580e-03,-1.101002097129821777e+00,9.632568061351776123e-02
3.945642150938510895e-03,-1.102300047874450684e+00,1.353460848331451416e-01
3.950993064790964127e-03,-1.103794932365417480e+00,1.748248040676116943e-01
3.956119995564222336e-03,-1.105227351188659668e+00,2.148354798555374146e-01
3.960750065743923187e-03,-1.106520891189575195e+00,2.554617226123809814e-01
1.944087818264961243e-02,-1.086456418037414551e+00,-2.911612987518310547e-01
1.946651749312877655e-02,-1.087889313697814941e+00,-2.511988580226898193e-01
1.949001103639602661e-02,-1.089202284812927246e+00,-2.117530554533004761e-01
1.951261237263679504e-02,-1.090465307235717773e+00,-1.727401316165924072e-01
1.953778602182865143e-02,-1.091872096061706543e+00,-1.340862959623336792e-01
1.956192776560783386e-02,-1.093221306800842285e+00,-9.565964341163635254e-02
1.958553306758403778e-02,-1.094540596008300781e+00,-5.737153813242912292e-02
1.960939355194568634e-02,-1.095873951911926270e+00,-1.913158409297466278e-02
1.963357441127300262e-02,-1.097225308418273926e+00,1.915517635643482208e-02
1.965739205479621887e-02,-1.098556399345397949e+00,5.758203193545341492e-02
1.968045532703399658e-02,-1.099845290184020996e+00,9.623925387859344482e-02
1.970654167234897614e-02,-1.101303100585937500e+00,1.352444738149642944e-01
1.973227038979530334e-02,-1.102741003036499023e+00,1.746847033500671387e-01
1.975650899112224579e-02,-1.104095458984375000e+00,2.146484553813934326e-01
1.977790333330631256e-02,-1.105291247367858887e+00,2.552170455455780029e-01
3.496160730719566345e-02,-1.085240006446838379e+00,-2.909395992755889893e-01
3.501056134700775146e-02,-1.086759686470031738e+00,-2.510280311107635498e-01
3.505495190620422363e-02,-1.088137507438659668e+00,-2.116219252347946167e-01
3.509696573019027710e-02,-1.089441776275634766e+00,-1.726398766040802002e-01
3.513843193650245667e-02,-1.090728878974914551e+00,-1.339939534664154053e-01
3.518337011337280273e-02,-1.092123746871948242e+00,-9.559787809848785400e-02
3.522660210728645325e-02,-1.093465805053710938e+00,-5.733575671911239624e-02
3.526952117681503296e-02,-1.094797968864440918e+00,-1.911965571343898773e-02
3.531223163008689880e-02,-1.096123695373535156e+00,1.914280839264392853e-02
3.535354137420654297e-02,-1.097406029701232910e+00,5.754236504435539246e-02
3.539887443184852600e-02,-1.098813295364379883e+00,9.618343412876129150e-02
3.544440492987632751e-02,-1.100226521492004395e+00,1.351607143878936768e-01
3.548852354288101196e-02,-1.101595997810363770e+00,1.745659261941909790e-01
3.552921861410140991e-02,-1.102859258651733398e+00,2.144850045442581177e-01
3.557686507701873779e-02,-1.104338288307189941e+00,2.550884485244750977e-01
5.047815665602684021e-02,-1.084374666213989258e+00,-2.908715009689331055e-01
5.053726583719253540e-02,-1.085644483566284180e+00,-2.509118020534515381e-01
5.060449987649917603e-02,-1.087088704109191895e+00,-2.115371376276016235e-01
5.066720023751258850e-02,-1.088435649871826172e+00,-1.725776940584182739e-01
5.072797089815139771e-02,-1.089741110801696777e+00,-1.339480876922607422e-01
5.078879743814468384e-02,-1.091047883033752441e+00,-9.555754065513610840e-02
5.085233226418495178e-02,-1.092412710189819336e+00,-5.731283500790596008e-02
5.091428756713867188e-02,-1.093743562698364258e+00,-1.911201141774654388e-02
5.097481608390808105e-02,-1.095043897628784180e+00,1.913473196327686310e-02
5.103850364685058594e-02,-1.096412062644958496e+00,5.752265825867652893e-02
5.110304057598114014e-02,-1.097798466682434082e+00,9.614878147840499878e-02
5.116669833660125732e-02,-1.099165916442871094e+00,1.351065486669540405e-01
5.122720077633857727e-02,-1.100465655326843262e+00,1.744851171970367432e-01
5.129769444465637207e-02,-1.101979970932006836e+00,2.144348472356796265e-01
5.136328563094139099e-02,-1.103389024734497070e+00,2.550128996372222900e-01
6.596981734037399292e-02,-1.083167910575866699e+00,-2.907713055610656738e-01
6.605284661054611206e-02,-1.084531188011169434e+00,-2.508473098278045654e-01
6.614490598440170288e-02,-1.086042642593383789e+00,-2.114961594343185425e-01
6.622964143753051758e-02,-1.087433934211730957e+00,-1.725514978170394897e-01
6.631035357713699341e-02,-1.088759183883666992e+00,-1.339303255081176758e-01
6.638962030410766602e-02,-1.090060710906982422e+00,-9.554452449083328247e-02
6.646923720836639404e-02,-1.091367959976196289e+00,-5.730206891894340515e-02
6.655022501945495605e-02,-1.092697620391845703e+00,-1.910842210054397583e-02
6.663277000188827515e-02,-1.094053030014038086e+00,1.913212239742279053e-02
6.671628355979919434e-02,-1.095424175262451172e+00,5.751504004001617432e-02
6.679934263229370117e-02,-1.096787929534912109e+00,9.613417088985443115e-02
6.687976419925689697e-02,-1.098108410835266113e+00,1.350803971290588379e-01
6.695459783077239990e-02,-1.099337100982666016e+00,1.744402647018432617e-01
6.704087555408477783e-02,-1.100753664970397949e+00,2.143609821796417236e-01
6.714303046464920044e-02,-1.102430939674377441e+00,2.549874782562255859e-01
8.147801458835601807e-02,-1.082280993461608887e+00,-2.908164858818054199e-01
8.158415555953979492e-02,-1.083690881729125977e+00,-2.508973479270935059e-01
8.168175071477890015e-02,-1.084987163543701172e+00,-2.114966362714767456e-01
8.177607506513595581e-02,-1.086240172386169434e+00,-1.725301295518875122e-01
8.188129216432571411e-02,-1.087637782096862793e+00,-1.339228302240371704e-01
8.198292553424835205e-02,-1.088987708091735840e+00,-9.554354846477508545e-02
8.208314329385757446e-02,-1.090319037437438965e+00,-5.730281025171279907e-02
8.218314498662948608e-02,-1.091647267341613770e+00,-1.910866796970367432e-02
8.228318393230438232e-02,-1.092976093292236328e+00,1.913192681968212128e-02
8.238253742456436157e-02,-1.094295859336853027e+00,5.751182138919830322e-02
8.247950673103332520e-02,-1.095583915710449219e+00,9.612226486206054688e-02
8.258921653032302856e-02,-1.097041249275207520e+00,1.350806951522827148e-01
8.269794285297393799e-02,-1.098485350608825684e+00,1.744750589132308960e-01
8.280085772275924683e-02,-1.099852442741394043e+00,2.143943160772323608e-01
8.289229869842529297e-02,-1.101067066192626953e+00,2.549203038215637207e-01
9.696214646100997925e-02,-1.081036090850830078e+00,-2.908251285552978516e-01
9.709715843200683594e-02,-1.082541346549987793e+00,-2.509272694587707520e-01
9.721994400024414062e-02,-1.083910346031188965e+00,-2.115363031625747681e-01
9.733662754297256470e-02,-1.085211277008056641e+00,-1.725703179836273193e-01
9.746392816305160522e-02,-1.086630463600158691e+00,-1.339568644762039185e-01
9.757765382528305054e-02,-1.087898373603820801e+00,-9.556072205305099487e-02
9.769917279481887817e-02,-1.089253187179565430e+00,-5.731442198157310486e-02
9.781819581985473633e-02,-1.090580224990844727e+00,-1.911254040896892548e-02
9.793503582477569580e-02,-1.091882944107055664e+00,1.913536898791790009e-02
9.806055575609207153e-02,-1.093282341957092285e+00,5.752642452716827393e-02
9.817390888929367065e-02,-1.094546079635620117e+00,9.614465385675430298e-02
9.830003976821899414e-02,-1.095952391624450684e+00,1.351060271263122559e-01
9.842272847890853882e-02,-1.097320199012756348e+00,1.744958758354187012e-01
9.853637218475341797e-02,-1.098587274551391602e+00,2.144006639719009399e-01
9.866840392351150513e-02,-1.100059270858764648e+00,2.549878358840942383e-01
1.124804541468620300e-01,-1.080079793930053711e+00,-2.909711599349975586e-01
1.126437038183212280e-01,-1.081647276878356934e+00,-2.510680556297302246e-01
1.127660349011421204e-01,-1.082821965217590332e+00,-2.116172313690185547e-01
1.129074841737747192e-01,-1.084180235862731934e+00,-1.726456731557846069e-01
1.130448281764984131e-01,-1.085499167442321777e+00,-1.340031325817108154e-01
1.131905913352966309e-01,-1.086898803710937500e+00,-9.560544043779373169e-02
1.133262589573860168e-01,-1.088201522827148438e+00,-5.733855813741683960e-02
1.134643256664276123e-01,-1.089527249336242676e+00,-1.912058889865875244e-02
1.136051416397094727e-01,-1.090879440307617188e+00,1.914431899785995483e-02
1.137368381023406982e-01,-1.092144012451171875e+00,5.754629522562026978e-02
1.138787120580673218e-01,-1.093506336212158203e+00,9.618665277957916260e-02
1.140188649296760559e-01,-1.094852209091186523e+00,1.351577490568161011e-01
1.141815260052680969e-01,-1.096414089202880859e+00,1.745938062667846680e-01
1.143066138029098511e-01,-1.097615242004394531e+00,2.145082950592041016e-01
1.144500300288200378e-01,-1.098992466926574707e+00,2.550941407680511475e-01
1.280150115489959717e-01,-1.079100966453552246e+00,-2.911712825298309326e-01
1.281759291887283325e-01,-1.080457329750061035e+00,-2.511919736862182617e-01
1.283257156610488892e-01,-1.081719994544982910e+00,-2.117391526699066162e-01
1.284936964511871338e-01,-1.083135962486267090e+00,-1.727545559406280518e-01
1.286538392305374146e-01,-1.084485888481140137e+00,-1.340916454792022705e-01
1.288109868764877319e-01,-1.085810661315917969e+00,-9.566210210323333740e-02
1.289687156677246094e-01,-1.087140202522277832e+00,-5.737402662634849548e-02
1.291258484125137329e-01,-1.088464736938476562e+00,-1.913241855800151825e-02
1.292827874422073364e-01,-1.089787721633911133e+00,1.915567182004451752e-02
1.294413954019546509e-01,-1.091124653816223145e+00,5.758431181311607361e-02
1.295989900827407837e-01,-1.092453122138977051e+00,9.624731540679931641e-02
1.297514140605926514e-01,-1.093737959861755371e+00,1.352356225252151489e-01
1.299257874488830566e-01,-1.095207810401916504e+00,1.746799498796463013e-01
1.300934106111526489e-01,-1.096620798110961914e+00,2.146558761596679688e-01
1.302452236413955688e-01,-1.097900509834289551e+00,2.552472651004791260e-01
1.435735225677490234e-01,-1.078116059303283691e+00,-2.914301753044128418e-01
1.437648832798004150e-01,-1.079552888870239258e+00,-2.514343559741973877e-01
1.439398676156997681e-01,-1.080866932868957520e+00,-2.119537442922592163e-01
1.441076248884201050e-01,-1.082126617431640625e+00,-1.729048490524291992e-01
1.442924290895462036e-01,-1.083514332771301270e+00,-1.342131346464157104e-01
1.444700211286544800e-01,-1.084847927093505859e+00,-9.574966132640838623e-02
1.446441262960433960e-01,-1.086155414581298828e+00,-5.742543563246726990e-02
1.448203772306442261e-01,-1.087478756904602051e+00,-1.914956234395503998e-02
1.449991166591644287e-01,-1.088821053504943848e+00,1.917319744825363159e-02
1.451757550239562988e-01,-1.090147495269775391e+00,5.763649940490722656e-02
1.453472226858139038e-01,-1.091434955596923828e+00,9.633103758096694946e-02
1.455390155315399170e-01,-1.092875242233276367e+00,1.353726536035537720e-01
1.457275897264480591e-01,-1.094291210174560547e+00,1.748485416173934937e-01
1.459044814109802246e-01,-1.095619559288024902e+00,2.148466706275939941e-01
1.461088657379150391e-01,-1.097154259681701660e+00,2.555338144302368164e-01
1.591535359621047974e-01,-1.077065467834472656e+00,-2.917321026325225830e-01
1.593365222215652466e-01,-1.078303933143615723e+00,-2.516488432884216309e-01
1.595437675714492798e-01,-1.079706430435180664e+00,-2.121522426605224609e-01
1.597391366958618164e-01,-1.081028461456298828e+00,-1.730769872665405273e-01
1.599490195512771606e-01,-1.082448959350585938e+00,-1.343509852886199951e-01
1.601356118917465210e-01,-1.083711624145507812e+00,-9.584185481071472168e-02
1.603327989578247070e-01,-1.085046172142028809e+00,-5.748223513364791870e-02
1.605281680822372437e-01,-1.086368322372436523e+00,-1.916850544512271881e-02
1.607220917940139771e-01,-1.087680578231811523e+00,1.919165998697280884e-02
1.609281301498413086e-01,-1.089075088500976562e+00,5.769567564129829407e-02
1.611131429672241211e-01,-1.090327143669128418e+00,9.642691165208816528e-02
1.613163203001022339e-01,-1.091702103614807129e+00,1.354994624853134155e-01
1.615117788314819336e-01,-1.093024849891662598e+00,1.749976426362991333e-01
1.617374271154403687e-01,-1.094551920890808105e+00,2.150692343711853027e-01
1.619488745927810669e-01,-1.095982909202575684e+00,2.557746767997741699e-01
1.747685968875885010e-01,-1.076009750366210938e+00,-2.920938134193420410e-01
1.749837100505828857e-01,-1.077334165573120117e+00,-2.519812285900115967e-01
1.751847714185714722e-01,-1.078572034835815430e+00,-2.124002873897552490e-01
1.754110157489776611e-01,-1.079964995384216309e+00,-1.732909530401229858e-01
1.756280660629272461e-01,-1.081301331520080566e+00,-1.345067769289016724e-01
1.758550256490707397e-01,-1.082698702812194824e+00,-9.596505016088485718e-02
1.760643869638442993e-01,-1.083987593650817871e+00,-5.755377188324928284e-02
1.762789040803909302e-01,-1.085308432579040527e+00,-1.919235661625862122e-02
1.764990538358688354e-01,-1.086663842201232910e+00,1.921632699668407440e-02
1.767031848430633545e-01,-1.087920546531677246e+00,5.776258930563926697e-02
1.769198179244995117e-01,-1.089254260063171387e+00,9.654610604047775269e-02
1.771311461925506592e-01,-1.090555429458618164e+00,1.356579363346099854e-01
1.773725450038909912e-01,-1.092041730880737305e+00,1.752287745475769043e-01
1.776060461997985840e-01,-1.093479275703430176e+00,2.153359353542327881e-01
1.778188943862915039e-01,-1.094789743423461914e+00,2.560639679431915283e-01
1.904172599315643311e-01,-1.074903845787048340e+00,-2.925035059452056885e-01
1.906673908233642578e-01,-1.076315879821777344e+00,-2.523555457592010498e-01
1.908968389034271240e-01,-1.077611207962036133e+00,-2.127273529767990112e-01
1.911179870367050171e-01,-1.078859567642211914e+00,-1.735347360372543335e-01
1.913621276617050171e-01,-1.080237746238708496e+00,-1.347014009952545166e-01
1.915984451770782471e-01,-1.081571698188781738e+00,-9.609839320182800293e-02
1.918320953845977783e-01,-1.082890629768371582e+00,-5.763540789484977722e-02
1.920656859874725342e-01,-1.084209203720092773e+00,-1.921956613659858704e-02
1.923000961542129517e-01,-1.085532426834106445e+00,1.924302428960800171e-02
1.925334930419921875e-01,-1.086849927902221680e+00,5.784614011645317078e-02
1.927618980407714844e-01,-1.088139414787292480e+00,9.668193012475967407e-02
1.930176913738250732e-01,-1.089583277702331543e+00,1.358667612075805664e-01
1.932704448699951172e-01,-1.091010093688964844e+00,1.754891723394393921e-01
1.935088187456130981e-01,-1.092355728149414062e+00,2.156380265951156616e-01
1.937825530767440796e-01,-1.093900918960571289e+00,2.564785778522491455e-01
2.061172723770141602e-01,-1.073816418647766113e+00,-2.929803729057312012e-01
2.064075320959091187e-01,-1.075328588485717773e+00,-2.527908682823181152e-01
2.066286057233810425e-01,-1.076480269432067871e+00,-2.130661457777023315e-01
2.069162130355834961e-01,-1.077978610992431641e+00,-1.738516241312026978e-01
2.071579992771148682e-01,-1.079238295555114746e+00,-1.349326968193054199e-01
2.074032425880432129e-01,-1.080515980720520020e+00,-9.625849872827529907e-02
2.076624035835266113e-01,-1.081866145133972168e+00,-5.773316323757171631e-02
2.079153954982757568e-01,-1.083184123039245605e+00,-1.925217732787132263e-02
2.081629931926727295e-01,-1.084474086761474609e+00,1.927510462701320648e-02
2.084260582923889160e-01,-1.085844635963439941e+00,5.794547498226165771e-02
2.086959630250930786e-01,-1.087250709533691406e+00,9.685846418142318726e-02
2.089242339134216309e-01,-1.088439941406250000e+00,1.360831409692764282e-01
2.092253863811492920e-01,-1.090008854866027832e+00,1.757918149232864380e-01
2.094638198614120483e-01,-1.091251015663146973e+00,2.159896790981292725e-01
2.097332924604415894e-01,-1.092654943466186523e+00,2.568639814853668213e-01
2.218612581491470337e-01,-1.072674155235290527e+00,-2.935051023960113525e-01
2.221422046422958374e-01,-1.074032545089721680e+00,-2.532077133655548096e-01
2.224481999874114990e-01,-1.075512051582336426e+00,-2.134828269481658936e-01
2.227312624454498291e-01,-1.076880574226379395e+00,-1.741708517074584961e-01
2.230022996664047241e-01,-1.078190922737121582e+00,-1.351869851350784302e-01
2.232702523469924927e-01,-1.079486489295959473e+00,-9.644160419702529907e-02
2.235411852598190308e-01,-1.080796360969543457e+00,-5.784090608358383179e-02
2.238135039806365967e-01,-1.082113027572631836e+00,-1.928810402750968933e-02
2.240879088640213013e-01,-1.083439826965332031e+00,1.931175217032432556e-02
2.243673801422119141e-01,-1.084790945053100586e+00,5.805468186736106873e-02
2.246470749378204346e-01,-1.086143374443054199e+00,9.703632444143295288e-02
2.249196171760559082e-01,-1.087460994720458984e+00,1.363492906093597412e-01
2.251749932765960693e-01,-1.088695764541625977e+00,1.760817915201187134e-01
2.254632562398910522e-01,-1.090089440345764160e+00,2.163763642311096191e-01
2.257961779832839966e-01,-1.091699123382568359e+00,2.573726773262023926e-01
2.377154082059860229e-01,-1.071755051612854004e+00,-2.941544950008392334e-01
2.379749715328216553e-01,-1.072925209999084473e+00,-2.537237107753753662e-01
2.383184432983398438e-01,-1.074473738670349121e+00,-2.139319330453872681e-01
2.385943681001663208e-01,-1.075717806816101074e+00,-1.745172739028930664e-01
2.388964444398880005e-01,-1.077079772949218750e+00,-1.354625225067138672e-01
2.391877919435501099e-01,-1.078393340110778809e+00,-9.663990885019302368e-02
2.394750565290451050e-01,-1.079688429832458496e+00,-5.795911327004432678e-02
2.397668361663818359e-01,-1.081004023551940918e+00,-1.932752691209316254e-02
2.400637716054916382e-01,-1.082342743873596191e+00,1.935146190226078033e-02
2.403588145971298218e-01,-1.083673000335693359e+00,5.817300826311111450e-02
2.406467348337173462e-01,-1.084971070289611816e+00,9.722936898469924927e-02
2.409660518169403076e-01,-1.086410760879516602e+00,1.366360485553741455e-01
2.412237673997879028e-01,-1.087572693824768066e+00,1.764405220746994019e-01
2.415747046470642090e-01,-1.089154839515686035e+00,2.168549895286560059e-01
2.419091612100601196e-01,-1.090662717819213867e+00,2.579182684421539307e-01
2.535806596279144287e-01,-1.070567727088928223e+00,-2.947946190834045410e-01
2.539449334144592285e-01,-1.072105646133422852e+00,-2.543633878231048584e-01
2.542240619659423828e-01,-1.073284029960632324e+00,-2.143975943326950073e-01
2.545411586761474609e-01,-1.074622869491577148e+00,-1.749127805233001709e-01
2.548773288726806641e-01,-1.076041936874389648e+00,-1.357769221067428589e-01
2.551775574684143066e-01,-1.077309608459472656e+00,-9.686017781496047974e-02
2.554924786090850830e-01,-1.078639149665832520e+00,-5.809314548969268799e-02
2.558035552501678467e-01,-1.079952359199523926e+00,-1.937220431864261627e-02
2.561121881008148193e-01,-1.081255316734313965e+00,1.939557678997516632e-02
2.564377188682556152e-01,-1.082629680633544922e+00,5.830806866288185120e-02
2.567306756973266602e-01,-1.083866596221923828e+00,9.744971245527267456e-02
2.570485770702362061e-01,-1.085208654403686523e+00,1.369335949420928955e-01
2.574118375778198242e-01,-1.086742162704467773e+00,1.768854111433029175e-01
2.576974630355834961e-01,-1.087948083877563477e+00,2.173268646001815796e-01
2.580165863037109375e-01,-1.089295387268066406e+00,2.584417760372161865e-01
2.695709764957427979e-01,-1.069583773612976074e+00,-2.955558896064758301e-01
2.699165940284729004e-01,-1.070955157279968262e+00,-2.549809515476226807e-01
2.702357172966003418e-01,-1.072221279144287109e+00,-2.149359434843063354e-01
2.705857157707214355e-01,-1.073610067367553711e+00,-1.753603667020797729e-01
2.709181606769561768e-01,-1.074928998947143555e+00,-1.361118406057357788e-01
2.712438702583312988e-01,-1.076221346855163574e+00,-9.710145741701126099e-02
2.715699076652526855e-01,-1.077515006065368652e+00,-5.823599174618721008e-02
2.719007432460784912e-01,-1.078827738761901855e+00,-1.941985264420509338e-02
2.722370326519012451e-01,-1.080161929130554199e+00,1.944386959075927734e-02
2.725765407085418701e-01,-1.081508994102478027e+00,5.845184996724128723e-02
2.729130089282989502e-01,-1.082844018936157227e+00,9.769898653030395508e-02
2.732379138469696045e-01,-1.084133148193359375e+00,1.372773051261901855e-01
2.736016809940338135e-01,-1.085576534271240234e+00,1.773149371147155762e-01
2.739476263523101807e-01,-1.086949110031127930e+00,2.178882658481597900e-01
2.742574512958526611e-01,-1.088178515434265137e+00,2.590816020965576172e-01
2.856565117835998535e-01,-1.068628549575805664e+00,-2.963913977146148682e-01
2.859837710857391357e-01,-1.069852828979492188e+00,-2.556669116020202637e-01
2.863485217094421387e-01,-1.071217417716979980e+00,-2.155342400074005127e-01
2.866938710212707520e-01,-1.072509407997131348e+00,-1.758328378200531006e-01
2.870641350746154785e-01,-1.073894500732421875e+00,-1.364871412515640259e-01
2.873994410037994385e-01,-1.075148820877075195e+00,-9.736587107181549072e-02
2.877551913261413574e-01,-1.076479673385620117e+00,-5.839665606617927551e-02
2.881056964397430420e-01,-1.077790975570678711e+00,-1.947342790663242340e-02
2.884518802165985107e-01,-1.079085946083068848e+00,1.949682645499706268e-02
2.888215780258178711e-01,-1.080468893051147461e+00,5.861306563019752502e-02
2.891600430011749268e-01,-1.081735134124755859e+00,9.796233475208282471e-02
2.895299792289733887e-01,-1.083119034767150879e+00,1.376595497131347656e-01
2.898879051208496094e-01,-1.084458112716674805e+00,1.777917742729187012e-01
2.902943193912506104e-01,-1.085978388786315918e+00,2.185042202472686768e-01
2.906743884086608887e-01,-1.087400317192077637e+00,2.598602771759033203e-01
3.017307817935943604e-01,-1.067293524742126465e+00,-2.971885204315185547e-01
3.021156191825866699e-01,-1.068654894828796387e+00,-2.563877403736114502e-01
3.025288283824920654e-01,-1.070116519927978516e+00,-2.161618471145629883e-01
3.029116392135620117e-01,-1.071470618247985840e+00,-1.763552874326705933e-01
3.032786548137664795e-01,-1.072768807411193848e+00,-1.368817836046218872e-01
3.036416172981262207e-01,-1.074052691459655762e+00,-9.765019267797470093e-02
3.040092587471008301e-01,-1.075353145599365234e+00,-5.856559798121452332e-02
3.043797314167022705e-01,-1.076663613319396973e+00,-1.952977478504180908e-02
3.047537207603454590e-01,-1.077986478805541992e+00,1.955377124249935150e-02
3.051350712776184082e-01,-1.079335451126098633e+00,5.878248438239097595e-02
3.055170774459838867e-01,-1.080686569213867188e+00,9.825333207845687866e-02
3.058900535106658936e-01,-1.082005977630615234e+00,1.380604058504104614e-01
3.062399625778198242e-01,-1.083243727684020996e+00,1.782930493354797363e-01
3.066294491291046143e-01,-1.084621310234069824e+00,2.190918028354644775e-01
3.070719838142395020e-01,-1.086186647415161133e+00,2.605939209461212158e-01
3.179890215396881104e-01,-1.066266179084777832e+00,-2.981392741203308105e-01
3.184274435043334961e-01,-1.067736268043518066e+00,-2.572345137596130371e-01
3.188264667987823486e-01,-1.069074273109436035e+00,-2.168509215116500854e-01
3.192063570022583008e-01,-1.070348143577575684e+00,-1.769044250249862671e-01
3.196153342723846436e-01,-1.071719408035278320e+00,-1.373175531625747681e-01
3.200088143348693848e-01,-1.073038816452026367e+00,-9.796442091464996338e-02
3.203950822353363037e-01,-1.074334025382995605e+00,-5.875384062528610229e-02
3.207852840423583984e-01,-1.075642466545104980e+00,-1.959253288805484772e-02
3.211807310581207275e-01,-1.076968431472778320e+00,1.961668580770492554e-02
3.215717971324920654e-01,-1.078279733657836914e+00,5.896962434053421021e-02
3.219520747661590576e-01,-1.079554796218872070e+00,9.855931252241134644e-02
3.223685622215270996e-01,-1.080951452255249023e+00,1.385004222393035889e-01
3.227745294570922852e-01,-1.082312703132629395e+00,1.788819134235382080e-01
3.231516480445861816e-01,-1.083577156066894531e+00,2.197927087545394897e-01
3.235720992088317871e-01,-1.084987044334411621e+00,2.613905072212219238e-01
3.343189060688018799e-01,-1.065117001533508301e+00,-2.991253435611724854e-01
3.347426056861877441e-01,-1.066466808319091797e+00,-2.580565512180328369e-01
3.351972699165344238e-01,-1.067915320396423340e+00,-2.175667732954025269e-01
3.356197774410247803e-01,-1.069261431694030762e+00,-1.775006204843521118e-01
3.360268771648406982e-01,-1.070558428764343262e+00,-1.377709358930587769e-01
3.364315032958984375e-01,-1.071847558021545410e+00,-9.828523546457290649e-02
3.368502557277679443e-01,-1.073181748390197754e+00,-5.894846469163894653e-02
3.372603356838226318e-01,-1.074488162994384766e+00,-1.965742371976375580e-02
3.376639485359191895e-01,-1.075774073600769043e+00,1.968094706535339355e-02
3.380837142467498779e-01,-1.077111482620239258e+00,5.916431918740272522e-02
3.385066688060760498e-01,-1.078458905220031738e+00,9.889146685600280762e-02
3.389212191104888916e-01,-1.079779624938964844e+00,1.389576196670532227e-01
3.393126726150512695e-01,-1.081026792526245117e+00,1.794537007808685303e-01
3.397465348243713379e-01,-1.082409024238586426e+00,2.205195575952529907e-01
3.402377665042877197e-01,-1.083974123001098633e+00,2.622928321361541748e-01
3.508573174476623535e-01,-1.064253449440002441e+00,-3.002624511718750000e-01
3.512563407421112061e-01,-1.065463781356811523e+00,-2.590038776397705078e-01
3.516990542411804199e-01,-1.066806674003601074e+00,-2.183441221714019775e-01
3.521696031093597412e-01,-1.068233966827392578e+00,-1.781485974788665771e-01
3.525756895542144775e-01,-1.069465875625610352e+00,-1.382656097412109375e-01
3.530141413211822510e-01,-1.070795774459838867e+00,-9.864201396703720093e-02
3.534460365772247314e-01,-1.072105765342712402e+00,-5.916119366884231567e-02
3.538766503334045410e-01,-1.073412060737609863e+00,-1.972837932407855988e-02
3.543072044849395752e-01,-1.074717998504638672e+00,1.975238323211669922e-02
3.547341227531433105e-01,-1.076012969017028809e+00,5.937679484486579895e-02
3.551987707614898682e-01,-1.077422380447387695e+00,9.925246238708496094e-02
3.556064367294311523e-01,-1.078658938407897949e+00,1.394541412591934204e-01
3.560515046119689941e-01,-1.080008983612060547e+00,1.801122874021530151e-01
3.565534055233001709e-01,-1.081531405448913574e+00,2.213578224182128906e-01
3.570245802402496338e-01,-1.082960605621337891e+00,2.632571756839752197e-01
3.673852384090423584e-01,-1.062977671623229980e+00,-3.013552427291870117e-01
3.678476810455322266e-01,-1.064315795898437500e+00,-2.599780857563018799e-01
3.682779669761657715e-01,-1.065560698509216309e+00,-2.191455364227294922e-01
3.687493205070495605e-01,-1.066924452781677246e+00,-1.787921190261840820e-01
3.692032098770141602e-01,-1.068237781524658203e+00,-1.387758404016494751e-01
3.696763217449188232e-01,-1.069606661796569824e+00,-9.900976717472076416e-02
3.701215088367462158e-01,-1.070894718170166016e+00,-5.938062071800231934e-02
3.705725371837615967e-01,-1.072199702262878418e+00,-1.980155706405639648e-02
3.710304498672485352e-01,-1.073524594306945801e+00,1.982602477073669434e-02
3.714634478092193604e-01,-1.074777483940124512e+00,5.959591269493103027e-02
3.719205260276794434e-01,-1.076099991798400879e+00,9.961083531379699707e-02
3.723694682121276855e-01,-1.077398896217346191e+00,1.399659812450408936e-01
3.728696107864379883e-01,-1.078845977783203125e+00,1.807898879051208496e-01
3.733496665954589844e-01,-1.080234885215759277e+00,2.221634685993194580e-01
3.737845122814178467e-01,-1.081493139266967773e+00,2.641739845275878906e-01
3.840447962284088135e-01,-1.061713099479675293e+00,-3.025241494178771973e-01
3.845787644386291504e-01,-1.063189268112182617e+00,-2.610207796096801758e-01
3.850640058517456055e-01,-1.064530730247497559e+00,-2.200446873903274536e-01
3.855249583721160889e-01,-1.065805077552795410e+00,-1.795108616352081299e-01
3.860172629356384277e-01,-1.067165970802307129e+00,-1.393401324748992920e-01
3.864918351173400879e-01,-1.068477988243103027e+00,-9.940719604492187500e-02
3.869580030441284180e-01,-1.069766759872436523e+00,-5.961908400058746338e-02
3.874292969703674316e-01,-1.071069717407226562e+00,-1.988106407225131989e-02
3.879073858261108398e-01,-1.072391390800476074e+00,1.990559883415699005e-02
3.883804678916931152e-01,-1.073699235916137695e+00,5.983824655413627625e-02
3.888408839702606201e-01,-1.074972152709960938e+00,1.000113785266876221e-01
3.893414735794067383e-01,-1.076355934143066406e+00,1.405400633811950684e-01
3.898291289806365967e-01,-1.077704071998596191e+00,1.815149933099746704e-01
3.902797996997833252e-01,-1.078950047492980957e+00,2.230252623558044434e-01
3.908812403678894043e-01,-1.080612778663635254e+00,2.652983963489532471e-01
4.009386599063873291e-01,-1.060705780982971191e+00,-3.038412034511566162e-01
4.014586210250854492e-01,-1.062081336975097656e+00,-2.621327042579650879e-01
4.019390344619750977e-01,-1.063352346420288086e+00,-2.209676802158355713e-01
4.024583399295806885e-01,-1.064726114273071289e+00,-1.802809089422225952e-01
4.029560685157775879e-01,-1.066042900085449219e+00,-1.399322450160980225e-01
4.034474194049835205e-01,-1.067342877388000488e+00,-9.982861578464508057e-02
4.039517343044281006e-01,-1.068676948547363281e+00,-5.987444892525672913e-02
4.044434726238250732e-01,-1.069977879524230957e+00,-1.996620930731296539e-02
4.049249589443206787e-01,-1.071251749992370605e+00,1.998997852206230164e-02
4.054227173328399658e-01,-1.072568535804748535e+00,6.009248271584510803e-02
4.059204161167144775e-01,-1.073885321617126465e+00,1.004405319690704346e-01
4.064047336578369141e-01,-1.075166583061218262e+00,1.411298364400863647e-01
4.069392085075378418e-01,-1.076580524444580078e+00,1.822881102561950684e-01
4.074475765228271484e-01,-1.077925443649291992e+00,2.239960134029388428e-01
4.080120921134948730e-01,-1.079418897628784180e+00,2.664117813110351562e-01
4.179139137268066406e-01,-1.059512376785278320e+00,-3.051815927028656006e-01
4.184193015098571777e-01,-1.060793638229370117e+00,-2.632660567760467529e-01
4.189635217189788818e-01,-1.062173366546630859e+00,-2.219461053609848022e-01
4.194765388965606689e-01,-1.063473939895629883e+00,-1.810669749975204468e-01
4.200174212455749512e-01,-1.064845204353332520e+00,-1.405497640371322632e-01
4.205110371112823486e-01,-1.066096663475036621e+00,-1.002647504210472107e-01
4.210302829742431641e-01,-1.067413091659545898e+00,-6.013511866331100464e-02
4.215433597564697266e-01,-1.068713784217834473e+00,-2.005315944552421570e-02
4.220509231090545654e-01,-1.070000648498535156e+00,2.007730491459369659e-02
4.225876927375793457e-01,-1.071361541748046875e+00,6.035756319761276245e-02
4.230841398239135742e-01,-1.072620034217834473e+00,1.008782610297203064e-01
4.236180186271667480e-01,-1.073973536491394043e+00,1.417546272277832031e-01
4.241316318511962891e-01,-1.075275778770446777e+00,1.830763518810272217e-01
4.246987700462341309e-01,-1.076713562011718750e+00,2.249843627214431763e-01
4.252213835716247559e-01,-1.078038573265075684e+00,2.675458788871765137e-01
4.351138174533843994e-01,-1.058480024337768555e+00,-3.066467344760894775e-01
4.356981515884399414e-01,-1.059901475906372070e+00,-2.645652890205383301e-01
4.362331330776214600e-01,-1.061202883720397949e+00,-2.230252176523208618e-01
4.367460906505584717e-01,-1.062450766563415527e+00,-1.819384992122650146e-01
4.372982084751129150e-01,-1.063793897628784180e+00,-1.412227004766464233e-01
4.378364682197570801e-01,-1.065103292465209961e+00,-1.007503941655158997e-01
4.383738934993743896e-01,-1.066410660743713379e+00,-6.042595207691192627e-02
4.389078617095947266e-01,-1.067709684371948242e+00,-2.015013247728347778e-02
4.394399225711822510e-01,-1.069003939628601074e+00,2.017455920577049255e-02
4.399747252464294434e-01,-1.070304870605468750e+00,6.064661219716072083e-02
4.405025541782379150e-01,-1.071588993072509766e+00,1.013638898730278015e-01
4.410794079303741455e-01,-1.072992205619812012e+00,1.424438208341598511e-01
4.416463375091552734e-01,-1.074371337890625000e+00,1.839798241853713989e-01
4.421771466732025146e-01,-1.075662612915039062e+00,2.260641008615493774e-01
4.427567124366760254e-01,-1.077072501182556152e+00,2.688513994216918945e-01
4.523977637290954590e-01,-1.057237863540649414e+00,-3.081312477588653564e-01
4.529803693294525146e-01,-1.058599352836608887e+00,-2.658314406871795654e-01
4.535913467407226562e-01,-1.060027122497558594e+00,-2.241196185350418091e-01
4.541603028774261475e-01,-1.061356782913208008e+00,-1.828456073999404907e-01
4.547081887722015381e-01,-1.062637209892272949e+00,-1.419186294078826904e-01
4.552529156208038330e-01,-1.063910245895385742e+00,-1.012435555458068848e-01
4.558159708976745605e-01,-1.065226078033447266e+00,-6.072229519486427307e-02
4.563712477684020996e-01,-1.066523671150207520e+00,-2.024895511567592621e-02
4.569208025932312012e-01,-1.067808032035827637e+00,2.027333900332450867e-02
4.574914872646331787e-01,-1.069141626358032227e+00,6.094549968838691711e-02
4.580668210983276367e-01,-1.070486187934875488e+00,1.018693447113037109e-01
4.586312770843505859e-01,-1.071805357933044434e+00,1.431430578231811523e-01
4.591636955738067627e-01,-1.073049545288085938e+00,1.848599910736083984e-01
4.597426056861877441e-01,-1.074402451515197754e+00,2.271589636802673340e-01
4.603787362575531006e-01,-1.075889110565185547e+00,2.701731622219085693e-01
4.699439704418182373e-01,-1.056186676025390625e+00,-3.097535967826843262e-01
4.705142974853515625e-01,-1.057468414306640625e+00,-2.672112584114074707e-01
4.711231887340545654e-01,-1.058836936950683594e+00,-2.252706438302993774e-01
4.716970324516296387e-01,-1.060126543045043945e+00,-1.837779879570007324e-01
4.723000824451446533e-01,-1.061481952667236328e+00,-1.426525861024856567e-01
4.728538990020751953e-01,-1.062726616859436035e+00,-1.017645671963691711e-01
4.734358489513397217e-01,-1.064034581184387207e+00,-6.103441119194030762e-02
4.740123748779296875e-01,-1.065330266952514648e+00,-2.035302668809890747e-02
4.745854735374450684e-01,-1.066618323326110840e+00,2.037763595581054688e-02
4.751909673213958740e-01,-1.067979097366333008e+00,6.126067787408828735e-02
4.757541418075561523e-01,-1.069244861602783203e+00,1.023887470364570618e-01
4.763570427894592285e-01,-1.070599913597106934e+00,1.438779383897781372e-01
4.769375026226043701e-01,-1.071904420852661133e+00,1.858197301626205444e-01
4.775727689266204834e-01,-1.073332190513610840e+00,2.283545434474945068e-01
4.781561791896820068e-01,-1.074643373489379883e+00,2.715511918067932129e-01
4.875511229038238525e-01,-1.054846167564392090e+00,-3.113752305507659912e-01
4.882210493087768555e-01,-1.056295633316040039e+00,-2.686532139778137207e-01
4.888315796852111816e-01,-1.057616591453552246e+00,-2.264764159917831421e-01
4.894726872444152832e-01,-1.059003591537475586e+00,-1.847789287567138672e-01
4.900361895561218262e-01,-1.060222864151000977e+00,-1.434113085269927979e-01
4.906425178050994873e-01,-1.061534643173217773e+00,-1.023124456405639648e-01
4.912442564964294434e-01,-1.062836527824401855e+00,-6.136273965239524841e-02
4.918425679206848145e-01,-1.064131021499633789e+00,-2.046251669526100159e-02
4.924390912055969238e-01,-1.065421700477600098e+00,2.048733457922935486e-02
