-3.258318424224853516e+00,-4.220573008060455322e-01,6.386432647705078125e-01
-3.263195514678955078e+00,-4.226890504360198975e-01,7.596608400344848633e-01
-3.105212450027465820e+00,-4.475011825561523438e-01,-8.406335711479187012e-01
-3.109159946441650391e+00,-4.480700492858886719e-01,-7.252206206321716309e-01
-3.113338947296142578e+00,-4.486722946166992188e-01,-6.114228367805480957e-01
-3.117235422134399414e+00,-4.492338597774505615e-01,-4.988214373588562012e-01
-3.121013879776000977e+00,-4.497783780097961426e-01,-3.871706724166870117e-01
-3.125003337860107422e+00,-4.503532946109771729e-01,-2.762264609336853027e-01
-3.128745079040527344e+00,-4.508925378322601318e-01,-1.656643003225326538e-01
-3.132554292678833008e+00,-4.514414966106414795e-01,-5.524374172091484070e-02
-3.136453390121459961e+00,-4.520033895969390869e-01,5.531249940395355225e-02
-3.140171527862548828e+00,-4.525392353534698486e-01,1.662693172693252563e-01
-3.144111156463623047e+00,-4.531069695949554443e-01,2.779154181480407715e-01
-3.147989511489868164e+00,-4.536658823490142822e-01,3.905170559883117676e-01
-3.151668548583984375e+00,-4.541961252689361572e-01,5.043314099311828613e-01
-3.155697822570800781e+00,-4.547767639160156250e-01,6.197416186332702637e-01
-3.160135984420776367e+00,-4.554163813591003418e-01,7.371109127998352051e-01
-3.006808042526245117e+00,-4.773422777652740479e-01,-8.157598972320556641e-01
-3.010854721069335938e+00,-4.779847264289855957e-01,-7.038143277168273926e-01
-3.014565944671630859e+00,-4.785739183425903320e-01,-5.933095216751098633e-01
-3.018523931503295898e+00,-4.792022407054901123e-01,-4.840735495090484619e-01
-3.022273778915405273e+00,-4.797975420951843262e-01,-3.757351338863372803e-01
-3.025978565216064453e+00,-4.803856909275054932e-01,-2.680537402629852295e-01
-3.029637098312377930e+00,-4.809665083885192871e-01,-1.607646644115447998e-01
-3.033330440521240234e+00,-4.815528094768524170e-01,-5.360995233058929443e-02
-3.037067890167236328e+00,-4.821461737155914307e-01,5.367600917816162109e-02
-3.040824890136718750e+00,-4.827426075935363770e-01,1.613583415746688843e-01
-3.044544219970703125e+00,-4.833330512046813965e-01,2.696983516216278076e-01
-3.048119544982910156e+00,-4.839006662368774414e-01,3.789483308792114258e-01
-3.052023172378540039e+00,-4.845203757286071777e-01,4.894457459449768066e-01
-3.055694580078125000e+00,-4.851032197475433350e-01,6.014041900634765625e-01
-3.059702396392822266e+00,-4.857394993305206299e-01,7.152329683303833008e-01
-2.915494203567504883e+00,-5.057258605957031250e-01,-7.928687930107116699e-01
-2.918994903564453125e+00,-5.063331127166748047e-01,-6.839653849601745605e-01
-2.922777652740478516e+00,-5.069892406463623047e-01,-5.766134262084960938e-01
-2.926332950592041016e+00,-5.076059699058532715e-01,-4.704060852527618408e-01
-2.929814577102661133e+00,-5.082098841667175293e-01,-3.651073575019836426e-01
-2.933542966842651367e+00,-5.088565945625305176e-01,-2.604839205741882324e-01
-2.937130689620971680e+00,-5.094789862632751465e-01,-1.562268733978271484e-01
-2.940708875656127930e+00,-5.100996494293212891e-01,-5.209669843316078186e-02
-2.944289445877075195e+00,-5.107207298278808594e-01,5.216013267636299133e-02
-2.947803974151611328e+00,-5.113303661346435547e-01,1.567945927381515503e-01
-2.951561927795410156e+00,-5.119822621345520020e-01,2.620839178562164307e-01
-2.955307006835937500e+00,-5.126318335533142090e-01,3.682841658592224121e-01
-2.958906888961791992e+00,-5.132563114166259766e-01,4.756423532962799072e-01
-2.962893009185791016e+00,-5.139477252960205078e-01,5.845274925231933594e-01
-2.966568231582641602e+00,-5.145852565765380859e-01,6.951125264167785645e-01
-2.829481363296508789e+00,-5.326279997825622559e-01,-7.714717984199523926e-01
-2.833179712295532227e+00,-5.333242416381835938e-01,-6.655780673027038574e-01
-2.836590528488159180e+00,-5.339663028717041016e-01,-5.610605478286743164e-01
-2.840274333953857422e+00,-5.346597433090209961e-01,-4.577555358409881592e-01
-2.843791246414184570e+00,-5.353217720985412598e-01,-3.553057909011840820e-01
-2.847285985946655273e+00,-5.359796285629272461e-01,-2.534799873828887939e-01
-2.850754022598266602e+00,-5.366324782371520996e-01,-1.520254611968994141e-01
-2.854233264923095703e+00,-5.372874140739440918e-01,-5.069577321410179138e-02
-2.857718229293823242e+00,-5.379434227943420410e-01,5.075767263770103455e-02
-2.861252307891845703e+00,-5.386086702346801758e-01,1.525853127241134644e-01
-2.864763498306274414e+00,-5.392696261405944824e-01,2.550359368324279785e-01
-2.868162393569946289e+00,-5.399094223976135254e-01,3.583507239818572998e-01
-2.871920108795166016e+00,-5.406168103218078613e-01,4.628557562828063965e-01
-2.875482559204101562e+00,-5.412874221801757812e-01,5.687531232833862305e-01
-2.879447221755981445e+00,-5.420337319374084473e-01,6.764473915100097656e-01
-2.746157646179199219e+00,-5.577528476715087891e-01,-7.508530020713806152e-01
-2.749380588531494141e+00,-5.584074258804321289e-01,-6.477031111717224121e-01
-2.752913475036621094e+00,-5.591249465942382812e-01,-5.460367202758789062e-01
-2.756253242492675781e+00,-5.598032474517822266e-01,-4.454599320888519287e-01
-2.759802341461181641e+00,-5.605241060256958008e-01,-3.457791209220886230e-01
-2.763077020645141602e+00,-5.611892342567443848e-01,-2.466731071472167969e-01
-2.766494750976562500e+00,-5.618833303451538086e-01,-1.479458063840866089e-01
-2.769869327545166016e+00,-5.625687241554260254e-01,-4.933530092239379883e-02
-2.773202896118164062e+00,-5.632457733154296875e-01,4.939467459917068481e-02
-2.776750087738037109e+00,-5.639662146568298340e-01,1.484942287206649780e-01
-2.780015945434570312e+00,-5.646295547485351562e-01,2.481853216886520386e-01
-2.783556938171386719e+00,-5.653487443923950195e-01,3.487553894519805908e-01
-2.786977052688598633e+00,-5.660433769226074219e-01,4.504254758358001709e-01
-2.790805101394653320e+00,-5.668208599090576172e-01,5.535524487495422363e-01
-2.794360637664794922e+00,-5.675429701805114746e-01,6.582995653152465820e-01
-2.667660474777221680e+00,-5.816842913627624512e-01,-7.315918803215026855e-01
-2.671139717102050781e+00,-5.824429392814636230e-01,-6.311703324317932129e-01
-2.674827098846435547e+00,-5.832470059394836426e-01,-5.321497917175292969e-01
-2.677860498428344727e+00,-5.839083790779113770e-01,-4.340965449810028076e-01
-2.681205987930297852e+00,-5.846378803253173828e-01,-3.369456529617309570e-01
-2.684705734252929688e+00,-5.854009985923767090e-01,-2.403999418020248413e-01
-2.687918663024902344e+00,-5.861015915870666504e-01,-1.441775858402252197e-01
-2.691197633743286133e+00,-5.868165493011474609e-01,-4.807872697710990906e-02
-2.694544315338134766e+00,-5.875462889671325684e-01,4.813851416110992432e-02
-2.697667598724365234e+00,-5.882273912429809570e-01,1.447005271911621094e-01
-2.700948476791381836e+00,-5.889427065849304199e-01,2.418543845415115356e-01
-2.704601049423217773e+00,-5.897391438484191895e-01,3.398856520652770996e-01
-2.707664966583251953e+00,-5.904073119163513184e-01,4.389280676841735840e-01
-2.711037158966064453e+00,-5.911425948143005371e-01,5.393536686897277832e-01
-2.714824676513671875e+00,-5.919684171676635742e-01,6.414927244186401367e-01
-2.595002174377441406e+00,-6.048724055290222168e-01,-7.139669656753540039e-01
-2.598671674728393555e+00,-6.057277321815490723e-01,-6.160322427749633789e-01
-2.601988792419433594e+00,-6.065009832382202148e-01,-5.193326473236083984e-01
-2.605115652084350586e+00,-6.072298288345336914e-01,-4.236697852611541748e-01
-2.608184576034545898e+00,-6.079451441764831543e-01,-3.288289308547973633e-01
-2.611504793167114258e+00,-6.087190508842468262e-01,-2.346013784408569336e-01
-2.614693403244018555e+00,-6.094623208045959473e-01,-1.407033652067184448e-01
-2.617876052856445312e+00,-6.102041006088256836e-01,-4.692005366086959839e-02
-2.621074914932250977e+00,-6.109497547149658203e-01,4.697738960385322571e-02
-2.624204158782958984e+00,-6.116791367530822754e-01,1.412151604890823364e-01
-2.627578735351562500e+00,-6.124657392501831055e-01,2.360453605651855469e-01
-2.630951642990112305e+00,-6.132519245147705078e-01,3.316993117332458496e-01
-2.634210348129272461e+00,-6.140115261077880859e-01,4.284014403820037842e-01
-2.637197732925415039e+00,-6.147078275680541992e-01,5.263600349426269531e-01
-2.640505075454711914e+00,-6.154787540435791016e-01,6.259490847587585449e-01
-2.523894786834716797e+00,-6.265138387680053711e-01,-6.967989802360534668e-01
-2.527200222015380859e+00,-6.273343563079833984e-01,-6.011564731597900391e-01
-2.530716180801391602e+00,-6.282071471214294434e-01,-5.068500638008117676e-01
-2.533581495285034180e+00,-6.289184093475341797e-01,-4.134578406810760498e-01
-2.536744356155395508e+00,-6.297035217285156250e-01,-3.209255337715148926e-01
-2.539889335632324219e+00,-6.304842233657836914e-01,-2.289551496505737305e-01
-2.542994499206542969e+00,-6.312550306320190430e-01,-1.373172253370285034e-01
-2.546095848083496094e+00,-6.320248842239379883e-01,-4.579099267721176147e-02
-2.549196004867553711e+00,-6.327944397926330566e-01,4.584674909710884094e-02
-2.552321910858154297e+00,-6.335703730583190918e-01,1.378208696842193604e-01
-2.555425167083740234e+00,-6.343407630920410156e-01,2.303556054830551147e-01
-2.558888196945190430e+00,-6.352003216743469238e-01,3.237269520759582520e-01
-2.561762809753417969e+00,-6.359139084815979004e-01,4.180567562580108643e-01
-2.564929962158203125e+00,-6.367001533508300781e-01,5.137023925781250000e-01
-2.568511724472045898e+00,-6.375892162322998047e-01,6.109834909439086914e-01
-2.457542419433593750e+00,-6.475195884704589844e-01,-6.809693574905395508e-01
-2.461082935333251953e+00,-6.484524607658386230e-01,-5.875765681266784668e-01
-2.464277744293212891e+00,-6.492942571640014648e-01,-4.953544437885284424e-01
-2.467271089553833008e+00,-6.500829458236694336e-01,-4.041136205196380615e-01
-2.470195293426513672e+00,-6.508533954620361328e-01,-3.136528134346008301e-01
-2.473337411880493164e+00,-6.516813039779663086e-01,-2.237738221883773804e-01
-2.476276397705078125e+00,-6.524556875228881836e-01,-1.342051029205322266e-01
-2.479296445846557617e+00,-6.532514095306396484e-01,-4.475319385528564453e-02
-2.482403039932250977e+00,-6.540699601173400879e-01,4.480927065014839172e-02
-2.485366821289062500e+00,-6.548508405685424805e-01,1.346977651119232178e-01
-2.488545417785644531e+00,-6.556883454322814941e-01,2.251497507095336914e-01
-2.491708278656005859e+00,-6.565216779708862305e-01,3.163844048976898193e-01
-2.494738578796386719e+00,-6.573201417922973633e-01,4.086125195026397705e-01
-2.497500181198120117e+00,-6.580477356910705566e-01,5.020325779914855957e-01
-2.501307010650634766e+00,-6.590508222579956055e-01,5.971799492835998535e-01
-2.393177032470703125e+00,-6.673318147659301758e-01,-6.657126545906066895e-01
-2.395782709121704102e+00,-6.680583953857421875e-01,-5.742104649543762207e-01
-2.399206876754760742e+00,-6.690132617950439453e-01,-4.841495752334594727e-01
-2.401985645294189453e+00,-6.697881221771240234e-01,-3.949503600597381592e-01
-2.405026435852050781e+00,-6.706359982490539551e-01,-3.065654337406158447e-01
-2.408016443252563477e+00,-6.714697480201721191e-01,-2.187110930681228638e-01
-2.410945892333984375e+00,-6.722866892814636230e-01,-1.311725080013275146e-01
-2.413886785507202148e+00,-6.731067299842834473e-01,-4.374193400144577026e-02
-2.416841506958007812e+00,-6.739305853843688965e-01,4.379547387361526489e-02
-2.419796943664550781e+00,-6.747547388076782227e-01,1.316540688276290894e-01
-2.422696590423583984e+00,-6.755632758140563965e-01,2.200444340705871582e-01
-2.425919294357299805e+00,-6.764619946479797363e-01,3.092286288738250732e-01
-2.428547382354736328e+00,-6.771948337554931641e-01,3.993178308010101318e-01
-2.432088136672973633e+00,-6.781821250915527344e-01,4.907848536968231201e-01
-2.434730768203735352e+00,-6.789189577102661133e-01,5.835453271865844727e-01
-2.329528808593750000e+00,-6.856639981269836426e-01,-6.506710052490234375e-01
-2.332391500473022461e+00,-6.865065693855285645e-01,-5.613147616386413574e-01
-2.335517883300781250e+00,-6.874267458915710449e-01,-4.732344746589660645e-01
-2.338431358337402344e+00,-6.882842779159545898e-01,-3.860806524753570557e-01
-2.341242074966430664e+00,-6.891115903854370117e-01,-2.996615171432495117e-01
-2.344088792800903320e+00,-6.899495124816894531e-01,-2.137798368930816650e-01
-2.347007274627685547e+00,-6.908085346221923828e-01,-1.282186210155487061e-01
-2.349870443344116211e+00,-6.916512250900268555e-01,-4.275691136717796326e-02
-2.352678775787353516e+00,-6.924778223037719727e-01,4.280800744891166687e-02
-2.355621337890625000e+00,-6.933439373970031738e-01,1.286892145872116089e-01
-2.358594179153442383e+00,-6.942189335823059082e-01,2.151027321815490723e-01
-2.361517190933227539e+00,-6.950792670249938965e-01,3.022565841674804688e-01
-2.364287614822387695e+00,-6.958947777748107910e-01,3.903495967388153076e-01
-2.367408752441406250e+00,-6.968134045600891113e-01,4.796963632106781006e-01
-2.370267868041992188e+00,-6.976549625396728516e-01,5.704300999641418457e-01
-2.273721694946289062e+00,-7.047518491744995117e-01,-6.378354430198669434e-01
-2.276282310485839844e+00,-7.055455446243286133e-01,-5.501855015754699707e-01
-2.279177188873291016e+00,-7.064428329467773438e-01,-4.638198316097259521e-01
-2.281928300857543945e+00,-7.072955369949340820e-01,-3.783845901489257812e-01
-2.284899234771728516e+00,-7.082163691520690918e-01,-2.937174439430236816e-01
-2.287782192230224609e+00,-7.091099619865417480e-01,-2.095489054918289185e-01
-2.290560483932495117e+00,-7.099711298942565918e-01,-1.256771832704544067e-01
-2.293351888656616211e+00,-7.108362913131713867e-01,-4.190936684608459473e-02
-2.296163082122802734e+00,-7.117077112197875977e-01,4.196074232459068298e-02
-2.298933506011962891e+00,-7.125663757324218750e-01,1.261366009712219238e-01
-2.301603317260742188e+00,-7.133939266204833984e-01,2.108148485422134399e-01
-2.304548263549804688e+00,-7.143067121505737305e-01,2.962432801723480225e-01
-2.307412147521972656e+00,-7.151943445205688477e-01,3.826102614402770996e-01
-2.310693979263305664e+00,-7.162116169929504395e-01,4.702335596084594727e-01
-2.313072204589843750e+00,-7.169488072395324707e-01,5.590777993202209473e-01
-2.215457916259765625e+00,-7.216050028800964355e-01,-6.243245601654052734e-01
-2.218309164047241211e+00,-7.225337028503417969e-01,-5.386177301406860352e-01
-2.220954418182373047e+00,-7.233952879905700684e-01,-4.540319144725799561e-01
-2.223869800567626953e+00,-7.243448495864868164e-01,-3.704386949539184570e-01
-2.226646423339843750e+00,-7.252492308616638184e-01,-2.875341773033142090e-01
-2.229408502578735352e+00,-7.261489033699035645e-01,-2.051331698894500732e-01
-2.232134580612182617e+00,-7.270367741584777832e-01,-1.230298727750778198e-01
-2.234856843948364258e+00,-7.279235124588012695e-01,-4.102661088109016418e-02
-2.237575769424438477e+00,-7.288090586662292480e-01,4.107652232050895691e-02
-2.240320682525634766e+00,-7.297031283378601074e-01,1.234810724854469299e-01
-2.243047714233398438e+00,-7.305913567543029785e-01,2.063881605863571167e-01
-2.245676755905151367e+00,-7.314476966857910156e-01,2.899916470050811768e-01
-2.248648881912231445e+00,-7.324157357215881348e-01,3.745662271976470947e-01
-2.251483917236328125e+00,-7.333391308784484863e-01,4.602730572223663330e-01
-2.254741191864013672e+00,-7.344000935554504395e-01,5.474635958671569824e-01
-2.161753416061401367e+00,-7.384977936744689941e-01,-6.121064424514770508e-01
-2.164321899414062500e+00,-7.393752336502075195e-01,-5.280247926712036133e-01
-2.167178392410278320e+00,-7.403510808944702148e-01,-4.451591670513153076e-01
-2.169853448867797852e+00,-7.412649989128112793e-01,-3.631711602210998535e-01
-2.172457695007324219e+00,-7.421545982360839844e-01,-2.818795144557952881e-01
-2.175255537033081055e+00,-7.431103587150573730e-01,-2.011085152626037598e-01
-2.177851676940917969e+00,-7.439973354339599609e-01,-1.206125393509864807e-01
-2.180506706237792969e+00,-7.449043393135070801e-01,-4.022048413753509521e-02
-2.183225631713867188e+00,-7.458331584930419922e-01,4.027063772082328796e-02
-2.185796737670898438e+00,-7.467114925384521484e-01,1.210525482892990112e-01
-2.188565969467163086e+00,-7.476574778556823730e-01,2.023390978574752808e-01
-2.191305160522460938e+00,-7.485932707786560059e-01,2.843250036239624023e-01
-2.193919897079467773e+00,-7.494865059852600098e-01,3.671991825103759766e-01
-2.196903944015502930e+00,-7.505059242248535156e-01,4.512650668621063232e-01
-2.199669599533081055e+00,-7.514507174491882324e-01,5.366485118865966797e-01
-2.109062433242797852e+00,-7.543742060661315918e-01,-6.001827716827392578e-01
-2.111360788345336914e+00,-7.551962733268737793e-01,-5.176881551742553711e-01
-2.114009380340576172e+00,-7.561436295509338379e-01,-4.364161789417266846e-01
-2.116872787475585938e+00,-7.571678161621093750e-01,-3.560811281204223633e-01
-2.119311809539794922e+00,-7.580401897430419922e-01,-2.763632535934448242e-01
-2.122007608413696289e+00,-7.590045332908630371e-01,-1.971698254346847534e-01
-2.124618291854858398e+00,-7.599382996559143066e-01,-1.182546913623809814e-01
-2.127209424972534180e+00,-7.608650326728820801e-01,-3.943423181772232056e-02
-2.129785060882568359e+00,-7.617864012718200684e-01,3.948198258876800537e-02
-2.132328748703002930e+00,-7.626962065696716309e-01,1.186838522553443909e-01
-2.135125875473022461e+00,-7.636966109275817871e-01,1.983887106180191040e-01
-2.137542247772216797e+00,-7.645608782768249512e-01,2.787405550479888916e-01
-2.140235900878906250e+00,-7.655243873596191406e-01,3.600110709667205811e-01
-2.143357992172241211e+00,-7.666411399841308594e-01,4.424749612808227539e-01
-2.145633459091186523e+00,-7.674550414085388184e-01,5.260915160179138184e-01
-2.059402465820312500e+00,-7.700312137603759766e-01,-5.891270637512207031e-01
-2.062563896179199219e+00,-7.712132930755615234e-01,-5.083780884742736816e-01
-2.064952373504638672e+00,-7.721064090728759766e-01,-4.285264611244201660e-01
-2.067609548568725586e+00,-7.730999588966369629e-01,-3.496201038360595703e-01
-2.070141077041625977e+00,-7.740464806556701660e-01,-2.713682651519775391e-01
-2.072658061981201172e+00,-7.749875783920288086e-01,-1.935952901840209961e-01
-2.075147628784179688e+00,-7.759184837341308594e-01,-1.161074563860893250e-01
-2.077677726745605469e+00,-7.768644690513610840e-01,-3.871818259358406067e-02
-2.080251693725585938e+00,-7.778269052505493164e-01,3.876615315675735474e-02
-2.082854032516479492e+00,-7.788000106811523438e-01,1.165386363863945007e-01
-2.085439682006835938e+00,-7.797667980194091797e-01,1.947891563177108765e-01
-2.087938547134399414e+00,-7.807011604309082031e-01,2.737012803554534912e-01
-2.090773582458496094e+00,-7.817611694335937500e-01,3.535369634628295898e-01
-2.092888832092285156e+00,-7.825520634651184082e-01,4.343239068984985352e-01
-2.095942735671997070e+00,-7.836940288543701172e-01,5.166053175926208496e-01
-2.011208534240722656e+00,-7.849996685981750488e-01,-5.784954428672790527e-01
-2.014142274856567383e+00,-7.861447334289550781e-01,-4.991655647754669189e-01
-2.016774654388427734e+00,-7.871721386909484863e-01,-4.208235144615173340e-01
-2.019233226776123047e+00,-7.881317734718322754e-01,-3.433122932910919189e-01
-2.021624803543090820e+00,-7.890652418136596680e-01,-2.664616405963897705e-01
-2.024060487747192383e+00,-7.900159358978271484e-01,-1.900927871465682983e-01
-2.026570796966552734e+00,-7.909957766532897949e-01,-1.140113100409507751e-01
-2.029045820236206055e+00,-7.919617891311645508e-01,-3.801926597952842712e-02
-2.031477928161621094e+00,-7.929110527038574219e-01,3.806483745574951172e-02
-2.034040212631225586e+00,-7.939111590385437012e-01,1.144315302371978760e-01
-2.036643505096435547e+00,-7.949272394180297852e-01,1.912745386362075806e-01
-2.039226531982421875e+00,-7.959353923797607422e-01,2.687816321849822998e-01
-2.041685581207275391e+00,-7.968952059745788574e-01,3.471296727657318115e-01
-2.043914794921875000e+00,-7.977652549743652344e-01,4.264866113662719727e-01
-2.047126054763793945e+00,-7.990186810493469238e-01,5.073398947715759277e-01
-1.963892221450805664e+00,-7.991060018539428711e-01,-5.681173205375671387e-01
-1.966603040695190430e+00,-8.002090454101562500e-01,-4.901722669601440430e-01
-1.969073772430419922e+00,-8.012143373489379883e-01,-4.132208228111267090e-01
-1.971433758735656738e+00,-8.021746277809143066e-01,-3.371030092239379883e-01
-1.974011063575744629e+00,-8.032233119010925293e-01,-2.616744339466094971e-01
-1.976502895355224609e+00,-8.042372465133666992e-01,-1.866883337497711182e-01
-1.978903293609619141e+00,-8.052139282226562500e-01,-1.119665428996086121e-01
-1.981316924095153809e+00,-8.061960935592651367e-01,-3.733734041452407837e-02
-1.983745574951171875e+00,-8.071842789649963379e-01,3.738310560584068298e-02
-1.986136078834533691e+00,-8.081569671630859375e-01,1.123757809400558472e-01
-1.988434195518493652e+00,-8.090921044349670410e-01,1.878152936697006226e-01
-1.990999221801757812e+00,-8.101357817649841309e-01,2.639263868331909180e-01
-1.993497490882873535e+00,-8.111523389816284180e-01,3.408757746219635010e-01
-1.995829582214355469e+00,-8.121012449264526367e-01,4.188356697559356689e-01
-1.998515963554382324e+00,-8.131943345069885254e-01,4.981265068054199219e-01
-1.920401930809020996e+00,-8.136361837387084961e-01,-5.588480830192565918e-01
-1.922843933105468750e+00,-8.146707415580749512e-01,-4.821224212646484375e-01
-1.925101637840270996e+00,-8.156272768974304199e-01,-4.064013361930847168e-01
-1.927297353744506836e+00,-8.165575861930847168e-01,-3.315205276012420654e-01
-1.929757952690124512e+00,-8.176000714302062988e-01,-2.573331892490386963e-01
-1.932181835174560547e+00,-8.186270594596862793e-01,-1.835899949073791504e-01
-1.934571266174316406e+00,-8.196394443511962891e-01,-1.101107522845268250e-01
-1.936928033828735352e+00,-8.206379413604736328e-01,-3.671843558549880981e-02
-1.939267039299011230e+00,-8.216289281845092773e-01,3.676277771592140198e-02
-1.941608309745788574e+00,-8.226208686828613281e-01,1.105112805962562561e-01
-1.943914532661437988e+00,-8.235979676246643066e-01,1.847047954797744751e-01
-1.946533799171447754e+00,-8.247076869010925293e-01,2.595702707767486572e-01
-1.949142932891845703e+00,-8.258131146430969238e-01,3.352782726287841797e-01
-1.951630115509033203e+00,-8.268669247627258301e-01,4.120016694068908691e-01
-1.953858613967895508e+00,-8.278110623359680176e-01,4.898988604545593262e-01
-1.874770998954772949e+00,-8.261477351188659668e-01,-5.489541888236999512e-01
-1.877016305923461914e+00,-8.271371126174926758e-01,-4.735518693923950195e-01
-1.879528284072875977e+00,-8.282440900802612305e-01,-3.992423117160797119e-01
-1.881860494613647461e+00,-8.292717933654785156e-01,-3.257131874561309814e-01
-1.884105801582336426e+00,-8.302612304687500000e-01,-2.528043091297149658e-01
-1.886367440223693848e+00,-8.312578797340393066e-01,-1.803489029407501221e-01
-1.888648509979248047e+00,-8.322630524635314941e-01,-1.081638932228088379e-01
-1.890949487686157227e+00,-8.332769870758056641e-01,-3.606922551989555359e-02
-1.893283128738403320e+00,-8.343054056167602539e-01,3.611373901367187500e-02
-1.895674943923950195e+00,-8.353593945503234863e-01,1.085663065314292908e-01
-1.898088455200195312e+00,-8.364229202270507812e-01,1.814695000648498535e-01
-1.900450706481933594e+00,-8.374638557434082031e-01,2.549974322319030762e-01
-1.902688741683959961e+00,-8.384501338005065918e-01,3.293181657791137695e-01
-1.905258178710937500e+00,-8.395823836326599121e-01,4.047077596187591553e-01
-1.907630562782287598e+00,-8.406277894973754883e-01,4.812755286693572998e-01
-1.834496974945068359e+00,-8.399563431739807129e-01,-5.406264662742614746e-01
-1.837076902389526367e+00,-8.411375284194946289e-01,-4.664652347564697266e-01
-1.839012742042541504e+00,-8.420239686965942383e-01,-3.931559622287750244e-01
-1.841600656509399414e+00,-8.432088494300842285e-01,-3.208011090755462646e-01
-1.843756794929504395e+00,-8.441960811614990234e-01,-2.489861994981765747e-01
-1.846106410026550293e+00,-8.452718853950500488e-01,-1.776382178068161011e-01
-1.848294496536254883e+00,-8.462737202644348145e-01,-1.065356135368347168e-01
-1.850547552108764648e+00,-8.473053574562072754e-01,-3.552626818418502808e-02
-1.852873444557189941e+00,-8.483703136444091797e-01,3.557091951370239258e-02
-1.855079174041748047e+00,-8.493801951408386230e-01,1.069266796112060547e-01
-1.857482552528381348e+00,-8.504806756973266602e-01,1.787328571081161499e-01
-1.859488487243652344e+00,-8.513991236686706543e-01,2.511106431484222412e-01
-1.862203359603881836e+00,-8.526421189308166504e-01,3.243900239467620850e-01
-1.864331603050231934e+00,-8.536165952682495117e-01,3.985687792301177979e-01
-1.866787791252136230e+00,-8.547412157058715820e-01,4.740093350410461426e-01
-1.792673587799072266e+00,-8.520501852035522461e-01,-5.318407416343688965e-01
-1.795091509819030762e+00,-8.531994223594665527e-01,-4.588583409786224365e-01
-1.797305464744567871e+00,-8.542516827583312988e-01,-3.868139386177062988e-01
-1.799744606018066406e+00,-8.554109930992126465e-01,-3.156104087829589844e-01
-1.801800489425659180e+00,-8.563880920410156250e-01,-2.449505329132080078e-01
-1.804091215133666992e+00,-8.574768900871276855e-01,-1.747584640979766846e-01
-1.806311607360839844e+00,-8.585322499275207520e-01,-1.048132926225662231e-01
-1.808514714241027832e+00,-8.595793843269348145e-01,-3.495195508003234863e-02
-1.810703516006469727e+00,-8.606196641921997070e-01,3.499425575137138367e-02
-1.812863945960998535e+00,-8.616465926170349121e-01,1.051935032010078430e-01
-1.815262198448181152e+00,-8.627864718437194824e-01,1.758405864238739014e-01
-1.817317366600036621e+00,-8.637632131576538086e-01,2.470600306987762451e-01
-1.819643378257751465e+00,-8.648687601089477539e-01,3.190999627113342285e-01
-1.821823358535766602e+00,-8.659049272537231445e-01,3.920906484127044678e-01
-1.824381589889526367e+00,-8.671208620071411133e-01,4.663454294204711914e-01
-1.754246592521667480e+00,-8.647785186767578125e-01,-5.240589380264282227e-01
-1.756452202796936035e+00,-8.658657670021057129e-01,-4.521031081676483154e-01
-1.758504390716552734e+00,-8.668774366378784180e-01,-3.810946047306060791e-01
-1.760812759399414062e+00,-8.680153489112854004e-01,-3.109301030635833740e-01
-1.762999773025512695e+00,-8.690934777259826660e-01,-2.413420975208282471e-01
-1.765161037445068359e+00,-8.701589107513427734e-01,-1.721762418746948242e-01
-1.767294883728027344e+00,-8.712108135223388672e-01,-1.032623127102851868e-01
-1.769450426101684570e+00,-8.722734451293945312e-01,-3.443475067615509033e-02
-1.771627902984619141e+00,-8.733468651771545410e-01,3.447712585330009460e-02
-1.773825645446777344e+00,-8.744302392005920410e-01,1.036439090967178345e-01
-1.775994896888732910e+00,-8.754996657371520996e-01,1.732329875230789185e-01
-1.778082251548767090e+00,-8.765286207199096680e-01,2.434068024158477783e-01
-1.780476450920104980e+00,-8.777088522911071777e-01,3.144023716449737549e-01
-1.782773137092590332e+00,-8.788410425186157227e-01,3.863539993762969971e-01
-1.784846186637878418e+00,-8.798629641532897949e-01,4.594116210937500000e-01
-1.715893268585205078e+00,-8.766175508499145508e-01,-5.162969231605529785e-01
-1.718438625335693359e+00,-8.779178857803344727e-01,-4.455074071884155273e-01
-1.720330238342285156e+00,-8.788843154907226562e-01,-3.755094707012176514e-01
-1.722514152526855469e+00,-8.799999952316284180e-01,-3.063600361347198486e-01
-1.724622130393981934e+00,-8.810769319534301758e-01,-2.377905249595642090e-01
-1.726740717887878418e+00,-8.821592926979064941e-01,-1.696429252624511719e-01
-1.728917598724365234e+00,-8.832714557647705078e-01,-1.017482355237007141e-01
-1.731023550033569336e+00,-8.843473196029663086e-01,-3.392979875206947327e-02
-1.733069181442260742e+00,-8.853923678398132324e-01,3.396989405155181885e-02
-1.735212922096252441e+00,-8.864875435829162598e-01,1.021187156438827515e-01
-1.737368941307067871e+00,-8.875890374183654785e-01,1.706870794296264648e-01
-1.739483237266540527e+00,-8.886691927909851074e-01,2.398395687341690063e-01
-1.741941094398498535e+00,-8.899248242378234863e-01,3.098152279853820801e-01
-1.743797540664672852e+00,-8.908733129501342773e-01,3.806318640708923340e-01
-1.745939493179321289e+00,-8.919675350189208984e-01,4.526370167732238770e-01
-1.678699493408203125e+00,-8.881384134292602539e-01,-5.088785290718078613e-01
-1.680597186088562012e+00,-8.891424536705017090e-01,-4.389514327049255371e-01
-1.682790040969848633e+00,-8.903025984764099121e-01,-3.700589537620544434e-01
-1.684857845306396484e+00,-8.913965821266174316e-01,-3.019009530544281006e-01
-1.687098979949951172e+00,-8.925822973251342773e-01,-2.343543767929077148e-01
-1.689096093177795410e+00,-8.936388492584228516e-01,-1.671840548515319824e-01
-1.691187024116516113e+00,-8.947451114654541016e-01,-1.002711802721023560e-01
-1.693248152732849121e+00,-8.958356380462646484e-01,-3.343727067112922668e-02
-1.695289254188537598e+00,-8.969154357910156250e-01,3.347757831215858459e-02
-1.697457551956176758e+00,-8.980626463890075684e-01,1.006429642438888550e-01
-1.699386835098266602e+00,-8.990833163261413574e-01,1.682026237249374390e-01
-1.701525211334228516e+00,-9.002146720886230469e-01,2.363583147525787354e-01
-1.703581571578979492e+00,-9.013026356697082520e-01,3.052559792995452881e-01
-1.706000208854675293e+00,-9.025822281837463379e-01,3.751630783081054688e-01
-1.708277463912963867e+00,-9.037870168685913086e-01,4.461811482906341553e-01
-1.641609549522399902e+00,-8.988190889358520508e-01,-5.014836788177490234e-01
-1.643845081329345703e+00,-9.000431299209594727e-01,-4.326727092266082764e-01
-1.645891427993774414e+00,-9.011635184288024902e-01,-3.647438585758209229e-01
-1.648137927055358887e+00,-9.023935198783874512e-01,-2.976052463054656982e-01
-1.650012254714965820e+00,-9.034197926521301270e-01,-2.309752553701400757e-01
-1.652099728584289551e+00,-9.045627713203430176e-01,-1.647868603467941284e-01
-1.654107451438903809e+00,-9.056620001792907715e-01,-9.883118420839309692e-02
-1.656122207641601562e+00,-9.067651033401489258e-01,-3.295705467462539673e-02
-1.658155918121337891e+00,-9.078786373138427734e-01,3.299752622842788696e-02
-1.660142898559570312e+00,-9.089665412902832031e-01,9.919179975986480713e-02
-1.662348866462707520e+00,-9.101744294166564941e-01,1.658091545104980469e-01
-1.664213418960571289e+00,-9.111952185630798340e-01,2.329631894826889038e-01
-1.666327953338623047e+00,-9.123529791831970215e-01,3.008898198604583740e-01
-1.668304681777954102e+00,-9.134352803230285645e-01,3.697108030319213867e-01
-1.670632958412170410e+00,-9.147101044654846191e-01,4.397234916687011719e-01
-1.605668306350708008e+00,-9.092488884925842285e-01,-4.944293200969696045e-01
-1.607725977897644043e+00,-9.104140400886535645e-01,-4.265520870685577393e-01
-1.609629631042480469e+00,-9.114921092987060547e-01,-3.595623373985290527e-01
-1.611767411231994629e+00,-9.127026200294494629e-01,-2.933667302131652832e-01
-1.613777637481689453e+00,-9.138409495353698730e-01,-2.277106940746307373e-01
-1.615631580352783203e+00,-9.148907661437988281e-01,-1.624389141798019409e-01
-1.617639303207397461e+00,-9.160277247428894043e-01,-9.742566943168640137e-02
-1.619610190391540527e+00,-9.171437621116638184e-01,-3.248837217688560486e-02
-1.621552586555480957e+00,-9.182437062263488770e-01,3.252733498811721802e-02
-1.623690843582153320e+00,-9.194545745849609375e-01,9.779013693332672119e-02
-1.625665903091430664e+00,-9.205729961395263672e-01,1.634477823972702026e-01
-1.627548933029174805e+00,-9.216392636299133301e-01,2.296538650989532471e-01
-1.629714488983154297e+00,-9.228656291961669922e-01,2.966333627700805664e-01
-1.631778717041015625e+00,-9.240345358848571777e-01,3.645100295543670654e-01
-1.633630990982055664e+00,-9.250834584236145020e-01,4.334250688552856445e-01
-1.572134375572204590e+00,-9.202208518981933594e-01,-4.881092011928558350e-01
-1.574041843414306641e+00,-9.213373064994812012e-01,-4.210709035396575928e-01
-1.575828313827514648e+00,-9.223830103874206543e-01,-3.549245595932006836e-01
-1.577876925468444824e+00,-9.235821366310119629e-01,-2.895746529102325439e-01
-1.579833149909973145e+00,-9.247272014617919922e-01,-2.247656285762786865e-01
-1.581780433654785156e+00,-9.258669614791870117e-01,-1.603514403104782104e-01
-1.583719730377197266e+00,-9.270021319389343262e-01,-9.617207199335098267e-02
-1.585652112960815430e+00,-9.281331896781921387e-01,-3.207039088010787964e-02
-1.587578892707824707e+00,-9.292609691619873047e-01,3.210936114192008972e-02
-1.589536547660827637e+00,-9.304068684577941895e-01,9.652530401945114136e-02
-1.591481685638427734e+00,-9.315454363822937012e-01,1.613349020481109619e-01
-1.593370914459228516e+00,-9.326512217521667480e-01,2.266916483640670776e-01
-1.595570206642150879e+00,-9.339385628700256348e-01,2.928217351436614990e-01
-1.597699284553527832e+00,-9.351848363876342773e-01,3.598505854606628418e-01
-1.599650859832763672e+00,-9.363270998001098633e-01,4.279215633869171143e-01
-1.538603186607360840e+00,-9.304118156433105469e-01,-4.817839562892913818e-01
-1.540870308876037598e+00,-9.317827820777893066e-01,-4.157224297523498535e-01
-1.542544245719909668e+00,-9.327949881553649902e-01,-3.503992557525634766e-01
-1.544510722160339355e+00,-9.339841604232788086e-01,-2.858753502368927002e-01
-1.546614050865173340e+00,-9.352560639381408691e-01,-2.219213098287582397e-01
-1.548461794853210449e+00,-9.363734126091003418e-01,-1.583162844181060791e-01
-1.550326585769653320e+00,-9.375011324882507324e-01,-9.494940936565399170e-02
-1.552216887474060059e+00,-9.386441707611083984e-01,-3.166264295578002930e-02
-1.554135799407958984e+00,-9.398046135902404785e-01,3.170178830623626709e-02
-1.556109547615051270e+00,-9.409980773925781250e-01,9.530358016490936279e-02
-1.557829022407531738e+00,-9.420379400253295898e-01,1.592739969491958618e-01
-1.559720039367675781e+00,-9.431813955307006836e-01,2.238018512725830078e-01
-1.561945676803588867e+00,-9.445272684097290039e-01,2.891024053096771240e-01
-1.563625812530517578e+00,-9.455433487892150879e-01,3.551881015300750732e-01
-1.565593957901000977e+00,-9.467334151268005371e-01,4.223927855491638184e-01
-1.506090641021728516e+00,-9.404485225677490234e-01,-4.757696390151977539e-01
-1.508215069770812988e+00,-9.417750239372253418e-01,-4.105069637298583984e-01
-1.510136723518371582e+00,-9.429750442504882812e-01,-3.460682034492492676e-01
-1.511944651603698730e+00,-9.441039562225341797e-01,-2.823199629783630371e-01
-1.513722419738769531e+00,-9.452140331268310547e-01,-2.191205769777297974e-01
-1.515668511390686035e+00,-9.464291930198669434e-01,-1.563324630260467529e-01
-1.517466545104980469e+00,-9.475519657135009766e-01,-9.375794231891632080e-02
-1.519315600395202637e+00,-9.487065672874450684e-01,-3.126530349254608154e-02
-1.521225333213806152e+00,-9.498990774154663086e-01,3.130460157990455627e-02
-1.523016571998596191e+00,-9.510175585746765137e-01,9.410084784030914307e-02
-1.524980545043945312e+00,-9.522439241409301758e-01,1.572929471731185913e-01
-1.526945829391479492e+00,-9.534711241722106934e-01,2.210347503423690796e-01
-1.528839945793151855e+00,-9.546538591384887695e-01,2.854747474193572998e-01
-1.530581831932067871e+00,-9.557415843009948730e-01,3.507534861564636230e-01
-1.532636284828186035e+00,-9.570243954658508301e-01,4.171539545059204102e-01
-1.474087119102478027e+00,-9.500551819801330566e-01,-4.699074327945709229e-01
-1.476077795028686523e+00,-9.513381719589233398e-01,-4.054245650768280029e-01
-1.477894425392150879e+00,-9.525090456008911133e-01,-3.417688012123107910e-01
-1.479630708694458008e+00,-9.536281228065490723e-01,-2.788062989711761475e-01
-1.481555819511413574e+00,-9.548688530921936035e-01,-2.164205610752105713e-01
-1.483291506767272949e+00,-9.559874534606933594e-01,-1.543885171413421631e-01
-1.485136866569519043e+00,-9.571768045425415039e-01,-9.259743988513946533e-02
-1.486946940422058105e+00,-9.583434462547302246e-01,-3.087832219898700714e-02
-1.488726139068603516e+00,-9.594901800155639648e-01,3.091526962816715240e-02
-1.490655541419982910e+00,-9.607335925102233887e-01,9.294152259826660156e-02
-1.492388725280761719e+00,-9.618507027626037598e-01,1.553354114294052124e-01
-1.494346976280212402e+00,-9.631127715110778809e-01,2.182890474796295166e-01
-1.496264696121215820e+00,-9.643487334251403809e-01,2.819406390190124512e-01
-1.498056650161743164e+00,-9.655036926269531250e-01,3.464313745498657227e-01
-1.500188827514648438e+00,-9.668778777122497559e-01,4.120469987392425537e-01
-1.444142580032348633e+00,-9.602851867675781250e-01,-4.646957516670227051e-01
-1.446024894714355469e+00,-9.615368843078613281e-01,-4.009092450141906738e-01
-1.447758197784423828e+00,-9.626894593238830566e-01,-3.379516005516052246e-01
-1.449703216552734375e+00,-9.639828205108642578e-01,-2.757387757301330566e-01
-1.451328277587890625e+00,-9.650633931159973145e-01,-2.140009254217147827e-01
-1.453166365623474121e+00,-9.662856459617614746e-01,-1.526769101619720459e-01
-1.454952478408813477e+00,-9.674733281135559082e-01,-9.156949073076248169e-02
-1.456725835800170898e+00,-9.686524868011474609e-01,-3.053553216159343719e-02
-1.458494663238525391e+00,-9.698286652565002441e-01,3.057261183857917786e-02
-1.460238456726074219e+00,-9.709882140159606934e-01,9.190216660499572754e-02
-1.462202429771423340e+00,-9.722940921783447266e-01,1.536262631416320801e-01
-1.463876485824584961e+00,-9.734073281288146973e-01,2.158511728048324585e-01
-1.465802073478698730e+00,-9.746877551078796387e-01,2.788008153438568115e-01
-1.467628359794616699e+00,-9.759021401405334473e-01,3.425899147987365723e-01
-1.469255089759826660e+00,-9.769837856292724609e-01,4.073497653007507324e-01
-1.413104772567749023e+00,-9.690966010093688965e-01,-4.591248333454132080e-01
-1.414867997169494629e+00,-9.703058004379272461e-01,-3.960810005664825439e-01
-1.416508316993713379e+00,-9.714307785034179688e-01,-3.338684737682342529e-01
-1.418382525444030762e+00,-9.727160930633544922e-01,-2.724017500877380371e-01
-1.420156598091125488e+00,-9.739327430725097656e-01,-2.114384621381759644e-01
-1.421907901763916016e+00,-9.751337170600891113e-01,-1.508437246084213257e-01
-1.423630118370056152e+00,-9.763148427009582520e-01,-9.046840667724609375e-02
-1.425365447998046875e+00,-9.775049090385437012e-01,-3.016836009919643402e-02
-1.427119851112365723e+00,-9.787080883979797363e-01,3.020549193024635315e-02
-1.428878784179687500e+00,-9.799143075942993164e-01,9.080194681882858276e-02
-1.430612802505493164e+00,-9.811034798622131348e-01,1.517671793699264526e-01
-1.432276368141174316e+00,-9.822443723678588867e-01,2.132429033517837524e-01
-1.434216737747192383e+00,-9.835750460624694824e-01,2.754427194595336914e-01
-1.436084151268005371e+00,-9.848556518554687500e-01,3.384824395179748535e-01
-1.437779784202575684e+00,-9.860185384750366211e-01,4.024949669837951660e-01
-1.384016156196594238e+00,-9.785635471343994141e-01,-4.541780948638916016e-01
-1.385680556297302246e+00,-9.797403812408447266e-01,-3.917958438396453857e-01
-1.387579321861267090e+00,-9.810829162597656250e-01,-3.303259611129760742e-01
-1.389070391654968262e+00,-9.821372032165527344e-01,-2.694445252418518066e-01
-1.390815019607543945e+00,-9.833706617355346680e-01,-2.091441601514816284e-01
-1.392672300338745117e+00,-9.846838712692260742e-01,-1.492221653461456299e-01
-1.394335389137268066e+00,-9.858597517013549805e-01,-8.949434757232666016e-02
-1.396035671234130859e+00,-9.870619773864746094e-01,-2.984355948865413666e-02
-1.397776961326599121e+00,-9.882930517196655273e-01,2.988078072667121887e-02
-1.399355649948120117e+00,-9.894092679023742676e-01,8.981657028198242188e-02
-1.401047110557556152e+00,-9.906052350997924805e-01,1.501194983720779419e-01
-1.403025865554809570e+00,-9.920043349266052246e-01,2.109803706407546997e-01
-1.404630184173583984e+00,-9.931386113166809082e-01,2.724627256393432617e-01
-1.406521201133728027e+00,-9.944756627082824707e-01,3.348352313041687012e-01
-1.408266186714172363e+00,-9.957094192504882812e-01,3.981818258762359619e-01
-1.355328679084777832e+00,-9.876751303672790527e-01,-4.493572115898132324e-01
-1.356902122497558594e+00,-9.888218045234680176e-01,-3.876209855079650879e-01
-1.358727574348449707e+00,-9.901521205902099609e-01,-3.267979621887207031e-01
-1.360428094863891602e+00,-9.913912415504455566e-01,-2.666138708591461182e-01
-1.362075448036193848e+00,-9.925917983055114746e-01,-2.069376856088638306e-01
-1.363740324974060059e+00,-9.938051104545593262e-01,-1.476311981678009033e-01
-1.365459203720092773e+00,-9.950577020645141602e-01,-8.854604512453079224e-02
-1.367125630378723145e+00,-9.962720274925231934e-01,-2.952735684812068939e-02
-1.368739962577819824e+00,-9.974484443664550781e-01,2.956222370266914368e-02
-1.370438694953918457e+00,-9.986863732337951660e-01,8.886894583702087402e-02
-1.372157931327819824e+00,-9.999392628669738770e-01,1.485424488782882690e-01
-1.373852491378784180e+00,-1.001174092292785645e+00,2.087269425392150879e-01
-1.375460386276245117e+00,-1.002345800399780273e+00,2.695598900318145752e-01
-1.377369642257690430e+00,-1.003737211227416992e+00,3.312816917896270752e-01
-1.379155516624450684e+00,-1.005038619041442871e+00,3.939780294895172119e-01
-1.327044010162353516e+00,-9.964514374732971191e-01,-4.446626901626586914e-01
-1.328920006752014160e+00,-9.978601336479187012e-01,-3.836682736873626709e-01
-1.330289721488952637e+00,-9.988886117935180664e-01,-3.233638405799865723e-01
-1.331946253776550293e+00,-1.000132441520690918e+00,-2.638105452060699463e-01
-1.333750009536743164e+00,-1.001486897468566895e+00,-2.047911286354064941e-01
-1.335339188575744629e+00,-1.002680182456970215e+00,-1.460953205823898315e-01
-1.337002635002136230e+00,-1.003929257392883301e+00,-8.762357383966445923e-02
-1.338631749153137207e+00,-1.005152463912963867e+00,-2.921968512237071991e-02
-1.340232491493225098e+00,-1.006354451179504395e+00,2.925462462007999420e-02
-1.341937065124511719e+00,-1.007634401321411133e+00,8.794696629047393799e-02
-1.343432426452636719e+00,-1.008757233619689941e+00,1.469807773828506470e-01
-1.345099449157714844e+00,-1.010008931159973145e+00,2.065337747335433960e-01
-1.347095370292663574e+00,-1.011507630348205566e+00,2.668110430240631104e-01
-1.348624348640441895e+00,-1.012655735015869141e+00,3.278205692768096924e-01
-1.350444912910461426e+00,-1.014022707939147949e+00,3.898826241493225098e-01
-1.299159884452819824e+00,-1.004909753799438477e+00,-4.400939345359802246e-01
-1.300949335098266602e+00,-1.006293892860412598e+00,-3.797124326229095459e-01
-1.302579522132873535e+00,-1.007554888725280762e+00,-3.201009035110473633e-01
-1.304123878479003906e+00,-1.008749485015869141e+00,-2.611329853534698486e-01
-1.305654883384704590e+00,-1.009933710098266602e+00,-2.026760876178741455e-01
-1.307351350784301758e+00,-1.011245965957641602e+00,-1.446020603179931641e-01
-1.308960556983947754e+00,-1.012490630149841309e+00,-8.672667294740676880e-02
-1.310556411743164062e+00,-1.013725042343139648e+00,-2.892061509191989899e-02
-1.312141537666320801e+00,-1.014951229095458984e+00,2.895559743046760559e-02
-1.313672184944152832e+00,-1.016135096549987793e+00,8.703884482383728027e-02
-1.315369248390197754e+00,-1.017447829246520996e+00,1.454888880252838135e-01
-1.317077398300170898e+00,-1.018769025802612305e+00,2.044491916894912720e-01
-1.318744063377380371e+00,-1.020058274269104004e+00,2.640604674816131592e-01
-1.320287227630615234e+00,-1.021251916885375977e+00,3.244524300098419189e-01
-1.322137236595153809e+00,-1.022682905197143555e+00,3.858966231346130371e-01
-1.271676898002624512e+00,-1.013069868087768555e+00,-4.356514811515808105e-01
-1.273388147354125977e+00,-1.014433145523071289e+00,-3.758676052093505859e-01
-1.274956107139587402e+00,-1.015682220458984375e+00,-3.168527483940124512e-01
-1.276707887649536133e+00,-1.017077684402465820e+00,-2.585318386554718018e-01
-1.278154134750366211e+00,-1.018229842185974121e+00,-2.006489783525466919e-01
-1.279775500297546387e+00,-1.019521474838256836e+00,-1.431513875722885132e-01
-1.281332850456237793e+00,-1.020762085914611816e+00,-8.585541695356369019e-02
-1.282892823219299316e+00,-1.022004842758178711e+00,-2.863002941012382507e-02
-1.284466385841369629e+00,-1.023258447647094727e+00,2.866514958441257477e-02
-1.286000490188598633e+00,-1.024480581283569336e+00,8.616816997528076172e-02
-1.287714123725891113e+00,-1.025845646858215332e+00,1.440393626689910889e-01
-1.289148926734924316e+00,-1.026988744735717773e+00,2.023749798536300659e-01
-1.290803432464599609e+00,-1.028306841850280762e+00,2.613861560821533203e-01
-1.292355298995971680e+00,-1.029543161392211914e+00,3.211767971515655518e-01
-1.294229269027709961e+00,-1.031035900115966797e+00,3.820192515850067139e-01
-1.244591712951660156e+00,-1.020948648452758789e+00,-4.313346743583679199e-01
-1.246229410171508789e+00,-1.022292017936706543e+00,-3.721320629119873047e-01
-1.248050689697265625e+00,-1.023786067962646484e+00,-3.137758374214172363e-01
-1.249456644058227539e+00,-1.024939298629760742e+00,-2.559579908847808838e-01
-1.251058340072631836e+00,-1.026253223419189453e+00,-1.986810117959976196e-01
-1.252611875534057617e+00,-1.027527689933776855e+00,-1.417435556650161743e-01
-1.254117727279663086e+00,-1.028762936592102051e+00,-8.500982075929641724e-02
-1.255648612976074219e+00,-1.030018687248229980e+00,-2.834814600646495819e-02
-1.257203817367553711e+00,-1.031294465065002441e+00,2.838325500488281250e-02
-1.258738875389099121e+00,-1.032553672790527344e+00,8.532306551933288574e-02
-1.260228514671325684e+00,-1.033775568008422852e+00,1.426054388284683228e-01
-1.261942863464355469e+00,-1.035181879997253418e+00,2.004095911979675293e-01
-1.263273715972900391e+00,-1.036273598670959473e+00,2.587885260581970215e-01
-1.264830231666564941e+00,-1.037550449371337891e+00,3.179944455623626709e-01
-1.266722202301025391e+00,-1.039102435111999512e+00,3.782513737678527832e-01
-1.219465970993041992e+00,-1.029884815216064453e+00,-4.276919066905975342e-01
-1.220983624458312988e+00,-1.031166553497314453e+00,-3.689630329608917236e-01
-1.222394466400146484e+00,-1.032358169555664062e+00,-3.110087215900421143e-01
-1.224016666412353516e+00,-1.033728122711181641e+00,-2.537516057491302490e-01
-1.225540876388549805e+00,-1.035015344619750977e+00,-1.969611197710037231e-01
-1.226930856704711914e+00,-1.036189317703247070e+00,-1.405014544725418091e-01
-1.228458523750305176e+00,-1.037479400634765625e+00,-8.426848053932189941e-02
-1.229956507682800293e+00,-1.038744568824768066e+00,-2.810089662671089172e-02
-1.231427669525146484e+00,-1.039987087249755859e+00,2.813450805842876434e-02
-1.233065724372863770e+00,-1.041370391845703125e+00,8.458452671766281128e-02
-1.234567880630493164e+00,-1.042639017105102539e+00,1.413760036230087280e-01
-1.236004233360290527e+00,-1.043852090835571289e+00,1.986427307128906250e-01
-1.237681150436401367e+00,-1.045268297195434570e+00,2.565843760967254639e-01
-1.239293694496154785e+00,-1.046630144119262695e+00,3.153083026409149170e-01
-1.240754365921020508e+00,-1.047863721847534180e+00,3.749374449253082275e-01
-1.193113803863525391e+00,-1.037245512008666992e+00,-4.236132800579071045e-01
-1.194569230079650879e+00,-1.038510799407958984e+00,-3.654354512691497803e-01
-1.196233153343200684e+00,-1.039957404136657715e+00,-3.081082999706268311e-01
-1.197526335716247559e+00,-1.041081666946411133e+00,-2.513233423233032227e-01
-1.199036478996276855e+00,-1.042394518852233887e+00,-1.950794011354446411e-01
-1.200530052185058594e+00,-1.043692946434020996e+00,-1.391746252775192261e-01
-1.202013731002807617e+00,-1.044982790946960449e+00,-8.347193151712417603e-02
-1.203476786613464355e+00,-1.046254754066467285e+00,-2.783520705997943878e-02
-1.204931974411010742e+00,-1.047519803047180176e+00,2.786886319518089294e-02
-1.206396818161010742e+00,-1.048793315887451172e+00,8.377631008625030518e-02
-1.207849264144897461e+00,-1.050055980682373047e+00,1.400231271982192993e-01
-1.209548592567443848e+00,-1.051533341407775879e+00,1.967896968126296997e-01
-1.210904717445373535e+00,-1.052712321281433105e+00,2.541310489177703857e-01
-1.212513327598571777e+00,-1.054110765457153320e+00,3.123014867305755615e-01
-1.213989973068237305e+00,-1.055394530296325684e+00,3.713765442371368408e-01
-1.168195247650146484e+00,-1.045310735702514648e+00,-4.200352132320404053e-01
-1.169955849647521973e+00,-1.046886086463928223e+00,-3.624527156352996826e-01
