1.922811865806579590e+00,-1.902279138565063477e+00,5.257564783096313477e-01
1.930574774742126465e+00,-1.909959197044372559e+00,6.269693374633789062e-01
1.948869347572326660e+00,-1.873631596565246582e+00,-7.243834137916564941e-01
1.955875635147094727e+00,-1.880367398262023926e+00,-6.263810992240905762e-01
1.951540470123291016e+00,-1.876199603080749512e+00,-5.262148976325988770e-01
1.950429797172546387e+00,-1.875131726264953613e+00,-4.285250008106231689e-01
1.951362609863281250e+00,-1.876028537750244141e+00,-3.323648273944854736e-01
1.964284896850585938e+00,-1.888452053070068359e+00,-2.383908629417419434e-01
1.966084599494934082e+00,-1.890182137489318848e+00,-1.429325938224792480e-01
1.959154605865478516e+00,-1.883519768714904785e+00,-4.743769019842147827e-02
1.963754653930664062e+00,-1.887942194938659668e+00,4.754907265305519104e-02
1.989109992980957031e+00,-1.912318706512451172e+00,1.446065306663513184e-01
1.970870733261108398e+00,-1.894783616065979004e+00,2.391901314258575439e-01
1.973049044609069824e+00,-1.896877884864807129e+00,3.360585868358612061e-01
1.977590799331665039e+00,-1.901244163513183594e+00,4.344924986362457275e-01
1.978616714477539062e+00,-1.902230501174926758e+00,5.335157513618469238e-01
1.981996893882751465e+00,-1.905480146408081055e+00,6.347466111183166504e-01
2.009923219680786133e+00,-1.877720475196838379e+00,-7.370113730430603027e-01
2.005742549896240234e+00,-1.873814702033996582e+00,-6.336968541145324707e-01
2.008591890335083008e+00,-1.876476645469665527e+00,-5.343013405799865723e-01
1.999040722846984863e+00,-1.867553591728210449e+00,-4.332877695560455322e-01
2.007873535156250000e+00,-1.875805616378784180e+00,-3.373824059963226318e-01
2.000187873840332031e+00,-1.868625402450561523e+00,-2.394775897264480591e-01
2.011049509048461914e+00,-1.878772497177124023e+00,-1.442317217588424683e-01
2.024001598358154297e+00,-1.890872597694396973e+00,-4.834756255149841309e-02
2.015813112258911133e+00,-1.883222818374633789e+00,4.815196618437767029e-02
2.028105020523071289e+00,-1.894706368446350098e+00,1.454549580812454224e-01
2.034229993820190430e+00,-1.900428295135498047e+00,2.435533553361892700e-01
2.027709245681762695e+00,-1.894336581230163574e+00,3.407153785228729248e-01
2.028030395507812500e+00,-1.894636511802673340e+00,4.395712316036224365e-01
2.028717279434204102e+00,-1.895278334617614746e+00,5.396548509597778320e-01
2.041443109512329102e+00,-1.907166957855224609e+00,6.449761390686035156e-01
2.068098545074462891e+00,-1.877363562583923340e+00,-7.484133839607238770e-01
2.053425073623657227e+00,-1.864043235778808594e+00,-6.402665376663208008e-01
2.068311452865600586e+00,-1.877556681632995605e+00,-5.429827570915222168e-01
2.075067996978759766e+00,-1.883690118789672852e+00,-4.438770711421966553e-01
2.074946165084838867e+00,-1.883579492568969727e+00,-3.440871536731719971e-01
2.064885616302490234e+00,-1.874446868896484375e+00,-2.439864277839660645e-01
2.079741001129150391e+00,-1.887932300567626953e+00,-1.472051143646240234e-01
2.078301429748535156e+00,-1.886625409126281738e+00,-4.899456351995468140e-02
2.080050706863403320e+00,-1.888213276863098145e+00,4.903580248355865479e-02
2.088342905044555664e+00,-1.895740747451782227e+00,1.478139609098434448e-01
2.091948270797729492e+00,-1.899013519287109375e+00,2.471841424703598022e-01
2.098111391067504883e+00,-1.904608249664306641e+00,3.479286432266235352e-01
2.096780776977539062e+00,-1.903400421142578125e+00,4.485216438770294189e-01
2.089741230010986328e+00,-1.897010087966918945e+00,5.486086606979370117e-01
2.102221727371215820e+00,-1.908339619636535645e+00,6.554815769195556641e-01
2.120360136032104492e+00,-1.870155930519104004e+00,-7.575613856315612793e-01
2.114269256591796875e+00,-1.864783763885498047e+00,-6.508488655090332031e-01
2.133254766464233398e+00,-1.881528854370117188e+00,-5.529052615165710449e-01
2.121451616287231445e+00,-1.871118545532226562e+00,-4.480241537094116211e-01
2.129777669906616211e+00,-1.878462076187133789e+00,-3.486854135990142822e-01
2.128378152847290039e+00,-1.877227783203125000e+00,-2.482883483171463013e-01
2.129793405532836914e+00,-1.878475904464721680e+00,-1.488294899463653564e-01
2.132389307022094727e+00,-1.880765438079833984e+00,-4.962993413209915161e-02
2.144447803497314453e+00,-1.891401052474975586e+00,4.991059005260467529e-02
2.141703367233276367e+00,-1.888980507850646973e+00,1.496617645025253296e-01
2.131663322448730469e+00,-1.880125164985656738e+00,2.486715763807296753e-01
2.151689291000366211e+00,-1.897788047790527344e+00,3.522727787494659424e-01
2.143881559371948242e+00,-1.890901684761047363e+00,4.527610540390014648e-01
2.144376277923583984e+00,-1.891337990760803223e+00,5.557878017425537109e-01
2.138781070709228516e+00,-1.886402964591979980e+00,6.583944559097290039e-01
2.175500869750976562e+00,-1.864117503166198730e+00,-7.676504850387573242e-01
2.185574293136596680e+00,-1.872749090194702148e+00,-6.644793748855590820e-01
2.174631595611572266e+00,-1.863372564315795898e+00,-5.566596984863281250e-01
2.190006017684936523e+00,-1.876546502113342285e+00,-4.567826986312866211e-01
2.184820652008056641e+00,-1.872103333473205566e+00,-3.532737791538238525e-01
2.197314023971557617e+00,-1.882808327674865723e+00,-2.531603574752807617e-01
2.200451374053955078e+00,-1.885496854782104492e+00,-1.518655866384506226e-01
2.195688486099243164e+00,-1.881415605545043945e+00,-5.047124624252319336e-02
2.200716495513916016e+00,-1.885723829269409180e+00,5.058681964874267578e-02
2.192298412322998047e+00,-1.878510832786560059e+00,1.513029038906097412e-01
2.204002141952514648e+00,-1.888539314270019531e+00,2.539309561252593994e-01
2.210058450698852539e+00,-1.893728613853454590e+00,3.573545515537261963e-01
2.213774204254150391e+00,-1.896912574768066406e+00,4.617401659488677979e-01
2.204708099365234375e+00,-1.889144182205200195e+00,5.643586516380310059e-01
2.211748600006103516e+00,-1.895177006721496582e+00,6.724371314048767090e-01
2.238211631774902344e+00,-1.862966895103454590e+00,-7.802894711494445801e-01
2.236624956130981445e+00,-1.861646294593811035e+00,-6.718301177024841309e-01
2.236163377761840820e+00,-1.861261963844299316e+00,-5.655330419540405273e-01
2.247877836227416992e+00,-1.871012449264526367e+00,-4.632200896739959717e-01
2.255689382553100586e+00,-1.877514481544494629e+00,-3.603506088256835938e-01
2.251149654388427734e+00,-1.873735904693603516e+00,-2.562467455863952637e-01
2.259409189224243164e+00,-1.880610585212707520e+00,-1.540610492229461670e-01
2.264508008956909180e+00,-1.884854674339294434e+00,-5.142775177955627441e-02
2.271314144134521484e+00,-1.890519618988037109e+00,5.158232152462005615e-02
2.258312225341796875e+00,-1.879697561264038086e+00,1.539862602949142456e-01
2.263711929321289062e+00,-1.884191989898681641e+00,2.576766908168792725e-01
2.266577482223510742e+00,-1.886577248573303223e+00,3.620900213718414307e-01
2.271370410919189453e+00,-1.890566468238830566e+00,4.680612087249755859e-01
2.274712562561035156e+00,-1.893348336219787598e+00,5.752822756767272949e-01
2.275493144989013672e+00,-1.893998026847839355e+00,6.835051774978637695e-01
2.304765224456787109e+00,-1.863175988197326660e+00,-7.941129803657531738e-01
2.308953285217285156e+00,-1.866561532020568848e+00,-6.854604482650756836e-01
2.305664777755737305e+00,-1.863903164863586426e+00,-5.763039588928222656e-01
2.319975137710571289e+00,-1.875471711158752441e+00,-4.724969565868377686e-01
2.318177223205566406e+00,-1.874018192291259766e+00,-3.660105168819427490e-01
2.314885616302490234e+00,-1.871357440948486328e+00,-2.604261040687561035e-01
2.314155101776123047e+00,-1.870766758918762207e+00,-1.559521704912185669e-01
2.332969665527343750e+00,-1.885976433753967285e+00,-5.236411094665527344e-02
2.320351600646972656e+00,-1.875776171684265137e+00,5.208089947700500488e-02
2.330407857894897461e+00,-1.883905410766601562e+00,1.570474356412887573e-01
2.318541288375854492e+00,-1.874312639236450195e+00,2.608373761177062988e-01
2.336863517761230469e+00,-1.889124274253845215e+00,3.689608275890350342e-01
2.336889028549194336e+00,-1.889145016670227051e+00,4.759417474269866943e-01
2.342182159423828125e+00,-1.893424034118652344e+00,5.854315757751464844e-01
2.345095634460449219e+00,-1.895779132843017578e+00,6.961900591850280762e-01
2.364037036895751953e+00,-1.855780482292175293e+00,-8.053004741668701172e-01
2.365551948547363281e+00,-1.856969833374023438e+00,-6.943011283874511719e-01
2.369611501693725586e+00,-1.860156536102294922e+00,-5.855725407600402832e-01
2.377951622009277344e+00,-1.866703510284423828e+00,-4.788139462471008301e-01
2.379462480545043945e+00,-1.867889642715454102e+00,-3.714273869991302490e-01
2.381277084350585938e+00,-1.869314193725585938e+00,-2.648579478263854980e-01
2.391033411026000977e+00,-1.876972913742065430e+00,-1.593062132596969604e-01
2.392353534698486328e+00,-1.878009080886840820e+00,-5.308821052312850952e-02
2.387078285217285156e+00,-1.873867988586425781e+00,5.297115072607994080e-02
2.400193214416503906e+00,-1.884163379669189453e+00,1.599164903163909912e-01
2.394382238388061523e+00,-1.879601716995239258e+00,2.663155794143676758e-01
2.394235849380493164e+00,-1.879486799240112305e+00,3.737334609031677246e-01
2.405809879302978516e+00,-1.888572454452514648e+00,4.844233989715576172e-01
2.393903732299804688e+00,-1.879226088523864746e+00,5.915755629539489746e-01
2.416920900344848633e+00,-1.897294640541076660e+00,7.093781232833862305e-01
2.446395874023437500e+00,-1.864466905593872070e+00,-8.241806030273437500e-01
2.446877956390380859e+00,-1.864834308624267578e+00,-7.102636694908142090e-01
2.449784755706787109e+00,-1.867049694061279297e+00,-5.987194776535034180e-01
2.450280427932739258e+00,-1.867427349090576172e+00,-4.879457056522369385e-01
2.452423572540283203e+00,-1.869060754776000977e+00,-3.786015808582305908e-01
2.445026397705078125e+00,-1.863423228263854980e+00,-2.689543366432189941e-01
2.462115287780761719e+00,-1.876447200775146484e+00,-1.622360497713088989e-01
2.459818363189697266e+00,-1.874696612358093262e+00,-5.398432910442352295e-02
2.450306892395019531e+00,-1.867447495460510254e+00,5.377558246254920959e-02
2.468137979507446289e+00,-1.881037235260009766e+00,1.626328974962234497e-01
2.475269317626953125e+00,-1.886472225189208984e+00,2.722810506820678711e-01
2.477580308914184570e+00,-1.888233423233032227e+00,3.824852705001831055e-01
2.482446432113647461e+00,-1.891942024230957031e+00,4.943511784076690674e-01
2.464493036270141602e+00,-1.878259301185607910e+00,6.023141145706176758e-01
2.474530935287475586e+00,-1.885909318923950195e+00,7.182905673980712891e-01
2.515408039093017578e+00,-1.860760331153869629e+00,-8.383716940879821777e-01
2.515740871429443359e+00,-1.861006617546081543e+00,-7.224465608596801758e-01
2.515960454940795898e+00,-1.861168861389160156e+00,-6.083195805549621582e-01
2.508927106857299805e+00,-1.855966091156005859e+00,-4.942837059497833252e-01
2.525841236114501953e+00,-1.868478298187255859e+00,-3.857674300670623779e-01
2.519026756286621094e+00,-1.863437294960021973e+00,-2.741323709487915039e-01
2.530904054641723633e+00,-1.872223496437072754e+00,-1.649860441684722900e-01
2.532216548919677734e+00,-1.873194336891174316e+00,-5.497915297746658325e-02
2.539800167083740234e+00,-1.878804206848144531e+00,5.514380708336830139e-02
2.539540052413940430e+00,-1.878611922264099121e+00,1.655490100383758545e-01
2.540156126022338867e+00,-1.879067540168762207e+00,2.764317691326141357e-01
2.542439460754394531e+00,-1.880756735801696777e+00,3.883024454116821289e-01
2.544226884841918945e+00,-1.882078886032104492e+00,5.012381076812744141e-01
2.545425176620483398e+00,-1.882965326309204102e+00,6.154437065124511719e-01
2.554077863693237305e+00,-1.889366149902343750e+00,7.334558367729187012e-01
2.582671165466308594e+00,-1.853920936584472656e+00,-8.518585562705993652e-01
2.581935405731201172e+00,-1.853392958641052246e+00,-7.337623834609985352e-01
2.591486454010009766e+00,-1.860248804092407227e+00,-6.200791597366333008e-01
2.586599588394165039e+00,-1.856740951538085938e+00,-5.042984485626220703e-01
2.585824012756347656e+00,-1.856184244155883789e+00,-3.908306956291198730e-01
2.600811719894409180e+00,-1.866942882537841797e+00,-2.800958454608917236e-01
2.587258338928222656e+00,-1.857213854789733887e+00,-1.669096797704696655e-01
2.608804464340209961e+00,-1.872680306434631348e+00,-5.605430528521537781e-02
2.601756095886230469e+00,-1.867620706558227539e+00,5.590285733342170715e-02
2.606602668762207031e+00,-1.871099829673767090e+00,1.681576222181320190e-01
2.605959177017211914e+00,-1.870637893676757812e+00,2.806501984596252441e-01
2.613394021987915039e+00,-1.875974774360656738e+00,3.949977159500122070e-01
2.618373870849609375e+00,-1.879549622535705566e+00,5.104933977127075195e-01
2.627860784530639648e+00,-1.886359453201293945e+00,6.287826299667358398e-01
2.617490530014038086e+00,-1.878915429115295410e+00,7.438667416572570801e-01
2.662699699401855469e+00,-1.854204297065734863e+00,-8.694120049476623535e-01
2.656254529953002930e+00,-1.849716067314147949e+00,-7.472823858261108398e-01
2.675646305084228516e+00,-1.863219738006591797e+00,-6.337704062461853027e-01
2.663309097290039062e+00,-1.854628562927246094e+00,-5.140259861946105957e-01
2.672331809997558594e+00,-1.860911607742309570e+00,-3.998389840126037598e-01
2.664607524871826172e+00,-1.855532765388488770e+00,-2.840769588947296143e-01
2.677861452102661133e+00,-1.864762306213378906e+00,-1.710152626037597656e-01
2.684426546096801758e+00,-1.869334101676940918e+00,-5.709840729832649231e-02
2.673122406005859375e+00,-1.861462235450744629e+00,5.685796588659286499e-02
2.691269159317016602e+00,-1.874098896980285645e+00,1.718714982271194458e-01
2.693516016006469727e+00,-1.875663518905639648e+00,2.871589362621307373e-01
2.684167861938476562e+00,-1.869153976440429688e+00,4.016099274158477783e-01
2.705018043518066406e+00,-1.883673071861267090e+00,5.220758914947509766e-01
2.712655067443847656e+00,-1.888991236686706543e+00,6.425365209579467773e-01
2.705742120742797852e+00,-1.884177327156066895e+00,7.612047195434570312e-01
2.726878643035888672e+00,-1.841509938240051270e+00,-8.816705942153930664e-01
2.749624967575073242e+00,-1.856870889663696289e+00,-7.659945487976074219e-01
2.733201265335083008e+00,-1.845779776573181152e+00,-6.410796642303466797e-01
2.743595600128173828e+00,-1.852799296379089355e+00,-5.243493914604187012e-01
2.749589443206787109e+00,-1.856847047805786133e+00,-4.073800444602966309e-01
2.760215044021606445e+00,-1.864022612571716309e+00,-2.913954854011535645e-01
2.760922908782958984e+00,-1.864500761032104492e+00,-1.745975613594055176e-01
2.758820056915283203e+00,-1.863080739974975586e+00,-5.810760706663131714e-02
2.747529029846191406e+00,-1.855455517768859863e+00,5.786978825926780701e-02
2.762021780014038086e+00,-1.865242838859558105e+00,1.746670603752136230e-01
2.769750118255615234e+00,-1.870461940765380859e+00,2.924021184444427490e-01
2.770336866378784180e+00,-1.870858073234558105e+00,4.104539752006530762e-01
2.778548717498779297e+00,-1.876403808593750000e+00,5.310295224189758301e-01
2.787169694900512695e+00,-1.882225632667541504e+00,6.537380814552307129e-01
2.780717134475708008e+00,-1.877868056297302246e+00,7.746562361717224121e-01
2.807110548019409180e+00,-1.837748646736145020e+00,-8.990146517753601074e-01
2.819804191589355469e+00,-1.846058845520019531e+00,-7.781043648719787598e-01
2.827318668365478516e+00,-1.850978493690490723e+00,-6.568737030029296875e-01
2.831383228302001953e+00,-1.853639364242553711e+00,-5.360015034675598145e-01
2.825042724609375000e+00,-1.849488377571105957e+00,-4.145945608615875244e-01
2.833403110504150391e+00,-1.854961752891540527e+00,-2.962886095046997070e-01
2.836093187332153320e+00,-1.856722831726074219e+00,-1.776524037122726440e-01
2.839983224868774414e+00,-1.859269618988037109e+00,-5.925050750374794006e-02
2.841274976730346680e+00,-1.860115289688110352e+00,5.927745997905731201e-02
2.845645904541015625e+00,-1.862976908683776855e+00,1.782507896423339844e-01
2.852216005325317383e+00,-1.867278099060058594e+00,2.982558906078338623e-01
2.854882001876831055e+00,-1.869023561477661133e+00,4.189736843109130859e-01
2.856333732604980469e+00,-1.869973897933959961e+00,5.407248139381408691e-01
2.860712289810180664e+00,-1.872840404510498047e+00,6.646320223808288574e-01
2.873755931854248047e+00,-1.881379842758178711e+00,7.929919958114624023e-01
2.899576425552368164e+00,-1.839543104171752930e+00,-9.201012253761291504e-01
2.901279926300048828e+00,-1.840623855590820312e+00,-7.932358384132385254e-01
2.913229465484619141e+00,-1.848204851150512695e+00,-6.706185936927795410e-01
2.905892133712768555e+00,-1.843549966812133789e+00,-5.450553894042968750e-01
2.906084299087524414e+00,-1.843671798706054688e+00,-4.225718677043914795e-01
2.916415929794311523e+00,-1.850226402282714844e+00,-3.021689653396606445e-01
2.929933547973632812e+00,-1.858802199363708496e+00,-1.818453222513198853e-01
2.946351766586303711e+00,-1.869218230247497559e+00,-6.090524420142173767e-02
2.939213037490844727e+00,-1.864689230918884277e+00,6.075767800211906433e-02
2.938375711441040039e+00,-1.864158153533935547e+00,1.823692917823791504e-01
2.939429759979248047e+00,-1.864826798439025879e+00,3.045534193515777588e-01
2.946998596191406250e+00,-1.869628548622131348e+00,4.285211861133575439e-01
2.946013212203979492e+00,-1.869003415107727051e+00,5.525808334350585938e-01
2.955412626266479492e+00,-1.874966621398925781e+00,6.803290843963623047e-01
2.958564043045043945e+00,-1.876965880393981934e+00,8.088978528976440430e-01
2.994261503219604492e+00,-1.840045809745788574e+00,-9.416930079460144043e-01
2.992058515548706055e+00,-1.838692069053649902e+00,-8.107768893241882324e-01
2.998201370239257812e+00,-1.842467069625854492e+00,-6.840380430221557617e-01
3.011499166488647461e+00,-1.850638747215270996e+00,-5.598381161689758301e-01
3.001977443695068359e+00,-1.844787478446960449e+00,-4.326317310333251953e-01
3.007877826690673828e+00,-1.848413467407226562e+00,-3.088724613189697266e-01
3.016166687011718750e+00,-1.853507161140441895e+00,-1.855317801237106323e-01
3.014430046081542969e+00,-1.852439880371093750e+00,-6.175809353590011597e-02
3.028330087661743164e+00,-1.860981822013854980e+00,6.204286962747573853e-02
3.019042253494262695e+00,-1.855274200439453125e+00,1.857086569070816040e-01
3.049555063247680664e+00,-1.874025106430053711e+00,3.131521940231323242e-01
3.029371500015258789e+00,-1.861621856689453125e+00,4.365796744823455811e-01
3.037620782852172852e+00,-1.866691112518310547e+00,5.646941065788269043e-01
3.041334390640258789e+00,-1.868973255157470703e+00,6.938788294792175293e-01
3.040199756622314453e+00,-1.868276000022888184e+00,8.238220214843750000e-01
3.086825847625732422e+00,-1.836591124534606934e+00,-9.624383449554443359e-01
3.094379901885986328e+00,-1.841085553169250488e+00,-8.312775492668151855e-01
3.100717067718505859e+00,-1.844856023788452148e+00,-7.013305425643920898e-01
3.102747917175292969e+00,-1.846064329147338867e+00,-5.718305110931396484e-01
3.108615636825561523e+00,-1.849555492401123047e+00,-4.441392123699188232e-01
3.101810455322265625e+00,-1.845506668090820312e+00,-3.157733082771301270e-01
3.114439010620117188e+00,-1.853020310401916504e+00,-1.899257898330688477e-01
3.115454196929931641e+00,-1.853624343872070312e+00,-6.327777355909347534e-02
3.133180618286132812e+00,-1.864171147346496582e+00,6.363781541585922241e-02
3.118670701980590820e+00,-1.855538129806518555e+00,1.901838481426239014e-01
3.119757890701293945e+00,-1.856184959411621094e+00,3.176003992557525635e-01
3.134751796722412109e+00,-1.865105986595153809e+00,4.478733837604522705e-01
3.136790513992309570e+00,-1.866318941116333008e+00,5.781044960021972656e-01
3.140166997909545898e+00,-1.868327856063842773e+00,7.102534174919128418e-01
3.136889219284057617e+00,-1.866377592086791992e+00,8.426972627639770508e-01
3.192230701446533203e+00,-1.837960362434387207e+00,-9.869988560676574707e-01
3.192530632019042969e+00,-1.838132977485656738e+00,-8.504897952079772949e-01
3.186124563217163086e+00,-1.834444761276245117e+00,-7.146361470222473145e-01
3.198422431945800781e+00,-1.841525316238403320e+00,-5.845454931259155273e-01
3.211101770401000977e+00,-1.848825454711914062e+00,-4.549542963504791260e-01
3.195910215377807617e+00,-1.840078830718994141e+00,-3.226385712623596191e-01
3.205153465270996094e+00,-1.845400810241699219e+00,-1.938271224498748779e-01
3.222869873046875000e+00,-1.855601191520690918e+00,-6.491337716579437256e-02
3.198993682861328125e+00,-1.841854095458984375e+00,6.443247199058532715e-02
3.218417406082153320e+00,-1.853037595748901367e+00,1.946292370557785034e-01
3.216691255569458008e+00,-1.852043747901916504e+00,3.247365057468414307e-01
3.229599237442016602e+00,-1.859475731849670410e+00,4.575750827789306641e-01
3.238816738128662109e+00,-1.864782691001892090e+00,5.919279456138610840e-01
3.228964090347290039e+00,-1.859109997749328613e+00,7.242448925971984863e-01
3.243539571762084961e+00,-1.867501854896545410e+00,8.640785813331604004e-01
3.291595458984375000e+00,-1.832950949668884277e+00,-1.009505987167358398e+00
3.287292480468750000e+00,-1.830554842948913574e+00,-8.686653375625610352e-01
3.287842750549316406e+00,-1.830861210823059082e+00,-7.314983010292053223e-01
3.295508146286010742e+00,-1.835129737854003906e+00,-5.974271297454833984e-01
3.309230327606201172e+00,-1.842771053314208984e+00,-4.650726318359375000e-01
3.312027215957641602e+00,-1.844328522682189941e+00,-3.316619992256164551e-01
3.306825637817382812e+00,-1.841431975364685059e+00,-1.983613669872283936e-01
3.329514741897583008e+00,-1.854066610336303711e+00,-6.652002781629562378e-02
3.323189496994018555e+00,-1.850544333457946777e+00,6.639365851879119873e-02
3.316333293914794922e+00,-1.846726417541503906e+00,1.989316940307617188e-01
3.325922489166259766e+00,-1.852066159248352051e+00,3.330534398555755615e-01
3.332561254501342773e+00,-1.855763077735900879e+00,4.683515429496765137e-01
3.327306747436523438e+00,-1.852836966514587402e+00,6.031917333602905273e-01
3.343093872070312500e+00,-1.861628174781799316e+00,7.437908649444580078e-01
3.344674110412597656e+00,-1.862508177757263184e+00,8.838283419609069824e-01
3.397714376449584961e+00,-1.828834176063537598e+00,-1.033917665481567383e+00
3.416778564453125000e+00,-1.839095592498779297e+00,-8.958340883255004883e-01
3.393920898437500000e+00,-1.826792359352111816e+00,-7.492049932479858398e-01
3.413493633270263672e+00,-1.837327480316162109e+00,-6.139857172966003418e-01
3.408628702163696289e+00,-1.834708929061889648e+00,-4.753025472164154053e-01
3.423660278320312500e+00,-1.842799663543701172e+00,-3.401646018028259277e-01
3.412866592407226562e+00,-1.836989879608154297e+00,-2.031242400407791138e-01
3.421115159988403320e+00,-1.841429710388183594e+00,-6.781657040119171143e-02
3.422472238540649414e+00,-1.842160224914550781e+00,6.784347444772720337e-02
3.433363914489746094e+00,-1.848022699356079102e+00,2.043441832065582275e-01
3.436517477035522461e+00,-1.849720120429992676e+00,3.414420485496520996e-01
3.442286252975463867e+00,-1.852825164794921875e+00,4.799957573413848877e-01
3.429923057556152344e+00,-1.846170663833618164e+00,6.169408559799194336e-01
3.457988500595092773e+00,-1.861276984214782715e+00,7.633478641510009766e-01
3.454017162322998047e+00,-1.859139442443847656e+00,9.055975675582885742e-01
3.507301330566406250e+00,-1.823568940162658691e+00,-1.059213638305664062e+00
3.510797739028930664e+00,-1.825386881828308105e+00,-9.135407805442810059e-01
3.509546279907226562e+00,-1.824736118316650391e+00,-7.688848376274108887e-01
3.535046100616455078e+00,-1.837994456291198730e+00,-6.310527324676513672e-01
3.533332824707031250e+00,-1.837103605270385742e+00,-4.889746606349945068e-01
3.527062177658081055e+00,-1.833843350410461426e+00,-3.477947115898132324e-01
3.529442787170410156e+00,-1.835080981254577637e+00,-2.084778696298599243e-01
3.549687623977661133e+00,-1.845607042312622070e+00,-6.983444094657897949e-02
3.561758995056152344e+00,-1.851883411407470703e+00,7.007192820310592651e-02
3.538835287094116211e+00,-1.839964509010314941e+00,2.090326696634292603e-01
3.542055368423461914e+00,-1.841638803482055664e+00,3.492731153964996338e-01
3.558991670608520508e+00,-1.850444555282592773e+00,4.925255477428436279e-01
3.562849044799804688e+00,-1.852450132369995117e+00,6.360158920288085938e-01
3.557199001312255859e+00,-1.849512457847595215e+00,7.793247699737548828e-01
3.573125123977661133e+00,-1.857793092727661133e+00,9.297589063644409180e-01
3.588701248168945312e+00,-1.801120758056640625e+00,-1.075900673866271973e+00
3.647624492645263672e+00,-1.830693602561950684e+00,-9.422294497489929199e-01
3.626220226287841797e+00,-1.819951176643371582e+00,-7.886583209037780762e-01
3.645007371902465820e+00,-1.829380035400390625e+00,-6.459417343139648438e-01
3.647427797317504883e+00,-1.830594778060913086e+00,-5.010867118835449219e-01
3.663562059402465820e+00,-1.838692545890808105e+00,-3.586227297782897949e-01
3.655966758728027344e+00,-1.834880471229553223e+00,-2.143781185150146484e-01
3.660410881042480469e+00,-1.837110996246337891e+00,-7.148810476064682007e-02
3.668772459030151367e+00,-1.841307520866394043e+00,7.165140658617019653e-02
3.678475379943847656e+00,-1.846177220344543457e+00,2.156979739665985107e-01
3.665113925933837891e+00,-1.839471340179443359e+00,3.587746322154998779e-01
3.687936544418334961e+00,-1.850925683975219727e+00,5.066518783569335938e-01
3.677860498428344727e+00,-1.845868587493896484e+00,6.517637372016906738e-01
3.689043998718261719e+00,-1.851481556892395020e+00,8.023217320442199707e-01
3.680884122848510742e+00,-1.847386121749877930e+00,9.508208036422729492e-01
3.630860328674316406e+00,-1.757683038711547852e+00,-1.080886840820312500e+00
3.756296157836914062e+00,-1.818405985832214355e+00,-9.634787440299987793e-01
3.762396574020385742e+00,-1.821359038352966309e+00,-8.125218749046325684e-01
3.762438058853149414e+00,-1.821379184722900391e+00,-6.620641946792602539e-01
3.760550498962402344e+00,-1.820465445518493652e+00,-5.129953622817993164e-01
3.772190570831298828e+00,-1.826100349426269531e+00,-3.666600883007049561e-01
3.785320520401000977e+00,-1.832456469535827637e+00,-2.204025685787200928e-01
3.781267642974853516e+00,-1.830494523048400879e+00,-7.332923263311386108e-02
3.774844408035278320e+00,-1.827385067939758301e+00,7.320466637611389160e-02
3.775731325149536133e+00,-1.827814340591430664e+00,2.198442220687866211e-01
3.788604021072387695e+00,-1.834046006202697754e+00,3.682554960250854492e-01
3.790643453598022461e+00,-1.835033297538757324e+00,5.171004533767700195e-01
3.803835868835449219e+00,-1.841419696807861328e+00,6.693488359451293945e-01
3.799149751663208008e+00,-1.839151144027709961e+00,8.204590678215026855e-01
3.815655946731567383e+00,-1.847141623497009277e+00,9.787043333053588867e-01
3.661082029342651367e+00,-1.708075046539306641e+00,-1.082494616508483887e+00
3.907940626144409180e+00,-1.823246717453002930e+00,-9.955793619155883789e-01
3.905022382736206055e+00,-1.821885228157043457e+00,-8.376057147979736328e-01
3.920807123184204102e+00,-1.829249620437622070e+00,-6.852543950080871582e-01
3.906293630599975586e+00,-1.822478294372558594e+00,-5.292641520500183105e-01
3.913904190063476562e+00,-1.826029062271118164e+00,-3.778555691242218018e-01
3.919525384902954102e+00,-1.828651547431945801e+00,-2.266694903373718262e-01
3.930464506149291992e+00,-1.833755254745483398e+00,-7.570580393075942993e-02
3.932481288909912109e+00,-1.834696173667907715e+00,7.574465125799179077e-02
3.929386854171752930e+00,-1.833252549171447754e+00,2.272398024797439575e-01
3.948156356811523438e+00,-1.842009425163269043e+00,3.811623156070709229e-01
3.940112829208374023e+00,-1.838256716728210449e+00,5.338463187217712402e-01
3.946392059326171875e+00,-1.841186285018920898e+00,6.897259354591369629e-01
3.953540802001953125e+00,-1.844521522521972656e+00,8.480126261711120605e-01
3.962286472320556641e+00,-1.848601698875427246e+00,1.009424328804016113e+00
3.658727884292602539e+00,-1.643631577491760254e+00,-1.074732303619384766e+00
4.034221172332763672e+00,-1.812316656112670898e+00,-1.021037220954895020e+00
4.040792465209960938e+00,-1.815268635749816895e+00,-8.610662221908569336e-01
4.043859481811523438e+00,-1.816646575927734375e+00,-7.021442651748657227e-01
4.047532558441162109e+00,-1.818296551704406738e+00,-5.448185205459594727e-01
4.050558090209960938e+00,-1.819655656814575195e+00,-3.884940743446350098e-01
4.058205604553222656e+00,-1.823091268539428711e+00,-2.331565320491790771e-01
4.058259963989257812e+00,-1.823115825653076172e+00,-7.765673100948333740e-02
4.080091953277587891e+00,-1.832923412322998047e+00,7.807449996471405029e-02
4.072748184204101562e+00,-1.829624414443969727e+00,2.339920401573181152e-01
4.074900627136230469e+00,-1.830591320991516113e+00,3.908288180828094482e-01
4.087684631347656250e+00,-1.836334466934204102e+00,5.502232313156127930e-01
4.084640026092529297e+00,-1.834966659545898438e+00,7.092250585556030273e-01
4.101664066314697266e+00,-1.842614412307739258e+00,8.740376234054565430e-01
4.114711284637451172e+00,-1.848475575447082520e+00,1.041408658027648926e+00
3.707833766937255859e+00,-1.602316737174987793e+00,-1.082309126853942871e+00
4.187719345092773438e+00,-1.809696197509765625e+00,-1.053222894668579102e+00
4.180018424987792969e+00,-1.806368350982666016e+00,-8.851341009140014648e-01
4.193587303161621094e+00,-1.812231898307800293e+00,-7.235637903213500977e-01
4.185359001159667969e+00,-1.808676242828369141e+00,-5.598286390304565430e-01
4.197239398956298828e+00,-1.813810110092163086e+00,-4.000314474105834961e-01
4.221765518188476562e+00,-1.824409127235412598e+00,-2.410285621881484985e-01
4.215570926666259766e+00,-1.821732163429260254e+00,-8.015977591276168823e-02
4.212377071380615234e+00,-1.820351958274841309e+00,8.009904623031616211e-02
4.225760459899902344e+00,-1.826135396957397461e+00,2.412566244602203369e-01
4.233646869659423828e+00,-1.829543471336364746e+00,4.035013914108276367e-01
4.235742092132568359e+00,-1.830448865890502930e+00,5.665678381919860840e-01
4.243077278137207031e+00,-1.833618640899658203e+00,7.321028113365173340e-01
4.231415748596191406e+00,-1.828579187393188477e+00,8.960176110267639160e-01
4.243731975555419922e+00,-1.833901762962341309e+00,1.067310214042663574e+00
3.722545862197875977e+00,-1.545830249786376953e+00,-1.080034255981445312e+00
4.345104694366455078e+00,-1.804355025291442871e+00,-1.086199045181274414e+00
4.347349643707275391e+00,-1.805287241935729980e+00,-9.150016903877258301e-01
4.358803272247314453e+00,-1.810043454170227051e+00,-7.475234866142272949e-01
4.350692272186279297e+00,-1.806675314903259277e+00,-5.784251689910888672e-01
4.354362010955810547e+00,-1.808199286460876465e+00,-4.124975800514221191e-01
4.362666606903076172e+00,-1.811647772789001465e+00,-2.475670576095581055e-01
4.367017269134521484e+00,-1.813454508781433105e+00,-8.253753185272216797e-02
4.372207164764404297e+00,-1.815609693527221680e+00,8.263561874628067017e-02
4.396766185760498047e+00,-1.825807929039001465e+00,2.495020925998687744e-01
4.377169609069824219e+00,-1.817670345306396484e+00,4.146581590175628662e-01
4.398347377777099609e+00,-1.826464653015136719e+00,5.847609639167785645e-01
4.389842510223388672e+00,-1.822932958602905273e+00,7.528466582298278809e-01
4.402978420257568359e+00,-1.828387856483459473e+00,9.267101287841796875e-01
4.410145282745361328e+00,-1.831363797187805176e+00,1.102458000183105469e+00
3.709116220474243164e+00,-1.478375911712646484e+00,-1.069888949394226074e+00
4.447013378143310547e+00,-1.772486329078674316e+00,-1.105219006538391113e+00
4.510965824127197266e+00,-1.797976374626159668e+00,-9.439252614974975586e-01
4.528131484985351562e+00,-1.804818153381347656e+00,-7.720534205436706543e-01
4.524697303771972656e+00,-1.803449392318725586e+00,-5.980659723281860352e-01
4.538879394531250000e+00,-1.809102058410644531e+00,-4.274804294109344482e-01
4.535219669342041016e+00,-1.807643532752990723e+00,-2.558644413948059082e-01
4.536777496337890625e+00,-1.808264374732971191e+00,-8.524811267852783203e-02
4.550964832305908203e+00,-1.813919067382812500e+00,8.551469445228576660e-02
4.556124210357666016e+00,-1.815975666046142578e+00,2.570438086986541748e-01
4.554241657257080078e+00,-1.815225243568420410e+00,4.289273023605346680e-01
4.562536239624023438e+00,-1.818531155586242676e+00,6.030674576759338379e-01
4.575854301452636719e+00,-1.823839664459228516e+00,7.801902890205383301e-01
4.570691108703613281e+00,-1.821781635284423828e+00,9.564228653907775879e-01
4.576962947845458984e+00,-1.824281454086303711e+00,1.137515425682067871e+00
3.748793840408325195e+00,-1.432360768318176270e+00,-1.075309991836547852e+00
4.446212768554687500e+00,-1.698834657669067383e+00,-1.098864197731018066e+00
4.699295043945312500e+00,-1.795533537864685059e+00,-9.778553843498229980e-01
4.703295707702636719e+00,-1.797062277793884277e+00,-7.974518537521362305e-01
4.704234600067138672e+00,-1.797420978546142578e+00,-6.183329820632934570e-01
4.719273567199707031e+00,-1.803167104721069336e+00,-4.419942200183868408e-01
4.730633258819580078e+00,-1.807507514953613281e+00,-2.654023170471191406e-01
4.735207557678222656e+00,-1.809255361557006836e+00,-8.848103135824203491e-02
4.726459980010986328e+00,-1.805912971496582031e+00,8.831757307052612305e-02
4.737445831298828125e+00,-1.810110449790954590e+00,2.657845020294189453e-01
4.753976345062255859e+00,-1.816426634788513184e+00,4.452444016933441162e-01
4.753391265869140625e+00,-1.816203117370605469e+00,6.247942447662353516e-01
4.763909339904785156e+00,-1.820221900939941406e+00,8.077290058135986328e-01
4.769026756286621094e+00,-1.822177171707153320e+00,9.923655986785888672e-01
4.761286735534667969e+00,-1.819219708442687988e+00,1.176733374595642090e+00
3.774947881698608398e+00,-1.380769848823547363e+00,-1.077032685279846191e+00
4.474620819091796875e+00,-1.636690616607666016e+00,-1.099982619285583496e+00
4.862724304199218750e+00,-1.778647899627685547e+00,-1.006462097167968750e+00
4.889267444610595703e+00,-1.788356542587280273e+00,-8.245590925216674805e-01
4.882314205169677734e+00,-1.785813331604003906e+00,-6.383149027824401855e-01
4.907273292541503906e+00,-1.794942617416381836e+00,-4.571487307548522949e-01
4.902967453002929688e+00,-1.793367743492126465e+00,-2.736026346683502197e-01
4.913143634796142578e+00,-1.797089815139770508e+00,-9.131590276956558228e-02
4.912621498107910156e+00,-1.796898961067199707e+00,9.130620211362838745e-02
4.921169281005859375e+00,-1.800025463104248047e+00,2.746183574199676514e-01
4.925776481628417969e+00,-1.801710605621337891e+00,4.588724374771118164e-01
4.933551311492919922e+00,-1.804554343223571777e+00,6.450136303901672363e-01
4.950736999511718750e+00,-1.810840368270874023e+00,8.349257111549377441e-01
4.947126388549804688e+00,-1.809519767761230469e+00,1.023931145668029785e+00
4.947332382202148438e+00,-1.809595108032226562e+00,1.216187834739685059e+00
3.789536476135253906e+00,-1.324927926063537598e+00,-1.075674057006835938e+00
4.519627571105957031e+00,-1.580188155174255371e+00,-1.105373144149780273e+00
5.094600677490234375e+00,-1.781214952468872070e+00,-1.049070239067077637e+00
5.103492736816406250e+00,-1.784323692321777344e+00,-8.562925457954406738e-01
5.097795963287353516e+00,-1.782331943511962891e+00,-6.630837321281433105e-01
5.105431556701660156e+00,-1.785001635551452637e+00,-4.731800258159637451e-01
5.123055458068847656e+00,-1.791163444519042969e+00,-2.844244837760925293e-01
5.130710124969482422e+00,-1.793839812278747559e+00,-9.487266838550567627e-02
5.135650634765625000e+00,-1.795567154884338379e+00,9.496402740478515625e-02
5.143602371215820312e+00,-1.798347115516662598e+00,2.855652272701263428e-01
5.141412734985351562e+00,-1.797581672668457031e+00,4.765148460865020752e-01
5.166819095611572266e+00,-1.806464433670043945e+00,6.720617413520812988e-01
5.169814109802246094e+00,-1.807511687278747559e+00,8.674203753471374512e-01
5.167559146881103516e+00,-1.806723237037658691e+00,1.064093708992004395e+00
5.171161651611328125e+00,-1.807982802391052246e+00,1.264719963073730469e+00
3.827551126480102539e+00,-1.277042627334594727e+00,-1.081165432929992676e+00
4.532993316650390625e+00,-1.512409806251525879e+00,-1.103234648704528809e+00
5.313892364501953125e+00,-1.772952556610107422e+00,-1.088889241218566895e+00
5.323307514190673828e+00,-1.776093959808349609e+00,-8.888178467750549316e-01
5.317218303680419922e+00,-1.774062275886535645e+00,-6.882511377334594727e-01
5.330489635467529297e+00,-1.778490304946899414e+00,-4.916291236877441406e-01
5.335105895996093750e+00,-1.780030369758605957e+00,-2.947524785995483398e-01
5.353837013244628906e+00,-1.786280035972595215e+00,-9.851567447185516357e-02
5.337472438812255859e+00,-1.780820012092590332e+00,9.821454435586929321e-02
5.352272510528564453e+00,-1.785757899284362793e+00,2.957009077072143555e-01
5.357855796813964844e+00,-1.787620782852172852e+00,4.941530525684356689e-01
5.368190765380859375e+00,-1.791069149971008301e+00,6.948489546775817871e-01
5.385962963104248047e+00,-1.796998739242553711e+00,8.992792963981628418e-01
5.374000072479248047e+00,-1.793007254600524902e+00,1.101206064224243164e+00
5.388846397399902344e+00,-1.797960638999938965e+00,1.311531066894531250e+00
3.808359146118164062e+00,-1.210348367691040039e+00,-1.070740938186645508e+00
4.560987949371337891e+00,-1.449543952941894531e+00,-1.104884982109069824e+00
5.566867828369140625e+00,-1.769226312637329102e+00,-1.135421872138977051e+00
5.574573516845703125e+00,-1.771675229072570801e+00,-9.264420270919799805e-01
5.573942184448242188e+00,-1.771474599838256836e+00,-7.181254625320434570e-01
5.594365596771240234e+00,-1.777965545654296875e+00,-5.135665535926818848e-01
5.608407974243164062e+00,-1.782428264617919922e+00,-3.084107041358947754e-01
5.598857402801513672e+00,-1.779393076896667480e+00,-1.025451123714447021e-01
5.610176563262939453e+00,-1.782990455627441406e+00,1.027524322271347046e-01
5.616136550903320312e+00,-1.784884572029113770e+00,3.088357150554656982e-01
5.616064071655273438e+00,-1.784861445426940918e+00,5.155584812164306641e-01
5.630892276763916016e+00,-1.789574146270751953e+00,7.254626750946044922e-01
5.628367900848388672e+00,-1.788771986961364746e+00,9.353821873664855957e-01
5.654525279998779297e+00,-1.797085046768188477e+00,1.153300523757934570e+00
5.652161598205566406e+00,-1.796333789825439453e+00,1.369218468666076660e+00
3.856288433074951172e+00,-1.165084123611450195e+00,-1.079417347908020020e+00
4.561318397521972656e+00,-1.378091812133789062e+00,-1.100074052810668945e+00
5.643245697021484375e+00,-1.704970002174377441e+00,-1.145905137062072754e+00
5.840012550354003906e+00,-1.764418244361877441e+00,-9.662594199180603027e-01
5.830506801605224609e+00,-1.761546373367309570e+00,-7.478551864624023438e-01
5.841667175292968750e+00,-1.764918208122253418e+00,-5.338952541351318359e-01
5.856031894683837891e+00,-1.769258141517639160e+00,-3.206023275852203369e-01
5.848390102386474609e+00,-1.766949415206909180e+00,-1.066412553191184998e-01
5.867732048034667969e+00,-1.772793054580688477e+00,1.069939434528350830e-01
5.866147994995117188e+00,-1.772314548492431641e+00,3.211561441421508789e-01
5.878643035888671875e+00,-1.776089549064636230e+00,5.372745990753173828e-01
5.887224197387695312e+00,-1.778682231903076172e+00,7.551301121711730957e-01
5.892154693603515625e+00,-1.780171751976013184e+00,9.748865962028503418e-01
5.908881664276123047e+00,-1.785225391387939453e+00,1.199844598770141602e+00
5.902665138244628906e+00,-1.783347249031066895e+00,1.423572778701782227e+00
3.856967449188232422e+00,-1.105302810668945312e+00,-1.075068831443786621e+00
4.592299461364746094e+00,-1.316029191017150879e+00,-1.102890014648437500e+00
5.641834259033203125e+00,-1.616797566413879395e+00,-1.140802502632141113e+00
6.120314598083496094e+00,-1.753917098045349121e+00,-1.008379817008972168e+00
6.120529174804687500e+00,-1.753978610038757324e+00,-7.817549109458923340e-01
6.120634078979492188e+00,-1.754008650779724121e+00,-5.570396184921264648e-01
6.119154453277587891e+00,-1.753584742546081543e+00,-3.335992693901062012e-01
6.131191253662109375e+00,-1.757034182548522949e+00,-1.113279536366462708e-01
6.150501251220703125e+00,-1.762567758560180664e+00,1.116785779595375061e-01
6.156628131866455078e+00,-1.764323592185974121e+00,3.356422185897827148e-01
6.158145427703857422e+00,-1.764758467674255371e+00,5.604535341262817383e-01
6.165702342987060547e+00,-1.766924023628234863e+00,7.875247001647949219e-01
6.173986434936523438e+00,-1.769298076629638672e+00,1.017222762107849121e+00
6.184082508087158203e+00,-1.772191286087036133e+00,1.250447392463684082e+00
3.880730867385864258e+00,-1.052249908447265625e+00,-1.077384114265441895e+00
4.600651741027832031e+00,-1.247454643249511719e+00,-1.100494980812072754e+00
5.644253253936767578e+00,-1.530424475669860840e+00,-1.136745810508728027e+00
6.428783416748046875e+00,-1.743147730827331543e+00,-1.054984092712402344e+00
6.430591583251953125e+00,-1.743638038635253906e+00,-8.180866241455078125e-01
6.442567825317382812e+00,-1.746885299682617188e+00,-5.840034484863281250e-01
6.445667743682861328e+00,-1.747725844383239746e+00,-3.500001728534698486e-01
6.462026119232177734e+00,-1.752161383628845215e+00,-1.168677732348442078e-01
6.457616806030273438e+00,-1.750965833663940430e+00,1.167880371212959290e-01
6.462504863739013672e+00,-1.752291202545166016e+00,3.509144484996795654e-01
6.478951930999755859e+00,-1.756750822067260742e+00,5.873015522956848145e-01
6.482652187347412109e+00,-1.757753968238830566e+00,8.247096538543701172e-01
6.486351013183593750e+00,-1.758756995201110840e+00,1.064431071281433105e+00
6.491485595703125000e+00,-1.760149240493774414e+00,1.307377338409423828e+00
3.924749135971069336e+00,-1.004111647605895996e+00,-1.085503339767456055e+00
4.633573532104492188e+00,-1.185457944869995117e+00,-1.104198098182678223e+00
5.699067115783691406e+00,-1.458054900169372559e+00,-1.143464922904968262e+00
6.768539905548095703e+00,-1.731669783592224121e+00,-1.106558322906494141e+00
6.772399902343750000e+00,-1.732657432556152344e+00,-8.583278059959411621e-01
6.769462108612060547e+00,-1.731905817985534668e+00,-6.113258600234985352e-01
6.788428306579589844e+00,-1.736758112907409668e+00,-3.672246634960174561e-01
6.801624298095703125e+00,-1.740134239196777344e+00,-1.225465089082717896e-01
6.811449527740478516e+00,-1.742647886276245117e+00,1.227235347032546997e-01
6.793934345245361328e+00,-1.738166809082031250e+00,3.675225079059600830e-01
6.808106422424316406e+00,-1.741792678833007812e+00,6.148157119750976562e-01
6.824656963348388672e+00,-1.746026992797851562e+00,8.649508357048034668e-01
6.834184646606445312e+00,-1.748464465141296387e+00,1.117290258407592773e+00
6.833639144897460938e+00,-1.748324871063232422e+00,1.371106266975402832e+00
3.901695251464843750e+00,-9.389284253120422363e-01,-1.075299859046936035e+00
4.631508350372314453e+00,-1.114555239677429199e+00,-1.099791526794433594e+00
5.692474365234375000e+00,-1.369872808456420898e+00,-1.138091564178466797e+00
7.141174793243408203e+00,-1.718497157096862793e+00,-1.163338303565979004e+00
7.161612033843994141e+00,-1.723415255546569824e+00,-9.044371843338012695e-01
7.161800384521484375e+00,-1.723460555076599121e+00,-6.444627642631530762e-01
7.155935764312744141e+00,-1.722049355506896973e+00,-3.857323229312896729e-01
7.172015190124511719e+00,-1.725918650627136230e+00,-1.287616491317749023e-01
7.190084457397460938e+00,-1.730267047882080078e+00,1.290860474109649658e-01
7.180650234222412109e+00,-1.727996706962585449e+00,3.870645463466644287e-01
7.194748878479003906e+00,-1.731389522552490234e+00,6.474276781082153320e-01
7.205850124359130859e+00,-1.734061002731323242e+00,9.100239276885986328e-01
7.214081287384033203e+00,-1.736041784286499023e+00,1.175215125083923340e+00
3.923622369766235352e+00,-8.849961757659912109e-01,-1.077741503715515137e+00
4.676456928253173828e+00,-1.054802417755126953e+00,-1.106766462326049805e+00
5.698367595672607422e+00,-1.285300374031066895e+00,-1.135475277900695801e+00
7.397355556488037109e+00,-1.668517112731933594e+00,-1.201057910919189453e+00
7.566339492797851562e+00,-1.706632494926452637e+00,-9.523674845695495605e-01
7.576871395111083984e+00,-1.709007978439331055e+00,-6.795426011085510254e-01
7.588144302368164062e+00,-1.711550593376159668e+00,-4.076676964759826660e-01
7.603807926177978516e+00,-1.715083718299865723e+00,-1.360590904951095581e-01
7.607680320739746094e+00,-1.715957045555114746e+00,1.361283808946609497e-01
7.612975120544433594e+00,-1.717151403427124023e+00,4.090017378330230713e-01
7.633186340332031250e+00,-1.721710085868835449e+00,6.845932602882385254e-01
7.639119148254394531e+00,-1.723048329353332520e+00,9.615281820297241211e-01
7.635206699371337891e+00,-1.722165822982788086e+00,1.239676237106323242e+00
3.923079490661621094e+00,-8.260539770126342773e-01,-1.074234604835510254e+00
4.676986217498779297e+00,-9.847984910011291504e-01,-1.103442668914794922e+00
5.752298355102539062e+00,-1.211219072341918945e+00,-1.142650127410888672e+00
7.403652191162109375e+00,-1.558932423591613770e+00,-1.198334693908691406e+00
8.044739723205566406e+00,-1.693921566009521484e+00,-1.009428024291992188e+00
8.063061714172363281e+00,-1.697779417037963867e+00,-7.208939194679260254e-01
8.062169075012207031e+00,-1.697591662406921387e+00,-4.317847490310668945e-01
8.075130462646484375e+00,-1.700320839881896973e+00,-1.440424919128417969e-01
8.086940765380859375e+00,-1.702807545661926270e+00,1.442531645298004150e-01
8.098199844360351562e+00,-1.705178380012512207e+00,4.337144196033477783e-01
8.107331275939941406e+00,-1.707101106643676758e+00,7.248519659042358398e-01
8.104518890380859375e+00,-1.706508874893188477e+00,1.016928911209106445e+00
8.132363319396972656e+00,-1.712371945381164551e+00,1.316281914710998535e+00
3.931236982345581055e+00,-7.691837549209594727e-01,-1.073343634605407715e+00
4.675405025482177734e+00,-9.147872924804687500e-01,-1.099867701530456543e+00
5.767482757568359375e+00,-1.128462672233581543e+00,-1.142340779304504395e+00
7.401254653930664062e+00,-1.448125720024108887e+00,-1.194469332695007324e+00
8.594508171081542969e+00,-1.681596994400024414e+00,-1.075280904769897461e+00
8.597738265991210938e+00,-1.682229042053222656e+00,-7.664664387702941895e-01
8.621070861816406250e+00,-1.686794281005859375e+00,-4.603775441646575928e-01
8.634226799011230469e+00,-1.689368367195129395e+00,-1.535684764385223389e-01
8.638140678405761719e+00,-1.690134167671203613e+00,1.536380946636199951e-01
8.645481109619140625e+00,-1.691570401191711426e+00,4.616810977458953857e-01
8.654325485229492188e+00,-1.693300843238830566e+00,7.715110778808593750e-01
8.661224365234375000e+00,-1.694650650024414062e+00,1.083627939224243164e+00
3.959041833877563477e+00,-7.159513831138610840e-01,-1.078026771545410156e+00
4.700386524200439453e+00,-8.500158190727233887e-01,-1.102769374847412109e+00
5.759639739990234375e+00,-1.041570782661437988e+00,-1.137718081474304199e+00
7.510356903076171875e+00,-1.358169674873352051e+00,-1.208815932273864746e+00
9.211588859558105469e+00,-1.665819764137268066e+00,-1.149384617805480957e+00
9.219347953796386719e+00,-1.667222976684570312e+00,-8.196700811386108398e-01
9.245300292968750000e+00,-1.671916127204895020e+00,-4.923838973045349121e-01
9.234766960144042969e+00,-1.670011162757873535e+00,-1.638077646493911743e-01
9.250315666198730469e+00,-1.672823071479797363e+00,1.640835702419281006e-01
9.254140853881835938e+00,-1.673514723777770996e+00,4.928547143936157227e-01
9.275949478149414062e+00,-1.677458763122558594e+00,8.247023224830627441e-01
9.290799140930175781e+00,-1.680144071578979492e+00,1.159268140792846680e+00
3.950151920318603516e+00,-6.561051607131958008e-01,-1.072939157485961914e+00
4.717140197753906250e+00,-7.834989428520202637e-01,-1.103955864906311035e+00
5.826185226440429688e+00,-9.677070379257202148e-01,-1.148009300231933594e+00
7.493933200836181641e+00,-1.244713664054870605e+00,-1.203181624412536621e+00
9.845394134521484375e+00,-1.635282397270202637e+00,-1.225422143936157227e+00
9.860148429870605469e+00,-1.637732982635498047e+00,-8.744683861732482910e-01
9.868282318115234375e+00,-1.639083981513977051e+00,-5.242593288421630859e-01
9.883349418640136719e+00,-1.641586542129516602e+00,-1.748777180910110474e-01
9.898102760314941406e+00,-1.644037127494812012e+00,1.751387715339660645e-01
9.895348548889160156e+00,-1.643579602241516113e+00,5.256972908973693848e-01
