-6.084137558937072754e-01,9.221211671829223633e-01,9.665304422378540039e-02
-6.150275468826293945e-01,9.321450591087341309e-01,1.371207088232040405e-01
-6.061134338378906250e-01,9.186347126960754395e-01,1.743135452270507812e-01
-6.050236821174621582e-01,9.169830083847045898e-01,2.135449647903442383e-01
-6.153798699378967285e-01,9.326790571212768555e-01,2.579717040061950684e-01
-6.174064278602600098e-01,9.072321057319641113e-01,-2.940438091754913330e-01
-6.206237673759460449e-01,9.119597673416137695e-01,-2.546718716621398926e-01
-6.210466623306274414e-01,9.125812053680419922e-01,-2.145680189132690430e-01
-6.164035201072692871e-01,9.057584404945373535e-01,-1.735266149044036865e-01
-6.245427727699279785e-01,9.177184104919433594e-01,-1.362995505332946777e-01
-6.244770884513854980e-01,9.176219701766967773e-01,-9.710840135812759399e-02
-6.246019601821899414e-01,9.178053736686706543e-01,-5.818185582756996155e-02
-6.197818517684936523e-01,9.107226133346557617e-01,-1.922865025699138641e-02
-6.273726224899291992e-01,9.218766689300537109e-01,1.946415379643440247e-02
-6.286462545394897461e-01,9.237481951713562012e-01,5.855858698487281799e-02
-6.294500827789306641e-01,9.249293804168701172e-01,9.788171201944351196e-02
-6.316530704498291016e-01,9.281665086746215820e-01,1.378512978553771973e-01
-6.374090909957885742e-01,9.366245269775390625e-01,1.794399917125701904e-01
-6.292817592620849609e-01,9.246819615364074707e-01,2.174131721258163452e-01
-6.367476582527160645e-01,9.356526136398315430e-01,2.612882852554321289e-01
-6.401237249374389648e-01,9.122638106346130371e-01,-2.986136972904205322e-01
-6.437309980392456055e-01,9.174047112464904785e-01,-2.587389945983886719e-01
-6.384430527687072754e-01,9.098685979843139648e-01,-2.160567194223403931e-01
-6.316805481910705566e-01,9.002311825752258301e-01,-1.741820573806762695e-01
-6.423559188842773438e-01,9.154449701309204102e-01,-1.373133808374404907e-01
-6.366180777549743652e-01,9.072678089141845703e-01,-9.696704149246215820e-02
-6.347565054893493652e-01,9.046148061752319336e-01,-5.791569501161575317e-02
-6.385643482208251953e-01,9.100415110588073730e-01,-1.940526254475116730e-02
-6.369323134422302246e-01,9.077156782150268555e-01,1.935566775500774384e-02
-6.465767025947570801e-01,9.214602112770080566e-01,5.899418517947196960e-02
-6.477130055427551270e-01,9.230796098709106445e-01,9.865697473287582397e-02
-6.467158198356628418e-01,9.216584563255310059e-01,1.382453739643096924e-01
-6.474376916885375977e-01,9.226872324943542480e-01,1.785269826650619507e-01
-6.450029015541076660e-01,9.192172884941101074e-01,2.182766497135162354e-01
-6.418636441230773926e-01,9.147434830665588379e-01,2.579884231090545654e-01
-6.538954377174377441e-01,9.040887355804443359e-01,-2.989707589149475098e-01
-6.575608849525451660e-01,9.091566801071166992e-01,-2.590407431125640869e-01
-6.522929668426513672e-01,9.018731713294982910e-01,-2.163530141115188599e-01
-6.538931131362915039e-01,9.040855169296264648e-01,-1.767206341028213501e-01
-6.501215100288391113e-01,8.988708257675170898e-01,-1.362091451883316040e-01
-6.560706496238708496e-01,9.070962071418762207e-01,-9.794231504201889038e-02
-6.587444543838500977e-01,9.107931256294250488e-01,-5.890887603163719177e-02
-6.539888381958007812e-01,9.042178392410278320e-01,-1.947869174182415009e-02
-6.575429439544677734e-01,9.091318845748901367e-01,1.958454959094524384e-02
-6.628344058990478516e-01,9.164479374885559082e-01,5.927462130784988403e-02
-6.643262505531311035e-01,9.185105562210083008e-01,9.917476773262023926e-02
-6.741948127746582031e-01,9.321550726890563965e-01,1.412528306245803833e-01
-6.657910943031311035e-01,9.205359220504760742e-01,1.799361705780029297e-01
-6.774452328681945801e-01,9.366491436958312988e-01,2.246955335140228271e-01
-6.671547293663024902e-01,9.224212765693664551e-01,2.628201246261596680e-01
-6.689945459365844727e-01,8.976253271102905273e-01,-2.999692261219024658e-01
-6.760090589523315430e-01,9.070370793342590332e-01,-2.611669898033142090e-01
-6.775999665260314941e-01,9.091716408729553223e-01,-2.204079777002334595e-01
-6.746598482131958008e-01,9.052267670631408691e-01,-1.788129806518554688e-01
-6.846067905426025391e-01,9.185730814933776855e-01,-1.406651884317398071e-01
-6.782452464103698730e-01,9.100375175476074219e-01,-9.929794073104858398e-02
-6.836656332015991211e-01,9.173103570938110352e-01,-5.995718017220497131e-02
-6.798529624938964844e-01,9.121946692466735840e-01,-1.985812187194824219e-02
-6.752288937568664551e-01,9.059903025627136230e-01,1.972305402159690857e-02
-6.712990403175354004e-01,9.007174372673034668e-01,5.887263640761375427e-02
-6.840119957923889160e-01,9.177750945091247559e-01,1.001422181725502014e-01
-6.903887987136840820e-01,9.263311624526977539e-01,1.418532133102416992e-01
-6.870715022087097168e-01,9.218801856040954590e-01,1.821026057004928589e-01
-6.884553432464599609e-01,9.237369298934936523e-01,2.239390015602111816e-01
-6.883395910263061523e-01,9.235816597938537598e-01,2.659307420253753662e-01
-6.963587403297424316e-01,9.069558382034301758e-01,-3.063867688179016113e-01
-7.006769776344299316e-01,9.125800132751464844e-01,-2.656235098838806152e-01
-7.052481770515441895e-01,9.185336828231811523e-01,-2.251017242670059204e-01
-6.978978514671325684e-01,9.089604020118713379e-01,-1.815051436424255371e-01
-7.008036971092224121e-01,9.127451181411743164e-01,-1.412943303585052490e-01
-6.951660513877868652e-01,9.054024219512939453e-01,-9.986767172813415527e-02
-6.958346366882324219e-01,9.062731862068176270e-01,-5.988063290715217590e-02
-6.953245401382446289e-01,9.056088924407958984e-01,-1.992937177419662476e-02
-7.071198225021362305e-01,9.209713339805603027e-01,2.026744745671749115e-02
-7.006295323371887207e-01,9.125182032585144043e-01,6.029326096177101135e-02
-7.005153298377990723e-01,9.123694896697998047e-01,1.006361469626426697e-01
-6.966416239738464355e-01,9.073242545127868652e-01,1.404551714658737183e-01
-7.004719972610473633e-01,9.123130440711975098e-01,1.821746081113815308e-01
-7.018859386444091797e-01,9.141545891761779785e-01,2.240285575389862061e-01
-7.077446579933166504e-01,9.217851758003234863e-01,2.683028280735015869e-01
-7.091426849365234375e-01,8.967384696006774902e-01,-3.063327372074127197e-01
-7.127767801284790039e-01,9.013339281082153320e-01,-2.652925252914428711e-01
-7.202049493789672852e-01,9.107271432876586914e-01,-2.256917804479598999e-01
-7.153317928314208984e-01,9.045648574829101562e-01,-1.826532632112503052e-01
-7.149284482002258301e-01,9.040548205375671387e-01,-1.415186673402786255e-01
-7.148121595382690430e-01,9.039077162742614746e-01,-1.008210182189941406e-01
-7.183774113655090332e-01,9.084161520004272461e-01,-6.069540232419967651e-02
-7.247951030731201172e-01,9.165316224098205566e-01,-2.039595879614353180e-02
-7.149606347084045410e-01,9.040954709053039551e-01,2.011921256780624390e-02
-7.056676745414733887e-01,8.923442363739013672e-01,5.962156504392623901e-02
-7.174613475799560547e-01,9.072577953338623047e-01,1.011946797370910645e-01
-7.293341159820556641e-01,9.222713112831115723e-01,1.443702280521392822e-01
-7.233149409294128418e-01,9.146598577499389648e-01,1.846916824579238892e-01
-7.211341261863708496e-01,9.119021296501159668e-01,2.259829491376876831e-01
-7.189071178436279297e-01,9.090860486030578613e-01,2.675742208957672119e-01
-7.344256043434143066e-01,9.018737077713012695e-01,-3.116461038589477539e-01
-7.300215363502502441e-01,8.964655399322509766e-01,-2.669077813625335693e-01
-7.335802912712097168e-01,9.008356928825378418e-01,-2.258194684982299805e-01
-7.284021973609924316e-01,8.944770097732543945e-01,-1.827028095722198486e-01
-7.291199564933776855e-01,8.953583836555480957e-01,-1.417764872312545776e-01
-7.353717088699340820e-01,9.030355215072631836e-01,-1.018873304128646851e-01
-7.278401851654052734e-01,8.937867879867553711e-01,-6.040783226490020752e-02
-7.368444204330444336e-01,9.048439860343933105e-01,-2.036848478019237518e-02
-7.328785061836242676e-01,8.999738693237304688e-01,2.025885507464408875e-02
-7.352442741394042969e-01,9.028790593147277832e-01,6.102234497666358948e-02
-7.396569252014160156e-01,9.082977771759033203e-01,1.024810522794723511e-01
-7.424976825714111328e-01,9.117861986160278320e-01,1.443777680397033691e-01
-7.453154325485229492e-01,9.152464270591735840e-01,1.869451105594635010e-01
-7.442001104354858398e-01,9.138767719268798828e-01,2.290885746479034424e-01
-7.388209104537963867e-01,9.072711467742919922e-01,2.701249718666076660e-01
-7.529454231262207031e-01,8.980537652969360352e-01,-3.140180408954620361e-01
-7.452454566955566406e-01,8.888698220252990723e-01,-2.677947878837585449e-01
-7.567296624183654785e-01,9.025673270225524902e-01,-2.289452999830245972e-01
-7.526148557662963867e-01,8.976594805717468262e-01,-1.855342090129852295e-01
-7.561469078063964844e-01,9.018722772598266602e-01,-1.445069164037704468e-01
-7.558702826499938965e-01,9.015423059463500977e-01,-1.029290035367012024e-01
-7.578373551368713379e-01,9.038884639739990234e-01,-6.181736290454864502e-02
-7.610955834388732910e-01,9.077746272087097168e-01,-2.067756466567516327e-02
-7.613902091979980469e-01,9.081259965896606445e-01,2.068556845188140869e-02
-7.642316818237304688e-01,9.115151166915893555e-01,6.233895197510719299e-02
-7.589494585990905762e-01,9.052149057388305664e-01,1.033482998609542847e-01
-7.569735646247863770e-01,9.028581976890563965e-01,1.446648985147476196e-01
-7.568098306655883789e-01,9.026629328727722168e-01,1.865683495998382568e-01
-7.579989433288574219e-01,9.040811657905578613e-01,2.293293029069900513e-01
-7.686076760292053223e-01,9.167344570159912109e-01,2.761897146701812744e-01
-7.686452865600585938e-01,8.905735015869140625e-01,-3.152171969413757324e-01
-7.759752869606018066e-01,8.990662097930908203e-01,-2.741848528385162354e-01
-7.739078998565673828e-01,8.966708779335021973e-01,-2.302358895540237427e-01
-7.734599113464355469e-01,8.961519002914428711e-01,-1.874916106462478638e-01
-7.694231867790222168e-01,8.914748430252075195e-01,-1.445907652378082275e-01
-7.766737937927246094e-01,8.998755216598510742e-01,-1.039972677826881409e-01
-7.784124016761779785e-01,9.018899202346801758e-01,-6.243627890944480896e-02
-7.743276953697204590e-01,8.971573114395141602e-01,-2.068606019020080566e-02
-7.817896604537963867e-01,9.058029055595397949e-01,2.088540419936180115e-02
-7.811719179153442383e-01,9.050872325897216797e-01,6.265761703252792358e-02
-7.772787809371948242e-01,9.005765318870544434e-01,1.040782779455184937e-01
-7.874478697776794434e-01,9.123586416244506836e-01,1.479779630899429321e-01
-7.910189032554626465e-01,9.164962172508239746e-01,1.917480230331420898e-01
-7.816517949104309082e-01,9.056432247161865234e-01,2.325396984815597534e-01
-7.824579477310180664e-01,9.065771698951721191e-01,2.764754593372344971e-01
-7.917760610580444336e-01,8.912597894668579102e-01,-3.194386959075927734e-01
-7.940186262130737305e-01,8.937841057777404785e-01,-2.760117053985595703e-01
-7.879579067230224609e-01,8.869618773460388184e-01,-2.306152433156967163e-01
-7.905019521713256836e-01,8.898255825042724609e-01,-1.885159760713577271e-01
-8.022301793098449707e-01,9.030274152755737305e-01,-1.483117192983627319e-01
-7.915558218955993652e-01,8.910118937492370605e-01,-1.042716056108474731e-01
-7.988074421882629395e-01,8.991745710372924805e-01,-6.303337961435317993e-02
-7.960268855094909668e-01,8.960447311401367188e-01,-2.092097699642181396e-02
-8.033238053321838379e-01,9.042584300041198730e-01,2.111275121569633484e-02
-7.956693172454833984e-01,8.956421613693237305e-01,6.278575211763381958e-02
-7.924296259880065918e-01,8.919954895973205566e-01,1.043867170810699463e-01
-7.972669005393981934e-01,8.974405527114868164e-01,1.473941504955291748e-01
-8.043245673179626465e-01,9.053848981857299805e-01,1.918123513460159302e-01
-8.062398433685302734e-01,9.075409173965454102e-01,2.359659075736999512e-01
-8.074147105216979980e-01,9.088633656501770020e-01,2.806683778762817383e-01
-8.065140843391418457e-01,8.820933699607849121e-01,-3.202580511569976807e-01
-8.186295032501220703e-01,8.953441381454467773e-01,-2.800832688808441162e-01
-8.098689317703247070e-01,8.857626318931579590e-01,-2.332935184240341187e-01
-8.182091116905212402e-01,8.948843479156494141e-01,-1.920492053031921387e-01
-8.226834535598754883e-01,8.997779488563537598e-01,-1.496966928243637085e-01
-8.053842186927795410e-01,8.808576464653015137e-01,-1.044216603040695190e-01
-8.248977065086364746e-01,9.021996855735778809e-01,-6.406657397747039795e-02
-8.182543516159057617e-01,8.949338197708129883e-01,-2.116632647812366486e-02
-8.189836740493774414e-01,8.957315087318420410e-01,2.118519134819507599e-02
-8.185884356498718262e-01,8.952992558479309082e-01,6.357656419277191162e-02
-8.262391686439514160e-01,9.036669135093688965e-01,1.071255952119827271e-01
-8.240703344345092773e-01,9.012948274612426758e-01,1.499490439891815186e-01
-8.198664784431457520e-01,8.966970443725585938e-01,1.924382150173187256e-01
-8.188229203224182129e-01,8.955556750297546387e-01,2.358728349208831787e-01
-8.308983445167541504e-01,9.087627530097961426e-01,2.842808961868286133e-01
-8.374177813529968262e-01,8.899743556976318359e-01,-3.274376690387725830e-01
-8.293410539627075195e-01,8.813907504081726074e-01,-2.794031500816345215e-01
-8.426060080528259277e-01,8.954882025718688965e-01,-2.390071302652359009e-01
-8.450958728790283203e-01,8.981343507766723633e-01,-1.953226178884506226e-01
-8.238727450370788574e-01,8.755792975425720215e-01,-1.476175338029861450e-01
-8.470020890235900879e-01,9.001601934432983398e-01,-1.081359982490539551e-01
-8.387522697448730469e-01,8.913926482200622559e-01,-6.414510309696197510e-02
-8.279803395271301270e-01,8.799446821212768555e-01,-2.108995057642459869e-02
-8.413471579551696777e-01,8.941503167152404785e-01,2.143042348325252533e-02
-8.452490568161010742e-01,8.982971310615539551e-01,6.464195996522903442e-02
-8.339792490005493164e-01,8.863200545310974121e-01,1.064733862876892090e-01
-8.557016253471374512e-01,9.094057679176330566e-01,1.533204764127731323e-01
-8.499279618263244629e-01,9.032697081565856934e-01,1.964394301176071167e-01
-8.428323268890380859e-01,8.957287073135375977e-01,2.390713095664978027e-01
-8.490877151489257812e-01,9.023767113685607910e-01,2.860557436943054199e-01
-8.473134636878967285e-01,8.750520348548889160e-01,-3.263761699199676514e-01
-8.603442311286926270e-01,8.885093331336975098e-01,-2.855342328548431396e-01
-8.555539846420288086e-01,8.835623264312744141e-01,-2.390680611133575439e-01
-8.575126528739929199e-01,8.855851292610168457e-01,-1.952427625656127930e-01
-8.602876067161560059e-01,8.884509205818176270e-01,-1.518480777740478516e-01
-8.651164174079895020e-01,8.934378027915954590e-01,-1.088048368692398071e-01
-8.601759672164916992e-01,8.883355855941772461e-01,-6.480446457862854004e-02
-8.674222230911254883e-01,8.958190679550170898e-01,-2.176576294004917145e-02
-8.743795156478881836e-01,9.030041098594665527e-01,2.194033749401569366e-02
-8.698811531066894531e-01,8.983585238456726074e-01,6.553564220666885376e-02
-8.674632310867309570e-01,8.958614468574523926e-01,1.090999990701675415e-01
-8.634775876998901367e-01,8.917453289031982422e-01,1.524111330509185791e-01
-8.711571693420410156e-01,8.996763229370117188e-01,1.983494013547897339e-01
-8.631891012191772461e-01,8.914473652839660645e-01,2.412015348672866821e-01
-8.665871620178222656e-01,8.949566483497619629e-01,2.876061797142028809e-01
-8.733739852905273438e-01,8.765081167221069336e-01,-3.315478861331939697e-01
-8.821672201156616211e-01,8.853328824043273926e-01,-2.885417044162750244e-01
-8.851764798164367676e-01,8.883529901504516602e-01,-2.437674552202224731e-01
-8.828080296516418457e-01,8.859760165214538574e-01,-1.980944722890853882e-01
-8.719848990440368652e-01,8.751140236854553223e-01,-1.516862809658050537e-01
-8.847938776016235352e-01,8.879689574241638184e-01,-1.096699014306068420e-01
-8.870906233787536621e-01,8.902739882469177246e-01,-6.586540490388870239e-02
-8.871593475341796875e-01,8.903429508209228516e-01,-2.193899266421794891e-02
-8.857243657112121582e-01,8.889028429985046387e-01,2.190350741147994995e-02
-8.802067041397094727e-01,8.833653330802917480e-01,6.535428017377853394e-02
-8.837547898292541504e-01,8.869261145591735840e-01,1.095411106944084167e-01
-8.954083323478698730e-01,8.986215591430664062e-01,1.557609140872955322e-01
-8.943843245506286621e-01,8.975938558578491211e-01,2.006921023130416870e-01
-9.060190916061401367e-01,9.092703461647033691e-01,2.495072633028030396e-01
-8.898770809173583984e-01,8.930703997611999512e-01,2.910634577274322510e-01
-9.077575206756591797e-01,8.853046894073486328e-01,-3.397552669048309326e-01
-9.027215838432312012e-01,8.803932666778564453e-01,-2.911131381988525391e-01
-9.013708829879760742e-01,8.790760040283203125e-01,-2.447370290756225586e-01
-8.973477482795715332e-01,8.751523494720458984e-01,-1.985259056091308594e-01
-9.060471057891845703e-01,8.836365342140197754e-01,-1.553955078125000000e-01
-8.960664272308349609e-01,8.739027380943298340e-01,-1.095054894685745239e-01
-9.064555168151855469e-01,8.840348124504089355e-01,-6.635690480470657349e-02
-9.067547917366027832e-01,8.843266963958740234e-01,-2.210829406976699829e-02
-9.112137556076049805e-01,8.886753916740417480e-01,2.221701107919216156e-02
-9.127013087272644043e-01,8.901261687278747559e-01,6.681413203477859497e-02
-9.176464676856994629e-01,8.949490189552307129e-01,1.121427193284034729e-01
-9.101403355598449707e-01,8.876284956932067871e-01,1.560975164175033569e-01
-9.047020673751831055e-01,8.823247551918029785e-01,2.001529484987258911e-01
-9.136516451835632324e-01,8.910530209541320801e-01,2.480714619159698486e-01
-9.228718280792236328e-01,9.000450968742370605e-01,2.976112663745880127e-01
-9.265047907829284668e-01,8.780693411827087402e-01,-3.420329093933105469e-01
-9.222389459609985352e-01,8.740265369415283203e-01,-2.933427393436431885e-01
-9.260120987892150879e-01,8.776024580001831055e-01,-2.479914575815200806e-01
-9.291275143623352051e-01,8.805549740791320801e-01,-2.027475535869598389e-01
-9.216515421867370605e-01,8.734698295593261719e-01,-1.559115499258041382e-01
-9.284490942955017090e-01,8.799120187759399414e-01,-1.119122579693794250e-01
-9.163534045219421387e-01,8.684486746788024902e-01,-6.616473197937011719e-02
-9.273545742034912109e-01,8.788747191429138184e-01,-2.230155281722545624e-02
-9.226153492927551270e-01,8.743832707405090332e-01,2.218758128583431244e-02
-9.270556569099426270e-01,8.785914182662963867e-01,6.693748384714126587e-02
-9.401323795318603516e-01,8.909845948219299316e-01,1.133205294609069824e-01
-9.347798228263854980e-01,8.859118223190307617e-01,1.581324040889739990e-01
-9.423032999038696289e-01,8.930419683456420898e-01,2.056226730346679688e-01
-9.397301077842712402e-01,8.906033039093017578e-01,2.516652345657348633e-01
-9.366545677185058594e-01,8.876885175704956055e-01,2.979280054569244385e-01
-9.514393210411071777e-01,8.761962652206420898e-01,-3.465725183486938477e-01
-9.575071334838867188e-01,8.817842006683349609e-01,-3.005153834819793701e-01
-9.545103311538696289e-01,8.790243864059448242e-01,-2.522281110286712646e-01
-9.502033591270446777e-01,8.750579953193664551e-01,-2.045924812555313110e-01
-9.413059949874877930e-01,8.668642640113830566e-01,-1.571213304996490479e-01
-9.493172764778137207e-01,8.742420077323913574e-01,-1.129077523946762085e-01
-9.577825665473937988e-01,8.820378184318542480e-01,-6.823752820491790771e-02
-9.541653990745544434e-01,8.787067532539367676e-01,-2.264152839779853821e-02
-9.678179621696472168e-01,8.912795782089233398e-01,2.296549081802368164e-02
-9.476608633995056152e-01,8.727166056632995605e-01,6.751640141010284424e-02
-9.580874443054199219e-01,8.823186159133911133e-01,1.139508411288261414e-01
-9.629070758819580078e-01,8.867570757865905762e-01,1.607269644737243652e-01
-9.748238325119018555e-01,8.977313637733459473e-01,2.098936140537261963e-01
-9.682791829109191895e-01,8.917043209075927734e-01,2.558664977550506592e-01
-9.624849557876586914e-01,8.863683342933654785e-01,3.020776510238647461e-01
-9.605171084403991699e-01,8.594785332679748535e-01,-3.453626334667205811e-01
-9.720736742019653320e-01,8.698194622993469238e-01,-3.011487722396850586e-01
-9.689656496047973633e-01,8.670384287834167480e-01,-2.527426183223724365e-01
-9.686119556427001953e-01,8.667218685150146484e-01,-2.058638781309127808e-01
-9.739530086517333984e-01,8.715010881423950195e-01,-1.604721099138259888e-01
-9.631207585334777832e-01,8.618083000183105469e-01,-1.130707710981369019e-01
-9.813613891601562500e-01,8.781301975250244141e-01,-6.901484727859497070e-02
-9.879010319709777832e-01,8.839819431304931641e-01,-2.313943579792976379e-02
-9.798352122306823730e-01,8.767645359039306641e-01,2.295050956308841705e-02
-9.864872097969055176e-01,8.827168345451354980e-01,6.937532871961593628e-02
-9.741953611373901367e-01,8.717179894447326660e-01,1.143709346652030945e-01
-9.831339120864868164e-01,8.797162771224975586e-01,1.619848012924194336e-01
-9.880452156066894531e-01,8.841109871864318848e-01,2.099941372871398926e-01
-9.868053197860717773e-01,8.830015063285827637e-01,2.573958635330200195e-01
-9.954215884208679199e-01,8.907113671302795410e-01,3.083819448947906494e-01
-9.966124892234802246e-01,8.664151430130004883e-01,-3.538457751274108887e-01
-1.004055023193359375e+00,8.728854656219482422e-01,-3.071545064449310303e-01
-1.000362634658813477e+00,8.696753382682800293e-01,-2.576588094234466553e-01
-9.953578710556030273e-01,8.653244972229003906e-01,-2.088945209980010986e-01
-1.000053048133850098e+00,8.694062829017639160e-01,-1.627054363489151001e-01
-9.961042404174804688e-01,8.659732937812805176e-01,-1.154760271310806274e-01
-1.007534146308898926e+00,8.759101033210754395e-01,-6.996660679578781128e-02
-1.005988597869873047e+00,8.745663166046142578e-01,-2.326750382781028748e-02
-1.008054614067077637e+00,8.763625025749206543e-01,2.331528998911380768e-02
-1.010507583618164062e+00,8.784950375556945801e-01,7.017309218645095825e-02
-1.011945366859436035e+00,8.797450065612792969e-01,1.173124611377716064e-01
-1.003460288047790527e+00,8.723683357238769531e-01,1.632597744464874268e-01
-1.016280412673950195e+00,8.835136294364929199e-01,2.132854908704757690e-01
-1.012565851211547852e+00,8.802843689918518066e-01,2.608019411563873291e-01
-1.021112084388732910e+00,8.877140879631042480e-01,3.123724758625030518e-01
-1.014604210853576660e+00,8.568714857101440430e-01,-3.558426797389984131e-01
-1.028065323829650879e+00,8.682398796081542969e-01,-3.106660246849060059e-01
-1.022798895835876465e+00,8.637921214103698730e-01,-2.602264285087585449e-01
-1.028000831604003906e+00,8.681853413581848145e-01,-2.131154239177703857e-01
-1.021154522895812988e+00,8.624034523963928223e-01,-1.641134470701217651e-01
-1.036995053291320801e+00,8.757812976837158203e-01,-1.187510341405868530e-01
-1.027806401252746582e+00,8.680211901664733887e-01,-7.050436735153198242e-02
-1.030323147773742676e+00,8.701466321945190430e-01,-2.353985793888568878e-02
-1.039710044860839844e+00,8.780742287635803223e-01,2.375432103872299194e-02
-1.030401945114135742e+00,8.702132105827331543e-01,7.068241387605667114e-02
-1.039111733436584473e+00,8.775689601898193359e-01,1.189934238791465759e-01
-1.043595075607299805e+00,8.813552856445312500e-01,1.677199453115463257e-01
-1.038234591484069824e+00,8.768281936645507812e-01,2.152370065450668335e-01
-1.057894110679626465e+00,8.934313654899597168e-01,2.691555917263031006e-01
-1.041213512420654297e+00,8.793439865112304688e-01,3.146392107009887695e-01
-1.048131704330444336e+00,8.597909212112426758e-01,-3.632480800151824951e-01
-1.041266083717346191e+00,8.541589379310607910e-01,-3.109287023544311523e-01
-1.046538472175598145e+00,8.584839105606079102e-01,-2.631131112575531006e-01
-1.058240175247192383e+00,8.680829405784606934e-01,-2.167862653732299805e-01
-1.051836371421813965e+00,8.628298640251159668e-01,-1.670424938201904297e-01
-1.055715322494506836e+00,8.660118579864501953e-01,-1.194630712270736694e-01
-1.060826063156127930e+00,8.702042102813720703e-01,-7.190763205289840698e-02
-1.051975727081298828e+00,8.629441857337951660e-01,-2.374992333352565765e-02
-1.065620183944702148e+00,8.741368055343627930e-01,2.405796758830547333e-02
-1.055554986000061035e+00,8.658802509307861328e-01,7.155033200979232788e-02
-1.054354906082153320e+00,8.648958206176757812e-01,1.193091124296188354e-01
-1.058999538421630859e+00,8.687058687210083008e-01,1.681800931692123413e-01
-1.067658305168151855e+00,8.758087158203125000e-01,2.187156230211257935e-01
-1.063695192337036133e+00,8.725577592849731445e-01,2.674265205860137939e-01
-1.061324477195739746e+00,8.706130385398864746e-01,3.169182837009429932e-01
-1.084410190582275391e+00,8.638855218887329102e-01,-3.714975714683532715e-01
-1.074791789054870605e+00,8.562231063842773438e-01,-3.172476291656494141e-01
-1.081491231918334961e+00,8.615601658821105957e-01,-2.687727510929107666e-01
-1.097662568092346191e+00,8.744428753852844238e-01,-2.222753614187240601e-01
-1.082713007926940918e+00,8.625334501266479492e-01,-1.699679791927337646e-01
-1.086111068725585938e+00,8.652405142784118652e-01,-1.214887350797653198e-01
-1.090750813484191895e+00,8.689367175102233887e-01,-7.308550924062728882e-02
-1.085260033607482910e+00,8.645625114440917969e-01,-2.421950362622737885e-02
-1.079801559448242188e+00,8.602141141891479492e-01,2.409769035875797272e-02
-1.093597412109375000e+00,8.712044358253479004e-01,7.327624410390853882e-02
-1.090772867202758789e+00,8.689542412757873535e-01,1.220101863145828247e-01
-1.084853172302246094e+00,8.642383813858032227e-01,1.703039407730102539e-01
-1.094249844551086426e+00,8.717241883277893066e-01,2.215843051671981812e-01
-1.097416400909423828e+00,8.742467164993286133e-01,2.727304697036743164e-01
-1.097774863243103027e+00,8.745324015617370605e-01,3.240315914154052734e-01
-1.108282446861267090e+00,8.572645783424377441e-01,-3.754336833953857422e-01
-1.107429385185241699e+00,8.566047549247741699e-01,-3.232291042804718018e-01
-1.105630278587341309e+00,8.552131056785583496e-01,-2.717018127441406250e-01
-1.107714653015136719e+00,8.568254709243774414e-01,-2.218047082424163818e-01
-1.115243077278137207e+00,8.626487851142883301e-01,-1.731185764074325562e-01
-1.118262171745300293e+00,8.649840354919433594e-01,-1.236874908208847046e-01
-1.108856916427612305e+00,8.577089905738830566e-01,-7.346857339143753052e-02
-1.114384770393371582e+00,8.619848489761352539e-01,-2.459161356091499329e-02
-1.111146450042724609e+00,8.594799637794494629e-01,2.452015131711959839e-02
-1.124290704727172852e+00,8.696472048759460449e-01,7.449116557836532593e-02
-1.125628829002380371e+00,8.706821799278259277e-01,1.245022937655448914e-01
-1.126908540725708008e+00,8.716720938682556152e-01,1.749293953180313110e-01
-1.124228119850158691e+00,8.695987462997436523e-01,2.251113057136535645e-01
-1.108866453170776367e+00,8.577163815498352051e-01,2.724970877170562744e-01
-1.126214027404785156e+00,8.711348772048950195e-01,3.287118673324584961e-01
-1.123949766159057617e+00,8.439518809318542480e-01,-3.766103386878967285e-01
-1.138051629066467285e+00,8.545407652854919434e-01,-3.285632431507110596e-01
-1.131948471069335938e+00,8.499580025672912598e-01,-2.751514613628387451e-01
-1.135893225669860840e+00,8.529200553894042969e-01,-2.249795049428939819e-01
-1.132648110389709473e+00,8.504833579063415527e-01,-1.739128679037094116e-01
-1.134009122848510742e+00,8.515053391456604004e-01,-1.240684315562248230e-01
-1.141620039939880371e+00,8.572201728820800781e-01,-7.481872290372848511e-02
-1.143694877624511719e+00,8.587781190872192383e-01,-2.496459893882274628e-02
-1.165159821510314941e+00,8.748958110809326172e-01,2.543313615024089813e-02
-1.157195568084716797e+00,8.689156174659729004e-01,7.583950459957122803e-02
-1.146851301193237305e+00,8.611482381820678711e-01,1.254734545946121216e-01
-1.158470392227172852e+00,8.698728084564208984e-01,1.778777539730072021e-01
-1.163648486137390137e+00,8.737609386444091797e-01,2.304768115282058716e-01
-1.155659198760986328e+00,8.677619695663452148e-01,2.809150218963623047e-01
-1.151898860931396484e+00,8.649383783340454102e-01,3.325610458850860596e-01
-1.152487635612487793e+00,8.398578763008117676e-01,-3.821055889129638672e-01
-1.171104788780212402e+00,8.534247875213623047e-01,-3.345449566841125488e-01
-1.167199850082397461e+00,8.505791425704956055e-01,-2.807321250438690186e-01
-1.168031692504882812e+00,8.511853814125061035e-01,-2.289084494113922119e-01
-1.177684903144836426e+00,8.582199811935424805e-01,-1.789235621690750122e-01
-1.177670955657958984e+00,8.582097887992858887e-01,-1.274883300065994263e-01
-1.175811529159545898e+00,8.568548560142517090e-01,-7.624794542789459229e-02
-1.163434743881225586e+00,8.478354215621948242e-01,-2.512801624834537506e-02
-1.176534414291381836e+00,8.573815226554870605e-01,2.541094087064266205e-02
-1.184016585350036621e+00,8.628341555595397949e-01,7.678002119064331055e-02
-1.171686649322509766e+00,8.538488745689392090e-01,1.268405020236968994e-01
-1.171365737915039062e+00,8.536149859428405762e-01,1.779634952545166016e-01
-1.173357605934143066e+00,8.550664782524108887e-01,2.299521863460540771e-01
-1.189611315727233887e+00,8.669112324714660645e-01,2.861225008964538574e-01
-1.190533280372619629e+00,8.675830364227294922e-01,3.400950133800506592e-01
-1.189990639686584473e+00,8.413785696029663086e-01,-3.905068039894104004e-01
-1.201133012771606445e+00,8.492566943168640137e-01,-3.396157324314117432e-01
-1.194041967391967773e+00,8.442429900169372559e-01,-2.842526137828826904e-01
-1.192891120910644531e+00,8.434292674064636230e-01,-2.313906997442245483e-01
-1.213033676147460938e+00,8.576710820198059082e-01,-1.824102550745010376e-01
-1.193574905395507812e+00,8.439127802848815918e-01,-1.278892606496810913e-01
-1.205132842063903809e+00,8.520848155021667480e-01,-7.735053449869155884e-02
-1.208797454833984375e+00,8.546758294105529785e-01,-2.584089897572994232e-02
-1.198255896568298340e+00,8.472224473953247070e-01,2.561554871499538422e-02
-1.211325168609619141e+00,8.564630150794982910e-01,7.774797827005386353e-02
-1.203368186950683594e+00,8.508370518684387207e-01,1.289385855197906494e-01
-1.213766813278198242e+00,8.581894040107727051e-01,1.825204938650131226e-01
-1.200967073440551758e+00,8.491393923759460449e-01,2.329572439193725586e-01
-1.215833544731140137e+00,8.596506714820861816e-01,2.894403040409088135e-01
-1.214068293571472168e+00,8.584025502204895020e-01,3.432731330394744873e-01
-1.225684762001037598e+00,8.405653834342956543e-01,-3.982311189174652100e-01
-1.227905869483947754e+00,8.420886397361755371e-01,-3.437424600124359131e-01
-1.238268613815307617e+00,8.491953015327453613e-01,-2.918576598167419434e-01
-1.231853723526000977e+00,8.447960019111633301e-01,-2.365787029266357422e-01
-1.229204058647155762e+00,8.429788947105407715e-01,-1.830087006092071533e-01
-1.235351562500000000e+00,8.471948504447937012e-01,-1.310528218746185303e-01
-1.236063599586486816e+00,8.476831316947937012e-01,-7.854899019002914429e-02
-1.249424219131469727e+00,8.568456768989562988e-01,-2.644450031220912933e-02
-1.234783053398132324e+00,8.468049764633178711e-01,2.613461762666702271e-02
-1.242557406425476074e+00,8.521365523338317871e-01,7.896165549755096436e-02
-1.251703500747680664e+00,8.584088683128356934e-01,1.327875256538391113e-01
-1.238480091094970703e+00,8.493403196334838867e-01,1.843897551298141479e-01
-1.247505784034729004e+00,8.555300831794738770e-01,2.395846992731094360e-01
-1.248883128166198730e+00,8.564746975898742676e-01,2.943595051765441895e-01
-1.244130730628967285e+00,8.532155156135559082e-01,3.482844829559326172e-01
-1.253726124763488770e+00,8.336675167083740234e-01,-4.034236371517181396e-01
-1.266244292259216309e+00,8.419914245605468750e-01,-3.510652184486389160e-01
-1.260155916213989258e+00,8.379428982734680176e-01,-2.941594123840332031e-01
-1.260918021202087402e+00,8.384497165679931641e-01,-2.398311346769332886e-01
-1.269093751907348633e+00,8.438861966133117676e-01,-1.871301084756851196e-01
-1.265905737876892090e+00,8.417662978172302246e-01,-1.330023705959320068e-01
-1.268805146217346191e+00,8.436942696571350098e-01,-7.985404133796691895e-02
-1.283295750617980957e+00,8.533298373222351074e-01,-2.690013498067855835e-02
-1.285449385643005371e+00,8.547618985176086426e-01,2.694527804851531982e-02
-1.266391277313232422e+00,8.420891761779785156e-01,7.970211654901504517e-02
-1.265121221542358398e+00,8.412445783615112305e-01,1.329199373722076416e-01
-1.282019257545471191e+00,8.524810671806335449e-01,1.890360116958618164e-01
-1.277109742164611816e+00,8.492164015769958496e-01,2.429108619689941406e-01
-1.280621886253356934e+00,8.515518903732299805e-01,2.989368140697479248e-01
-1.280454754829406738e+00,8.514407277107238770e-01,3.550050556659698486e-01
-1.289677858352661133e+00,8.312026858329772949e-01,-4.111216962337493896e-01
-1.294443011283874512e+00,8.342738151550292969e-01,-3.555361330509185791e-01
-1.302614212036132812e+00,8.395402431488037109e-01,-3.012345731258392334e-01
-1.288174629211425781e+00,8.302338719367980957e-01,-2.427303045988082886e-01
-1.309798121452331543e+00,8.441702723503112793e-01,-1.913307756185531616e-01
-1.303482890129089355e+00,8.401001095771789551e-01,-1.356731355190277100e-01
-1.295641183853149414e+00,8.350460529327392578e-01,-8.078248798847198486e-02
-1.293586492538452148e+00,8.337218165397644043e-01,-2.686294727027416229e-02
-1.294671297073364258e+00,8.344209790229797363e-01,2.688547410070896149e-02
-1.306667447090148926e+00,8.421525359153747559e-01,8.146996796131134033e-02
-1.298679709434509277e+00,8.370043635368347168e-01,1.351731866598129272e-01
-1.310148596763610840e+00,8.443961143493652344e-01,1.913819760084152222e-01
-1.306695342063903809e+00,8.421705365180969238e-01,2.462201565504074097e-01
-1.302821278572082520e+00,8.396736383438110352e-01,3.012824356555938721e-01
-1.317385196685791016e+00,8.490601778030395508e-01,3.618375062942504883e-01
-1.318137288093566895e+00,8.230847716331481934e-01,-4.163957238197326660e-01
-1.312774538993835449e+00,8.197361230850219727e-01,-3.573118448257446289e-01
-1.319778084754943848e+00,8.241093754768371582e-01,-3.024449646472930908e-01
-1.326654076576232910e+00,8.284029364585876465e-01,-2.477213144302368164e-01
-1.331759572029113770e+00,8.315908908843994141e-01,-1.927803456783294678e-01
-1.332448720932006836e+00,8.320212364196777344e-01,-1.374343931674957275e-01
-1.341197609901428223e+00,8.374843597412109375e-01,-8.286701887845993042e-02
-1.341371178627014160e+00,8.375927209854125977e-01,-2.760346792638301849e-02
-1.349134445190429688e+00,8.424403667449951172e-01,2.776322327554225922e-02
-1.346395492553710938e+00,8.407300114631652832e-01,8.318816870450973511e-02
-1.343708872795104980e+00,8.390524387359619141e-01,1.385958194732666016e-01
-1.349859356880187988e+00,8.428929448127746582e-01,1.954004019498825073e-01
-1.352305650711059570e+00,8.444204926490783691e-01,2.525111436843872070e-01
-1.350291371345520020e+00,8.431627154350280762e-01,3.094374835491180420e-01
-1.349562287330627441e+00,8.427074551582336426e-01,3.673247396945953369e-01
-1.369837522506713867e+00,8.283571600914001465e-01,-4.289382398128509521e-01
-1.355800271034240723e+00,8.198686838150024414e-01,-3.657910525798797607e-01
-1.363809108734130859e+00,8.247117400169372559e-01,-3.097983598709106445e-01
-1.384215474128723145e+00,8.370516896247863770e-01,-2.562061250209808350e-01
-1.372186541557312012e+00,8.297776579856872559e-01,-1.968929618597030640e-01
-1.365489840507507324e+00,8.257280588150024414e-01,-1.396090388298034668e-01
-1.366794943809509277e+00,8.265173435211181641e-01,-8.370905369520187378e-02
-1.382564663887023926e+00,8.360534906387329102e-01,-2.820201963186264038e-02
-1.384417533874511719e+00,8.371738791465759277e-01,2.823981456458568573e-02
-1.379329681396484375e+00,8.340972661972045898e-01,8.447673916816711426e-02
-1.380519986152648926e+00,8.348169922828674316e-01,1.411457359790802002e-01
-1.380457162857055664e+00,8.347790241241455078e-01,1.980797201395034790e-01
-1.381198048591613770e+00,8.352270126342773438e-01,2.556476294994354248e-01
-1.378634691238403320e+00,8.336769342422485352e-01,3.131660819053649902e-01
-1.391252636909484863e+00,8.413071632385253906e-01,3.753560185432434082e-01
-1.405829429626464844e+00,8.228772282600402832e-01,-4.364756047725677490e-01
-1.400673270225524902e+00,8.198591470718383789e-01,-3.746932148933410645e-01
-1.401967644691467285e+00,8.206167817115783691e-01,-3.157658278942108154e-01
-1.398731350898742676e+00,8.187224268913269043e-01,-2.566975355148315430e-01
-1.401464700698852539e+00,8.203223943710327148e-01,-1.993888318538665771e-01
-1.411218881607055664e+00,8.260318636894226074e-01,-1.430609375238418579e-01
-1.413470983505249023e+00,8.273500800132751465e-01,-8.583364635705947876e-02
-1.409110307693481445e+00,8.247975707054138184e-01,-2.849976904690265656e-02
-1.418934583663940430e+00,8.305481076240539551e-01,2.869847044348716736e-02
-1.415090322494506836e+00,8.282979130744934082e-01,8.593197911977767944e-02
-1.407819151878356934e+00,8.240418434143066406e-01,1.427162885665893555e-01
-1.420964837074279785e+00,8.317365050315856934e-01,2.021631598472595215e-01
-1.418964624404907227e+00,8.305656313896179199e-01,2.604107856750488281e-01
-1.421334743499755859e+00,8.319529891014099121e-01,3.201279044151306152e-01
-1.429844498634338379e+00,8.369340300559997559e-01,3.824968039989471436e-01
-1.446090340614318848e+00,8.188839554786682129e-01,-4.452909231185913086e-01
-1.439616084098815918e+00,8.152177929878234863e-01,-3.819501996040344238e-01
-1.446588397026062012e+00,8.191660046577453613e-01,-3.231418430805206299e-01
-1.446930289268493652e+00,8.193596005439758301e-01,-2.633638083934783936e-01
-1.451593279838562012e+00,8.220001459121704102e-01,-2.048258185386657715e-01
-1.453845620155334473e+00,8.232755661010742188e-01,-1.461726278066635132e-01
-1.439684629440307617e+00,8.152565360069274902e-01,-8.670798689126968384e-02
-1.453508734703063965e+00,8.230848312377929688e-01,-2.915647998452186584e-02
-1.446214437484741211e+00,8.189542293548583984e-01,2.901015989482402802e-02
-1.455224037170410156e+00,8.240560889244079590e-01,8.764387667179107666e-02
-1.455978631973266602e+00,8.244834542274475098e-01,1.463870853185653687e-01
-1.466921567916870117e+00,8.306801319122314453e-01,2.069886922836303711e-01
-1.469004034996032715e+00,8.318593502044677734e-01,2.673815786838531494e-01
-1.466913461685180664e+00,8.306755423545837402e-01,3.276821076869964600e-01
-1.474229216575622559e+00,8.348182439804077148e-01,3.911335468292236328e-01
-1.489464402198791504e+00,8.155161738395690918e-01,-4.550059735774993896e-01
-1.483504176139831543e+00,8.122528195381164551e-01,-3.904697597026824951e-01
-1.486727595329284668e+00,8.140177130699157715e-01,-3.294717669486999512e-01
-1.502781391143798828e+00,8.228074908256530762e-01,-2.713581323623657227e-01
-1.488408327102661133e+00,8.149379491806030273e-01,-2.083533108234405518e-01
-1.483401894569396973e+00,8.121967911720275879e-01,-1.479602754116058350e-01
-1.489881157875061035e+00,8.157443404197692871e-01,-8.901883661746978760e-02
-1.496648907661437988e+00,8.194497823715209961e-01,-2.978351339697837830e-02
-1.504073023796081543e+00,8.235146999359130859e-01,2.993125468492507935e-02
-1.498730897903442383e+00,8.205897808074951172e-01,8.954759687185287476e-02
-1.505211710929870605e+00,8.241381645202636719e-01,1.501356810331344604e-01
-1.503499746322631836e+00,8.232008218765258789e-01,2.104658633470535278e-01
-1.508841156959533691e+00,8.261253833770751953e-01,2.724523544311523438e-01
-1.509895443916320801e+00,8.267025947570800781e-01,3.346059620380401611e-01
-1.515013098716735840e+00,8.295046687126159668e-01,3.987631499767303467e-01
-1.515623331069946289e+00,8.018608093261718750e-01,-4.594438374042510986e-01
-1.547804594039916992e+00,8.188867568969726562e-01,-4.042676091194152832e-01
-1.517029285430908203e+00,8.026046156883239746e-01,-3.336068391799926758e-01
-1.528715133666992188e+00,8.087871670722961426e-01,-2.739225625991821289e-01
-1.533782839775085449e+00,8.114683032035827637e-01,-2.130572795867919922e-01
-1.523752331733703613e+00,8.061615824699401855e-01,-1.508186012506484985e-01
-1.542636632919311523e+00,8.161525726318359375e-01,-9.146356582641601562e-02
-1.532300472259521484e+00,8.106840252876281738e-01,-3.025897033512592316e-02
-1.537826657295227051e+00,8.136078119277954102e-01,3.036809898912906647e-02
-1.541113257408142090e+00,8.153465390205383301e-01,9.137324243783950806e-02
-1.544531702995300293e+00,8.171551823616027832e-01,1.528753191232681274e-01
-1.558849096298217773e+00,8.247299790382385254e-01,2.165392339229583740e-01
-1.553074359893798828e+00,8.216747641563415527e-01,2.782873809337615967e-01
-1.538117766380310059e+00,8.137617707252502441e-01,3.382443785667419434e-01
-1.551836013793945312e+00,8.210195899009704590e-01,4.053205847740173340e-01
-1.574733138084411621e+00,8.045014739036560059e-01,-4.738230705261230469e-01
-1.563400387763977051e+00,7.987118363380432129e-01,-4.053135514259338379e-01
-1.572850108146667480e+00,8.035394549369812012e-01,-3.433178663253784180e-01
-1.585545182228088379e+00,8.100251555442810059e-01,-2.819992601871490479e-01
-1.569022536277770996e+00,8.015840649604797363e-01,-2.163364887237548828e-01
-1.588650465011596680e+00,8.116115927696228027e-01,-1.560762971639633179e-01
-1.587248921394348145e+00,8.108955621719360352e-01,-9.341090917587280273e-02
-1.580989599227905273e+00,8.076977729797363281e-01,-3.098898194730281830e-02
-1.581719517707824707e+00,8.080706596374511719e-01,3.100328892469406128e-02
-1.583443284034729004e+00,8.089513778686523438e-01,9.318695217370986938e-02
-1.588632702827453613e+00,8.116024732589721680e-01,1.560745537281036377e-01
-1.601608157157897949e+00,8.182314038276672363e-01,2.208293825387954712e-01
-1.587384581565856934e+00,8.109648823738098145e-01,2.823264002799987793e-01
-1.584576725959777832e+00,8.095303773880004883e-01,3.458775281906127930e-01
-1.609580278396606445e+00,8.223041892051696777e-01,4.172857403755187988e-01
-1.607288002967834473e+00,7.923334240913391113e-01,-4.801569581031799316e-01
-1.619718313217163086e+00,7.984610795974731445e-01,-4.169084131717681885e-01
-1.611781597137451172e+00,7.945485711097717285e-01,-3.492975533008575439e-01
-1.622290015220642090e+00,7.997288107872009277e-01,-2.864693105220794678e-01
-1.626998424530029297e+00,8.020498752593994141e-01,-2.227244824171066284e-01
-1.627446532249450684e+00,8.022707700729370117e-01,-1.587433665990829468e-01
-1.627164125442504883e+00,8.021315336227416992e-01,-9.507453441619873047e-02
-1.629191160202026367e+00,8.031308054924011230e-01,-3.170520812273025513e-02
-1.634704470634460449e+00,8.058486580848693848e-01,3.181250020861625671e-02
-1.630754947662353516e+00,8.039016723632812500e-01,9.528434276580810547e-02
-1.629518270492553711e+00,8.032920956611633301e-01,1.589454561471939087e-01
-1.630784392356872559e+00,8.039162158966064453e-01,2.232427597045898438e-01
-1.641580224037170410e+00,8.092381358146667480e-01,2.898756265640258789e-01
-1.642093181610107422e+00,8.094910383224487305e-01,3.558665215969085693e-01
-1.638329863548278809e+00,8.076358437538146973e-01,4.216989576816558838e-01
-1.659690022468566895e+00,7.888436317443847656e-01,-4.923878908157348633e-01
-1.660177826881408691e+00,7.890754938125610352e-01,-4.243719279766082764e-01
-1.669195294380187988e+00,7.933614850044250488e-01,-3.592422306537628174e-01
-1.668339848518371582e+00,7.929548621177673340e-01,-2.925667762756347656e-01
-1.683277130126953125e+00,8.000544905662536621e-01,-2.288375794887542725e-01
-1.677603840827941895e+00,7.973580360412597656e-01,-1.625059098005294800e-01
-1.665761590003967285e+00,7.917293906211853027e-01,-9.665771573781967163e-02
-1.690839886665344238e+00,8.036490678787231445e-01,-3.267773240804672241e-02
-1.677050113677978516e+00,7.970947623252868652e-01,3.241122514009475708e-02
-1.677600741386413574e+00,7.973565459251403809e-01,9.734470397233963013e-02
-1.676109910011291504e+00,7.966479063034057617e-01,1.623611897230148315e-01
-1.682173490524291992e+00,7.995299100875854492e-01,2.286875247955322266e-01
-1.682196736335754395e+00,7.995409965515136719e-01,2.949967682361602783e-01
-1.680442571640014648e+00,7.987072467803955078e-01,3.616628348827362061e-01
-1.682699918746948242e+00,7.997801303863525391e-01,4.301289916038513184e-01
-1.716162800788879395e+00,7.857749462127685547e-01,-5.057533383369445801e-01
-1.714937448501586914e+00,7.852138876914978027e-01,-4.354519546031951904e-01
-1.724456071853637695e+00,7.895721793174743652e-01,-3.686653077602386475e-01
-1.714352726936340332e+00,7.849462032318115234e-01,-2.986349165439605713e-01
-1.721693634986877441e+00,7.883073687553405762e-01,-2.325024455785751343e-01
-1.715900897979736328e+00,7.856550216674804688e-01,-1.651094257831573486e-01
-1.719868183135986328e+00,7.874714732170104980e-01,-9.913311898708343506e-02
-1.730887532234191895e+00,7.925168871879577637e-01,-3.322907164692878723e-02
-1.734720945358276367e+00,7.942721247673034668e-01,3.330266475677490234e-02
-1.733821511268615723e+00,7.938603162765502930e-01,9.993739426136016846e-02
-1.720458030700683594e+00,7.877416014671325684e-01,1.655479371547698975e-01
-1.745764970779418945e+00,7.993288040161132812e-01,2.357530891895294189e-01
-1.741055488586425781e+00,7.971724867820739746e-01,3.032864332199096680e-01
-1.736142516136169434e+00,7.949230074882507324e-01,3.711636960506439209e-01
-1.749648928642272949e+00,8.011071681976318359e-01,4.442658126354217529e-01
-1.766617894172668457e+00,7.784883379936218262e-01,-5.172857046127319336e-01
-1.764752507209777832e+00,7.776663303375244141e-01,-4.452288746833801270e-01
-1.767740011215209961e+00,7.789828181266784668e-01,-3.754966557025909424e-01
-1.762964129447937012e+00,7.768782377243041992e-01,-3.051345646381378174e-01
-1.775347113609313965e+00,7.823349833488464355e-01,-2.382113486528396606e-01
-1.778322219848632812e+00,7.836459875106811523e-01,-1.700190752744674683e-01
-1.782345175743103027e+00,7.854188084602355957e-01,-1.020758524537086487e-01
-1.789543151855468750e+00,7.885906696319580078e-01,-3.413493186235427856e-02
-1.785405158996582031e+00,7.867671847343444824e-01,3.405600413680076599e-02
-1.782123446464538574e+00,7.853211164474487305e-01,1.020631492137908936e-01
-1.791659235954284668e+00,7.895231842994689941e-01,1.712941825389862061e-01
-1.791272997856140137e+00,7.893530130386352539e-01,2.403482496738433838e-01
-1.792114973068237305e+00,7.897240519523620605e-01,3.101800084114074707e-01
-1.791739225387573242e+00,7.895584702491760254e-01,3.805944919586181641e-01
-1.795948505401611328e+00,7.914133667945861816e-01,4.530993103981018066e-01
-1.818605542182922363e+00,7.705070376396179199e-01,-5.292247533798217773e-01
-1.831801891326904297e+00,7.760980725288391113e-01,-4.592950940132141113e-01
-1.820523500442504883e+00,7.713196277618408203e-01,-3.843242228031158447e-01
-1.833246588706970215e+00,7.767101526260375977e-01,-3.153425753116607666e-01
-1.842781424522399902e+00,7.807498574256896973e-01,-2.457348704338073730e-01
-1.822325468063354492e+00,7.720831036567687988e-01,-1.731517761945724487e-01
-1.838280797004699707e+00,7.788430452346801758e-01,-1.046301499009132385e-01
-1.836274027824401855e+00,7.779927849769592285e-01,-3.481033071875572205e-02
-1.840416908264160156e+00,7.797480821609497070e-01,3.488887101411819458e-02
-1.841386437416076660e+00,7.801588177680969238e-01,1.048069074749946594e-01
-1.850200057029724121e+00,7.838929891586303711e-01,1.758003383874893188e-01
-1.842911243438720703e+00,7.808048725128173828e-01,2.457522004842758179e-01
-1.829899668693542480e+00,7.752921581268310547e-01,3.147668540477752686e-01
-1.861883640289306641e+00,7.888430953025817871e-01,3.930556178092956543e-01
-1.849084854125976562e+00,7.834205031394958496e-01,4.636285305023193359e-01
-1.886078715324401855e+00,7.674437165260314941e-01,-5.456073284149169922e-01
-1.867701649665832520e+00,7.599661350250244141e-01,-4.655212759971618652e-01
-1.881700277328491211e+00,7.656621932983398438e-01,-3.948850333690643311e-01
-1.903173327445983887e+00,7.743995189666748047e-01,-3.254308998584747314e-01
-1.893104553222656250e+00,7.703025341033935547e-01,-2.509494721889495850e-01
-1.903862476348876953e+00,7.746798992156982422e-01,-1.798271685838699341e-01
-1.898645520210266113e+00,7.725571393966674805e-01,-1.074255555868148804e-01
