-9.223693609237670898e-01,8.995550870895385742e-01,2.040615826845169067e-01
-9.211568236351013184e-01,8.983724713325500488e-01,2.501092255115509033e-01
-9.309312701225280762e-01,9.079052209854125977e-01,3.002102971076965332e-01
-9.382444024085998535e-01,8.891952633857727051e-01,-3.463667631149291992e-01
-9.380645155906677246e-01,8.890247941017150879e-01,-2.983764708042144775e-01
-9.369847178459167480e-01,8.880014419555664062e-01,-2.509299814701080322e-01
-9.373599290847778320e-01,8.883570432662963867e-01,-2.045439779758453369e-01
-9.445047378540039062e-01,8.951283097267150879e-01,-1.597775369882583618e-01
-9.499615430831909180e-01,9.002999067306518555e-01,-1.145053058862686157e-01
-9.479747414588928223e-01,8.984169363975524902e-01,-6.844793260097503662e-02
-9.446747899055480957e-01,8.952895402908325195e-01,-2.271807938814163208e-02
-9.516399502754211426e-01,9.018905758857727051e-01,2.288558147847652435e-02
-9.481458067893981934e-01,8.985790610313415527e-01,6.846028566360473633e-02
-9.526270031929016113e-01,9.028259515762329102e-01,1.148265898227691650e-01
-9.511861205101013184e-01,9.014604091644287109e-01,1.609077900648117065e-01
-9.503475427627563477e-01,9.006657004356384277e-01,2.073780447244644165e-01
-9.539743065834045410e-01,9.041028618812561035e-01,2.554799020290374756e-01
-9.463225603103637695e-01,8.968511223793029785e-01,3.010031580924987793e-01
-9.559656977653503418e-01,8.803646564483642578e-01,-3.482213020324707031e-01
-9.642291069030761719e-01,8.879745602607727051e-01,-3.026250898838043213e-01
-9.556496143341064453e-01,8.800735473632812500e-01,-2.525291740894317627e-01
-9.525784850120544434e-01,8.772453069686889648e-01,-2.051038891077041626e-01
-9.625861644744873047e-01,8.864615559577941895e-01,-1.606733947992324829e-01
-9.738061428070068359e-01,8.967942595481872559e-01,-1.158203557133674622e-01
-9.690618515014648438e-01,8.924251198768615723e-01,-6.904112547636032104e-02
-9.507665634155273438e-01,8.755766749382019043e-01,-2.256087586283683777e-02
-9.720217585563659668e-01,8.951508998870849609e-01,2.306524291634559631e-02
-9.636307358741760254e-01,8.874235153198242188e-01,6.865418702363967896e-02
-9.707109928131103516e-01,8.939438462257385254e-01,1.154522299766540527e-01
-9.684337377548217773e-01,8.918466567993164062e-01,1.616494655609130859e-01
-9.804761409759521484e-01,9.029367566108703613e-01,2.111106514930725098e-01
-9.716460704803466797e-01,8.948049545288085938e-01,2.567562162876129150e-01
-9.681407213211059570e-01,8.915768265724182129e-01,3.038527369499206543e-01
-9.852917194366455078e-01,8.816471099853515625e-01,-3.542705774307250977e-01
-9.823250174522399902e-01,8.789924979209899902e-01,-3.043246269226074219e-01
-9.841806888580322266e-01,8.806529641151428223e-01,-2.567112743854522705e-01
-9.913192987442016602e-01,8.870406746864318848e-01,-2.106899917125701904e-01
-9.872840642929077148e-01,8.834298849105834961e-01,-1.626686006784439087e-01
-9.948530793190002441e-01,8.902026414871215820e-01,-1.167961582541465759e-01
-9.857332706451416016e-01,8.820421695709228516e-01,-6.932230293750762939e-02
-9.916291832923889160e-01,8.873178958892822266e-01,-2.322675846517086029e-02
-9.946897029876708984e-01,8.900564908981323242e-01,2.329844422638416290e-02
-9.920012354850769043e-01,8.876508474349975586e-01,6.976310908794403076e-02
-1.000290393829345703e+00,8.950680494308471680e-01,1.174345016479492188e-01
-1.000050544738769531e+00,8.948534131050109863e-01,1.647720485925674438e-01
-9.989548325538635254e-01,8.938729166984558105e-01,2.123128026723861694e-01
-9.933328032493591309e-01,8.888423442840576172e-01,2.590984702110290527e-01
-1.003750562667846680e+00,8.981642127037048340e-01,3.109622597694396973e-01
-1.002403259277343750e+00,8.714494109153747559e-01,-3.559017777442932129e-01
-9.962658882141113281e-01,8.661138415336608887e-01,-3.047716915607452393e-01
-1.012892484664916992e+00,8.805683851242065430e-01,-2.608860731124877930e-01
-1.008298158645629883e+00,8.765742778778076172e-01,-2.116102874279022217e-01
-1.009707570075988770e+00,8.777995109558105469e-01,-1.642761975526809692e-01
-1.004651188850402832e+00,8.734036684036254883e-01,-1.164668574929237366e-01
-1.020714282989501953e+00,8.873683810234069824e-01,-7.088188081979751587e-02
-1.015723466873168945e+00,8.830294609069824219e-01,-2.349266037344932556e-02
-1.021920323371887207e+00,8.884167671203613281e-01,2.363598905503749847e-02
-1.015328645706176758e+00,8.826862573623657227e-01,7.050788402557373047e-02
-1.016289353370666504e+00,8.835214376449584961e-01,1.178160458803176880e-01
-1.019138097763061523e+00,8.859980106353759766e-01,1.658105105161666870e-01
-1.022963166236877441e+00,8.893233537673950195e-01,2.146879881620407104e-01
-1.017540812492370605e+00,8.846094012260437012e-01,2.620832920074462891e-01
-1.036786437034606934e+00,9.013407826423645020e-01,3.171674907207489014e-01
-1.033755302429199219e+00,8.730452656745910645e-01,-3.625593483448028564e-01
-1.037634491920471191e+00,8.763213753700256348e-01,-3.135576546192169189e-01
-1.029609441757202148e+00,8.695439100265502930e-01,-2.619592249393463135e-01
-1.040879249572753906e+00,8.790616393089294434e-01,-2.157852649688720703e-01
-1.037123203277587891e+00,8.758895397186279297e-01,-1.666798293590545654e-01
-1.038433432579040527e+00,8.769961595535278320e-01,-1.189157590270042419e-01
-1.035284876823425293e+00,8.743370175361633301e-01,-7.101736962795257568e-02
-1.049435734748840332e+00,8.862879872322082520e-01,-2.397652715444564819e-02
-1.045867323875427246e+00,8.832743167877197266e-01,2.389499917626380920e-02
-1.034871339797973633e+00,8.739877939224243164e-01,7.098899781703948975e-02
-1.040793776512145996e+00,8.789894580841064453e-01,1.191860437393188477e-01
-1.047886729240417480e+00,8.849797844886779785e-01,1.684096753597259521e-01
-1.045979738235473633e+00,8.833692669868469238e-01,2.168426513671875000e-01
-1.048524737358093262e+00,8.855185508728027344e-01,2.667717635631561279e-01
-1.053204536437988281e+00,8.894708752632141113e-01,3.182626962661743164e-01
-1.054167628288269043e+00,8.647422194480895996e-01,-3.653399348258972168e-01
-1.063236951828002930e+00,8.721818923950195312e-01,-3.174893856048583984e-01
-1.067068457603454590e+00,8.753249049186706543e-01,-2.682746052742004395e-01
-1.064022064208984375e+00,8.728259205818176270e-01,-2.179707288742065430e-01
-1.058859944343566895e+00,8.685913681983947754e-01,-1.681579202413558960e-01
-1.067798852920532227e+00,8.759239912033081055e-01,-1.208304092288017273e-01
-1.071534156799316406e+00,8.789880871772766113e-01,-7.263346761465072632e-02
-1.076135635375976562e+00,8.827627301216125488e-01,-2.429536916315555573e-02
-1.079393863677978516e+00,8.854355216026306152e-01,2.436893060803413391e-02
-1.072056055068969727e+00,8.794161677360534668e-01,7.266885042190551758e-02
-1.067235231399536133e+00,8.754616379737854004e-01,1.207666322588920593e-01
-1.072040081024169922e+00,8.794031739234924316e-01,1.702510565519332886e-01
-1.069343686103820801e+00,8.771912455558776855e-01,2.190608829259872437e-01
-1.072389245033264160e+00,8.796895742416381836e-01,2.696123421192169189e-01
-1.079217314720153809e+00,8.852907419204711914e-01,3.222612142562866211e-01
-1.081919550895690918e+00,8.619013428688049316e-01,-3.706443309783935547e-01
-1.081948161125183105e+00,8.619241118431091309e-01,-3.193599879741668701e-01
-1.088236808776855469e+00,8.669339418411254883e-01,-2.704491615295410156e-01
-1.087274312973022461e+00,8.661671876907348633e-01,-2.201717495918273926e-01
-1.094616174697875977e+00,8.720160722732543945e-01,-1.718365848064422607e-01
-1.090387701988220215e+00,8.686474561691284180e-01,-1.219671070575714111e-01
-1.089409708976745605e+00,8.678683042526245117e-01,-7.299564778804779053e-02
-1.105110645294189453e+00,8.803763389587402344e-01,-2.466250769793987274e-02
-1.096975207328796387e+00,8.738953471183776855e-01,2.448095008730888367e-02
-1.083765387535095215e+00,8.633718490600585938e-01,7.261744886636734009e-02
-1.103606820106506348e+00,8.791782855987548828e-01,1.234457418322563171e-01
-1.116449117660522461e+00,8.894090652465820312e-01,1.752639859914779663e-01
-1.102545499801635742e+00,8.783328533172607422e-01,2.232641577720642090e-01
-1.100339293479919434e+00,8.765752911567687988e-01,2.734568715095520020e-01
-1.099963903427124023e+00,8.762761950492858887e-01,3.246777057647705078e-01
-1.112176656723022461e+00,8.602768182754516602e-01,-3.767528533935546875e-01
-1.108765840530395508e+00,8.576385378837585449e-01,-3.236191868782043457e-01
-1.118936181068420410e+00,8.655053973197937012e-01,-2.749716639518737793e-01
-1.112164497375488281e+00,8.602674007415771484e-01,-2.226957231760025024e-01
-1.118531942367553711e+00,8.651927709579467773e-01,-1.736291050910949707e-01
-1.120459675788879395e+00,8.666837811470031738e-01,-1.239305436611175537e-01
-1.128040075302124023e+00,8.725472688674926758e-01,-7.473957538604736328e-02
-1.118026137351989746e+00,8.648014664649963379e-01,-2.467196807265281677e-02
-1.124511361122131348e+00,8.698178529739379883e-01,2.481508068740367889e-02
-1.127497911453247070e+00,8.721279501914978027e-01,7.470365613698959351e-02
-1.128600478172302246e+00,8.729807734489440918e-01,1.248309761285781860e-01
-1.125596761703491211e+00,8.706573843955993652e-01,1.747257709503173828e-01
-1.117366194725036621e+00,8.642910122871398926e-01,2.237372994422912598e-01
-1.121155381202697754e+00,8.672220110893249512e-01,2.755170166492462158e-01
-1.125205755233764648e+00,8.703549504280090332e-01,3.284175693988800049e-01
-1.142040491104125977e+00,8.575359582901000977e-01,-3.826721608638763428e-01
-1.140463232994079590e+00,8.563515543937683105e-01,-3.292594850063323975e-01
-1.141610145568847656e+00,8.572128415107727051e-01,-2.775000333786010742e-01
-1.143982052803039551e+00,8.589937686920166016e-01,-2.265816032886505127e-01
-1.134488463401794434e+00,8.518652319908142090e-01,-1.741954386234283447e-01
-1.139878988265991211e+00,8.559129238128662109e-01,-1.247106343507766724e-01
-1.159544348716735840e+00,8.706791996955871582e-01,-7.599343359470367432e-02
-1.145235419273376465e+00,8.599349260330200195e-01,-2.499822527170181274e-02
-1.145754337310791016e+00,8.603245615959167480e-01,2.500955201685428619e-02
-1.146347045898437500e+00,8.607696294784545898e-01,7.512851804494857788e-02
-1.159667015075683594e+00,8.707713484764099121e-01,1.268755793571472168e-01
-1.151419878005981445e+00,8.645787239074707031e-01,1.767951846122741699e-01
-1.166640877723693848e+00,8.760078549385070801e-01,2.310695052146911621e-01
-1.156540393829345703e+00,8.684236407279968262e-01,2.811292409896850586e-01
-1.166662335395812988e+00,8.760240077972412109e-01,3.368233740329742432e-01
-1.154039740562438965e+00,8.409888744354248047e-01,-3.826201558113098145e-01
-1.186100602149963379e+00,8.643528223037719727e-01,-3.388287723064422607e-01
-1.159709572792053223e+00,8.451207876205444336e-01,-2.789306044578552246e-01
-1.177152037620544434e+00,8.578316569328308105e-01,-2.306958287954330444e-01
-1.177513837814331055e+00,8.580953478813171387e-01,-1.788975745439529419e-01
-1.173963427543640137e+00,8.555079698562622070e-01,-1.270869672298431396e-01
-1.169463276863098145e+00,8.522286415100097656e-01,-7.583627849817276001e-02
-1.185858368873596191e+00,8.641762733459472656e-01,-2.561232261359691620e-02
-1.190580248832702637e+00,8.676173090934753418e-01,2.571430802345275879e-02
-1.181969404220581055e+00,8.613421916961669922e-01,7.664725929498672485e-02
-1.189975738525390625e+00,8.671767115592956543e-01,1.288203746080398560e-01
-1.185611844062805176e+00,8.639965653419494629e-01,1.801278889179229736e-01
-1.193479895591735840e+00,8.697303533554077148e-01,2.338957190513610840e-01
-1.187792181968688965e+00,8.655855059623718262e-01,2.856849431991577148e-01
-1.185249686241149902e+00,8.637326955795288086e-01,3.385856747627258301e-01
-1.192416906356811523e+00,8.430939912796020508e-01,-3.913029730319976807e-01
-1.191658377647399902e+00,8.425577282905578613e-01,-3.369368314743041992e-01
-1.197270750999450684e+00,8.465259075164794922e-01,-2.850212454795837402e-01
-1.205609321594238281e+00,8.524217009544372559e-01,-2.338577359914779663e-01
-1.199486970901489258e+00,8.480928540229797363e-01,-1.803731471300125122e-01
-1.202049732208251953e+00,8.499048948287963867e-01,-1.287973225116729736e-01
-1.207558870315551758e+00,8.538000583648681641e-01,-7.750623673200607300e-02
-1.209129810333251953e+00,8.549107909202575684e-01,-2.584800310432910919e-02
-1.203238129615783691e+00,8.507451415061950684e-01,2.572205662727355957e-02
-1.200759530067443848e+00,8.489925861358642578e-01,7.706982642412185669e-02
-1.203466415405273438e+00,8.509065508842468262e-01,1.289491206407546997e-01
-1.212118268013000488e+00,8.570237755775451660e-01,1.822725832462310791e-01
-1.214362382888793945e+00,8.586104512214660645e-01,2.355555891990661621e-01
-1.224089503288269043e+00,8.654879927635192871e-01,2.914056777954101562e-01
-1.221247911453247070e+00,8.634788990020751953e-01,3.453031480312347412e-01
-1.228006243705749512e+00,8.421574831008911133e-01,-3.989854156970977783e-01
-1.236687898635864258e+00,8.481112122535705566e-01,-3.462008833885192871e-01
-1.225071549415588379e+00,8.401448726654052734e-01,-2.887471616268157959e-01
-1.220589637756347656e+00,8.370711803436279297e-01,-2.344154119491577148e-01
-1.229313969612121582e+00,8.430542349815368652e-01,-1.830250620841979980e-01
-1.225371003150939941e+00,8.403502106666564941e-01,-1.299940198659896851e-01
-1.238646030426025391e+00,8.494541049003601074e-01,-7.871308922767639160e-02
-1.245169758796691895e+00,8.539280295372009277e-01,-2.635445445775985718e-02
-1.236038327217102051e+00,8.476657867431640625e-01,2.616118453443050385e-02
-1.233049273490905762e+00,8.456159234046936035e-01,7.835742831230163574e-02
-1.231396555900573730e+00,8.444824814796447754e-01,1.306332498788833618e-01
-1.235018730163574219e+00,8.469665646553039551e-01,1.838744133710861206e-01
-1.257817864418029785e+00,8.626020550727844238e-01,2.415651530027389526e-01
-1.244312167167663574e+00,8.533399105072021484e-01,2.932821214199066162e-01
-1.262876152992248535e+00,8.660709857940673828e-01,3.535321056842803955e-01
-1.262836217880249023e+00,8.397251963615417480e-01,-4.063550531864166260e-01
-1.268556118011474609e+00,8.435286283493041992e-01,-3.517061471939086914e-01
-1.267122387886047363e+00,8.425753116607666016e-01,-2.957856059074401855e-01
-1.270886659622192383e+00,8.450783491134643555e-01,-2.417272031307220459e-01
-1.275851726531982422e+00,8.483799099922180176e-01,-1.881265938282012939e-01
-1.257661342620849609e+00,8.362842202186584473e-01,-1.321361660957336426e-01
-1.275831222534179688e+00,8.483663201332092285e-01,-8.029624074697494507e-02
-1.276564598083496094e+00,8.488538861274719238e-01,-2.675903588533401489e-02
-1.281248927116394043e+00,8.519687652587890625e-01,2.685722708702087402e-02
-1.268614530563354492e+00,8.435675501823425293e-01,7.984204590320587158e-02
-1.276693463325500488e+00,8.489395976066589355e-01,1.341357827186584473e-01
-1.280734181404113770e+00,8.516264557838439941e-01,1.888464987277984619e-01
-1.291325092315673828e+00,8.586689829826354980e-01,2.456146776676177979e-01
-1.279979228973388672e+00,8.511245250701904297e-01,2.987867891788482666e-01
-1.285728335380554199e+00,8.549473285675048828e-01,3.564671277999877930e-01
-1.288370847702026367e+00,8.303602933883666992e-01,-4.107050299644470215e-01
-1.291257381439208984e+00,8.322206735610961914e-01,-3.546611666679382324e-01
-1.286575078964233398e+00,8.292029500007629395e-01,-2.975254654884338379e-01
-1.287799000740051270e+00,8.299916982650756836e-01,-2.426595091819763184e-01
-1.297147512435913086e+00,8.360168933868408203e-01,-1.894828230142593384e-01
-1.299048185348510742e+00,8.372418880462646484e-01,-1.352115422487258911e-01
-1.311061620712280273e+00,8.449845910072326660e-01,-8.174394071102142334e-02
-1.306192994117736816e+00,8.418467640876770020e-01,-2.712473832070827484e-02
-1.306303381919860840e+00,8.419179320335388184e-01,2.712703123688697815e-02
-1.297516345977783203e+00,8.362545967102050781e-01,8.089940249919891357e-02
-1.313392281532287598e+00,8.464867472648620605e-01,1.367045491933822632e-01
-1.303898572921752930e+00,8.403679728507995605e-01,1.904689967632293701e-01
-1.307236075401306152e+00,8.425190448760986328e-01,2.463220506906509399e-01
-1.318016529083251953e+00,8.494670391082763672e-01,3.047963976860046387e-01
-1.318175435066223145e+00,8.495694994926452637e-01,3.620545566082000732e-01
-1.326023221015930176e+00,8.280090093612670898e-01,-4.188868701457977295e-01
-1.336522936820983887e+00,8.345653414726257324e-01,-3.637757003307342529e-01
-1.322186231613159180e+00,8.256130218505859375e-01,-3.029968142509460449e-01
-1.337158679962158203e+00,8.349623084068298340e-01,-2.496828138828277588e-01
-1.346248626708984375e+00,8.406383395195007324e-01,-1.948777288198471069e-01
-1.328866004943847656e+00,8.297841548919677734e-01,-1.370648741722106934e-01
-1.339343070983886719e+00,8.363263010978698730e-01,-8.275243639945983887e-02
-1.334712743759155273e+00,8.334349393844604492e-01,-2.746644429862499237e-02
-1.318785905838012695e+00,8.234897851943969727e-01,2.713869325816631317e-02
-1.342622876167297363e+00,8.383742570877075195e-01,8.295507729053497314e-02
-1.346456646919250488e+00,8.407682180404663086e-01,1.388792395591735840e-01
-1.327762484550476074e+00,8.290950655937194824e-01,1.922017484903335571e-01
-1.350392222404479980e+00,8.432257175445556641e-01,2.521538436412811279e-01
-1.356736660003662109e+00,8.471873998641967773e-01,3.109145164489746094e-01
-1.353832364082336426e+00,8.453738689422607422e-01,3.684870004653930664e-01
-1.358993768692016602e+00,8.217998743057250977e-01,-4.255427420139312744e-01
-1.364820718765258789e+00,8.253235220909118652e-01,-3.682247698307037354e-01
-1.359876751899719238e+00,8.223338127136230469e-01,-3.089051246643066406e-01
-1.365419268608093262e+00,8.256854414939880371e-01,-2.527271211147308350e-01
-1.366102933883666992e+00,8.260988593101501465e-01,-1.960200369358062744e-01
-1.363986730575561523e+00,8.248192071914672852e-01,-1.394553631544113159e-01
-1.375533103942871094e+00,8.318013548851013184e-01,-8.424421399831771851e-02
-1.378555297851562500e+00,8.336289525032043457e-01,-2.812023647129535675e-02
-1.371770143508911133e+00,8.295258879661560059e-01,2.798182889819145203e-02
-1.366747140884399414e+00,8.264883756637573242e-01,8.370611816644668579e-02
-1.368898510932922363e+00,8.277893662452697754e-01,1.399575471878051758e-01
-1.374035120010375977e+00,8.308955430984497070e-01,1.971582174301147461e-01
-1.372019290924072266e+00,8.296765089035034180e-01,2.539487183094024658e-01
-1.387614607810974121e+00,8.391072154045104980e-01,3.152059614658355713e-01
-1.390594601631164551e+00,8.409091830253601074e-01,3.751784563064575195e-01
-1.407226324081420898e+00,8.236948847770690918e-01,-4.369092881679534912e-01
-1.399523615837097168e+00,8.191862106323242188e-01,-3.743856549263000488e-01
-1.388784050941467285e+00,8.129000067710876465e-01,-3.127965033054351807e-01
-1.405217170715332031e+00,8.225188255310058594e-01,-2.578878402709960938e-01
-1.397813677787780762e+00,8.181853294372558594e-01,-1.988693922758102417e-01
-1.408826231956481934e+00,8.246313333511352539e-01,-1.428183913230895996e-01
-1.410682320594787598e+00,8.257177472114562988e-01,-8.566430211067199707e-02
-1.418074727058410645e+00,8.300448060035705566e-01,-2.868107892572879791e-02
-1.411429047584533691e+00,8.261548876762390137e-01,2.854666858911514282e-02
-1.409184098243713379e+00,8.248408436775207520e-01,8.557332307100296021e-02
-1.417809724807739258e+00,8.298896551132202148e-01,1.437290757894515991e-01
-1.409658074378967285e+00,8.251182436943054199e-01,2.005545049905776978e-01
-1.418521404266357422e+00,8.303061723709106445e-01,2.603294551372528076e-01
-1.422203660011291504e+00,8.324615359306335449e-01,3.203236162662506104e-01
-1.422798395156860352e+00,8.328096866607666016e-01,3.806118667125701904e-01
-1.447805643081665039e+00,8.198552727699279785e-01,-4.458190798759460449e-01
-1.446399450302124023e+00,8.190590143203735352e-01,-3.837499320507049561e-01
-1.424142360687255859e+00,8.064553737640380859e-01,-3.181278109550476074e-01
-1.446225762367248535e+00,8.189606666564941406e-01,-2.632355690002441406e-01
-1.442870259284973145e+00,8.170604705810546875e-01,-2.035949528217315674e-01
-1.444886565208435059e+00,8.182023167610168457e-01,-1.452718675136566162e-01
-1.448257684707641602e+00,8.201112747192382812e-01,-8.722431957721710205e-02
-1.432675480842590332e+00,8.112874627113342285e-01,-2.873857878148555756e-02
-1.451736807823181152e+00,8.220814466476440430e-01,2.912093698978424072e-02
-1.443741917610168457e+00,8.175541162490844727e-01,8.695234358310699463e-02
-1.446176052093505859e+00,8.189324736595153809e-01,1.454015076160430908e-01
-1.452714443206787109e+00,8.226349949836730957e-01,2.049840092658996582e-01
-1.458070755004882812e+00,8.256681561470031738e-01,2.653915584087371826e-01
-1.437767982482910156e+00,8.141711950302124023e-01,3.211715221405029297e-01
-1.459339380264282227e+00,8.263865113258361816e-01,3.871830403804779053e-01
-1.478354334831237793e+00,8.094331026077270508e-01,-4.516120254993438721e-01
-1.472510218620300293e+00,8.062332868576049805e-01,-3.875760436058044434e-01
-1.477288246154785156e+00,8.088493943214416504e-01,-3.273799121379852295e-01
-1.469804048538208008e+00,8.047516345977783203e-01,-2.654033899307250977e-01
-1.464655399322509766e+00,8.019326329231262207e-01,-2.050282806158065796e-01
-1.472759246826171875e+00,8.063696622848510742e-01,-1.468987464904785156e-01
-1.483623743057250977e+00,8.123182058334350586e-01,-8.864495903253555298e-02
-1.490203738212585449e+00,8.159209489822387695e-01,-2.965525351464748383e-02
-1.496059775352478027e+00,8.191272616386413574e-01,2.977178990840911865e-02
-1.500160455703735352e+00,8.213725090026855469e-01,8.963301777839660645e-02
-1.483474135398864746e+00,8.122363090515136719e-01,1.479674875736236572e-01
-1.500347018241882324e+00,8.214746117591857910e-01,2.100245207548141479e-01
-1.498046517372131348e+00,8.202150464057922363e-01,2.705031633377075195e-01
-1.500888943672180176e+00,8.217713236808776855e-01,3.326100409030914307e-01
-1.503613114356994629e+00,8.232628703117370605e-01,3.957625627517700195e-01
-1.514199495315551758e+00,8.011075258255004883e-01,-4.590122401714324951e-01
-1.510286808013916016e+00,7.990373969078063965e-01,-3.944684267044067383e-01
-1.519513368606567383e+00,8.039188385009765625e-01,-3.341531157493591309e-01
-1.521829605102539062e+00,8.051443099975585938e-01,-2.726887762546539307e-01
-1.530420303344726562e+00,8.096893429756164551e-01,-2.125901877880096436e-01
-1.524560928344726562e+00,8.065893650054931641e-01,-1.508986353874206543e-01
-1.524897933006286621e+00,8.067677021026611328e-01,-9.041183441877365112e-02
-1.529107570648193359e+00,8.089948296546936035e-01,-3.019591979682445526e-02
-1.536708950996398926e+00,8.130164146423339844e-01,3.034602664411067963e-02
-1.523555040359497070e+00,8.060571551322937012e-01,9.033221006393432617e-02
-1.528362989425659180e+00,8.086009025573730469e-01,1.512749642133712769e-01
-1.536191344261169434e+00,8.127425909042358398e-01,2.133918404579162598e-01
-1.533093571662902832e+00,8.111036419868469238e-01,2.747071087360382080e-01
-1.552004218101501465e+00,8.211085796356201172e-01,3.412981033325195312e-01
-1.534436106681823730e+00,8.118139505386352539e-01,4.007759392261505127e-01
-1.553690910339355469e+00,7.937514185905456543e-01,-4.674916565418243408e-01
-1.560026049613952637e+00,7.969878911972045898e-01,-4.044387340545654297e-01
-1.557519555091857910e+00,7.957074046134948730e-01,-3.399715423583984375e-01
-1.570474386215209961e+00,8.023257851600646973e-01,-2.793188095092773438e-01
-1.559884071350097656e+00,7.969153523445129395e-01,-2.150764614343643188e-01
-1.565344691276550293e+00,7.997050881385803223e-01,-1.537866294384002686e-01
-1.564692974090576172e+00,7.993721365928649902e-01,-9.208347648382186890e-02
-1.564342975616455078e+00,7.991933226585388184e-01,-3.066269122064113617e-02
-1.561852216720581055e+00,7.979208827018737793e-01,3.061386942863464355e-02
-1.563872098922729492e+00,7.989528179168701172e-01,9.203516691923141479e-02
-1.571204423904418945e+00,8.026987314224243164e-01,1.543623208999633789e-01
-1.579361796379089355e+00,8.068661689758300781e-01,2.177620530128479004e-01
-1.586673140525817871e+00,8.106014132499694824e-01,2.821998596191406250e-01
-1.571455121040344238e+00,8.028268218040466309e-01,3.430133759975433350e-01
-1.584666967391967773e+00,8.095764517784118652e-01,4.108269214630126953e-01
-1.606972098350524902e+00,7.921776175498962402e-01,-4.800625741481781006e-01
-1.609134912490844727e+00,7.932438254356384277e-01,-4.141843020915985107e-01
-1.600564718246459961e+00,7.890190482139587402e-01,-3.468666970729827881e-01
-1.608684301376342773e+00,7.930216789245605469e-01,-2.840667665004730225e-01
-1.597535610198974609e+00,7.875258326530456543e-01,-2.186912447214126587e-01
-1.615660786628723145e+00,7.964608073234558105e-01,-1.575937718152999878e-01
-1.605224251747131348e+00,7.913159728050231934e-01,-9.379259496927261353e-02
-1.624199986457824707e+00,8.006703853607177734e-01,-3.160807490348815918e-02
-1.593715786933898926e+00,7.856427431106567383e-01,3.101483173668384552e-02
-1.608123540878295898e+00,7.927452921867370605e-01,9.396200627088546753e-02
-1.601210117340087891e+00,7.893372178077697754e-01,1.561842411756515503e-01
-1.618663191795349121e+00,7.979409098625183105e-01,2.215834707021713257e-01
-1.613802433013916016e+00,7.955447435379028320e-01,2.849705219268798828e-01
-1.622952222824096680e+00,8.000552654266357422e-01,3.517183959484100342e-01
-1.629048585891723633e+00,8.030605316162109375e-01,4.193100035190582275e-01
-1.644507408142089844e+00,7.816274166107177734e-01,-4.878835678100585938e-01
-1.645152688026428223e+00,7.819340825080871582e-01,-4.205312132835388184e-01
-1.647740960121154785e+00,7.831643223762512207e-01,-3.546248376369476318e-01
-1.636453509330749512e+00,7.777993679046630859e-01,-2.869750261306762695e-01
-1.645003199577331543e+00,7.818630337715148926e-01,-2.236343175172805786e-01
-1.656053662300109863e+00,7.871152758598327637e-01,-1.604183763265609741e-01
-1.648671984672546387e+00,7.836068272590637207e-01,-9.566608071327209473e-02
-1.646187782287597656e+00,7.824260592460632324e-01,-3.181476891040802002e-02
-1.651374220848083496e+00,7.848911881446838379e-01,3.191500529646873474e-02
-1.659749150276184082e+00,7.888717055320739746e-01,9.630884230136871338e-02
-1.664196968078613281e+00,7.909857630729675293e-01,1.612072139978408813e-01
-1.672117829322814941e+00,7.947505116462707520e-01,2.273204922676086426e-01
-1.654078722000122070e+00,7.861765623092651367e-01,2.900658547878265381e-01
-1.655370831489562988e+00,7.867907881736755371e-01,3.562669456005096436e-01
-1.681366205215454102e+00,7.991462349891662598e-01,4.297880530357360840e-01
-1.696316361427307129e+00,7.766879200935363770e-01,-4.999046325683593750e-01
-1.688185572624206543e+00,7.729650735855102539e-01,-4.286592006683349609e-01
-1.690502047538757324e+00,7.740257382392883301e-01,-3.614063858985900879e-01
-1.689306735992431641e+00,7.734784483909606934e-01,-2.942719757556915283e-01
-1.705284118652343750e+00,7.807939648628234863e-01,-2.302864491939544678e-01
-1.705038785934448242e+00,7.806816101074218750e-01,-1.640642285346984863e-01
-1.715929508209228516e+00,7.856681346893310547e-01,-9.890609979629516602e-02
-1.692751884460449219e+00,7.750558257102966309e-01,-3.249695152044296265e-02
-1.696617603302001953e+00,7.768258452415466309e-01,3.257116675376892090e-02
-1.704160809516906738e+00,7.802796363830566406e-01,9.822775423526763916e-02
-1.707177877426147461e+00,7.816610932350158691e-01,1.642700731754302979e-01
-1.703737497329711914e+00,7.800858020782470703e-01,2.300775796175003052e-01
-1.712094664573669434e+00,7.839123010635375977e-01,2.982415556907653809e-01
-1.723389744758605957e+00,7.890838980674743652e-01,3.684373497962951660e-01
-1.712161779403686523e+00,7.839430570602416992e-01,4.347471594810485840e-01
-1.735741376876831055e+00,7.648820877075195312e-01,-5.082446932792663574e-01
-1.738136053085327148e+00,7.659373283386230469e-01,-4.385138154029846191e-01
-1.730870842933654785e+00,7.627358436584472656e-01,-3.676650524139404297e-01
-1.736879706382751465e+00,7.653837203979492188e-01,-3.006198704242706299e-01
-1.741629958152770996e+00,7.674769759178161621e-01,-2.336872816085815430e-01
-1.741356968879699707e+00,7.673566937446594238e-01,-1.664849668741226196e-01
-1.754609584808349609e+00,7.731966972351074219e-01,-1.004874184727668762e-01
-1.758456707000732422e+00,7.748919725418090820e-01,-3.354196995496749878e-02
-1.761908769607543945e+00,7.764132022857666016e-01,3.360781818628311157e-02
-1.759103775024414062e+00,7.751771211624145508e-01,1.007447987794876099e-01
-1.762426733970642090e+00,7.766414284706115723e-01,1.684993803501129150e-01
-1.758828520774841309e+00,7.750557661056518555e-01,2.359949350357055664e-01
-1.752082228660583496e+00,7.720829248428344727e-01,3.032511174678802490e-01
-1.754465937614440918e+00,7.731333971023559570e-01,3.726770281791687012e-01
-1.757568597793579102e+00,7.745006084442138672e-01,4.434164464473724365e-01
-1.792326569557189941e+00,7.593731284141540527e-01,-5.215774178504943848e-01
-1.796182036399841309e+00,7.610066533088684082e-01,-4.503639638423919678e-01
-1.791826605796813965e+00,7.591613531112670898e-01,-3.782661259174346924e-01
-1.790426850318908691e+00,7.585682868957519531e-01,-3.079770207405090332e-01
-1.793380022048950195e+00,7.598195075988769531e-01,-2.391472011804580688e-01
-1.815711975097656250e+00,7.692810893058776855e-01,-1.725233793258666992e-01
-1.801373720169067383e+00,7.632062435150146484e-01,-1.025294885039329529e-01
-1.795207262039184570e+00,7.605936527252197266e-01,-3.403183072805404663e-02
-1.801302313804626465e+00,7.631760239601135254e-01,3.414737433195114136e-02
-1.817339658737182617e+00,7.699707150459289551e-01,1.034382283687591553e-01
-1.804693579673767090e+00,7.646127939224243164e-01,1.714764386415481567e-01
-1.811963558197021484e+00,7.676929831504821777e-01,2.416253238916397095e-01
-1.808291912078857422e+00,7.661373019218444824e-01,3.110500276088714600e-01
-1.818336963653564453e+00,7.703932523727416992e-01,3.838626444339752197e-01
-1.821680665016174316e+00,7.718098759651184082e-01,4.567573368549346924e-01
-1.839096307754516602e+00,7.483265995979309082e-01,-5.320161581039428711e-01
-1.841740846633911133e+00,7.494027018547058105e-01,-4.590505957603454590e-01
-1.846548557281494141e+00,7.513589859008789062e-01,-3.875082433223724365e-01
-1.838387012481689453e+00,7.480379939079284668e-01,-3.143528401851654053e-01
-1.846905589103698730e+00,7.515042424201965332e-01,-2.448253631591796875e-01
-1.850859045982360840e+00,7.531129121780395508e-01,-1.748207956552505493e-01
-1.850979447364807129e+00,7.531618475914001465e-01,-1.047286018729209900e-01
-1.858847856521606445e+00,7.563635110855102539e-01,-3.502944484353065491e-02
-1.862908840179443359e+00,7.580159306526184082e-01,3.510597348213195801e-02
-1.867094874382019043e+00,7.597192525863647461e-01,1.056404188275337219e-01
-1.865235567092895508e+00,7.589626908302307129e-01,1.761787086725234985e-01
-1.870938181877136230e+00,7.612830400466918945e-01,2.480111122131347656e-01
-1.880778789520263672e+00,7.652872204780578613e-01,3.216015994548797607e-01
-1.877037048339843750e+00,7.637646794319152832e-01,3.939064145088195801e-01
-1.870759129524230957e+00,7.612102031707763672e-01,4.662833213806152344e-01
-1.905158400535583496e+00,7.436069250106811523e-01,-5.479915738105773926e-01
-1.896507740020751953e+00,7.402305006980895996e-01,-4.700121581554412842e-01
-1.908031344413757324e+00,7.447283267974853516e-01,-3.981329798698425293e-01
-1.906860351562500000e+00,7.442712187767028809e-01,-3.242065310478210449e-01
-1.899854302406311035e+00,7.415367364883422852e-01,-2.504115998744964600e-01
-1.911523938179016113e+00,7.460915446281433105e-01,-1.795237511396408081e-01
-1.903830885887145996e+00,7.430888414382934570e-01,-1.071061715483665466e-01
-1.912006139755249023e+00,7.462797164916992188e-01,-3.582623228430747986e-02
-1.918479323387145996e+00,7.488062977790832520e-01,3.594752401113510132e-02
-1.913620829582214355e+00,7.469099760055541992e-01,1.076569408178329468e-01
-1.923231601715087891e+00,7.506611347198486328e-01,1.806232929229736328e-01
-1.923387765884399414e+00,7.507221102714538574e-01,2.535134553909301758e-01
-1.924163222312927246e+00,7.510247826576232910e-01,3.271484076976776123e-01
-1.926103711128234863e+00,7.517821788787841797e-01,4.019039869308471680e-01
-1.927536845207214355e+00,7.523415684700012207e-01,4.777021110057830811e-01
-1.963275432586669922e+00,7.340883612632751465e-01,-5.616283416748046875e-01
-1.963877439498901367e+00,7.343134284019470215e-01,-4.840539991855621338e-01
-1.958481073379516602e+00,7.322956919670104980e-01,-4.064311385154724121e-01
-1.963292121887207031e+00,7.340946197509765625e-01,-3.319806456565856934e-01
-1.967989087104797363e+00,7.358508110046386719e-01,-2.579774558544158936e-01
-1.966434836387634277e+00,7.352696657180786133e-01,-1.836735755205154419e-01
-1.964204549789428711e+00,7.344357967376708984e-01,-1.099000349640846252e-01
-1.971280574798583984e+00,7.370815873146057129e-01,-3.673544153571128845e-02
-1.971938848495483398e+00,7.373276948928833008e-01,3.674770519137382507e-02
-1.972957849502563477e+00,7.377086877822875977e-01,1.103897914290428162e-01
-1.994971632957458496e+00,7.459399104118347168e-01,1.863390356302261353e-01
-1.976691007614135742e+00,7.391045689582824707e-01,2.591181695461273193e-01
-1.984483242034912109e+00,7.420181632041931152e-01,3.355639278888702393e-01
-1.974573850631713867e+00,7.383129596710205078e-01,4.097707569599151611e-01
-1.993656754493713379e+00,7.454482316970825195e-01,4.913939535617828369e-01
-2.004944086074829102e+00,7.171329259872436523e-01,-5.705534815788269043e-01
-2.025205612182617188e+00,7.243801355361938477e-01,-4.965636432170867920e-01
-2.013201713562011719e+00,7.200865149497985840e-01,-4.156054556369781494e-01
-2.032737255096435547e+00,7.270740270614624023e-01,-3.419286012649536133e-01
-2.024520635604858398e+00,7.241351008415222168e-01,-2.640022635459899902e-01
-2.023200273513793945e+00,7.236628532409667969e-01,-1.879889667034149170e-01
-2.051521778106689453e+00,7.337929010391235352e-01,-1.141861826181411743e-01
-2.035101175308227539e+00,7.279195785522460938e-01,-3.772673010826110840e-02
-2.051627159118652344e+00,7.338306307792663574e-01,3.803309053182601929e-02
-2.042036771774291992e+00,7.304003238677978516e-01,1.136582642793655396e-01
-2.043377637863159180e+00,7.308799028396606445e-01,1.898637712001800537e-01
-2.058033704757690430e+00,7.361221909523010254e-01,2.683724761009216309e-01
-2.053702831268310547e+00,7.345730662345886230e-01,3.454552590847015381e-01
-2.061706066131591797e+00,7.374356389045715332e-01,4.256186783313751221e-01
-2.059683561325073242e+00,7.367122769355773926e-01,5.050173401832580566e-01
-2.083536386489868164e+00,7.117772698402404785e-01,-5.899590849876403809e-01
-2.081504583358764648e+00,7.110832333564758301e-01,-5.078200697898864746e-01
-2.098997354507446289e+00,7.170591354370117188e-01,-4.311541318893432617e-01
-2.112189769744873047e+00,7.215659022331237793e-01,-3.535198867321014404e-01
-2.098747491836547852e+00,7.169737219810485840e-01,-2.723155021667480469e-01
-2.088211059570312500e+00,7.133743166923522949e-01,-1.930610239505767822e-01
-2.097360134124755859e+00,7.164998054504394531e-01,-1.161548048257827759e-01
-2.093385934829711914e+00,7.151421308517456055e-01,-3.861350193619728088e-02
-2.100341081619262695e+00,7.175181508064270020e-01,3.874178975820541382e-02
-2.105751991271972656e+00,7.193665504455566406e-01,1.166195496916770935e-01
-2.117117643356323242e+00,7.232493162155151367e-01,1.957335025072097778e-01
-2.116598606109619141e+00,7.230720520019531250e-01,2.746317088603973389e-01
-2.122949123382568359e+00,7.252414822578430176e-01,3.553206622600555420e-01
-2.102614641189575195e+00,7.182947993278503418e-01,4.318971633911132812e-01
-2.118444919586181641e+00,7.237027287483215332e-01,5.168322920799255371e-01
-2.148223161697387695e+00,6.997056603431701660e-01,-6.053774952888488770e-01
-2.156194686889648438e+00,7.023021578788757324e-01,-5.235359668731689453e-01
-2.160857677459716797e+00,7.038208842277526855e-01,-4.417462646961212158e-01
-2.175926923751831055e+00,7.087291479110717773e-01,-3.624526262283325195e-01
-2.164486169815063477e+00,7.050028443336486816e-01,-2.795072495937347412e-01
-2.170186042785644531e+00,7.068592905998229980e-01,-1.996839642524719238e-01
-2.175423622131347656e+00,7.085652947425842285e-01,-1.199041083455085754e-01
-2.178346157073974609e+00,7.095171809196472168e-01,-3.998921066522598267e-02
-2.176282644271850586e+00,7.088450789451599121e-01,3.995133191347122192e-02
-2.182335853576660156e+00,7.108166813850402832e-01,1.202851012349128723e-01
-2.179389953613281250e+00,7.098571658134460449e-01,2.005308568477630615e-01
-2.187987565994262695e+00,7.126575112342834473e-01,2.825420498847961426e-01
-2.195371150970458984e+00,7.150624990463256836e-01,3.656915724277496338e-01
-2.185337066650390625e+00,7.117941975593566895e-01,4.467506110668182373e-01
-2.184241771697998047e+00,7.114374637603759766e-01,5.303459167480468750e-01
-2.241623401641845703e+00,6.948028206825256348e-01,-6.288311481475830078e-01
-2.230998277664184570e+00,6.915094852447509766e-01,-5.392401814460754395e-01
-2.246130704879760742e+00,6.961998939514160156e-01,-4.570947289466857910e-01
-2.229867696762084961e+00,6.911590695381164551e-01,-3.697519898414611816e-01
-2.242373943328857422e+00,6.950354576110839844e-01,-2.882509231567382812e-01
-2.245163679122924805e+00,6.959001421928405762e-01,-2.056452631950378418e-01
-2.244834661483764648e+00,6.957981586456298828e-01,-1.231683343648910522e-01
-2.265307664871215820e+00,7.021438479423522949e-01,-4.139687865972518921e-02
-2.249021053314208984e+00,6.970957517623901367e-01,4.109925404191017151e-02
-2.244510173797607422e+00,6.956976056098937988e-01,1.231505274772644043e-01
-2.259709596633911133e+00,7.004086971282958984e-01,2.069776058197021484e-01
-2.264054298400878906e+00,7.017554044723510742e-01,2.910378873348236084e-01
-2.251305580139160156e+00,6.978038549423217773e-01,3.733067810535430908e-01
-2.276077508926391602e+00,7.054820060729980469e-01,4.631889760494232178e-01
-2.260706901550292969e+00,7.007178664207458496e-01,5.464208722114562988e-01
-2.296089887619018555e+00,6.758217215538024902e-01,-6.413310170173645020e-01
-2.307084321975708008e+00,6.790577769279479980e-01,-5.552243590354919434e-01
-2.313772201538085938e+00,6.810262799263000488e-01,-4.688282608985900879e-01
-2.315592765808105469e+00,6.815620660781860352e-01,-3.823099434375762939e-01
-2.319433927536010742e+00,6.826927065849304199e-01,-2.968702614307403564e-01
-2.311739921569824219e+00,6.804280877113342285e-01,-2.108296602964401245e-01
-2.330486297607421875e+00,6.859458088874816895e-01,-1.273160725831985474e-01
-2.313892841339111328e+00,6.810617446899414062e-01,-4.210228100419044495e-02
-2.329337358474731445e+00,6.856076121330261230e-01,4.238330200314521790e-02
-2.334422349929809570e+00,6.871043443679809570e-01,1.275310963392257690e-01
-2.327925920486450195e+00,6.851921677589416504e-01,2.123057842254638672e-01
-2.337850809097290039e+00,6.881134510040283203e-01,2.992274761199951172e-01
-2.333832025527954102e+00,6.869305372238159180e-01,3.853213191032409668e-01
-2.349547386169433594e+00,6.915561556816101074e-01,4.760771989822387695e-01
-2.336222410202026367e+00,6.876341104507446289e-01,5.622366666793823242e-01
-2.392143011093139648e+00,6.670435070991516113e-01,-6.654250621795654297e-01
-2.394017696380615234e+00,6.675662994384765625e-01,-5.737874507904052734e-01
-2.406322479248046875e+00,6.709973812103271484e-01,-4.855854511260986328e-01
-2.400184154510498047e+00,6.692857742309570312e-01,-3.946541547775268555e-01
-2.420829057693481445e+00,6.750425696372985840e-01,-3.085797727108001709e-01
-2.395814895629882812e+00,6.680673956871032715e-01,-2.176028639078140259e-01
-2.412557363510131836e+00,6.727360486984252930e-01,-1.312601864337921143e-01
-2.421459436416625977e+00,6.752183437347412109e-01,-4.387915506958961487e-02
-2.409216880798339844e+00,6.718044877052307129e-01,4.365730658173561096e-02
-2.401904106140136719e+00,6.697653532028198242e-01,1.306805610656738281e-01
-2.425010919570922852e+00,6.762086153030395508e-01,2.202546298503875732e-01
-2.426891565322875977e+00,6.767330765724182129e-01,3.093525767326354980e-01
-2.420491218566894531e+00,6.749483346939086914e-01,3.979931473731994629e-01
-2.437627315521240234e+00,6.797267198562622070e-01,4.919026494026184082e-01
-2.441816091537475586e+00,6.808947324752807617e-01,5.852435231208801270e-01
-2.488412857055664062e+00,6.556534171104431152e-01,-6.895233988761901855e-01
-2.478856801986694336e+00,6.531355381011962891e-01,-5.918200016021728516e-01
-2.494349718093872070e+00,6.572176814079284668e-01,-5.013992786407470703e-01
-2.477514028549194336e+00,6.527817845344543457e-01,-4.057913422584533691e-01
-2.484672307968139648e+00,6.546678543090820312e-01,-3.154910206794738770e-01
-2.487454652786254883e+00,6.554009318351745605e-01,-2.250510603189468384e-01
-2.500797033309936523e+00,6.589164733886718750e-01,-1.355340331792831421e-01
-2.502451896667480469e+00,6.593524813652038574e-01,-4.517117142677307129e-02
-2.502931118011474609e+00,6.594787836074829102e-01,4.517982155084609985e-02
-2.508721590042114258e+00,6.610044240951538086e-01,1.359635144472122192e-01
-2.520725965499877930e+00,6.641674041748046875e-01,2.280612736940383911e-01
-2.527193784713745117e+00,6.658715605735778809e-01,3.208901882171630859e-01
-2.511351108551025391e+00,6.616972684860229492e-01,4.113334715366363525e-01
-2.519235134124755859e+00,6.637745499610900879e-01,5.064015984535217285e-01
-2.526867866516113281e+00,6.657856106758117676e-01,6.032825112342834473e-01
-2.576538324356079102e+00,6.395817399024963379e-01,-7.113328576087951660e-01
-2.562572717666625977e+00,6.361150145530700684e-01,-6.095707416534423828e-01
-2.575983524322509766e+00,6.394439935684204102e-01,-5.159162282943725586e-01
-2.589551210403442383e+00,6.428118944168090820e-01,-4.225915670394897461e-01
-2.581983327865600586e+00,6.409332752227783203e-01,-3.266487419605255127e-01
-2.577805995941162109e+00,6.398963928222656250e-01,-2.323730885982513428e-01
-2.593514442443847656e+00,6.437957286834716797e-01,-1.400452107191085815e-01
-2.591540575027465820e+00,6.433057785034179688e-01,-4.660830274224281311e-02
-2.595805168151855469e+00,6.443644165992736816e-01,4.668500274419784546e-02
-2.612276315689086914e+00,6.484530568122863770e-01,1.410583257675170898e-01
-2.605118274688720703e+00,6.466761827468872070e-01,2.348351180553436279e-01
-2.610571861267089844e+00,6.480299234390258789e-01,3.302655220031738281e-01
-2.620162248611450195e+00,6.504105925559997559e-01,4.275870025157928467e-01
-2.620027780532836914e+00,6.503772139549255371e-01,5.247372984886169434e-01
-2.616035461425781250e+00,6.493862271308898926e-01,6.222881674766540527e-01
-2.664936780929565430e+00,6.211735606193542480e-01,-7.332081198692321777e-01
-2.670528173446655273e+00,6.224768757820129395e-01,-6.330663561820983887e-01
-2.695864677429199219e+00,6.283825635910034180e-01,-5.380694270133972168e-01
-2.680500030517578125e+00,6.248012185096740723e-01,-4.359295070171356201e-01
-2.687259912490844727e+00,6.263769268989562988e-01,-3.387984335422515869e-01
-2.708999395370483398e+00,6.314441561698913574e-01,-2.433596849441528320e-01
-2.714901208877563477e+00,6.328198313713073730e-01,-1.460957974195480347e-01
-2.688649892807006836e+00,6.267008781433105469e-01,-4.818852990865707397e-02
-2.692335128784179688e+00,6.275599002838134766e-01,4.825457930564880371e-02
-2.695932149887084961e+00,6.283982992172241211e-01,1.450750231742858887e-01
-2.705954074859619141e+00,6.307343244552612305e-01,2.430861145257949829e-01
-2.713010787963867188e+00,6.323791742324829102e-01,3.420449793338775635e-01
-2.726897001266479492e+00,6.356159448623657227e-01,4.434750676155090332e-01
-2.730079412460327148e+00,6.363577842712402344e-01,5.448983311653137207e-01
-2.729278087615966797e+00,6.361709833145141602e-01,6.469933390617370605e-01
-2.771516084671020508e+00,6.043300032615661621e-01,-7.600737214088439941e-01
-2.789435863494873047e+00,6.082374453544616699e-01,-6.591228246688842773e-01
-2.791770458221435547e+00,6.087465286254882812e-01,-5.554153323173522949e-01
-2.791956424713134766e+00,6.087870597839355469e-01,-4.525921642780303955e-01
-2.804184913635253906e+00,6.114535331726074219e-01,-3.524003326892852783e-01
-2.790178775787353516e+00,6.083994507789611816e-01,-2.498444467782974243e-01
-2.785542488098144531e+00,6.073884963989257812e-01,-1.494140475988388062e-01
-2.811735153198242188e+00,6.130998134613037109e-01,-5.023215338587760925e-02
-2.810619592666625977e+00,6.128565669059753418e-01,5.021222308278083801e-02
-2.807936191558837891e+00,6.122714281082153320e-01,1.506152302026748657e-01
-2.825206995010375977e+00,6.160373091697692871e-01,2.529810070991516113e-01
-2.824220180511474609e+00,6.158221960067749023e-01,3.549181520938873291e-01
-2.840734243392944336e+00,6.194230914115905762e-01,4.604993462562561035e-01
-2.824109554290771484e+00,6.157980561256408691e-01,5.618491172790527344e-01
-2.832693576812744141e+00,6.176698207855224609e-01,6.693443059921264648e-01
-2.895342826843261719e+00,5.880527496337890625e-01,-7.916431427001953125e-01
-2.898419857025146484e+00,5.886777639389038086e-01,-6.828140020370483398e-01
-2.894457578659057617e+00,5.878729820251464844e-01,-5.741118192672729492e-01
-2.917586088180541992e+00,5.925704240798950195e-01,-4.715342223644256592e-01
-2.903722763061523438e+00,5.897547602653503418e-01,-3.638110756874084473e-01
-2.898836374282836914e+00,5.887623429298400879e-01,-2.587929964065551758e-01
-2.939591407775878906e+00,5.970398187637329102e-01,-1.572026163339614868e-01
-2.921419858932495117e+00,5.933490991592407227e-01,-5.203463137149810791e-02
-2.940089941024780273e+00,5.971410274505615234e-01,5.236716940999031067e-02
-2.938308715820312500e+00,5.967792868614196777e-01,1.571340113878250122e-01
-2.927462577819824219e+00,5.945764183998107910e-01,2.613486051559448242e-01
-2.946054458618164062e+00,5.983524322509765625e-01,3.691148757934570312e-01
-2.943152189254760742e+00,5.977630019187927246e-01,4.756661653518676758e-01
-2.950148105621337891e+00,5.991839170455932617e-01,5.851579308509826660e-01
-2.961978673934936523e+00,6.015866994857788086e-01,6.977872848510742188e-01
-3.031154394149780273e+00,5.705913901329040527e-01,-8.264589309692382812e-01
-3.026903152465820312e+00,5.697911977767944336e-01,-7.110881209373474121e-01
-3.021248102188110352e+00,5.687266588211059570e-01,-5.975846648216247559e-01
-3.031533241271972656e+00,5.706627368927001953e-01,-4.885799586772918701e-01
-3.043594598770141602e+00,5.729331970214843750e-01,-3.802693784236907959e-01
-3.047049999237060547e+00,5.735836625099182129e-01,-2.712639868259429932e-01
-3.057525634765625000e+00,5.755556225776672363e-01,-1.630522161722183228e-01
-3.051861047744750977e+00,5.744892954826354980e-01,-5.420596152544021606e-02
-3.068875312805175781e+00,5.776920914649963379e-01,5.450816079974174500e-02
-3.058775901794433594e+00,5.757909417152404785e-01,1.631188839673995972e-01
-3.069904565811157227e+00,5.778858661651611328e-01,2.732986211776733398e-01
-3.050663232803344727e+00,5.742638707160949707e-01,3.811525702476501465e-01
-3.075047969818115234e+00,5.788540840148925781e-01,4.955930411815643311e-01
-3.073861598968505859e+00,5.786307454109191895e-01,6.079912781715393066e-01
-3.073833703994750977e+00,5.786255002021789551e-01,7.221131324768066406e-01
-3.157475233078002930e+00,5.477002263069152832e-01,-8.586755394935607910e-01
-3.175796747207641602e+00,5.508783459663391113e-01,-7.441380023956298828e-01
-3.169986248016357422e+00,5.498703718185424805e-01,-6.253833770751953125e-01
-3.175845861434936523e+00,5.508868098258972168e-01,-5.105151534080505371e-01
-3.186998367309570312e+00,5.528213381767272949e-01,-3.971570730209350586e-01
-3.177697420120239258e+00,5.512080192565917969e-01,-2.821636199951171875e-01
-3.186790466308593750e+00,5.527853369712829590e-01,-1.695063561201095581e-01
-3.189833879470825195e+00,5.533132553100585938e-01,-5.651012435555458069e-02
-3.199188232421875000e+00,5.549358725547790527e-01,5.667584016919136047e-02
