-4.146989285945892334e-01,9.886462092399597168e-01,2.475132048130035400e-01
-4.266468286514282227e-01,9.776621460914611816e-01,-2.858211994171142578e-01
-4.210770428180694580e-01,9.648989439010620117e-01,-2.430519610643386841e-01
-4.216881096363067627e-01,9.662992358207702637e-01,-2.049354463815689087e-01
-4.210484921932220459e-01,9.648335576057434082e-01,-1.667316704988479614e-01
-4.245761036872863770e-01,9.729170799255371094e-01,-1.303385198116302490e-01
-4.227356016635894775e-01,9.686995744705200195e-01,-9.246855974197387695e-02
-4.311316907405853271e-01,9.879392385482788086e-01,-5.649099126458168030e-02
-4.285714328289031982e-01,9.820723533630371094e-01,-1.870329678058624268e-02
-4.307514727115631104e-01,9.870679378509521484e-01,1.879843696951866150e-02
-4.266615211963653564e-01,9.776958227157592773e-01,5.590526759624481201e-02
-4.228174388408660889e-01,9.688870310783386230e-01,9.248645603656768799e-02
-4.325118064880371094e-01,9.911017417907714844e-01,1.327746659517288208e-01
-4.332764148712158203e-01,9.928538203239440918e-01,1.715738177299499512e-01
-4.312859177589416504e-01,9.882925748825073242e-01,2.095998674631118774e-01
-4.346130490303039551e-01,9.959167838096618652e-01,2.508651614189147949e-01
-4.487689733505249023e-01,9.894774556159973145e-01,-2.911235094070434570e-01
-4.420993030071258545e-01,9.747716784477233887e-01,-2.471074908971786499e-01
-4.409966170787811279e-01,9.723404049873352051e-01,-2.075341343879699707e-01
-4.377207159996032715e-01,9.651174545288085938e-01,-1.678462326526641846e-01
-4.473908543586730957e-01,9.864388704299926758e-01,-1.329942494630813599e-01
-4.449997246265411377e-01,9.811667203903198242e-01,-9.425698965787887573e-02
-4.468880295753479004e-01,9.853301644325256348e-01,-5.670175328850746155e-02
-4.440127015113830566e-01,9.789904952049255371e-01,-1.876371726393699646e-02
-4.512708485126495361e-01,9.949937462806701660e-01,1.907044276595115662e-02
-4.476812481880187988e-01,9.870791435241699219e-01,5.680239945650100708e-02
-4.460437893867492676e-01,9.834687709808349609e-01,9.447813779115676880e-02
-4.500837624073028564e-01,9.923764467239379883e-01,1.337947696447372437e-01
-4.497083723545074463e-01,9.915487170219421387e-01,1.724429726600646973e-01
-4.528211951255798340e-01,9.984120726585388184e-01,2.130988091230392456e-01
-4.471866786479949951e-01,9.859887361526489258e-01,2.499510496854782104e-01
-4.663362503051757812e-01,9.902834296226501465e-01,-2.932944893836975098e-01
-4.634568095207214355e-01,9.841688275337219238e-01,-2.511456310749053955e-01
-4.634230136871337891e-01,9.840970635414123535e-01,-2.114375680685043335e-01
-4.646543562412261963e-01,9.867119193077087402e-01,-1.727407574653625488e-01
-4.650614261627197266e-01,9.875763058662414551e-01,-1.340313404798507690e-01
-4.627974927425384521e-01,9.827687740325927734e-01,-9.503751993179321289e-02
-4.634474217891693115e-01,9.841489195823669434e-01,-5.700967088341712952e-02
-4.646973013877868652e-01,9.868030548095703125e-01,-1.903899013996124268e-02
-4.665688276290893555e-01,9.907773137092590332e-01,1.911566779017448425e-02
-4.656925499439239502e-01,9.889165163040161133e-01,5.728584900498390198e-02
-4.641851186752319336e-01,9.857154488563537598e-01,9.532246738672256470e-02
-4.683543443679809570e-01,9.945689439773559570e-01,1.349803656339645386e-01
-4.657439887523651123e-01,9.890257716178894043e-01,1.731458455324172974e-01
-4.713172912597656250e-01,1.000860929489135742e+00,2.150393426418304443e-01
-4.695290923118591309e-01,9.970635771751403809e-01,2.544361948966979980e-01
-4.815823137760162354e-01,9.858022928237915039e-01,-2.939787209033966064e-01
-4.797299504280090332e-01,9.820104837417602539e-01,-2.523212730884552002e-01
-4.815244376659393311e-01,9.856837987899780273e-01,-2.132374793291091919e-01
-4.824106097221374512e-01,9.874978065490722656e-01,-1.740693449974060059e-01
-4.834909439086914062e-01,9.897092580795288086e-01,-1.352461874485015869e-01
-4.834798574447631836e-01,9.896866083145141602e-01,-9.636583924293518066e-02
-4.858890473842620850e-01,9.946181774139404297e-01,-5.801306664943695068e-02
-4.791227281093597412e-01,9.807674884796142578e-01,-1.905290409922599792e-02
-4.891864955425262451e-01,1.001368165016174316e+00,1.945310272276401520e-02
-4.814125299453735352e-01,9.854547381401062012e-01,5.747858807444572449e-02
-4.900037646293640137e-01,1.003041148185729980e+00,9.766617417335510254e-02
-4.915070533752441406e-01,1.006118297576904297e+00,1.374885290861129761e-01
-4.890106916427612305e-01,1.001008272171020508e+00,1.764508783817291260e-01
-4.859593808650970459e-01,9.947622418403625488e-01,2.152014523744583130e-01
-4.879989624023437500e-01,9.989371895790100098e-01,2.566704750061035156e-01
-4.948090910911560059e-01,9.771645069122314453e-01,-2.934848368167877197e-01
-5.061572194099426270e-01,9.995751380920410156e-01,-2.586694061756134033e-01
-5.026644468307495117e-01,9.926774501800537109e-01,-2.162847965955734253e-01
-5.000736117362976074e-01,9.875609874725341797e-01,-1.753242611885070801e-01
-5.010967254638671875e-01,9.895815253257751465e-01,-1.361949145793914795e-01
-5.032923221588134766e-01,9.939174056053161621e-01,-9.746925532817840576e-02
-4.986024498939514160e-01,9.846557378768920898e-01,-5.784232169389724731e-02
-5.015712380409240723e-01,9.905185699462890625e-01,-1.937981694936752319e-02
-5.067960023880004883e-01,1.000836610794067383e+00,1.958169229328632355e-02
-5.097777843475341797e-01,1.006725072860717773e+00,5.913875997066497803e-02
-5.033288598060607910e-01,9.939896464347839355e-01,9.747634083032608032e-02
-5.065975189208984375e-01,1.000444650650024414e+00,1.376899927854537964e-01
-5.079625844955444336e-01,1.003140449523925781e+00,1.780901253223419189e-01
-5.036617517471313477e-01,9.946469664573669434e-01,2.167139053344726562e-01
-5.131534337997436523e-01,1.013391494750976562e+00,2.622448205947875977e-01
-5.192262530326843262e-01,9.899692535400390625e-01,-2.995320856571197510e-01
-5.253340005874633789e-01,1.001614451408386230e+00,-2.611162662506103516e-01
-5.201751589775085449e-01,9.917784333229064941e-01,-2.176888287067413330e-01
-5.163505077362060547e-01,9.844862818717956543e-01,-1.760724484920501709e-01
-5.309179425239562988e-01,1.012260913848876953e+00,-1.403477638959884644e-01
-5.249415040016174316e-01,1.000866055488586426e+00,-9.887738525867462158e-02
-5.248444080352783203e-01,1.000680923461914062e+00,-5.921893939375877380e-02
-5.269106626510620117e-01,1.004620432853698730e+00,-1.980125531554222107e-02
-5.264367461204528809e-01,1.003716826438903809e+00,1.978344656527042389e-02
-5.324748754501342773e-01,1.015229344367980957e+00,6.007989495992660522e-02
-5.317192673683166504e-01,1.013788700103759766e+00,1.001540422439575195e-01
-5.264430642127990723e-01,1.003728985786437988e+00,1.391648203134536743e-01
-5.255920886993408203e-01,1.002106428146362305e+00,1.792237609624862671e-01
-5.304567813873291016e-01,1.011381626129150391e+00,2.219915986061096191e-01
-5.299536585807800293e-01,1.010422348976135254e+00,2.634124457836151123e-01
-5.417237877845764160e-01,9.978771209716796875e-01,-3.042396903038024902e-01
-5.408623814582824707e-01,9.962904453277587891e-01,-2.617197036743164062e-01
-5.405787229537963867e-01,9.957678914070129395e-01,-2.202402800321578979e-01
-5.474917888641357422e-01,1.008502125740051270e+00,-1.817505210638046265e-01
-5.438581705093383789e-01,1.001808762550354004e+00,-1.399635523557662964e-01
-5.475845932960510254e-01,1.008673071861267090e+00,-1.004126816987991333e-01
-5.401102900505065918e-01,9.949050545692443848e-01,-5.932855606079101562e-02
-5.405884385108947754e-01,9.957858324050903320e-01,-1.977760903537273407e-02
-5.497992634773254395e-01,1.012752532958984375e+00,2.011458948254585266e-02
-5.504786372184753418e-01,1.014003872871398926e+00,6.046746671199798584e-02
-5.490451455116271973e-01,1.011363387107849121e+00,1.006805077195167542e-01
-5.479630827903747559e-01,1.009370207786560059e+00,1.410199701786041260e-01
-5.491406321525573730e-01,1.011539220809936523e+00,1.822978854179382324e-01
-5.508014559745788574e-01,1.014598608016967773e+00,2.244051843881607056e-01
-5.557865500450134277e-01,1.023781299591064453e+00,2.689414024353027344e-01
-5.728107690811157227e-01,1.020047187805175781e+00,-3.134666979312896729e-01
-5.667513012886047363e-01,1.009256601333618164e+00,-2.672294974327087402e-01
-5.639865994453430176e-01,1.004333376884460449e+00,-2.238972932100296021e-01
-5.654093623161315918e-01,1.006866931915283203e+00,-1.828956156969070435e-01
-5.682878494262695312e-01,1.011992931365966797e+00,-1.425082236528396606e-01
-5.731986761093139648e-01,1.020737886428833008e+00,-1.024199947714805603e-01
-5.647153854370117188e-01,1.005631089210510254e+00,-6.044399365782737732e-02
-5.684407949447631836e-01,1.012265324592590332e+00,-2.026443555951118469e-02
-5.709601640701293945e-01,1.016751766204833984e+00,2.035424858331680298e-02
-5.690502524375915527e-01,1.013350605964660645e+00,6.090797856450080872e-02
-5.709699392318725586e-01,1.016769170761108398e+00,1.020217612385749817e-01
-5.717107653617858887e-01,1.018088340759277344e+00,1.433665752410888672e-01
-5.683919787406921387e-01,1.012178301811218262e+00,1.838604211807250977e-01
-5.657610297203063965e-01,1.007493138313293457e+00,2.246017158031463623e-01
-5.730208158493041992e-01,1.020421266555786133e+00,2.701856493949890137e-01
-5.829110741615295410e-01,1.004096627235412598e+00,-3.110971152782440186e-01
-5.910190343856811523e-01,1.018062949180603027e+00,-2.717732787132263184e-01
-5.887283682823181152e-01,1.014117240905761719e+00,-2.279336601495742798e-01
-5.804479122161865234e-01,9.998536705970764160e-01,-1.831120699644088745e-01
-5.888824462890625000e-01,1.014382719993591309e+00,-1.440169513225555420e-01
-5.873884558677673340e-01,1.011809229850769043e+00,-1.023572161793708801e-01
-5.940919518470764160e-01,1.023356318473815918e+00,-6.201413273811340332e-02
-5.896422863006591797e-01,1.015691518783569336e+00,-2.049988135695457458e-02
-5.952959656715393066e-01,1.025430202484130859e+00,2.069643884897232056e-02
-5.950593352317810059e-01,1.025022625923156738e+00,6.211511045694351196e-02
-5.895754098892211914e-01,1.015576243400573730e+00,1.027382984757423401e-01
-5.869800448417663574e-01,1.011105656623840332e+00,1.435517072677612305e-01
-5.944047570228576660e-01,1.023895144462585449e+00,1.875150054693222046e-01
-5.877135992050170898e-01,1.012369275093078613e+00,2.275407761335372925e-01
-5.906553864479064941e-01,1.017436623573303223e+00,2.716060876846313477e-01
-6.053957343101501465e-01,1.009277939796447754e+00,-3.153548538684844971e-01
-6.118872165679931641e-01,1.020100116729736328e+00,-2.746270000934600830e-01
-6.149167418479919434e-01,1.025150775909423828e+00,-2.323680073022842407e-01
-6.078820824623107910e-01,1.013423085212707520e+00,-1.871714591979980469e-01
-6.096878051757812500e-01,1.016433358192443848e+00,-1.455321758985519409e-01
-6.125594377517700195e-01,1.021220684051513672e+00,-1.041856110095977783e-01
-6.144742369651794434e-01,1.024412989616394043e+00,-6.260473281145095825e-02
-6.193301677703857422e-01,1.032508492469787598e+00,-2.101606875658035278e-02
-6.185346841812133789e-01,1.031182408332824707e+00,2.098907530307769775e-02
-6.168640851974487305e-01,1.028397321701049805e+00,6.284822523593902588e-02
-6.180108189582824707e-01,1.030308961868286133e+00,1.051127985119819641e-01
-6.099581122398376465e-01,1.016883969306945801e+00,1.455966979265213013e-01
-6.144487261772155762e-01,1.024370551109313965e+00,1.891933679580688477e-01
-6.227760314941406250e-01,1.038253188133239746e+00,2.353379130363464355e-01
-6.095885634422302246e-01,1.016267895698547363e+00,2.735953032970428467e-01
-6.341972351074218750e-01,1.023786306381225586e+00,-3.226913809776306152e-01
-6.457134485244750977e-01,1.042376995086669922e+00,-2.830834686756134033e-01
-6.312869787216186523e-01,1.019088268280029297e+00,-2.330181151628494263e-01
-6.343384981155395508e-01,1.024014353752136230e+00,-1.907849758863449097e-01
-6.348901391029357910e-01,1.024904847145080566e+00,-1.480310857295989990e-01
-6.370505690574645996e-01,1.028392434120178223e+00,-1.058366969227790833e-01
-6.381109356880187988e-01,1.030104160308837891e+00,-6.350421160459518433e-02
-6.382027268409729004e-01,1.030252456665039062e+00,-2.115391381084918976e-02
-6.412239074707031250e-01,1.035129547119140625e+00,2.125405520200729370e-02
-6.389266848564147949e-01,1.031421065330505371e+00,6.358539313077926636e-02
-6.407952904701232910e-01,1.034437537193298340e+00,1.064588278532028198e-01
-6.425849199295043945e-01,1.037326574325561523e+00,1.498252004384994507e-01
-6.426857113838195801e-01,1.037489295005798340e+00,1.932955086231231689e-01
-6.452165246009826660e-01,1.041574716567993164e+00,2.381597310304641724e-01
-6.457942724227905273e-01,1.042507529258728027e+00,2.831189036369323730e-01
-6.518172621726989746e-01,1.019347310066223145e+00,-3.241997063159942627e-01
-6.542939543724060059e-01,1.023220539093017578e+00,-2.803956866264343262e-01
-6.531987786293029785e-01,1.021507740020751953e+00,-2.356850057840347290e-01
-6.559433341026306152e-01,1.025799870491027832e+00,-1.928471177816390991e-01
-6.592811942100524902e-01,1.031019806861877441e+00,-1.502618789672851562e-01
-6.610625386238098145e-01,1.033805608749389648e+00,-1.073565781116485596e-01
-6.570435762405395508e-01,1.027520537376403809e+00,-6.391816586256027222e-02
-6.599985361099243164e-01,1.032141685485839844e+00,-2.138448506593704224e-02
-6.620424389839172363e-01,1.035338044166564941e+00,2.145070955157279968e-02
-6.635980606079101562e-01,1.037770748138427734e+00,6.455578655004501343e-02
-6.601290702819824219e-01,1.032345771789550781e+00,1.072049811482429504e-01
-6.703105568885803223e-01,1.048268079757690430e+00,1.527756601572036743e-01
-6.695028543472290039e-01,1.047005057334899902e+00,1.968336254358291626e-01
-6.621400117874145508e-01,1.035490512847900391e+00,2.389111518859863281e-01
-6.671513319015502930e-01,1.043327569961547852e+00,2.859056890010833740e-01
-6.778766512870788574e-01,1.027400135993957520e+00,-3.298130333423614502e-01
-6.821191310882568359e-01,1.033830165863037109e+00,-2.859492897987365723e-01
-6.858905553817749023e-01,1.039546132087707520e+00,-2.420871704816818237e-01
-6.758349537849426270e-01,1.024305701255798340e+00,-1.943649202585220337e-01
-6.892348527908325195e-01,1.044614791870117188e+00,-1.536652594804763794e-01
-6.796616315841674805e-01,1.030105471611022949e+00,-1.079715341329574585e-01
-6.867280006408691406e-01,1.040815353393554688e+00,-6.534994393587112427e-02
-6.865518689155578613e-01,1.040548443794250488e+00,-2.176003344357013702e-02
-6.832501888275146484e-01,1.035544395446777344e+00,2.165538631379604340e-02
-6.862313151359558105e-01,1.040062665939331055e+00,6.530268490314483643e-02
-6.873173713684082031e-01,1.041708588600158691e+00,1.091877222061157227e-01
-6.920585632324218750e-01,1.048894524574279785e+00,1.542948186397552490e-01
-6.870299577713012695e-01,1.041272997856140137e+00,1.975844949483871460e-01
-6.891439557075500488e-01,1.044477105140686035e+00,2.432354837656021118e-01
-6.946557760238647461e-01,1.052830815315246582e+00,2.912047505378723145e-01
-7.137748003005981445e-01,1.048838138580322266e+00,-3.399398624897003174e-01
-7.080371379852294922e-01,1.040407061576843262e+00,-2.905417978763580322e-01
-7.102317810058593750e-01,1.043632030487060547e+00,-2.453809529542922974e-01
-7.111281752586364746e-01,1.044949173927307129e+00,-2.001929879188537598e-01
-7.055883407592773438e-01,1.036808729171752930e+00,-1.539868563413619995e-01
-7.067511677742004395e-01,1.038517475128173828e+00,-1.099023073911666870e-01
-7.148355841636657715e-01,1.050396919250488281e+00,-6.658715009689331055e-02
-7.132510542869567871e-01,1.048068523406982422e+00,-2.212851867079734802e-02
-7.084238529205322266e-01,1.040975332260131836e+00,2.197875641286373138e-02
-7.116354703903198242e-01,1.045694589614868164e+00,6.628905981779098511e-02
-7.110729217529296875e-01,1.044867992401123047e+00,1.105743572115898132e-01
-7.202927470207214355e-01,1.058415770530700684e+00,1.571959257125854492e-01
-7.209230661392211914e-01,1.059342026710510254e+00,2.029504030942916870e-01
-7.191385030746459961e-01,1.056719660758972168e+00,2.484581619501113892e-01
-7.161935567855834961e-01,1.052392244338989258e+00,2.938887476921081543e-01
-7.340484857559204102e-01,1.046119451522827148e+00,-3.424290120601654053e-01
-7.340525984764099121e-01,1.046125292778015137e+00,-2.950425446033477783e-01
-7.311564087867736816e-01,1.041997790336608887e+00,-2.474320232868194580e-01
-7.296104431152343750e-01,1.039794683456420898e+00,-2.011856287717819214e-01
-7.387509942054748535e-01,1.052821159362792969e+00,-1.579193025827407837e-01
-7.366634011268615723e-01,1.049846053123474121e+00,-1.122055277228355408e-01
-7.355024218559265137e-01,1.048191547393798828e+00,-6.710783392190933228e-02
-7.440686821937561035e-01,1.060399532318115234e+00,-2.261142060160636902e-02
-7.449612617492675781e-01,1.061671614646911621e+00,2.263854630291461945e-02
-7.361858487129211426e-01,1.049165487289428711e+00,6.717019528150558472e-02
-7.370509505271911621e-01,1.050398349761962891e+00,1.122645586729049683e-01
-7.511159777641296387e-01,1.070442914962768555e+00,1.605625003576278687e-01
-7.482621669769287109e-01,1.066375851631164551e+00,2.063287049531936646e-01
-7.486789226531982422e-01,1.066969752311706543e+00,2.533618509769439697e-01
-7.498158216476440430e-01,1.068590044975280762e+00,3.013783693313598633e-01
-7.569293975830078125e-01,1.046545505523681641e+00,-3.460794389247894287e-01
-7.567912340164184570e-01,1.046354532241821289e+00,-2.981317043304443359e-01
-7.623249292373657227e-01,1.054005503654479980e+00,-2.528485059738159180e-01
-7.706749439239501953e-01,1.065550327301025391e+00,-2.082819938659667969e-01
-7.618536353111267090e-01,1.053353905677795410e+00,-1.596185266971588135e-01
-7.630057930946350098e-01,1.054946780204772949e+00,-1.139062568545341492e-01
-7.598966956138610840e-01,1.050648093223571777e+00,-6.795451045036315918e-02
-7.751854062080383301e-01,1.071786642074584961e+00,-2.308846451342105865e-02
-7.617166042327880859e-01,1.053164362907409668e+00,2.268730476498603821e-02
-7.726445794105529785e-01,1.068273663520812988e+00,6.909450888633728027e-02
-7.595105171203613281e-01,1.050114274024963379e+00,1.133844703435897827e-01
-7.699488401412963867e-01,1.064546465873718262e+00,1.613145768642425537e-01
-7.757905125617980957e-01,1.072623252868652344e+00,2.096645385026931763e-01
-7.725912928581237793e-01,1.068199992179870605e+00,2.562536597251892090e-01
-7.776739597320556641e-01,1.075227379798889160e+00,3.063582777976989746e-01
-7.926162481307983398e-01,1.063495039939880371e+00,-3.553997278213500977e-01
-7.880211472511291504e-01,1.057329654693603516e+00,-3.044413626194000244e-01
-7.946456074714660645e-01,1.066218018531799316e+00,-2.584802806377410889e-01
-7.866286039352416992e-01,1.055461168289184570e+00,-2.084893882274627686e-01
-7.950412034988403320e-01,1.066748857498168945e+00,-1.633559912443161011e-01
-7.977194786071777344e-01,1.070342421531677246e+00,-1.167894676327705383e-01
-7.913160920143127441e-01,1.061750650405883789e+00,-6.939808279275894165e-02
-8.001958727836608887e-01,1.073665142059326172e+00,-2.337327040731906891e-02
-8.026968836784362793e-01,1.077020883560180664e+00,2.344632335007190704e-02
-7.924270033836364746e-01,1.063241243362426758e+00,6.949550658464431763e-02
-7.958213686943054199e-01,1.067795634269714355e+00,1.165115758776664734e-01
-8.099186420440673828e-01,1.086710691452026367e+00,1.664128452539443970e-01
-7.995346188545227051e-01,1.072777867317199707e+00,2.119100093841552734e-01
-8.161276578903198242e-01,1.095041632652282715e+00,2.654679417610168457e-01
-8.075320124626159668e-01,1.083508372306823730e+00,3.119791150093078613e-01
-8.217575550079345703e-01,1.070278525352478027e+00,-3.615602552890777588e-01
-8.263939023017883301e-01,1.076317071914672852e+00,-3.132822215557098389e-01
-8.139443993568420410e-01,1.060102462768554688e+00,-2.597954869270324707e-01
-8.260899782180786133e-01,1.075921177864074707e+00,-2.148445993661880493e-01
-8.218573331832885742e-01,1.070408463478088379e+00,-1.657008528709411621e-01
-8.324388265609741211e-01,1.084190130233764648e+00,-1.195882931351661682e-01
-8.261239528656005859e-01,1.075965404510498047e+00,-7.109279185533523560e-02
-8.236631751060485840e-01,1.072760462760925293e+00,-2.360780909657478333e-02
-8.312184214591979980e-01,1.082600593566894531e+00,2.382435835897922516e-02
-8.311753273010253906e-01,1.082544445991516113e+00,7.152748852968215942e-02
-8.345695137977600098e-01,1.086965203285217285e+00,1.198944002389907837e-01
-8.278586864471435547e-01,1.078224778175354004e+00,1.669108420610427856e-01
-8.234105706214904785e-01,1.072431445121765137e+00,2.141477614641189575e-01
-8.380967378616333008e-01,1.091559171676635742e+00,2.675044238567352295e-01
-8.314739465713500977e-01,1.082933425903320312e+00,3.152080476284027100e-01
-8.418657779693603516e-01,1.064571976661682129e+00,-3.636659979820251465e-01
-8.480097651481628418e-01,1.072341322898864746e+00,-3.156256973743438721e-01
-8.555060625076293945e-01,1.081820726394653320e+00,-2.680913209915161133e-01
-8.536685705184936523e-01,1.079497098922729492e+00,-2.179762572050094604e-01
-8.519435524940490723e-01,1.077315688133239746e+00,-1.686405241489410400e-01
-8.590044379234313965e-01,1.086244463920593262e+00,-1.211586967110633850e-01
-8.560008406639099121e-01,1.082446336746215820e+00,-7.232315093278884888e-02
-8.517128825187683105e-01,1.077024102210998535e+00,-2.396746352314949036e-02
-8.521693348884582520e-01,1.077601194381713867e+00,2.398030832409858704e-02
-8.593119382858276367e-01,1.086633324623107910e+00,7.260290533304214478e-02
-8.636042475700378418e-01,1.092061161994934082e+00,1.218074783682823181e-01
-8.581241965293884277e-01,1.085131406784057617e+00,1.698639839887619019e-01
-8.650640845298767090e-01,1.093907117843627930e+00,2.208859920501708984e-01
-8.639733791351318359e-01,1.092527985572814941e+00,2.707447409629821777e-01
-8.521834015846252441e-01,1.077619075775146484e+00,3.171790838241577148e-01
-8.787803649902343750e-01,1.079141139984130859e+00,-3.729015886783599854e-01
-8.804358839988708496e-01,1.081174135208129883e+00,-3.219017088413238525e-01
-8.773011565208435059e-01,1.077324628829956055e+00,-2.700613439083099365e-01
-8.792620301246643066e-01,1.079732656478881836e+00,-2.205425053834915161e-01
-8.863866925239562988e-01,1.088481783866882324e+00,-1.723568141460418701e-01
-8.880805969238281250e-01,1.090561866760253906e+00,-1.230454668402671814e-01
-8.958867788314819336e-01,1.100147843360900879e+00,-7.435502856969833374e-02
-8.887931108474731445e-01,1.091436743736267090e+00,-2.456878125667572021e-02
-8.823122382164001465e-01,1.083478331565856934e+00,2.438963204622268677e-02
-8.965166211128234863e-01,1.100921273231506348e+00,7.440730184316635132e-02
-8.949415683746337891e-01,1.098987102508544922e+00,1.239960715174674988e-01
-8.941990137100219727e-01,1.098075270652770996e+00,1.738759130239486694e-01
-8.876969814300537109e-01,1.090090751647949219e+00,2.226582169532775879e-01
-8.958452939987182617e-01,1.100096821784973145e+00,2.757697999477386475e-01
-9.012368321418762207e-01,1.106717705726623535e+00,3.295068740844726562e-01
-9.137214422225952148e-01,1.089814662933349609e+00,-3.810701668262481689e-01
-9.093760848045349121e-01,1.084631919860839844e+00,-3.267731070518493652e-01
-9.204659461975097656e-01,1.097858905792236328e+00,-2.784830033779144287e-01
-9.261595010757446289e-01,1.104649782180786133e+00,-2.283163368701934814e-01
-9.099189043045043945e-01,1.085279226303100586e+00,-1.738942116498947144e-01
-9.141575694084167480e-01,1.090334892272949219e+00,-1.244834288954734802e-01
-9.199309945106506348e-01,1.097220897674560547e+00,-7.503946125507354736e-02
-9.232578277587890625e-01,1.101188898086547852e+00,-2.508321404457092285e-02
-9.145335555076599121e-01,1.090783238410949707e+00,2.484619058668613434e-02
-9.226150512695312500e-01,1.100422263145446777e+00,7.525840401649475098e-02
-9.309260845184326172e-01,1.110334992408752441e+00,1.267668455839157104e-01
-9.168885946273803711e-01,1.093592166900634766e+00,1.752261966466903687e-01
-9.225872755050659180e-01,1.100389122962951660e+00,2.274357229471206665e-01
-9.403741359710693359e-01,1.121603846549987793e+00,2.845061123371124268e-01
-9.268639683723449707e-01,1.105489969253540039e+00,3.330571651458740234e-01
-9.460586905479431152e-01,1.096129536628723145e+00,-3.879734575748443604e-01
-9.462460279464721680e-01,1.096346616744995117e+00,-3.343487083911895752e-01
-9.444009661674499512e-01,1.094208836555480957e+00,-2.809571921825408936e-01
-9.555716514587402344e-01,1.107151508331298828e+00,-2.316366583108901978e-01
-9.437754154205322266e-01,1.093484044075012207e+00,-1.773552000522613525e-01
-9.448490738868713379e-01,1.094727993011474609e+00,-1.265160739421844482e-01
-9.510220885276794434e-01,1.101880192756652832e+00,-7.628125697374343872e-02
-9.573789238929748535e-01,1.109245419502258301e+00,-2.557624690234661102e-02
-9.579598307609558105e-01,1.109918475151062012e+00,2.559176646173000336e-02
-9.526078104972839355e-01,1.103717446327209473e+00,7.640845328569412231e-02
-9.610986113548278809e-01,1.113555192947387695e+00,1.286918967962265015e-01
-9.569369554519653320e-01,1.108733415603637695e+00,1.798285245895385742e-01
-9.559032320976257324e-01,1.107535719871520996e+00,2.317170202732086182e-01
-9.607292413711547852e-01,1.113127231597900391e+00,2.858148217201232910e-01
-9.695081710815429688e-01,1.123298764228820801e+00,3.425682187080383301e-01
-9.746644496917724609e-01,1.097127437591552734e+00,-3.932242393493652344e-01
-9.809452295303344727e-01,1.104197382926940918e+00,-3.409899473190307617e-01
-9.869326353073120117e-01,1.110937118530273438e+00,-2.888500988483428955e-01
-9.894310235977172852e-01,1.113749265670776367e+00,-2.359558492898941040e-01
-9.887260198593139648e-01,1.112955808639526367e+00,-1.827900111675262451e-01
-9.926151633262634277e-01,1.117333531379699707e+00,-1.307571381330490112e-01
-9.869169592857360840e-01,1.110919356346130371e+00,-7.787697762250900269e-02
-9.864740967750549316e-01,1.110420823097229004e+00,-2.592626027762889862e-02
-9.859573245048522949e-01,1.109839200973510742e+00,2.591267973184585571e-02
-9.979268312454223633e-01,1.123312592506408691e+00,7.874576002359390259e-02
-9.857900142669677734e-01,1.109650850296020508e+00,1.298580616712570190e-01
-9.894027113914489746e-01,1.113717436790466309e+00,1.829151064157485962e-01
-9.991788268089294434e-01,1.124721884727478027e+00,2.382804751396179199e-01
-9.868555665016174316e-01,1.110850334167480469e+00,2.888275384902954102e-01
-9.950714111328125000e-01,1.120098471641540527e+00,3.459004163742065430e-01
-1.024037122726440430e+00,1.120000720024108887e+00,-4.066341221332550049e-01
-1.019998669624328613e+00,1.115583777427673340e+00,-3.489790558815002441e-01
-1.022605180740356445e+00,1.118434548377990723e+00,-2.945750057697296143e-01
-1.027576804161071777e+00,1.123872160911560059e+00,-2.411917746067047119e-01
-1.021986722946166992e+00,1.117758274078369141e+00,-1.859622150659561157e-01
-1.023303270339965820e+00,1.119198203086853027e+00,-1.326758414506912231e-01
-1.033271789550781250e+00,1.130100846290588379e+00,-8.025018125772476196e-02
-1.029639720916748047e+00,1.126128315925598145e+00,-2.663437090814113617e-02
-1.035595655441284180e+00,1.132642388343811035e+00,2.678843587636947632e-02
-1.033400416374206543e+00,1.130241394042968750e+00,8.026016503572463989e-02
-1.040780782699584961e+00,1.138313531875610352e+00,1.349418759346008301e-01
-1.026870012283325195e+00,1.123099088668823242e+00,1.868507862091064453e-01
-1.029818296432495117e+00,1.126323699951171875e+00,2.417178899049758911e-01
-1.030992150306701660e+00,1.127607583999633789e+00,2.969910204410552979e-01
-1.038995862007141113e+00,1.136361360549926758e+00,3.554787039756774902e-01
-1.047286748886108398e+00,1.113014817237854004e+00,-4.094982743263244629e-01
-1.064776182174682617e+00,1.131601929664611816e+00,-3.587207198143005371e-01
-1.050435543060302734e+00,1.116361141204833984e+00,-2.979584336280822754e-01
-1.061887383460998535e+00,1.128531694412231445e+00,-2.454285025596618652e-01
-1.061618804931640625e+00,1.128246307373046875e+00,-1.902157217264175415e-01
-1.070917606353759766e+00,1.138128757476806641e+00,-1.367231011390686035e-01
-1.065295219421386719e+00,1.132153391838073730e+00,-8.147038519382476807e-02
-1.064579248428344727e+00,1.131392598152160645e+00,-2.711649239063262939e-02
-1.067718982696533203e+00,1.134729385375976562e+00,2.719646692276000977e-02
-1.065529346466064453e+00,1.132402300834655762e+00,8.148828893899917603e-02
-1.077888011932373047e+00,1.145536541938781738e+00,1.376129984855651855e-01
-1.068913698196411133e+00,1.135999083518981934e+00,1.915227919816970825e-01
-1.081849455833435059e+00,1.149746656417846680e+00,2.500422298908233643e-01
-1.082897543907165527e+00,1.150860548019409180e+00,3.071663677692413330e-01
-1.082020521163940430e+00,1.149928450584411621e+00,3.645302951335906982e-01
-1.097730040550231934e+00,1.133666515350341797e+00,-4.228339493274688721e-01
-1.102450132369995117e+00,1.138541102409362793e+00,-3.658852577209472656e-01
-1.099132776260375977e+00,1.135115146636962891e+00,-3.071314394474029541e-01
-1.104649901390075684e+00,1.140812993049621582e+00,-2.515121996402740479e-01
-1.102066993713378906e+00,1.138145446777343750e+00,-1.945241987705230713e-01
-1.098886847496032715e+00,1.134861230850219727e+00,-1.382059305906295776e-01
-1.095577239990234375e+00,1.131443262100219727e+00,-8.253927528858184814e-02
-1.119155168533325195e+00,1.155793070793151855e+00,-2.808236330747604370e-02
-1.115777611732482910e+00,1.152304887771606445e+00,2.799761109054088593e-02
-1.116154789924621582e+00,1.152694463729858398e+00,8.408955484628677368e-02
-1.106700658798217773e+00,1.142930746078491211e+00,1.391886472702026367e-01
-1.117433786392211914e+00,1.154015302658081055e+00,1.972365528345108032e-01
-1.127918004989624023e+00,1.164842724800109863e+00,2.568099796772003174e-01
-1.118395328521728516e+00,1.155008316040039062e+00,3.125140070915222168e-01
-1.115933418273925781e+00,1.152465820312500000e+00,3.703601360321044922e-01
-1.150619506835937500e+00,1.154748558998107910e+00,-4.367951154708862305e-01
-1.132608175277709961e+00,1.136672616004943848e+00,-3.704566359519958496e-01
-1.144819259643554688e+00,1.148927450180053711e+00,-3.152700960636138916e-01
-1.144916176795959473e+00,1.149024724960327148e+00,-2.569092810153961182e-01
-1.133027434349060059e+00,1.137093305587768555e+00,-1.970959752798080444e-01
-1.136475920677185059e+00,1.140554189682006836e+00,-1.408658176660537720e-01
-1.155306816101074219e+00,1.159452676773071289e+00,-8.578012883663177490e-02
-1.157234072685241699e+00,1.161386847496032715e+00,-2.861780300736427307e-02
-1.146340608596801758e+00,1.150454282760620117e+00,2.834841236472129822e-02
-1.152925014495849609e+00,1.157062411308288574e+00,8.560328185558319092e-02
-1.145499467849731445e+00,1.149610042572021484e+00,1.419842690229415894e-01
-1.159355998039245605e+00,1.163516402244567871e+00,2.016759812831878662e-01
-1.156636476516723633e+00,1.160787105560302734e+00,2.595392167568206787e-01
-1.159391880035400391e+00,1.163552403450012207e+00,3.192832171916961670e-01
-1.163456559181213379e+00,1.167631626129150391e+00,3.805465996265411377e-01
-1.185902714729309082e+00,1.156570076942443848e+00,-4.438593685626983643e-01
-1.188528180122375488e+00,1.159130573272705078e+00,-3.832811415195465088e-01
-1.191101908683776855e+00,1.161640644073486328e+00,-3.234037756919860840e-01
-1.179583072662353516e+00,1.150406837463378906e+00,-2.609665989875793457e-01
-1.185680627822875977e+00,1.156353473663330078e+00,-2.033552527427673340e-01
-1.182573080062866211e+00,1.153322696685791016e+00,-1.445185691118240356e-01
-1.193562507629394531e+00,1.164040327072143555e+00,-8.737452328205108643e-02
-1.196649909019470215e+00,1.167051434516906738e+00,-2.917645126581192017e-02
-1.204321861267089844e+00,1.174533605575561523e+00,2.936350740492343903e-02
-1.198066353797912598e+00,1.168432831764221191e+00,8.770422637462615967e-02
-1.192704081535339355e+00,1.163203239440917969e+00,1.457566469907760620e-01
-1.205502986907958984e+00,1.175685524940490723e+00,2.067549675703048706e-01
-1.208726286888122559e+00,1.178829193115234375e+00,2.674141526222229004e-01
-1.198789000511169434e+00,1.169137597084045410e+00,3.254909515380859375e-01
-1.195803642272949219e+00,1.166226148605346680e+00,3.856273889541625977e-01
-1.237539172172546387e+00,1.172843575477600098e+00,-4.568558335304260254e-01
-1.237376689910888672e+00,1.172689676284790039e+00,-3.935807347297668457e-01
-1.230165958404541016e+00,1.165855884552001953e+00,-3.294456303119659424e-01
-1.232313036918640137e+00,1.167890787124633789e+00,-2.689065337181091309e-01
-1.226057410240173340e+00,1.161962151527404785e+00,-2.074065059423446655e-01
-1.236550569534301758e+00,1.171906709671020508e+00,-1.490498334169387817e-01
-1.240169286727905273e+00,1.175336241722106934e+00,-8.954565227031707764e-02
-1.248519420623779297e+00,1.183249831199645996e+00,-3.002510778605937958e-02
-1.240309476852416992e+00,1.175469160079956055e+00,2.982767112553119659e-02
-1.241783738136291504e+00,1.176866292953491211e+00,8.966223150491714478e-02
-1.247126460075378418e+00,1.181929707527160645e+00,1.503246128559112549e-01
-1.230580687522888184e+00,1.166248917579650879e+00,2.081716805696487427e-01
-1.235997676849365234e+00,1.171382665634155273e+00,2.697105407714843750e-01
-1.250702023506164551e+00,1.185318350791931152e+00,3.349453210830688477e-01
-1.251896739006042480e+00,1.186450719833374023e+00,3.981992304325103760e-01
-1.273295879364013672e+00,1.172599196434020996e+00,-4.638123810291290283e-01
-1.274765491485595703e+00,1.173952698707580566e+00,-4.000875055789947510e-01
-1.283855557441711426e+00,1.182323813438415527e+00,-3.392571508884429932e-01
-1.276851415634155273e+00,1.175873637199401855e+00,-2.749245166778564453e-01
-1.274094939231872559e+00,1.173335075378417969e+00,-2.126699537038803101e-01
-1.288072824478149414e+00,1.186207532882690430e+00,-1.531978845596313477e-01
-1.290162801742553711e+00,1.188132286071777344e+00,-9.191806614398956299e-02
-1.289696693420410156e+00,1.187703013420104980e+00,-3.060339763760566711e-02
-1.285927534103393555e+00,1.184231996536254883e+00,3.051396086812019348e-02
-1.295593261718750000e+00,1.193133234977722168e+00,9.230495244264602661e-02
-1.288521051406860352e+00,1.186620354652404785e+00,1.532512009143829346e-01
-1.304995536804199219e+00,1.201792001724243164e+00,2.178278267383575439e-01
-1.298693060874938965e+00,1.195987939834594727e+00,2.796273529529571533e-01
-1.296878099441528320e+00,1.194316506385803223e+00,3.426983654499053955e-01
-1.300071120262145996e+00,1.197257041931152344e+00,4.080297052860260010e-01
-1.331341028213500977e+00,1.191294908523559570e+00,-4.786957502365112305e-01
-1.333922982215881348e+00,1.193605184555053711e+00,-4.132498204708099365e-01
-1.332075238227844238e+00,1.191951870918273926e+00,-3.474552035331726074e-01
-1.336884737014770508e+00,1.196255445480346680e+00,-2.841347157955169678e-01
-1.339384078979492188e+00,1.198491930961608887e+00,-2.206819057464599609e-01
-1.334668755531311035e+00,1.194272518157958984e+00,-1.566906571388244629e-01
-1.330395102500915527e+00,1.190448403358459473e+00,-9.356085956096649170e-02
-1.348181724548339844e+00,1.206364035606384277e+00,-3.157822787761688232e-02
-1.343773245811462402e+00,1.202419281005859375e+00,3.147496655583381653e-02
-1.341247677803039551e+00,1.200159430503845215e+00,9.432408213615417480e-02
-1.348469853401184082e+00,1.206621885299682617e+00,1.583109050989151001e-01
-1.355771899223327637e+00,1.213155746459960938e+00,2.233820259571075439e-01
-1.348884582519531250e+00,1.206992983818054199e+00,2.866851091384887695e-01
-1.340038537979125977e+00,1.199077486991882324e+00,3.495323657989501953e-01
-1.366251111030578613e+00,1.222532749176025391e+00,4.232650697231292725e-01
-1.370399594306945801e+00,1.191370725631713867e+00,-4.865583479404449463e-01
-1.393709778785705566e+00,1.211635708808898926e+00,-4.263553321361541748e-01
-1.390784263610839844e+00,1.209092378616333008e+00,-3.582178950309753418e-01
-1.381718039512634277e+00,1.201210498809814453e+00,-2.899794280529022217e-01
-1.399585485458374023e+00,1.216743826866149902e+00,-2.277080863714218140e-01
-1.395599484443664551e+00,1.213278532028198242e+00,-1.617885828018188477e-01
-1.399564385414123535e+00,1.216725468635559082e+00,-9.719052165746688843e-02
-1.394007325172424316e+00,1.211894392967224121e+00,-3.224198520183563232e-02
-1.397648692131042480e+00,1.215060114860534668e+00,3.232621029019355774e-02
-1.391642212867736816e+00,1.209838271141052246e+00,9.664037823677062988e-02
-1.400156497955322266e+00,1.217240214347839355e+00,1.623168587684631348e-01
-1.409939289093017578e+00,1.225744962692260742e+00,2.293926179409027100e-01
-1.402341842651367188e+00,1.219140052795410156e+00,2.943077385425567627e-01
-1.401882529258728027e+00,1.218740820884704590e+00,3.610764443874359131e-01
-1.404653906822204590e+00,1.221150159835815430e+00,4.297033250331878662e-01
-1.445943593978881836e+00,1.221153855323791504e+00,-5.071223378181457520e-01
-1.444803714752197266e+00,1.220191121101379395e+00,-4.365981519222259521e-01
-1.444269299507141113e+00,1.219739794731140137e+00,-3.674594163894653320e-01
-1.444492578506469727e+00,1.219928383827209473e+00,-2.994585931301116943e-01
-1.442718982696533203e+00,1.218430519104003906e+00,-2.318646013736724854e-01
-1.459849953651428223e+00,1.232898116111755371e+00,-1.671740710735321045e-01
-1.462556242942810059e+00,1.235183835029602051e+00,-1.003268733620643616e-01
-1.455219984054565430e+00,1.228987932205200195e+00,-3.324750438332557678e-02
-1.466635584831237793e+00,1.238628983497619629e+00,3.350831940770149231e-02
-1.458941459655761719e+00,1.232131004333496094e+00,1.000789105892181396e-01
-1.457414627075195312e+00,1.230841517448425293e+00,1.668952107429504395e-01
-1.463231205940246582e+00,1.235753774642944336e+00,2.351611852645874023e-01
-1.458819270133972168e+00,1.232027769088745117e+00,3.024286627769470215e-01
-1.472774386405944824e+00,1.243813395500183105e+00,3.747118413448333740e-01
-1.465727448463439941e+00,1.237861990928649902e+00,4.429209828376770020e-01
-1.507023572921752930e+00,1.236223578453063965e+00,-5.222849845886230469e-01
-1.494425535202026367e+00,1.225889325141906738e+00,-4.462450146675109863e-01
-1.505210280418395996e+00,1.234736084938049316e+00,-3.784290552139282227e-01
-1.524505734443664551e+00,1.250564455986022949e+00,-3.123033344745635986e-01
-1.507340312004089355e+00,1.236483335494995117e+00,-2.393812239170074463e-01
-1.510223865509033203e+00,1.238848805427551270e+00,-1.708945184946060181e-01
-1.510866045951843262e+00,1.239375591278076172e+00,-1.024133935570716858e-01
-1.510212898254394531e+00,1.238839864730834961e+00,-3.409531340003013611e-02
-1.522864937782287598e+00,1.249218344688415527e+00,3.438095003366470337e-02
-1.510980129241943359e+00,1.239469170570373535e+00,1.024211272597312927e-01
-1.524944543838500977e+00,1.250924348831176758e+00,1.725602895021438599e-01
-1.523762822151184082e+00,1.249954938888549805e+00,2.419892996549606323e-01
-1.514952540397644043e+00,1.242727875709533691e+00,3.103463053703308105e-01
-1.527614235877990723e+00,1.253114342689514160e+00,3.840616941452026367e-01
-1.535250425338745117e+00,1.259378314018249512e+00,4.584356248378753662e-01
-1.570627093315124512e+00,1.251225829124450684e+00,-5.380659103393554688e-01
-1.565982222557067871e+00,1.247525453567504883e+00,-4.622329473495483398e-01
-1.577654957771301270e+00,1.256824493408203125e+00,-3.920796215534210205e-01
-1.573934435844421387e+00,1.253860592842102051e+00,-3.187198638916015625e-01
-1.574887752532958984e+00,1.254619956016540527e+00,-2.472312450408935547e-01
-1.569648504257202148e+00,1.250446200370788574e+00,-1.755755990743637085e-01
-1.577884674072265625e+00,1.257007479667663574e+00,-1.057258024811744690e-01
-1.569911003112792969e+00,1.250655293464660645e+00,-3.503534942865371704e-02
-1.571845293045043945e+00,1.252196192741394043e+00,3.507851809263229370e-02
-1.575261235237121582e+00,1.254917502403259277e+00,1.055500209331512451e-01
-1.571168780326843262e+00,1.251657247543334961e+00,1.757456511259078979e-01
-1.592889785766601562e+00,1.268961071968078613e+00,2.500572502613067627e-01
-1.593337059020996094e+00,1.269317388534545898e+00,3.226488530635833740e-01
-1.587867140769958496e+00,1.264959812164306641e+00,3.946175277233123779e-01
-1.597203969955444336e+00,1.272397994995117188e+00,4.714486896991729736e-01
-1.639468193054199219e+00,1.268140792846679688e+00,-5.553743243217468262e-01
-1.633680105209350586e+00,1.263663649559020996e+00,-4.768276810646057129e-01
-1.646690964698791504e+00,1.273727655410766602e+00,-4.046641588211059570e-01
-1.645254254341125488e+00,1.272616267204284668e+00,-3.294396400451660156e-01
-1.633137822151184082e+00,1.263244152069091797e+00,-2.535110712051391602e-01
-1.643623352050781250e+00,1.271354794502258301e+00,-1.817960590124130249e-01
-1.643979907035827637e+00,1.271630525588989258e+00,-1.089237555861473083e-01
-1.656629681587219238e+00,1.281415224075317383e+00,-3.655756264925003052e-02
-1.647781372070312500e+00,1.274571061134338379e+00,3.636230528354644775e-02
-1.657544136047363281e+00,1.282122611999511719e+00,1.098224744200706482e-01
-1.644215106964111328e+00,1.271812438964843750e+00,1.818614900112152100e-01
-1.660928726196289062e+00,1.284740567207336426e+00,2.578250467777252197e-01
-1.655283927917480469e+00,1.280374288558959961e+00,3.314479589462280273e-01
-1.664030313491821289e+00,1.287139773368835449e+00,4.089251756668090820e-01
-1.668818116188049316e+00,1.290843129158020020e+00,4.870835244655609131e-01
-1.716403007507324219e+00,1.288813591003417969e+00,-5.751281976699829102e-01
-1.713109374046325684e+00,1.286340475082397461e+00,-4.945863485336303711e-01
-1.712223887443542480e+00,1.285675525665283203e+00,-4.162035286426544189e-01
-1.727505087852478027e+00,1.297149896621704102e+00,-3.421564996242523193e-01
-1.708284616470336914e+00,1.282717585563659668e+00,-2.622991800308227539e-01
-1.722941279411315918e+00,1.293722987174987793e+00,-1.885016709566116333e-01
-1.721617817878723145e+00,1.292729258537292480e+00,-1.128302291035652161e-01
-1.712328910827636719e+00,1.285754442214965820e+00,-3.737675771117210388e-02
-1.737065911293029785e+00,1.304328918457031250e+00,3.791671618819236755e-02
-1.726264238357543945e+00,1.296218156814575195e+00,1.131347417831420898e-01
-1.729519009590148926e+00,1.298662066459655762e+00,1.892213225364685059e-01
-1.741250276565551758e+00,1.307470917701721191e+00,2.673608958721160889e-01
-1.743764638900756836e+00,1.309358835220336914e+00,3.453769385814666748e-01
-1.743826627731323242e+00,1.309405446052551270e+00,4.238854646682739258e-01
-1.744126439094543457e+00,1.309630513191223145e+00,5.035411715507507324e-01
-1.785831332206726074e+00,1.301397442817687988e+00,-5.920897722244262695e-01
-1.784694790840148926e+00,1.300569295883178711e+00,-5.098268389701843262e-01
-1.793295025825500488e+00,1.306836485862731934e+00,-4.313190877437591553e-01
-1.790463685989379883e+00,1.304773211479187012e+00,-3.508913516998291016e-01
-1.806070446968078613e+00,1.316146373748779297e+00,-2.743930518627166748e-01
-1.792048215866088867e+00,1.305927872657775879e+00,-1.939975023269653320e-01
-1.798794150352478027e+00,1.310843944549560547e+00,-1.166465505957603455e-01
-1.804544091224670410e+00,1.315034151077270508e+00,-3.897477686405181885e-02
-1.814059138298034668e+00,1.321968078613281250e+00,3.918028622865676880e-02
-1.796588897705078125e+00,1.309236884117126465e+00,1.165035441517829895e-01
-1.807676911354064941e+00,1.317317128181457520e+00,1.956893801689147949e-01
-1.816780447959899902e+00,1.323951125144958496e+00,2.760201990604400635e-01
-1.811861515045166016e+00,1.320366621017456055e+00,3.550848960876464844e-01
-1.815907001495361328e+00,1.323314666748046875e+00,4.367576539516448975e-01
-1.822715997695922852e+00,1.328276515007019043e+00,5.206881761550903320e-01
-1.860689997673034668e+00,1.315594077110290527e+00,-6.106031537055969238e-01
-1.870026946067810059e+00,1.322195649147033691e+00,-5.287429094314575195e-01
-1.864589095115661621e+00,1.318350911140441895e+00,-4.438824951648712158e-01
-1.877333402633666992e+00,1.327361702919006348e+00,-3.641552031040191650e-01
-1.872514128684997559e+00,1.323954224586486816e+00,-2.815797924995422363e-01
-1.869708180427551270e+00,1.321970343589782715e+00,-2.003356367349624634e-01
-1.892657995223999023e+00,1.338196873664855957e+00,-1.214788034558296204e-01
-1.896317005157470703e+00,1.340783953666687012e+00,-4.053825139999389648e-02
-1.875869750976562500e+00,1.326326847076416016e+00,4.010114446282386780e-02
-1.889602661132812500e+00,1.336036682128906250e+00,1.212827041745185852e-01
-1.893898367881774902e+00,1.339073896408081055e+00,2.029275745153427124e-01
-1.888298630714416504e+00,1.335114598274230957e+00,2.839533686637878418e-01
-1.896339654922485352e+00,1.340800046920776367e+00,3.678419589996337891e-01
-1.903623104095458984e+00,1.345949769020080566e+00,4.531748890876770020e-01
-1.907765984535217285e+00,1.348878979682922363e+00,5.394134521484375000e-01
-1.958821773529052734e+00,1.343345284461975098e+00,-6.364310383796691895e-01
-1.961918711662292480e+00,1.345469117164611816e+00,-5.492234826087951660e-01
-1.957855343818664551e+00,1.342682480812072754e+00,-4.614629745483398438e-01
-1.958611130714416504e+00,1.343200802803039551e+00,-3.761531710624694824e-01
-1.967070937156677246e+00,1.349002361297607422e+00,-2.928652167320251465e-01
-1.974381685256958008e+00,1.354016065597534180e+00,-2.094531506299972534e-01
-1.960297346115112305e+00,1.344357132911682129e+00,-1.245723664760589600e-01
-1.959901928901672363e+00,1.344086050987243652e+00,-4.148201271891593933e-02
-1.972239375114440918e+00,1.352546930313110352e+00,4.174313694238662720e-02
-1.975859880447387695e+00,1.355029821395874023e+00,1.255613267421722412e-01
-1.977614760398864746e+00,1.356233358383178711e+00,2.097961306571960449e-01
-1.989606261253356934e+00,1.364457011222839355e+00,2.962203621864318848e-01
-1.975702047348022461e+00,1.354921579360961914e+00,3.794355094432830811e-01
-1.988792896270751953e+00,1.363899230957031250e+00,4.687548875808715820e-01
-1.987750172615051270e+00,1.363184094429016113e+00,5.564547777175903320e-01
-2.065519809722900391e+00,1.373471140861511230e+00,-6.646423339843750000e-01
-2.048670768737792969e+00,1.362267374992370605e+00,-5.679923295974731445e-01
-2.055998325347900391e+00,1.367139697074890137e+00,-4.799336493015289307e-01
-2.072730064392089844e+00,1.378265619277954102e+00,-3.942407369613647461e-01
-2.066380739212036133e+00,1.374043583869934082e+00,-3.046914637088775635e-01
-2.066962957382202148e+00,1.374430775642395020e+00,-2.171654403209686279e-01
-2.066070318222045898e+00,1.373837113380432129e+00,-1.300310492515563965e-01
-2.060324907302856445e+00,1.370016694068908691e+00,-4.318802803754806519e-02
-2.075137138366699219e+00,1.379866123199462891e+00,4.349851980805397034e-02
-2.079173326492309570e+00,1.382550001144409180e+00,1.308557093143463135e-01
-2.074491262435913086e+00,1.379436731338500977e+00,2.179563939571380615e-01
-2.088931798934936523e+00,1.389038920402526855e+00,3.080166578292846680e-01
-2.079845428466796875e+00,1.382997035980224609e+00,3.955940902233123779e-01
-2.088599443435668945e+00,1.388817906379699707e+00,4.875437915325164795e-01
-2.089587688446044922e+00,1.389474987983703613e+00,5.793364644050598145e-01
-2.158965110778808594e+00,1.391461968421936035e+00,-6.882318854331970215e-01
-2.164704561233520508e+00,1.395160913467407227e+00,-5.945651531219482422e-01
-2.166948556900024414e+00,1.396607160568237305e+00,-5.011152029037475586e-01
-2.164326667785644531e+00,1.394917488098144531e+00,-4.078233242034912109e-01
-2.168668508529663086e+00,1.397715806961059570e+00,-3.167916238307952881e-01
-2.185247659683227539e+00,1.408401131629943848e+00,-2.274516969919204712e-01
-2.164601564407348633e+00,1.395094633102416992e+00,-1.349616795778274536e-01
-2.164970159530639648e+00,1.395332098007202148e+00,-4.495832324028015137e-02
-2.177083969116210938e+00,1.403139591217041016e+00,4.520988091826438904e-02
-2.179318428039550781e+00,1.404579639434814453e+00,1.358792632818222046e-01
-2.181933403015136719e+00,1.406265139579772949e+00,2.271067351102828979e-01
