-2.537590265274047852e-01,1.038151741027832031e+00,5.600892007350921631e-02
-2.509065568447113037e-01,1.026481866836547852e+00,9.244931489229202271e-02
-2.514908015727996826e-01,1.028872132301330566e+00,1.300486177206039429e-01
-2.527894675731658936e-01,1.034185171127319336e+00,1.686208993196487427e-01
-2.547428309917449951e-01,1.042176485061645508e+00,2.085422873497009277e-01
-2.534509599208831787e-01,1.036891341209411621e+00,2.464324682950973511e-01
-2.644746005535125732e-01,1.018560051918029785e+00,-2.819721698760986328e-01
-2.637611329555511475e-01,1.015812277793884277e+00,-2.422951757907867432e-01
-2.672967314720153809e-01,1.029428839683532715e+00,-2.067358493804931641e-01
-2.697188854217529297e-01,1.038757085800170898e+00,-1.699783951044082642e-01
-2.681863009929656982e-01,1.032854795455932617e+00,-1.310238093137741089e-01
-2.678311765193939209e-01,1.031486988067626953e+00,-9.323581308126449585e-02
-2.643816769123077393e-01,1.018202066421508789e+00,-5.513113737106323242e-02
-2.662463188171386719e-01,1.025383353233337402e+00,-1.849161833524703979e-02
-2.666651606559753418e-01,1.026996493339538574e+00,1.852070912718772888e-02
-2.660544514656066895e-01,1.024644494056701660e+00,5.547996237874031067e-02
-2.681870460510253906e-01,1.032857537269592285e+00,9.335969388484954834e-02
-2.683877646923065186e-01,1.033630609512329102e+00,1.311222314834594727e-01
-2.697714865207672119e-01,1.038959741592407227e+00,1.700115501880645752e-01
-2.694223225116729736e-01,1.037614941596984863e+00,2.083798199892044067e-01
-2.734927237033843994e-01,1.053291201591491699e+00,2.512347698211669922e-01
-2.835904657840728760e-01,1.031272292137145996e+00,-2.865857183933258057e-01
-2.803018987178802490e-01,1.019313454627990723e+00,-2.440622746944427490e-01
-2.813147306442260742e-01,1.022996544837951660e+00,-2.062316089868545532e-01
-2.803347408771514893e-01,1.019432902336120605e+00,-1.674557030200958252e-01
-2.824456989765167236e-01,1.027109384536743164e+00,-1.307944357395172119e-01
-2.822366952896118164e-01,1.026349306106567383e+00,-9.312703460454940796e-02
-2.826910614967346191e-01,1.028001666069030762e+00,-5.587510392069816589e-02
-2.847600281238555908e-01,1.035525321960449219e+00,-1.874610222876071930e-02
-2.789957523345947266e-01,1.014563679695129395e+00,1.836663298308849335e-02
-2.844349443912506104e-01,1.034343242645263672e+00,5.621979013085365295e-02
-2.858384251594543457e-01,1.039446949958801270e+00,9.431546181440353394e-02
-2.834431231021881104e-01,1.030736446380615234e+00,1.312562972307205200e-01
-2.879040241241455078e-01,1.046958446502685547e+00,1.719771474599838257e-01
-2.874079942703247070e-01,1.045154690742492676e+00,2.106985896825790405e-01
-2.842794656753540039e-01,1.033777713775634766e+00,2.475255578756332397e-01
-3.008106946945190430e-01,1.035679936408996582e+00,-2.889775037765502930e-01
-2.963153421878814697e-01,1.020202517509460449e+00,-2.452655434608459473e-01
-2.982215285301208496e-01,1.026765465736389160e+00,-2.078306376934051514e-01
-2.950110435485839844e-01,1.015711903572082520e+00,-1.675209403038024902e-01
-2.995274364948272705e-01,1.031261682510375977e+00,-1.318556368350982666e-01
-2.978449761867523193e-01,1.025469064712524414e+00,-9.342441707849502563e-02
-3.001525998115539551e-01,1.033414125442504883e+00,-5.639702454209327698e-02
-2.992233037948608398e-01,1.030214548110961914e+00,-1.872557587921619415e-02
-2.955098152160644531e-01,1.017429113388061523e+00,1.849318481981754303e-02
-2.972521781921386719e-01,1.023428082466125488e+00,5.585205554962158203e-02
-2.970442473888397217e-01,1.022712111473083496e+00,9.317325055599212646e-02
-3.027152419090270996e-01,1.042237162590026855e+00,1.332589387893676758e-01
-2.990438938140869141e-01,1.029596805572509766e+00,1.698109805583953857e-01
-3.011970221996307373e-01,1.037009954452514648e+00,2.099042683839797974e-01
-2.994226813316345215e-01,1.030900955200195312e+00,2.478375434875488281e-01
-3.111500740051269531e-01,1.016719698905944824e+00,-2.849006652832031250e-01
-3.108257949352264404e-01,1.015660047531127930e+00,-2.452179342508316040e-01
-3.118323385715484619e-01,1.018949031829833984e+00,-2.071307301521301270e-01
-3.156987726688385010e-01,1.031583070755004883e+00,-1.708663403987884521e-01
-3.145700395107269287e-01,1.027894854545593262e+00,-1.319873332977294922e-01
-3.158807158470153809e-01,1.032177567481994629e+00,-9.443783015012741089e-02
-3.157033324241638184e-01,1.031597971916198730e+00,-5.653873085975646973e-02
-3.185844719409942627e-01,1.041012525558471680e+00,-1.900278404355049133e-02
-3.129801154136657715e-01,1.022699594497680664e+00,1.866849698126316071e-02
-3.182632625102996826e-01,1.039962768554687500e+00,5.699717998504638672e-02
-3.189260363578796387e-01,1.042128562927246094e+00,9.534828364849090576e-02
-3.134739398956298828e-01,1.024313211441040039e+00,1.315274238586425781e-01
-3.184287548065185547e-01,1.040503621101379395e+00,1.723439097404479980e-01
-3.119780421257019043e-01,1.019425153732299805e+00,2.072274982929229736e-01
-3.150522708892822266e-01,1.029470562934875488e+00,2.485523074865341187e-01
-3.306086361408233643e-01,1.027512907981872559e+00,-2.892214953899383545e-01
-3.301958143711090088e-01,1.026229858398437500e+00,-2.488854974508285522e-01
-3.315944671630859375e-01,1.030576825141906738e+00,-2.104376703500747681e-01
-3.332349359989166260e-01,1.035675406455993652e+00,-1.723165512084960938e-01
-3.289575874805450439e-01,1.022381663322448730e+00,-1.318704932928085327e-01
-3.291486501693725586e-01,1.022975325584411621e+00,-9.401730448007583618e-02
-3.303997218608856201e-01,1.026863694190979004e+00,-5.653265491127967834e-02
-3.345647454261779785e-01,1.039808392524719238e+00,-1.906626485288143158e-02
-3.358153998851776123e-01,1.043695211410522461e+00,1.913753524422645569e-02
-3.320115208625793457e-01,1.031872987747192383e+00,5.680843815207481384e-02
-3.315396308898925781e-01,1.030406355857849121e+00,9.470026195049285889e-02
-3.330902755260467529e-01,1.035225749015808105e+00,1.335271745920181274e-01
-3.308450281620025635e-01,1.028247714042663574e+00,1.710807234048843384e-01
-3.353223502635955811e-01,1.042162895202636719e+00,2.128034681081771851e-01
-3.336705267429351807e-01,1.037029147148132324e+00,2.515045702457427979e-01
-3.465502262115478516e-01,1.026436686515808105e+00,-2.902850508689880371e-01
-3.466389477252960205e-01,1.026699423789978027e+00,-2.501770555973052979e-01
-3.438209295272827148e-01,1.018352866172790527e+00,-2.089250981807708740e-01
-3.470177650451660156e-01,1.027821540832519531e+00,-1.718186438083648682e-01
-3.473229110240936279e-01,1.028725385665893555e+00,-1.333163082599639893e-01
-3.460302650928497314e-01,1.024896621704101562e+00,-9.463939070701599121e-02
-3.457043468952178955e-01,1.023931384086608887e+00,-5.663783848285675049e-02
-3.480400741100311279e-01,1.030849456787109375e+00,-1.899139024317264557e-02
-3.507778346538543701e-01,1.038958311080932617e+00,1.914078183472156525e-02
-3.484473526477813721e-01,1.032055735588073730e+00,5.708723142743110657e-02
-3.473043143749237061e-01,1.028670191764831543e+00,9.498783946037292480e-02
-3.511558473110198975e-01,1.040077924728393555e+00,1.347875297069549561e-01
-3.488385677337646484e-01,1.033214449882507324e+00,1.727201640605926514e-01
-3.514166176319122314e-01,1.040850281715393066e+00,2.135406732559204102e-01
-3.491000533103942871e-01,1.033988952636718750e+00,2.519533038139343262e-01
-3.603182137012481689e-01,1.018864035606384277e+00,-2.895722985267639160e-01
-3.609674274921417236e-01,1.020699739456176758e+00,-2.499484568834304810e-01
-3.658384382724761963e-01,1.034473419189453125e+00,-2.132848352193832397e-01
-3.627924323081970215e-01,1.025860309600830078e+00,-1.723411977291107178e-01
-3.621241748332977295e-01,1.023970603942871094e+00,-1.333581805229187012e-01
-3.670915365219116211e-01,1.038016676902770996e+00,-9.632622450590133667e-02
-3.583004176616668701e-01,1.013158321380615234e+00,-5.631984397768974304e-02
-3.615061044692993164e-01,1.022222876548767090e+00,-1.892585493624210358e-02
-3.602853417396545410e-01,1.018771052360534668e+00,1.886194385588169098e-02
-3.679874241352081299e-01,1.040549993515014648e+00,5.784250795841217041e-02
-3.699233531951904297e-01,1.046024203300476074e+00,9.706930071115493774e-02
-3.634009659290313721e-01,1.027580976486206055e+00,1.338283866643905640e-01
-3.636029064655303955e-01,1.028151988983154297e+00,1.727262139320373535e-01
-3.676411807537078857e-01,1.039571046829223633e+00,2.143358439207077026e-01
-3.651109933853149414e-01,1.032416343688964844e+00,2.528176307678222656e-01
-3.731911182403564453e-01,1.009081363677978516e+00,-2.882806062698364258e-01
-3.770309388637542725e-01,1.019463896751403809e+00,-2.509416639804840088e-01
-3.803403079509735107e-01,1.028412222862243652e+00,-2.131357491016387939e-01
-3.774565756320953369e-01,1.020614743232727051e+00,-1.723499596118927002e-01
-3.799635767936706543e-01,1.027393460273742676e+00,-1.344984918832778931e-01
-3.740614950656890869e-01,1.011434793472290039e+00,-9.434664994478225708e-02
-3.828584551811218262e-01,1.035221099853515625e+00,-5.784498155117034912e-02
-3.812526464462280273e-01,1.030879020690917969e+00,-1.918518543243408203e-02
-3.834927678108215332e-01,1.036936283111572266e+00,1.929791271686553955e-02
-3.816962838172912598e-01,1.032078623771667480e+00,5.766938999295234680e-02
-3.821478784084320068e-01,1.033299803733825684e+00,9.638621658086776733e-02
-3.791990578174591064e-01,1.025326371192932129e+00,1.342278718948364258e-01
-3.825817108154296875e-01,1.034472823143005371e+00,1.746901422739028931e-01
-3.840034604072570801e-01,1.038317084312438965e+00,2.151885181665420532e-01
-3.811448812484741211e-01,1.030587673187255859e+00,2.536797821521759033e-01
-3.917154669761657715e-01,1.014306783676147461e+00,-2.913453578948974609e-01
-3.961520195007324219e-01,1.025794744491577148e+00,-2.538697421550750732e-01
-4.006497263908386230e-01,1.037441015243530273e+00,-2.161733210086822510e-01
-3.958624899387359619e-01,1.025045037269592285e+00,-1.740370988845825195e-01
-3.977160751819610596e-01,1.029844760894775391e+00,-1.355507373809814453e-01
-3.939335048198699951e-01,1.020050168037414551e+00,-9.566645324230194092e-02
-4.017866849899291992e-01,1.040385127067565918e+00,-5.844889208674430847e-02
-3.993531465530395508e-01,1.034083724021911621e+00,-1.934922486543655396e-02
-3.973557949066162109e-01,1.028911828994750977e+00,1.925244927406311035e-02
-4.038456976413726807e-01,1.045716762542724609e+00,5.874842405319213867e-02
-4.000008702278137207e-01,1.035760879516601562e+00,9.713990986347198486e-02
-4.039290547370910645e-01,1.045932531356811523e+00,1.376682519912719727e-01
-4.005519747734069824e-01,1.037187933921813965e+00,1.760987788438796997e-01
-3.994324803352355957e-01,1.034289121627807617e+00,2.155165523290634155e-01
-4.077526330947875977e-01,1.055833339691162109e+00,2.613038718700408936e-01
-4.116785228252410889e-01,1.022219657897949219e+00,-2.952805757522583008e-01
-4.147469997406005859e-01,1.029838919639587402e+00,-2.563135325908660889e-01
-4.163113832473754883e-01,1.033723354339599609e+00,-2.166181057691574097e-01
-4.124278128147125244e-01,1.024080276489257812e+00,-1.748576611280441284e-01
-4.113029241561889648e-01,1.021287083625793457e+00,-1.351854056119918823e-01
-4.170672893524169922e-01,1.035600304603576660e+00,-9.767471253871917725e-02
-4.170091450214385986e-01,1.035455942153930664e+00,-5.850130319595336914e-02
-4.140022099018096924e-01,1.027989506721496582e+00,-1.934409141540527344e-02
-4.167014658451080322e-01,1.034691929817199707e+00,1.947021298110485077e-02
-4.170901179313659668e-01,1.035657048225402832e+00,5.851266533136367798e-02
-4.182264506816864014e-01,1.038478612899780273e+00,9.794618189334869385e-02
-4.139994382858276367e-01,1.027982592582702637e+00,1.360716670751571655e-01
-4.187613725662231445e-01,1.039806842803955078e+00,1.775429248809814453e-01
-4.164896309375762939e-01,1.034165978431701660e+00,2.167108505964279175e-01
-4.195892214775085449e-01,1.041862368583679199e+00,2.593060433864593506e-01
-4.315044581890106201e-01,1.028710722923278809e+00,-2.989090681076049805e-01
-4.242297410964965820e-01,1.011367678642272949e+00,-2.532016634941101074e-01
-4.290077984333038330e-01,1.022758722305297852e+00,-2.155851423740386963e-01
-4.356883764266967773e-01,1.038685202598571777e+00,-1.783979535102844238e-01
-4.361923933029174805e-01,1.039886832237243652e+00,-1.384596377611160278e-01
-4.297117888927459717e-01,1.024436950683593750e+00,-9.719197452068328857e-02
-4.248400628566741943e-01,1.012822747230529785e+00,-5.756023898720741272e-02
-4.334273338317871094e-01,1.033294916152954102e+00,-1.955866254866123199e-02
-4.290146827697753906e-01,1.022775173187255859e+00,1.935953833162784576e-02
-4.300417900085449219e-01,1.025223731994628906e+00,5.826500430703163147e-02
-4.328026473522186279e-01,1.031805634498596191e+00,9.789106249809265137e-02
-4.388536512851715088e-01,1.046231269836425781e+00,1.393043994903564453e-01
-4.371851980686187744e-01,1.042253613471984863e+00,1.790108382701873779e-01
-4.325907826423645020e-01,1.031300544738769531e+00,2.173856645822525024e-01
-4.386251866817474365e-01,1.045686602592468262e+00,2.617936134338378906e-01
-4.506241083145141602e-01,1.032606124877929688e+00,-3.018841445446014404e-01
-4.409613311290740967e-01,1.010463833808898926e+00,-2.545294761657714844e-01
-4.518488645553588867e-01,1.035412669181823730e+00,-2.195932269096374512e-01
-4.478517472743988037e-01,1.026253223419189453e+00,-1.773455440998077393e-01
-4.498863816261291504e-01,1.030915617942810059e+00,-1.381084024906158447e-01
-4.463216364383697510e-01,1.022747039794921875e+00,-9.762773662805557251e-02
-4.478073716163635254e-01,1.026151537895202637e+00,-5.867599695920944214e-02
-4.575738906860351562e-01,1.048531532287597656e+00,-1.996899396181106567e-02
-4.501357972621917725e-01,1.031487107276916504e+00,1.964438892900943756e-02
-4.546094238758087158e-01,1.041738510131835938e+00,5.956726893782615662e-02
-4.538220167160034180e-01,1.039934158325195312e+00,9.926835447549819946e-02
-4.560432136058807373e-01,1.045024037361145020e+00,1.399984508752822876e-01
-4.514450132846832275e-01,1.034487247467041016e+00,1.787684410810470581e-01
-4.527859389781951904e-01,1.037559986114501953e+00,2.200486361980438232e-01
-4.539484679698944092e-01,1.040223956108093262e+00,2.620258331298828125e-01
-4.634890854358673096e-01,1.021933317184448242e+00,-3.006726801395416260e-01
-4.671326279640197754e-01,1.029966950416564941e+00,-2.610996663570404053e-01
-4.667508602142333984e-01,1.029125213623046875e+00,-2.196541577577590942e-01
-4.639134407043457031e-01,1.022868990898132324e+00,-1.778899729251861572e-01
-4.669715464115142822e-01,1.029611825942993164e+00,-1.388149410486221313e-01
-4.696658253669738770e-01,1.035552382469177246e+00,-9.948160499334335327e-02
-4.712710082530975342e-01,1.039091587066650391e+00,-5.979550257325172424e-02
-4.673843085765838623e-01,1.030521869659423828e+00,-1.975138671696186066e-02
-4.641650915145874023e-01,1.023423910140991211e+00,1.961534656584262848e-02
-4.682736098766326904e-01,1.032482624053955078e+00,5.941518768668174744e-02
-4.679157435894012451e-01,1.031693577766418457e+00,9.911090880632400513e-02
-4.714253544807434082e-01,1.039431810379028320e+00,1.401389092206954956e-01
-4.750862121582031250e-01,1.047503590583801270e+00,1.821742355823516846e-01
-4.738149046897888184e-01,1.044700503349304199e+00,2.229785174131393433e-01
-4.702055752277374268e-01,1.036742448806762695e+00,2.628172636032104492e-01
-4.785545170307159424e-01,1.016229391098022461e+00,-3.009789586067199707e-01
-4.850953519344329834e-01,1.030119061470031738e+00,-2.628714740276336670e-01
-4.790669381618499756e-01,1.017317533493041992e+00,-2.185751348733901978e-01
-4.857015311717987061e-01,1.031406402587890625e+00,-1.805652827024459839e-01
-4.847505688667297363e-01,1.029386997222900391e+00,-1.397057771682739258e-01
-4.840261638164520264e-01,1.027848601341247559e+00,-9.939691424369812012e-02
-4.883185923099517822e-01,1.036963820457458496e+00,-6.006912887096405029e-02
-4.884512126445770264e-01,1.037245392799377441e+00,-2.001220546662807465e-02
-4.897257983684539795e-01,1.039952158927917480e+00,2.006442658603191376e-02
-4.895058274269104004e-01,1.039484977722167969e+00,6.021517142653465271e-02
-4.846278727054595947e-01,1.029126405715942383e+00,9.952048212289810181e-02
-4.863306283950805664e-01,1.032742261886596680e+00,1.401611566543579102e-01
-4.906971454620361328e-01,1.042014718055725098e+00,1.824224740266799927e-01
-4.925923347473144531e-01,1.046039223670959473e+00,2.247461229562759399e-01
-4.911209344863891602e-01,1.042914748191833496e+00,2.661367356777191162e-01
-4.972475171089172363e-01,1.017869114875793457e+00,-3.035414516925811768e-01
-5.006681084632873535e-01,1.024870991706848145e+00,-2.633340060710906982e-01
-5.065164566040039062e-01,1.036842703819274902e+00,-2.243048995733261108e-01
-5.049785375595092773e-01,1.033694505691528320e+00,-1.822125911712646484e-01
-5.029146671295166016e-01,1.029469728469848633e+00,-1.406795531511306763e-01
-5.071920752525329590e-01,1.038225650787353516e+00,-1.010920926928520203e-01
-5.040778517723083496e-01,1.031850814819335938e+00,-6.018472835421562195e-02
-5.097014307975769043e-01,1.043362379074096680e+00,-2.026890590786933899e-02
-5.061811804771423340e-01,1.036156415939331055e+00,2.012891694903373718e-02
-5.047205686569213867e-01,1.033166527748107910e+00,6.026146933436393738e-02
-5.065232515335083008e-01,1.036856651306152344e+00,1.009587869048118591e-01
-5.009831786155700684e-01,1.025516033172607422e+00,1.401392817497253418e-01
-5.086809992790222168e-01,1.041273474693298340e+00,1.835485547780990601e-01
-5.119553804397583008e-01,1.047976255416870117e+00,2.267134785652160645e-01
-5.099024772644042969e-01,1.043773889541625977e+00,2.681909799575805664e-01
-5.141813158988952637e-01,1.015421390533447266e+00,-3.049750328063964844e-01
-5.223430395126342773e-01,1.031539320945739746e+00,-2.669411003589630127e-01
-5.227451324462890625e-01,1.032333493232727051e+00,-2.249250560998916626e-01
-5.144828557968139648e-01,1.016016960144042969e+00,-1.803760975599288940e-01
-5.159221291542053223e-01,1.018859148025512695e+00,-1.402243673801422119e-01
-5.167626738548278809e-01,1.020519137382507324e+00,-1.000779718160629272e-01
-5.190129876136779785e-01,1.024963140487670898e+00,-6.021012738347053528e-02
-5.271388888359069824e-01,1.041010379791259766e+00,-2.036770433187484741e-02
-5.283139348030090332e-01,1.043330907821655273e+00,2.041310630738735199e-02
-5.259408950805664062e-01,1.038644552230834961e+00,6.101382896304130554e-02
-5.226946473121643066e-01,1.032233834266662598e+00,1.012267768383026123e-01
-5.282053351402282715e-01,1.043116450309753418e+00,1.435628533363342285e-01
-5.273128151893615723e-01,1.041353821754455566e+00,1.848742365837097168e-01
-5.284807085990905762e-01,1.043660283088684082e+00,2.273929268121719360e-01
-5.230560898780822754e-01,1.032947540283203125e+00,2.673054933547973633e-01
-5.372459888458251953e-01,1.024326086044311523e+00,-3.099273443222045898e-01
-5.480881333351135254e-01,1.044998049736022949e+00,-2.724261581897735596e-01
-5.402343869209289551e-01,1.030023813247680664e+00,-2.260834425687789917e-01
-5.477141737937927246e-01,1.044285058975219727e+00,-1.867672801017761230e-01
-5.412789583206176758e-01,1.032015442848205566e+00,-1.430866867303848267e-01
-5.376980900764465332e-01,1.025188088417053223e+00,-1.012802049517631531e-01
-5.448886752128601074e-01,1.038897752761840820e+00,-6.148056313395500183e-02
-5.486023426055908203e-01,1.045978307723999023e+00,-2.061642706394195557e-02
-5.411264896392822266e-01,1.031724691390991211e+00,2.033548615872859955e-02
-5.435709953308105469e-01,1.036385536193847656e+00,6.133189052343368530e-02
-5.439993739128112793e-01,1.037202239036560059e+00,1.024671047925949097e-01
-5.450940132141113281e-01,1.039289355278015137e+00,1.440951973199844360e-01
-5.493811368942260742e-01,1.047463297843933105e+00,1.873356997966766357e-01
-5.499844551086425781e-01,1.048613548278808594e+00,2.301637679338455200e-01
-5.506944656372070312e-01,1.049967288970947266e+00,2.737216353416442871e-01
-5.535213351249694824e-01,1.019608616828918457e+00,-3.108653426170349121e-01
-5.555108785629272461e-01,1.023273587226867676e+00,-2.688080072402954102e-01
-5.559813380241394043e-01,1.024140119552612305e+00,-2.265155464410781860e-01
-5.579518079757690430e-01,1.027769804000854492e+00,-1.852229386568069458e-01
-5.615281462669372559e-01,1.034357547760009766e+00,-1.445109844207763672e-01
-5.603531599044799805e-01,1.032193303108215332e+00,-1.027541011571884155e-01
-5.580915808677673340e-01,1.028027296066284180e+00,-6.130371615290641785e-02
-5.585617423057556152e-01,1.028893351554870605e+00,-2.043516933917999268e-02
-5.591126084327697754e-01,1.029908061027526855e+00,2.045532129704952240e-02
-5.558019280433654785e-01,1.023809671401977539e+00,6.105220690369606018e-02
-5.663448572158813477e-01,1.043230175971984863e+00,1.038528233766555786e-01
-5.624878406524658203e-01,1.036125421524047852e+00,1.447579711675643921e-01
-5.652605295181274414e-01,1.041232824325561523e+00,1.876492053270339966e-01
-5.647194981575012207e-01,1.040236115455627441e+00,2.300755977630615234e-01
-5.658847689628601074e-01,1.042382717132568359e+00,2.738278806209564209e-01
-5.717458128929138184e-01,1.018150806427001953e+00,-3.128839135169982910e-01
-5.835770368576049805e-01,1.039219498634338379e+00,-2.751630246639251709e-01
-5.784608721733093262e-01,1.030108690261840820e+00,-2.296434342861175537e-01
-5.749224424362182617e-01,1.023807644844055176e+00,-1.859728544950485229e-01
-5.790074467658996582e-01,1.031082153320312500e+00,-1.451963484287261963e-01
-5.752474069595336914e-01,1.024386286735534668e+00,-1.027860641479492188e-01
-5.834029912948608398e-01,1.038909554481506348e+00,-6.244421377778053284e-02
-5.873935818672180176e-01,1.046015858650207520e+00,-2.094008587300777435e-02
-5.780242085456848145e-01,1.029331207275390625e+00,2.060607634484767914e-02
-5.785369873046875000e-01,1.030244231224060059e+00,6.192338094115257263e-02
-5.804032087326049805e-01,1.033567547798156738e+00,1.037073060870170593e-01
-5.812937617301940918e-01,1.035153508186340332e+00,1.457696855068206787e-01
-5.828948616981506348e-01,1.038004755973815918e+00,1.885517388582229614e-01
-5.785169601440429688e-01,1.030208587646484375e+00,2.296656966209411621e-01
-5.911786556243896484e-01,1.052756190299987793e+00,2.787472605705261230e-01
-6.018875241279602051e-01,1.036784529685974121e+00,-3.212247490882873535e-01
-5.924372673034667969e-01,1.020506024360656738e+00,-2.724254429340362549e-01
-5.972133874893188477e-01,1.028733134269714355e+00,-2.312187403440475464e-01
-5.933936238288879395e-01,1.022153377532958984e+00,-1.871960312128067017e-01
-5.970951914787292480e-01,1.028529644012451172e+00,-1.460254639387130737e-01
-5.996267199516296387e-01,1.032890319824218750e+00,-1.044898331165313721e-01
-5.943150520324707031e-01,1.023740530014038086e+00,-6.203741952776908875e-02
-6.026293635368347168e-01,1.038062453269958496e+00,-2.095139957964420319e-02
-6.052415370941162109e-01,1.042562127113342285e+00,2.104221470654010773e-02
-6.025874018669128418e-01,1.037990212440490723e+00,6.290093064308166504e-02
-6.074588894844055176e-01,1.046381592750549316e+00,1.058546453714370728e-01
-6.078028082847595215e-01,1.046974062919616699e+00,1.486441045999526978e-01
-5.996492505073547363e-01,1.032929062843322754e+00,1.891694813966751099e-01
-6.038814187049865723e-01,1.040219187736511230e+00,2.338003516197204590e-01
-6.070401072502136230e-01,1.045660138130187988e+00,2.791403830051422119e-01
-6.106770634651184082e-01,1.018082618713378906e+00,-3.181059658527374268e-01
-6.212202310562133789e-01,1.035659432411193848e+00,-2.788158357143402100e-01
-6.186612844467163086e-01,1.031393408775329590e+00,-2.337830215692520142e-01
-6.220250725746154785e-01,1.037001252174377441e+00,-1.915261745452880859e-01
-6.210873723030090332e-01,1.035438060760498047e+00,-1.482532471418380737e-01
-6.182813048362731934e-01,1.030759930610656738e+00,-1.051588058471679688e-01
-6.244072318077087402e-01,1.040972709655761719e+00,-6.361674517393112183e-02
-6.245709061622619629e-01,1.041245460510253906e+00,-2.119390293955802917e-02
-6.305665969848632812e-01,1.051241159439086914e+00,2.139735966920852661e-02
-6.296793222427368164e-01,1.049762010574340820e+00,6.415387988090515137e-02
-6.249590516090393066e-01,1.041892647743225098e+00,1.062945723533630371e-01
-6.254336237907409668e-01,1.042683839797973633e+00,1.492906957864761353e-01
-6.259248852729797363e-01,1.043502807617187500e+00,1.927269697189331055e-01
-6.241822242736816406e-01,1.040597558021545410e+00,2.358693033456802368e-01
-6.233252286911010742e-01,1.039168834686279297e+00,2.797605991363525391e-01
-6.380876898765563965e-01,1.030066728591918945e+00,-3.246709406375885010e-01
-6.457574367523193359e-01,1.042447924613952637e+00,-2.831027507781982422e-01
-6.407716274261474609e-01,1.034399390220642090e+00,-2.365190535783767700e-01
-6.362783312797546387e-01,1.027145862579345703e+00,-1.913684010505676270e-01
-6.425458192825317383e-01,1.037263393402099609e+00,-1.498160809278488159e-01
-6.441911458969116211e-01,1.039919495582580566e+00,-1.070230081677436829e-01
-6.401954293251037598e-01,1.033469200134277344e+00,-6.371165812015533447e-02
-6.414268016815185547e-01,1.035457015037536621e+00,-2.126077935099601746e-02
-6.444661617279052734e-01,1.040363550186157227e+00,2.136152237653732300e-02
-6.469944715499877930e-01,1.044444918632507324e+00,6.438829004764556885e-02
-6.474479436874389648e-01,1.045176863670349121e+00,1.075640693306922913e-01
-6.444187760353088379e-01,1.040286898612976074e+00,1.502527892589569092e-01
-6.460528373718261719e-01,1.042924761772155762e+00,1.943082064390182495e-01
-6.472860574722290039e-01,1.044915676116943359e+00,2.389236241579055786e-01
-6.429305076599121094e-01,1.037884473800659180e+00,2.818634212017059326e-01
-6.555129289627075195e-01,1.025126695632934570e+00,-3.260378539562225342e-01
-6.620823740959167480e-01,1.035400390625000000e+00,-2.837333679199218750e-01
-6.609320044517517090e-01,1.033601403236389160e+00,-2.384752929210662842e-01
-6.593992114067077637e-01,1.031204342842102051e+00,-1.938631534576416016e-01
-6.624312400817871094e-01,1.035946011543273926e+00,-1.509798318147659302e-01
-6.583639383316040039e-01,1.029585361480712891e+00,-1.069183275103569031e-01
-6.661719679832458496e-01,1.041795969009399414e+00,-6.480618566274642944e-02
-6.587293744087219238e-01,1.030156850814819336e+00,-2.134336158633232117e-02
-6.641541123390197754e-01,1.038640379905700684e+00,2.151912823319435120e-02
-6.592476367950439453e-01,1.030967354774475098e+00,6.413257122039794922e-02
-6.718974113464355469e-01,1.050749659538269043e+00,1.091161593794822693e-01
-6.694501638412475586e-01,1.046922564506530762e+00,1.525795608758926392e-01
-6.689957380294799805e-01,1.046211957931518555e+00,1.966845244169235229e-01
-6.660166978836059570e-01,1.041553139686584473e+00,2.403099238872528076e-01
-6.663434505462646484e-01,1.042064189910888672e+00,2.855594754219055176e-01
-6.804587841033935547e-01,1.031313657760620117e+00,-3.310693204402923584e-01
-6.768801808357238770e-01,1.025889873504638672e+00,-2.837530672550201416e-01
-6.855863332748413086e-01,1.039085030555725098e+00,-2.419797927141189575e-01
-6.849018931388854980e-01,1.038047671318054199e+00,-1.969725042581558228e-01
-6.840726137161254883e-01,1.036790847778320312e+00,-1.525143384933471680e-01
-6.799768209457397461e-01,1.030583143234252930e+00,-1.080216020345687866e-01
-6.821737289428710938e-01,1.033912897109985352e+00,-6.491655111312866211e-02
-6.902117133140563965e-01,1.046095371246337891e+00,-2.187602967023849487e-02
-6.891879439353942871e-01,1.044543743133544922e+00,2.184358239173889160e-02
-6.925099492073059082e-01,1.049578547477722168e+00,6.590016186237335205e-02
-6.830675005912780762e-01,1.035267472267150879e+00,1.085125878453254700e-01
-6.882799267768859863e-01,1.043167471885681152e+00,1.534523665904998779e-01
-6.874365210533142090e-01,1.041889190673828125e+00,1.977014243602752686e-01
-6.891002058982849121e-01,1.044410705566406250e+00,2.432200312614440918e-01
-6.868864893913269043e-01,1.041055560111999512e+00,2.879478037357330322e-01
-7.000443339347839355e-01,1.028662323951721191e+00,-3.334006667137145996e-01
-6.989564895629882812e-01,1.027063727378845215e+00,-2.868155539035797119e-01
-6.995983719825744629e-01,1.028006911277770996e+00,-2.417071610689163208e-01
-7.035707235336303711e-01,1.033843994140625000e+00,-1.980654597282409668e-01
-7.028818130493164062e-01,1.032831668853759766e+00,-1.533961743116378784e-01
-7.042104005813598633e-01,1.034783959388732910e+00,-1.095072105526924133e-01
-7.142541408538818359e-01,1.049542546272277832e+00,-6.653298437595367432e-02
-7.015998363494873047e-01,1.030947923660278320e+00,-2.176704257726669312e-02
-7.044212818145751953e-01,1.035093903541564941e+00,2.185457758605480194e-02
-7.041839957237243652e-01,1.034745216369628906e+00,6.559494882822036743e-02
-7.164741158485412598e-01,1.052804589271545410e+00,1.114142537117004395e-01
-7.154297232627868652e-01,1.051270008087158203e+00,1.561346203088760376e-01
-7.114761471748352051e-01,1.045460462570190430e+00,2.002909481525421143e-01
-7.104718089103698730e-01,1.043984651565551758e+00,2.454638779163360596e-01
-7.172740697860717773e-01,1.053980112075805664e+00,2.943321466445922852e-01
-7.113700509071350098e-01,1.013799667358398438e+00,-3.318496644496917725e-01
-7.177934646606445312e-01,1.022953867912292480e+00,-2.885074019432067871e-01
-7.323399782180786133e-01,1.043684601783752441e+00,-2.478325814008712769e-01
-7.325923442840576172e-01,1.044044256210327148e+00,-2.020078599452972412e-01
-7.300046682357788086e-01,1.040356397628784180e+00,-1.560496389865875244e-01
-7.241869568824768066e-01,1.032065510749816895e+00,-1.103051677346229553e-01
-7.335185408592224121e-01,1.045364260673522949e+00,-6.692682951688766479e-02
-7.255721092224121094e-01,1.034039497375488281e+00,-2.204933203756809235e-02
-7.233870625495910645e-01,1.030925512313842773e+00,2.198293060064315796e-02
-7.318632602691650391e-01,1.043005228042602539e+00,6.677579879760742188e-02
-7.326850295066833496e-01,1.044176340103149414e+00,1.115995571017265320e-01
-7.339567542076110840e-01,1.045988798141479492e+00,1.568944603204727173e-01
-7.297517061233520508e-01,1.039996027946472168e+00,2.012245655059814453e-01
-7.358576059341430664e-01,1.048697710037231445e+00,2.490229755640029907e-01
-7.402577996253967285e-01,1.054968595504760742e+00,2.975366413593292236e-01
-7.393803000450134277e-01,1.022281765937805176e+00,-3.380557298660278320e-01
-7.410926818847656250e-01,1.024649381637573242e+00,-2.919473946094512939e-01
-7.463834285736083984e-01,1.031964421272277832e+00,-2.475610077381134033e-01
-7.480805516242980957e-01,1.034310936927795410e+00,-2.021756619215011597e-01
-7.449650168418884277e-01,1.030003309249877930e+00,-1.560801267623901367e-01
-7.411679625511169434e-01,1.024753451347351074e+00,-1.106461733579635620e-01
-7.510426640510559082e-01,1.038406372070312500e+00,-6.716272979974746704e-02
-7.459667325019836426e-01,1.031388282775878906e+00,-2.221820130944252014e-02
-7.491558194160461426e-01,1.035797595977783203e+00,2.231318689882755280e-02
-7.528631687164306641e-01,1.040923476219177246e+00,6.732553243637084961e-02
-7.513855099678039551e-01,1.038880348205566406e+00,1.121715158224105835e-01
-7.535362839698791504e-01,1.041854143142700195e+00,1.578759402036666870e-01
-7.550587654113769531e-01,1.043959140777587891e+00,2.040615826845169067e-01
-7.616514563560485840e-01,1.053074359893798828e+00,2.526251077651977539e-01
-7.537096738815307617e-01,1.042093873023986816e+00,2.969177365303039551e-01
-7.672477960586547852e-01,1.029456853866577148e+00,-3.440248072147369385e-01
-7.715597748756408691e-01,1.035242557525634766e+00,-2.980817258358001709e-01
-7.694122791290283203e-01,1.032361149787902832e+00,-2.502724528312683105e-01
-7.712846994400024414e-01,1.034873485565185547e+00,-2.044226080179214478e-01
-7.719321846961975098e-01,1.035742282867431641e+00,-1.586078256368637085e-01
-7.799277901649475098e-01,1.046470403671264648e+00,-1.141846925020217896e-01
-7.722077369689941406e-01,1.036111950874328613e+00,-6.772228330373764038e-02
-7.809770107269287109e-01,1.047878146171569824e+00,-2.281189709901809692e-02
-7.796888947486877441e-01,1.046149849891662598e+00,2.277427352964878082e-02
-7.706205248832702637e-01,1.033982276916503906e+00,6.758308410644531250e-02
-7.814334630966186523e-01,1.048490643501281738e+00,1.144051328301429749e-01
-7.709913253784179688e-01,1.034479856491088867e+00,1.584145128726959229e-01
-7.772879600524902344e-01,1.042928338050842285e+00,2.060137242078781128e-01
-7.794734835624694824e-01,1.045860767364501953e+00,2.535451352596282959e-01
-7.805548906326293945e-01,1.047311782836914062e+00,3.015568554401397705e-01
-7.936441898345947266e-01,1.033662915229797363e+00,-3.491908311843872070e-01
-7.819823026657104492e-01,1.018474221229553223e+00,-2.964459955692291260e-01
-7.880825400352478027e-01,1.026419401168823242e+00,-2.515408694744110107e-01
-7.902252078056335449e-01,1.029209971427917480e+00,-2.055170983076095581e-01
-8.011882305145263672e-01,1.043488502502441406e+00,-1.615336090326309204e-01
-7.953455448150634766e-01,1.035878896713256836e+00,-1.142594739794731140e-01
-7.900855541229248047e-01,1.029028058052062988e+00,-6.799147278070449829e-02
-7.971553802490234375e-01,1.038236021995544434e+00,-2.284804359078407288e-02
-7.945193648338317871e-01,1.034802794456481934e+00,2.277249097824096680e-02
-8.061928749084472656e-01,1.050006747245788574e+00,6.937760859727859497e-02
-8.039639592170715332e-01,1.047103762626647949e+00,1.154975965619087219e-01
-8.060422539710998535e-01,1.049810528755187988e+00,1.625122725963592529e-01
-8.089178204536437988e-01,1.053555727005004883e+00,2.103785574436187744e-01
-8.025345206260681152e-01,1.045241951942443848e+00,2.561536431312561035e-01
-8.026968240737915039e-01,1.045453310012817383e+00,3.042987585067749023e-01
-8.190035820007324219e-01,1.035661935806274414e+00,-3.537900447845458984e-01
-8.170499801635742188e-01,1.033191442489624023e+00,-3.041025698184967041e-01
-8.221419453620910645e-01,1.039630413055419922e+00,-2.576359212398529053e-01
-8.199148774147033691e-01,1.036814212799072266e+00,-2.093575596809387207e-01
-8.212587237358093262e-01,1.038513541221618652e+00,-1.625665277242660522e-01
-8.190191984176635742e-01,1.035681605339050293e+00,-1.155189499258995056e-01
-8.249348402023315430e-01,1.043162107467651367e+00,-6.969839334487915039e-02
-8.135674595832824707e-01,1.028787612915039062e+00,-2.289403975009918213e-02
-8.177049756050109863e-01,1.034019708633422852e+00,2.301046997308731079e-02
-8.245524764060974121e-01,1.042678594589233398e+00,6.966608762741088867e-02
-8.247621655464172363e-01,1.042943835258483887e+00,1.163289770483970642e-01
-8.299179077148437500e-01,1.049463391304016113e+00,1.642805933952331543e-01
-8.289837241172790527e-01,1.048282146453857422e+00,2.116732150316238403e-01
-8.215678334236145020e-01,1.038904428482055664e+00,2.574560344219207764e-01
-8.257344365119934082e-01,1.044173359870910645e+00,3.073348999023437500e-01
-8.389550447463989258e-01,1.030235767364501953e+00,-3.560021221637725830e-01
-8.451992869377136230e-01,1.037903666496276855e+00,-3.090186417102813721e-01
-8.426477313041687012e-01,1.034770369529724121e+00,-2.593939304351806641e-01
-8.512883186340332031e-01,1.045380949974060059e+00,-2.135259509086608887e-01
-8.329980969429016113e-01,1.022920608520507812e+00,-1.619754582643508911e-01
-8.529258370399475098e-01,1.047391891479492188e+00,-1.181747019290924072e-01
-8.585620522499084473e-01,1.054313063621520996e+00,-7.125722616910934448e-02
-8.557443618774414062e-01,1.050853013992309570e+00,-2.365521900355815887e-02
-8.427253961563110352e-01,1.034865736961364746e+00,2.329533919692039490e-02
-8.515008687973022461e-01,1.045642018318176270e+00,7.067117840051651001e-02
-8.588190078735351562e-01,1.054628729820251465e+00,1.189912185072898865e-01
-8.540112972259521484e-01,1.048724770545959473e+00,1.660614460706710815e-01
-8.528003096580505371e-01,1.047237634658813477e+00,2.139051854610443115e-01
-8.530139327049255371e-01,1.047500014305114746e+00,2.625849545001983643e-01
-8.553686141967773438e-01,1.050391554832458496e+00,3.127366900444030762e-01
-8.640640377998352051e-01,1.030587196350097656e+00,-3.603603839874267578e-01
-8.549461960792541504e-01,1.019712209701538086e+00,-3.072143793106079102e-01
-8.724390864372253418e-01,1.040576338768005371e+00,-2.639526724815368652e-01
-8.689190745353698730e-01,1.036378026008605957e+00,-2.142054736614227295e-01
-8.742583394050598145e-01,1.042746186256408691e+00,-1.670791357755661011e-01
-8.658730983734130859e-01,1.032745003700256348e+00,-1.179083958268165588e-01
-8.703724741935729980e-01,1.038111448287963867e+00,-7.099694013595581055e-02
-8.773440122604370117e-01,1.046426534652709961e+00,-2.383581921458244324e-02
-8.810854554176330566e-01,1.050889134407043457e+00,2.393746748566627502e-02
-8.811382055282592773e-01,1.050951957702636719e+00,7.187510281801223755e-02
-8.755817413330078125e-01,1.044324636459350586e+00,1.192304491996765137e-01
-8.848171830177307129e-01,1.055339932441711426e+00,1.690970361232757568e-01
-8.816255331039428711e-01,1.051533222198486328e+00,2.173378467559814453e-01
-8.820022344589233398e-01,1.051982522010803223e+00,2.668459713459014893e-01
-8.823488950729370117e-01,1.052396059036254883e+00,3.170612454414367676e-01
-8.901522159576416016e-01,1.031354784965515137e+00,-3.650465011596679688e-01
-8.906959295272827148e-01,1.031984686851501465e+00,-3.147205114364624023e-01
-8.907695412635803223e-01,1.032069921493530273e+00,-2.650019824504852295e-01
-8.921244740486145020e-01,1.033639788627624512e+00,-2.162566334009170532e-01
-9.048269987106323242e-01,1.048357367515563965e+00,-1.700359731912612915e-01
-8.905875086784362793e-01,1.031859040260314941e+00,-1.192504093050956726e-01
-8.988463878631591797e-01,1.041428089141845703e+00,-7.209625840187072754e-02
-8.998892307281494141e-01,1.042636394500732422e+00,-2.404041960835456848e-02
-8.911612033843994141e-01,1.032523751258850098e+00,2.380724996328353882e-02
-8.924596309661865234e-01,1.034028172492980957e+00,7.158397883176803589e-02
-8.968591094017028809e-01,1.039125561714172363e+00,1.200901791453361511e-01
-8.964980840682983398e-01,1.038707256317138672e+00,1.684707999229431152e-01
-9.096961617469787598e-01,1.053998947143554688e+00,2.205161303281784058e-01
-9.023325443267822266e-01,1.045467257499694824e+00,2.684419453144073486e-01
-9.083517193794250488e-01,1.052441239356994629e+00,3.209590613842010498e-01
-9.151096940040588379e-01,1.030089855194091797e+00,-3.691971302032470703e-01
-9.137104749679565430e-01,1.028514742851257324e+00,-3.176182210445404053e-01
-9.138875007629394531e-01,1.028714060783386230e+00,-2.674716413021087646e-01
-9.235033988952636719e-01,1.039538145065307617e+00,-2.202336788177490234e-01
-9.227620959281921387e-01,1.038703680038452148e+00,-1.705949753522872925e-01
-9.204620718955993652e-01,1.036114692687988281e+00,-1.212524175643920898e-01
-9.234907031059265137e-01,1.039523839950561523e+00,-7.287205755710601807e-02
-9.248386621475219727e-01,1.041041135787963867e+00,-2.430637367069721222e-02
-9.276663661003112793e-01,1.044224143028259277e+00,2.438069134950637817e-02
-9.297311902046203613e-01,1.046548485755920410e+00,7.336448878049850464e-02
-9.234857559204101562e-01,1.039518237113952637e+00,1.216507256031036377e-01
-9.216663241386413574e-01,1.037470221519470215e+00,1.703923940658569336e-01
-9.357363581657409668e-01,1.053308129310607910e+00,2.231509387493133545e-01
-9.398876428604125977e-01,1.057981014251708984e+00,2.750812172889709473e-01
-9.350556731224060059e-01,1.052541971206665039e+00,3.250381052494049072e-01
-9.553778767585754395e-01,1.044907331466674805e+00,-3.793702721595764160e-01
-9.444810748100280762e-01,1.032989382743835449e+00,-3.231416940689086914e-01
-9.459477066993713379e-01,1.034593462944030762e+00,-2.724928259849548340e-01
-9.493846297264099121e-01,1.038352489471435547e+00,-2.228385806083679199e-01
-9.573410153388977051e-01,1.047054409980773926e+00,-1.741991788148880005e-01
-9.526183009147644043e-01,1.041889190673828125e+00,-1.235112100839614868e-01
-9.517495036125183105e-01,1.040938973426818848e+00,-7.391866296529769897e-02
-9.598538875579833984e-01,1.049802780151367188e+00,-2.482917532324790955e-02
-9.617936015129089355e-01,1.051924347877502441e+00,2.487935125827789307e-02
-9.530798196792602539e-01,1.042393922805786133e+00,7.402198016643524170e-02
-9.604947566986083984e-01,1.050503730773925781e+00,1.245324313640594482e-01
-9.691364169120788574e-01,1.059955239295959473e+00,1.763454824686050415e-01
-9.571075439453125000e-01,1.046799063682556152e+00,2.246512919664382935e-01
-9.640353322029113770e-01,1.054376125335693359e+00,2.777031958103179932e-01
-9.664273262023925781e-01,1.056992173194885254e+00,3.306503295898437500e-01
-9.659678339958190918e-01,1.026592254638671875e+00,-3.777018487453460693e-01
-9.838300347328186035e-01,1.045575499534606934e+00,-3.314501345157623291e-01
-9.802763462066650391e-01,1.041798830032348633e+00,-2.780576348304748535e-01
-9.814259409904479980e-01,1.043020486831665039e+00,-2.268318831920623779e-01
-9.857692718505859375e-01,1.047636508941650391e+00,-1.766253709793090820e-01
-9.726816415786743164e-01,1.033727407455444336e+00,-1.241813972592353821e-01
-9.724208712577819824e-01,1.033450245857238770e+00,-7.436764985322952271e-02
-9.846150279045104980e-01,1.046409726142883301e+00,-2.507967874407768250e-02
-9.781878590583801270e-01,1.039579272270202637e+00,2.491596899926662445e-02
-9.827169179916381836e-01,1.044392466545104980e+00,7.515505701303482056e-02
-9.801834821701049805e-01,1.041700124740600586e+00,1.251391470432281494e-01
-9.913417100906372070e-01,1.053558588027954102e+00,1.776238083839416504e-01
-9.926770329475402832e-01,1.054977774620056152e+00,2.294322848320007324e-01
-9.848131537437438965e-01,1.046620368957519531e+00,2.793444991111755371e-01
-9.952841997146606445e-01,1.057748556137084961e+00,3.353090286254882812e-01
-9.997919797897338867e-01,1.032522201538085938e+00,-3.851092457771301270e-01
-1.012967824935913086e+00,1.046129345893859863e+00,-3.361875414848327637e-01
-9.984039068222045898e-01,1.031088709831237793e+00,-2.789846956729888916e-01
-1.010499238967895508e+00,1.043580055236816406e+00,-2.300755083560943604e-01
-1.009154558181762695e+00,1.042191386222839355e+00,-1.781243681907653809e-01
-1.009076714515686035e+00,1.042110919952392578e+00,-1.269105821847915649e-01
-1.011546850204467773e+00,1.044661879539489746e+00,-7.620853930711746216e-02
-1.007861256599426270e+00,1.040855646133422852e+00,-2.528972364962100983e-02
-1.016384243965148926e+00,1.049657702445983887e+00,2.550358884036540985e-02
-1.020399451255798340e+00,1.053804278373718262e+00,7.687547802925109863e-02
-1.018102765083312988e+00,1.051432490348815918e+00,1.280457824468612671e-01
-1.013427495956420898e+00,1.046604156494140625e+00,1.788785755634307861e-01
-1.017743945121765137e+00,1.051061868667602539e+00,2.317250072956085205e-01
-1.022314310073852539e+00,1.055781960487365723e+00,2.856660187244415283e-01
-1.022980213165283203e+00,1.056469559669494629e+00,3.395104706287384033e-01
-1.029429674148559570e+00,1.033123731613159180e+00,-3.907893002033233643e-01
-1.042805671691894531e+00,1.046547770500183105e+00,-3.410837650299072266e-01
-1.031092286109924316e+00,1.034792304039001465e+00,-2.839509844779968262e-01
-1.031709551811218262e+00,1.035411953926086426e+00,-2.315067052841186523e-01
-1.044296503067016602e+00,1.048044085502624512e+00,-1.816607862710952759e-01
-1.033886551856994629e+00,1.037596702575683594e+00,-1.281498968601226807e-01
-1.042525529861450195e+00,1.046266674995422363e+00,-7.740625739097595215e-02
-1.044554591178894043e+00,1.048303008079528809e+00,-2.583129703998565674e-02
-1.043395042419433594e+00,1.047139286994934082e+00,2.580262161791324615e-02
-1.049549102783203125e+00,1.053315520286560059e+00,7.792774587869644165e-02
-1.047635674476623535e+00,1.051395177841186523e+00,1.298540979623794556e-01
-1.053050398826599121e+00,1.056829333305358887e+00,1.831835657358169556e-01
-1.044025421142578125e+00,1.047771930694580078e+00,2.342702597379684448e-01
-1.052721619606018066e+00,1.056499361991882324e+00,2.899074554443359375e-01
-1.051589608192443848e+00,1.055363297462463379e+00,3.439568281173706055e-01
-1.068423151969909668e+00,1.041996359825134277e+00,-3.998891711235046387e-01
-1.063405394554138184e+00,1.037102699279785156e+00,-3.429310917854309082e-01
-1.055950641632080078e+00,1.029832363128662109e+00,-2.867079973220825195e-01
-1.065669417381286621e+00,1.039310693740844727e+00,-2.357647716999053955e-01
-1.065321803092956543e+00,1.038971662521362305e+00,-1.827125847339630127e-01
-1.064459085464477539e+00,1.038130283355712891e+00,-1.300842314958572388e-01
-1.080541133880615234e+00,1.053814530372619629e+00,-7.910080999135971069e-02
-1.072894215583801270e+00,1.046356678009033203e+00,-2.615906670689582825e-02
-1.058845877647399902e+00,1.032655954360961914e+00,2.581654489040374756e-02
-1.071687579154968262e+00,1.045179963111877441e+00,7.845269143581390381e-02
-1.081536531448364258e+00,1.054785251617431641e+00,1.321711987257003784e-01
-1.081855058670043945e+00,1.055096030235290527e+00,1.855482012033462524e-01
-1.087416887283325195e+00,1.060520291328430176e+00,2.405760884284973145e-01
-1.076226353645324707e+00,1.049606442451477051e+00,2.922131717205047607e-01
-1.094243884086608887e+00,1.067178368568420410e+00,3.528760075569152832e-01
-1.096531510353088379e+00,1.039207458496093750e+00,-4.048007726669311523e-01
-1.095399022102355957e+00,1.038134336471557617e+00,-3.484209477901458740e-01
-1.093935847282409668e+00,1.036747574806213379e+00,-2.929624319076538086e-01
-1.089807629585266113e+00,1.032835125923156738e+00,-2.378100156784057617e-01
-1.103018164634704590e+00,1.045355081558227539e+00,-1.865925192832946777e-01
-1.099399447441101074e+00,1.041925549507141113e+00,-1.325180679559707642e-01
-1.109077692031860352e+00,1.051097869873046875e+00,-8.008027076721191406e-02
-1.109978556632995605e+00,1.051951527595520020e+00,-2.669339813292026520e-02
-1.101878881454467773e+00,1.044275403022766113e+00,2.649861387908458710e-02
-1.110464096069335938e+00,1.052411794662475586e+00,8.018037676811218262e-02
-1.115612387657165527e+00,1.057290792465209961e+00,1.344723254442214966e-01
-1.108752608299255371e+00,1.050789713859558105e+00,1.875625848770141602e-01
-1.109181404113769531e+00,1.051196098327636719e+00,2.420376390218734741e-01
-1.107835650444030762e+00,1.049920678138732910e+00,2.966848611831665039e-01
-1.113128900527954102e+00,1.054937243461608887e+00,3.540604114532470703e-01
-1.134539365768432617e+00,1.044816136360168457e+00,-4.132688045501708984e-01
-1.126205325126647949e+00,1.037141084671020508e+00,-3.534615933895111084e-01
-1.127171993255615234e+00,1.038031339645385742e+00,-2.978537380695343018e-01
-1.133285284042358398e+00,1.043661117553710938e+00,-2.440126538276672363e-01
-1.134787559509277344e+00,1.045044660568237305e+00,-1.894169896841049194e-01
-1.133445739746093750e+00,1.043808937072753906e+00,-1.348072141408920288e-01
-1.127342343330383301e+00,1.038188219070434570e+00,-8.031786233186721802e-02
-1.140243530273437500e+00,1.050069212913513184e+00,-2.705700322985649109e-02
-1.138937473297119141e+00,1.048866391181945801e+00,2.702601067721843719e-02
-1.146917939186096191e+00,1.056215763092041016e+00,8.171254396438598633e-02
-1.140753626823425293e+00,1.050538897514343262e+00,1.356763690710067749e-01
-1.136161088943481445e+00,1.046309590339660645e+00,1.896462440490722656e-01
-1.150439858436584473e+00,1.059459090232849121e+00,2.477062791585922241e-01
-1.153684496879577637e+00,1.062447071075439453e+00,3.048596084117889404e-01
-1.144234299659729004e+00,1.053744316101074219e+00,3.591200113296508789e-01
-1.164775609970092773e+00,1.042250752449035645e+00,-4.188056290149688721e-01
-1.162865996360778809e+00,1.040542006492614746e+00,-3.602562844753265381e-01
-1.170183062553405762e+00,1.047089338302612305e+00,-3.052276670932769775e-01
-1.154228687286376953e+00,1.032813191413879395e+00,-2.453139126300811768e-01
-1.178179264068603516e+00,1.054244399070739746e+00,-1.941211968660354614e-01
-1.178416371345520020e+00,1.054456591606140137e+00,-1.383465677499771118e-01
