2.072782644475427816e+00,-8.262835424586287836e-01,1.155624565146271127e-01
2.077921614313809506e+00,-8.260703183908183478e-01,1.954623802239857377e-01
2.078697884136695873e+00,-8.272775168998983686e-01,2.750035177501967132e-01
2.082127920214670969e+00,-8.303800458824485142e-01,3.541478580825708211e-01
2.084717167553592709e+00,-8.292004404942117102e-01,4.356809781446657759e-01
2.086900876773148283e+00,-8.321502851159510161e-01,5.201075808147637147e-01
2.075579860052405134e+00,-7.923822616708225963e-01,-5.953123258388404171e-01
2.077339633598395796e+00,-7.928791623608871797e-01,-5.130997555211047612e-01
2.081347025901405967e+00,-7.964925303169866355e-01,-4.330693673651203057e-01
2.082746013839459565e+00,-7.947679373471010500e-01,-3.522875256049771697e-01
2.086685505574592536e+00,-7.963174408951501082e-01,-2.740263781934246801e-01
2.087059821497833312e+00,-7.986862887954998547e-01,-1.976904212811627926e-01
2.090638355319718755e+00,-7.995973947638006507e-01,-1.181349851622297276e-01
2.094338057452554747e+00,-7.973329351649768304e-01,-3.926289624009350610e-02
2.095004116417023443e+00,-7.998998069218427043e-01,3.794336003055222978e-02
2.098868419209990233e+00,-8.017027743580011911e-01,1.183774952589553009e-01
2.100144696898876617e+00,-8.023850396547824726e-01,1.978284976399204698e-01
2.104427596773528641e+00,-8.055186716877914543e-01,2.763062036578049496e-01
2.107708026633816178e+00,-8.037157911568405533e-01,3.564695572183128602e-01
2.109865702795296727e+00,-8.061717204981920792e-01,4.376691799240599590e-01
2.112087906543273608e+00,-8.076306720236913206e-01,5.223155394201601798e-01
2.097776658166391694e+00,-7.663854806070948822e-01,-5.985313756304077026e-01
2.100878929668959394e+00,-7.690485865654109743e-01,-5.161959567027211149e-01
2.103791681555709392e+00,-7.687848758304332009e-01,-4.352157009498438534e-01
2.106155006841833099e+00,-7.700895546196023789e-01,-3.532191018004522398e-01
2.109381794181201641e+00,-7.714550333002210269e-01,-2.762324184882102296e-01
2.112034882041794681e+00,-7.715250184020401303e-01,-1.985328974008403746e-01
2.114133633423230130e+00,-7.723609546218511701e-01,-1.189274145579770209e-01
2.117882734419736401e+00,-7.748247516451728378e-01,-3.794517631737493596e-02
2.119087018116594834e+00,-7.748175639804514292e-01,3.856854591961934864e-02
2.122084994866010987e+00,-7.766468917036747355e-01,1.179802658497721979e-01
2.129261563838201532e+00,-7.791858723130283826e-01,1.983778390042870987e-01
2.127739210995542418e+00,-7.775142661912255448e-01,2.790527516954574017e-01
2.133184005079365342e+00,-7.787069671634858636e-01,3.587402364253639564e-01
2.134088776792772979e+00,-7.795085140291885262e-01,4.417458302792195979e-01
2.136046422328596872e+00,-7.791963474322701755e-01,5.268350358303954817e-01
2.124424909626111191e+00,-7.422132656027622399e-01,-6.029020431571119332e-01
2.128286219159861936e+00,-7.423747001711694660e-01,-5.206174805175954878e-01
2.130760997146554647e+00,-7.462049021037433505e-01,-4.395882605813784538e-01
2.133736988347546326e+00,-7.454347193672714589e-01,-3.584446041947723094e-01
2.135519532960562294e+00,-7.489355049549026866e-01,-2.769716228454057183e-01
2.140064599643873411e+00,-7.477299115402364915e-01,-1.976121145411741664e-01
2.142610742870103113e+00,-7.493971250475810475e-01,-1.191638384379891807e-01
2.142605749807653392e+00,-7.503064245969632839e-01,-3.913805018289544940e-02
2.147368410148976725e+00,-7.506872310567049844e-01,3.937698014572887234e-02
2.151171130163685774e+00,-7.517818843485011282e-01,1.200747931712095595e-01
2.152852389512346143e+00,-7.510398076501968445e-01,2.004591991707911358e-01
2.154328159622016514e+00,-7.534897160190884291e-01,2.797731978587645330e-01
2.157621506010721113e+00,-7.555562016053108954e-01,3.615494360818614639e-01
2.158679737567635648e+00,-7.556506792909805093e-01,4.445494317774470461e-01
2.162596220948795889e+00,-7.567972978512654825e-01,5.297049802006738028e-01
2.148370663140730663e+00,-7.175578774260228387e-01,-6.066730265059200322e-01
2.154179294839538183e+00,-7.183290663014750832e-01,-5.240821422058941081e-01
2.153981025526288562e+00,-7.180582335229654944e-01,-4.407196931225051406e-01
2.158270982727889642e+00,-7.204611315135015515e-01,-3.605572186752193931e-01
2.161004718314910367e+00,-7.219761406375900803e-01,-2.798146086631032592e-01
2.165533629654647463e+00,-7.191022449080042289e-01,-1.995503857209098286e-01
2.165268588630870905e+00,-7.239684546656487418e-01,-1.193873609691440546e-01
2.168753631888667766e+00,-7.244818065510267857e-01,-4.083538595979833291e-02
2.172332236402177763e+00,-7.241331208164991651e-01,3.979332064372156225e-02
2.176210848581170421e+00,-7.270820405121426466e-01,1.215869556368849719e-01
2.178359937320529571e+00,-7.261646306248954463e-01,2.012647543530907690e-01
2.180933910182097701e+00,-7.274755727876863753e-01,2.831067016976744899e-01
2.182540781710776034e+00,-7.273382947101350027e-01,3.625737501869704116e-01
2.186063863736384949e+00,-7.307721495514368781e-01,4.497089763296071574e-01
2.189444614316160553e+00,-7.306961081450012996e-01,5.314664466979596158e-01
2.177223261129191734e+00,-6.924595030566451648e-01,-6.124743586847956056e-01
2.178841633618391782e+00,-6.942977721244151246e-01,-5.276327764049890678e-01
2.181665808861038780e+00,-6.953886211017494823e-01,-4.448273559122535858e-01
2.184587458192195797e+00,-6.950920097402745190e-01,-3.634291726767629460e-01
2.189256806734183769e+00,-6.968701015204955551e-01,-2.821481774327591618e-01
2.190352204105667777e+00,-6.951640604712807647e-01,-2.004853049431020995e-01
2.194811609258129792e+00,-6.956153349575864286e-01,-1.212733415375675528e-01
2.198531148820790815e+00,-6.974651960445059640e-01,-3.860755154113510584e-02
2.199903264943796621e+00,-7.018395231619786179e-01,4.062950359829183011e-02
2.201847043161225592e+00,-6.998897736567164518e-01,1.198355962112803846e-01
2.205160980823417827e+00,-6.992950720903314821e-01,2.022609512045447366e-01
2.207650910518137000e+00,-7.022908436730462833e-01,2.851816357504733390e-01
2.211392997551992146e+00,-7.027299984875703398e-01,3.664554649298631395e-01
2.214105514454189905e+00,-7.028213636767288719e-01,4.519701640314008340e-01
2.217678717586225368e+00,-7.073422741773803812e-01,5.374143254431307248e-01
2.202838920941112999e+00,-6.642358472943781234e-01,-6.183446078193457485e-01
2.206935926113883006e+00,-6.656980331874351453e-01,-5.334579324541204315e-01
2.209541853410962542e+00,-6.658313562105278027e-01,-4.486834989243616012e-01
2.212941739587919621e+00,-6.698687894671883081e-01,-3.652499156152979043e-01
2.214618973824296067e+00,-6.693702488210052648e-01,-2.838431985838523741e-01
2.218846615042758152e+00,-6.696461064066124846e-01,-2.029351603084753597e-01
2.221111220136393616e+00,-6.708617975696677949e-01,-1.209908206013133869e-01
2.222287446286428381e+00,-6.710256984459262997e-01,-4.071575659327310998e-02
2.227430064636167106e+00,-6.727382830924170110e-01,4.029960082084923373e-02
2.230079101145471920e+00,-6.728341664302923686e-01,1.213753899773151596e-01
2.232590974735239708e+00,-6.739916178043610095e-01,2.045026303736443840e-01
2.234818041301518399e+00,-6.742262918204663391e-01,2.865398544330315933e-01
2.239665842078113034e+00,-6.758242107747814975e-01,3.714387016047038248e-01
2.241628971257410008e+00,-6.784258835715801794e-01,4.533703073188399824e-01
2.243662970454074035e+00,-6.765357366687909657e-01,5.411801822127016992e-01
2.231043581968758183e+00,-6.389230901547067187e-01,-6.206679216889177120e-01
2.231208974354578878e+00,-6.410765731952603463e-01,-5.374179361120616782e-01
2.234576816920939901e+00,-6.397548106994628281e-01,-4.516928547368254665e-01
2.236868055187855031e+00,-6.411453917884563092e-01,-3.686589591639415353e-01
2.239250571802905654e+00,-6.426810288474424926e-01,-2.854113963148681710e-01
2.244570962264202496e+00,-6.416975599279833853e-01,-2.047779245947443372e-01
2.247135964616124415e+00,-6.430958601613268044e-01,-1.235642032850821082e-01
2.249858150676139257e+00,-6.449216858667925489e-01,-4.303185366318457161e-02
2.251412925518903929e+00,-6.435732551819041136e-01,3.993356021896998093e-02
2.255862117173574877e+00,-6.466060873643160178e-01,1.220516450737136049e-01
2.258920780012458884e+00,-6.474296677112726384e-01,2.067916921005953368e-01
2.260186958441212202e+00,-6.466354263128148983e-01,2.889736518207179916e-01
2.265304952084743029e+00,-6.483016278901159168e-01,3.753234134230619135e-01
2.268859451585362397e+00,-6.514367099659682525e-01,4.582361730049576698e-01
2.269888963658286851e+00,-6.500793319746650534e-01,5.456180081351948985e-01
2.257438729024846324e+00,-6.129910013224443288e-01,-6.275913633083163301e-01
2.258944313003703019e+00,-6.141380252274833973e-01,-5.406030584846674980e-01
2.262492601109495904e+00,-6.118104772600005958e-01,-4.567100461304079984e-01
2.265139519662278111e+00,-6.155449679411090225e-01,-3.706071898784940033e-01
2.270389892287262512e+00,-6.158733753233076591e-01,-2.877146876021278721e-01
2.272880684547411434e+00,-6.147628629645076614e-01,-2.060847663090032700e-01
2.274400262803209838e+00,-6.164420940838685192e-01,-1.230360852032061497e-01
2.278534861705557635e+00,-6.168320263870507025e-01,-4.128667770166828677e-02
2.279700157808079108e+00,-6.180878303353219971e-01,4.134443833132619289e-02
2.284942279667692144e+00,-6.200409491164965425e-01,1.222538534325861848e-01
2.287311687421296202e+00,-6.209152746916546395e-01,2.069485906745514026e-01
2.290342449520038848e+00,-6.207330872043687053e-01,2.911965922046452215e-01
2.293620071183894993e+00,-6.225237639816477708e-01,3.770728679255819227e-01
2.294043567579472587e+00,-6.213169076861698725e-01,4.617265165443993347e-01
2.298384830218868746e+00,-6.225739497802927902e-01,5.499418464129415263e-01
2.285009811375322553e+00,-5.824824125362108029e-01,-6.324777387713400589e-01
2.287208463118378443e+00,-5.857367273104526761e-01,-5.444077093728230121e-01
2.290811990122472164e+00,-5.860277756871246080e-01,-4.602496453491894401e-01
2.290094336426774291e+00,-5.876125721607980967e-01,-3.763341502592686405e-01
2.296751459311011878e+00,-5.885138350878259539e-01,-2.898397714300621764e-01
2.299106071743428181e+00,-5.884905805366359433e-01,-2.090756533727590460e-01
2.303287409648737682e+00,-5.890013291540683316e-01,-1.246256045141480306e-01
2.306946059187407361e+00,-5.909806211739798698e-01,-4.161471451473126165e-02
2.308498622240692910e+00,-5.899530693951429150e-01,4.058562460668754118e-02
2.310062385085634329e+00,-5.902993549709595333e-01,1.246742287590510978e-01
2.313121912511167722e+00,-5.940117114264847897e-01,2.073742955621469264e-01
2.318469631310374979e+00,-5.923422359411174565e-01,2.953076152127210863e-01
2.320309835530560250e+00,-5.941000748241876961e-01,3.788000091409092773e-01
2.322727592931509655e+00,-5.942092620816370463e-01,4.640436611924910748e-01
2.326693591709965592e+00,-5.967403536409960907e-01,5.539110055253951836e-01
2.312750948733663492e+00,-5.566380786031325245e-01,-6.395648111111185141e-01
2.317452018677375492e+00,-5.571263465104562274e-01,-5.501426948800233196e-01
2.318573277491083218e+00,-5.573485874457229095e-01,-4.638724380997639174e-01
2.321953795840410617e+00,-5.605017661996306577e-01,-3.777536814161800982e-01
2.325571299580277529e+00,-5.579937556967011769e-01,-2.933510438305901857e-01
2.326426833924461146e+00,-5.606314791054969326e-01,-2.107168409203491466e-01
2.331040810893832305e+00,-5.596511525498043538e-01,-1.243573132775432355e-01
2.334567530728714146e+00,-5.616785124323860900e-01,-4.312925535857397435e-02
2.336961604535332082e+00,-5.634492412479469303e-01,4.131700676596160998e-02
2.340599913610786675e+00,-5.630396118173587316e-01,1.278102071356528036e-01
2.341635637079831689e+00,-5.636329778859754391e-01,2.114508943061270685e-01
2.346422251273463822e+00,-5.667889004687045595e-01,2.965687059411864501e-01
2.350359294200056404e+00,-5.640318011139945353e-01,3.826174378151032673e-01
2.350685843982545098e+00,-5.670583138946517776e-01,4.704187203799084505e-01
2.357365715321934729e+00,-5.670940960509872619e-01,5.585624897920525855e-01
2.340972537412673748e+00,-5.291128111063009287e-01,-6.425897577718924225e-01
2.343168752994065684e+00,-5.268858589158406103e-01,-5.543197277016667091e-01
2.347391273823971947e+00,-5.303145178348601663e-01,-4.675051324555472010e-01
2.351914889861759228e+00,-5.303981919591350680e-01,-3.817220403869466261e-01
2.355859087342384584e+00,-5.315795653870863946e-01,-2.960905534770394421e-01
2.355820187357271056e+00,-5.322997464430532233e-01,-2.115722528058110730e-01
2.359851602305565788e+00,-5.314792256678622095e-01,-1.262346113737622677e-01
2.362057527872453822e+00,-5.317217154919617883e-01,-4.293951803884457630e-02
2.367529536450009964e+00,-5.343006772608743793e-01,4.202464339333495530e-02
2.369780867447652373e+00,-5.343601882728745700e-01,1.280349722689152758e-01
2.372549230468222525e+00,-5.361399112747952111e-01,2.153415326040053757e-01
2.374117850045492695e+00,-5.354845794621855282e-01,2.980204877472845681e-01
2.378501687630969030e+00,-5.356692501971078713e-01,3.862888241669377720e-01
2.381246715956351956e+00,-5.358209175052680573e-01,4.750718919905467796e-01
2.384200336232102924e+00,-5.367775033509071259e-01,5.634178749334739500e-01
2.372742495994680567e+00,-5.011567519229416234e-01,-6.509542273599757678e-01
2.374620853673213627e+00,-4.998463403678101158e-01,-5.603735228416821812e-01
2.376498408372020865e+00,-5.029061431886466815e-01,-4.733274605631264120e-01
2.381072555858313233e+00,-5.013938760583221965e-01,-3.834730657509892171e-01
2.383514789398430089e+00,-5.024725996852310583e-01,-2.983555169701741505e-01
2.384480526401897116e+00,-5.025257839912437019e-01,-2.139272957716632784e-01
2.389250735098366274e+00,-5.023992592053674322e-01,-1.264736239673486529e-01
2.393331165255076609e+00,-5.030495209414048707e-01,-4.348623282737123369e-02
2.395475860714125549e+00,-5.045592001589070952e-01,4.335994587015538221e-02
2.400471455110328112e+00,-5.041090876112396257e-01,1.281454703286068475e-01
2.403365727296429721e+00,-5.061452453535690843e-01,2.163305508829789225e-01
2.405068477491203893e+00,-5.067678918810387678e-01,3.017845321242213497e-01
2.408518262194566439e+00,-5.082025696690845029e-01,3.910700674326650916e-01
2.411522926083970120e+00,-5.089185489561038889e-01,4.803467511833176551e-01
2.414693414242893521e+00,-5.091983624041955814e-01,5.702626955592130509e-01
2.401992793333918019e+00,-4.705945705545006574e-01,-6.569194332549825877e-01
2.405453316205352188e+00,-4.717162378975831571e-01,-5.658875952058464165e-01
2.407922296233899750e+00,-4.703618267094550887e-01,-4.778123437759195791e-01
2.411890780954282665e+00,-4.717536528151790587e-01,-3.904014878881523209e-01
2.416001427501063059e+00,-4.716943397016327699e-01,-3.009357322698958392e-01
2.419318368057627566e+00,-4.740031084005268402e-01,-2.145866651403444125e-01
2.420132511126251718e+00,-4.734129220167787033e-01,-1.290279941300498112e-01
2.422888359359167243e+00,-4.746578018258701959e-01,-4.245027727394328626e-02
2.426319064496397004e+00,-4.755713908657128730e-01,4.343116198139854167e-02
2.430723491847107454e+00,-4.769841954461805922e-01,1.292370908637010540e-01
2.433927909112998389e+00,-4.763163541005507873e-01,2.162322585160048050e-01
2.434426199806047908e+00,-4.755618629656003238e-01,3.041933711610222413e-01
2.440037608116635504e+00,-4.762242835485832049e-01,3.936514536043286272e-01
2.443744208187007771e+00,-4.766819198703514671e-01,4.850953263672280746e-01
2.447518414218071037e+00,-4.769263073549653842e-01,5.751405678820841194e-01
2.433263637417146352e+00,-4.404885145961586757e-01,-6.638998542547527304e-01
2.435645639757771264e+00,-4.413312266433346287e-01,-5.689727254039190774e-01
2.440393238194374703e+00,-4.411001027690779619e-01,-4.833515212990581733e-01
2.442549246279775765e+00,-4.429229066929128433e-01,-3.939961145413846122e-01
2.448458515457225371e+00,-4.415042654011627210e-01,-3.056115048654345356e-01
2.447714294497187915e+00,-4.430623450048649103e-01,-2.191643007381741670e-01
2.452574092909717507e+00,-4.429850049483775032e-01,-1.314149611750408952e-01
2.453363053983295128e+00,-4.426549492082745840e-01,-4.364508084898185286e-02
2.457999834045701437e+00,-4.442721997042441973e-01,4.362313470213922267e-02
2.461133739925190245e+00,-4.477669257797687319e-01,1.330067474410890904e-01
2.465828804415668873e+00,-4.471650841565206203e-01,2.192318164162503913e-01
2.468396929678142726e+00,-4.460770106036846538e-01,3.069653534556596730e-01
2.469528255603196776e+00,-4.483469411425746176e-01,3.983437426673298032e-01
2.473806760256001436e+00,-4.466771761681190278e-01,4.891349185323790039e-01
2.477845082846872771e+00,-4.490122312295288243e-01,5.803853370250944277e-01
2.462833517290567098e+00,-4.090030938519283454e-01,-6.692125761134645190e-01
2.465364316299382352e+00,-4.100743806635579469e-01,-5.759585313441251131e-01
2.468432566302643849e+00,-4.096614360884421324e-01,-4.861752126437055566e-01
2.471473873070254790e+00,-4.093900987237067968e-01,-3.956619110232182379e-01
2.475287661627646241e+00,-4.115183924374079538e-01,-3.084194117442755068e-01
2.478965344080859889e+00,-4.108167574640914088e-01,-2.201637629301290977e-01
2.482688939696712005e+00,-4.125102851359168099e-01,-1.333125062693078233e-01
2.484118130060415819e+00,-4.118100779934662503e-01,-4.422081902365543327e-02
2.487734654513157562e+00,-4.138993349682997258e-01,4.304567904040419030e-02
2.491645201505027440e+00,-4.127163265182571816e-01,1.333780839898829895e-01
2.495229587143608097e+00,-4.149548837388387090e-01,2.206949738218741963e-01
2.496777983836680814e+00,-4.153039618701933056e-01,3.109632426987929965e-01
2.500441757089211681e+00,-4.143940892226073980e-01,4.026252210531942599e-01
2.505084768647606985e+00,-4.158505439890579636e-01,4.928646626151766963e-01
2.507873763476232032e+00,-4.153130234151752309e-01,5.877878261340379051e-01
2.495337738707056108e+00,-3.788934584609484624e-01,-6.753638200974896311e-01
2.499524434235884662e+00,-3.768535429000531289e-01,-5.834457490827288373e-01
2.501168038362818535e+00,-3.782485552735059819e-01,-4.922928808781172894e-01
2.504521885262257719e+00,-3.791049733249565179e-01,-4.001315385935846347e-01
2.509061053147775500e+00,-3.791591608862682761e-01,-3.117023444915253405e-01
2.511792850381440623e+00,-3.814095295569923660e-01,-2.223960398057039933e-01
2.513565788057294359e+00,-3.813941897507940881e-01,-1.326571597752971843e-01
2.518364959142350923e+00,-3.815462265364439887e-01,-4.508187059636345473e-02
2.521948033703440117e+00,-3.816007407847302191e-01,4.492461736814021972e-02
2.523472188629142021e+00,-3.808557693210732897e-01,1.335451559594367510e-01
2.528038805959242019e+00,-3.839469128402197562e-01,2.219405624846311209e-01
2.528856495336351262e+00,-3.850459037340321911e-01,3.146606299620967606e-01
2.535784524528382100e+00,-3.819824443151291216e-01,4.057411417439896750e-01
2.538774046187159961e+00,-3.850856579736188223e-01,4.984662014759813631e-01
2.542035659963542304e+00,-3.842535423056491761e-01,5.918882913619477604e-01
2.528781865669047946e+00,-3.453312177677971828e-01,-6.840087416469734505e-01
2.532798591349273654e+00,-3.482175763921273592e-01,-5.918365595626945419e-01
2.534238033838810189e+00,-3.475027714939161183e-01,-4.974446040668383806e-01
2.540326262990561634e+00,-3.483160397487511384e-01,-4.049141998128880093e-01
2.541688490446000870e+00,-3.476055852188611461e-01,-3.154945952137758192e-01
2.546415388600028251e+00,-3.487163570850445038e-01,-2.253382981343297342e-01
2.549264377937859205e+00,-3.476801704955010952e-01,-1.353436042036211262e-01
2.551419274069978371e+00,-3.485720195281649114e-01,-4.553086186330818769e-02
2.554838944013398727e+00,-3.507056002409594808e-01,4.409896322117538153e-02
2.558093303610055269e+00,-3.510798991944237835e-01,1.358094491430267003e-01
2.560183267784066796e+00,-3.507459938795399190e-01,2.272610428544161176e-01
2.564073752884259871e+00,-3.527070049598246548e-01,3.174028686649539299e-01
2.567914073151366328e+00,-3.501813590750877947e-01,4.101249376048306527e-01
2.571895004594722867e+00,-3.512528582442845382e-01,5.047192406352483118e-01
2.573104582093225901e+00,-3.522951864552858470e-01,6.018419655567817106e-01
2.560298437285527751e+00,-3.129221904797137577e-01,-6.919208195629138469e-01
2.562924329040970228e+00,-3.143207253821511671e-01,-5.974915259512506571e-01
2.566787236532538596e+00,-3.153861076331085367e-01,-5.030794857807728837e-01
2.569008856089730397e+00,-3.154937666318027856e-01,-4.087731302609087236e-01
2.572784227717946681e+00,-3.136077446332140028e-01,-3.191261280075645690e-01
2.576725686077876443e+00,-3.148425245996585575e-01,-2.287080207313179347e-01
2.578654819929539599e+00,-3.161596298482866607e-01,-1.354053898587448956e-01
2.585113111414113707e+00,-3.152273556194324367e-01,-4.502268597285362384e-02
2.586572763351385973e+00,-3.151172086603879485e-01,4.483588995773317432e-02
2.591046567100347531e+00,-3.169114804371490068e-01,1.362206803006993372e-01
2.593190506731970491e+00,-3.171854967618809029e-01,2.297187762663641941e-01
2.596002832458464304e+00,-3.169250730023220886e-01,3.202381204693267036e-01
2.598924327761917397e+00,-3.196665596112726049e-01,4.141492572672781369e-01
2.603578477997578577e+00,-3.177760312285835553e-01,5.108943864985554528e-01
2.606912821160479066e+00,-3.172620866942279516e-01,6.050314405700092379e-01
2.597239843002333348e+00,-2.804339854548666966e-01,-6.994543604788057145e-01
2.599407560600334843e+00,-2.806839959047549571e-01,-6.024697011608470820e-01
2.603280385263134988e+00,-2.804581145237649009e-01,-5.092189219855947080e-01
2.605886656631883458e+00,-2.808854938087474440e-01,-4.144348309880096504e-01
2.610855593183549761e+00,-2.803334793127065794e-01,-3.228375360110491976e-01
2.609823438912936222e+00,-2.821229617363280040e-01,-2.298332546517790065e-01
2.616197421835853909e+00,-2.825288490543348963e-01,-1.379969916588795753e-01
2.618687603882178028e+00,-2.823851402052635629e-01,-4.452560562743826389e-02
2.623060348403328135e+00,-2.817917507184687365e-01,4.617813277359514995e-02
2.624455128331024234e+00,-2.810663393537415344e-01,1.374300379756413226e-01
2.628200056548371411e+00,-2.825785430959031896e-01,2.306070597226125007e-01
2.632385542242509313e+00,-2.841124578640543130e-01,3.248977989497937036e-01
2.635429453328280935e+00,-2.830506206042248118e-01,4.180916467800421810e-01
2.640250716260954533e+00,-2.828899679845409687e-01,5.170042405287526011e-01
2.643496343316960040e+00,-2.842943491850854487e-01,6.136275908004847901e-01
2.627393057349341809e+00,-2.447758396224523070e-01,-7.066803939860738515e-01
2.633260181943914979e+00,-2.460194191744575209e-01,-6.114876492138624497e-01
2.632680967740662403e+00,-2.456953644051872443e-01,-5.156248069559029590e-01
2.639134121578147862e+00,-2.460271526006811704e-01,-4.186454097877290725e-01
2.642710150046171158e+00,-2.470558403937776482e-01,-3.248428556081197627e-01
2.646629528784486318e+00,-2.459611578834594858e-01,-2.328799992441432376e-01
2.647472711978490434e+00,-2.468594940013907058e-01,-1.398084636149001525e-01
2.652013589242198766e+00,-2.470246199388952957e-01,-4.812336282299081724e-02
2.653677791429767563e+00,-2.487116548666166715e-01,4.754109841072614445e-02
2.655449118638646855e+00,-2.476216432155556868e-01,1.404906367308694226e-01
2.661930347937649266e+00,-2.477276577104710886e-01,2.342580870757486888e-01
2.666672112723386778e+00,-2.469755906153075220e-01,3.293049647195396834e-01
2.670333182075828038e+00,-2.492756574383632184e-01,4.250012623622153596e-01
2.672107266654828450e+00,-2.491282935754086103e-01,5.230932996855666151e-01
2.677688230301616734e+00,-2.502227690964288209e-01,6.198138236046181193e-01
2.664801125334438137e+00,-2.104089883392301352e-01,-7.136963317715256938e-01
2.669297037043055987e+00,-2.090352152421340870e-01,-6.180174330041874331e-01
2.672566163183849763e+00,-2.109500898190142248e-01,-5.214165462238686821e-01
2.675843504144308049e+00,-2.101749755307487921e-01,-4.257248217053241635e-01
2.679070805828742241e+00,-2.109522720653827232e-01,-3.314868053466102360e-01
2.683415285083587953e+00,-2.118685384638635538e-01,-2.333901554823492597e-01
2.685859352759266461e+00,-2.115825728684121998e-01,-1.439070386807046187e-01
2.691547742798792164e+00,-2.123624974631027618e-01,-4.844104557862639882e-02
2.693207119733704857e+00,-2.113864660702368947e-01,4.751154259097917221e-02
2.696822156723681640e+00,-2.121518906116624803e-01,1.427351868261317602e-01
2.698610698506694217e+00,-2.130595738413670892e-01,2.354883379454466019e-01
2.705119355186309082e+00,-2.147445716606886934e-01,3.330289722035985056e-01
2.705767779390389816e+00,-2.126454822493716590e-01,4.319481575446387778e-01
2.710823944563168109e+00,-2.136717766935927465e-01,5.282068869687426282e-01
2.713961764795727927e+00,-2.135747631097941468e-01,6.279972423677165905e-01
2.698026028084245187e+00,-1.751079830614902799e-01,-7.243991177008883842e-01
2.704710053212343812e+00,-1.767900435875127130e-01,-6.242620489230021885e-01
2.708825832438741088e+00,-1.749540876265195111e-01,-5.258031451235383180e-01
2.708823099569313886e+00,-1.752424575204932500e-01,-4.305493891152400443e-01
2.713176068398138074e+00,-1.748989040942437179e-01,-3.340140738403140630e-01
2.716646963411676108e+00,-1.757786914741831241e-01,-2.390957160319222008e-01
2.720813372979910660e+00,-1.784512998917195947e-01,-1.442666977728374045e-01
2.724582074506298746e+00,-1.741934637299759336e-01,-4.699557325185262091e-02
2.726841476926512353e+00,-1.748697666083321445e-01,4.791601006136061991e-02
2.731987766547662844e+00,-1.774733477918470359e-01,1.445677198960014787e-01
2.733995770173963447e+00,-1.779538828852112453e-01,2.395593869041367230e-01
2.739100149625472103e+00,-1.784281077412600280e-01,3.372069185132658964e-01
2.743796534453144087e+00,-1.788793827456195418e-01,4.340001903691787510e-01
2.746716983057323258e+00,-1.771939001905641908e-01,5.346959393362338275e-01
2.750268058974473018e+00,-1.776422423813587281e-01,6.343743295646231406e-01
2.738918417247405923e+00,-1.375999153214851611e-01,-7.333199323145725979e-01
2.742101780063133099e+00,-1.358485853815069311e-01,-6.339340065682954606e-01
2.748678285278596700e+00,-1.361978960775731273e-01,-5.339801511370741993e-01
2.751521614228024326e+00,-1.364276724821943398e-01,-4.380653999509510621e-01
2.753877283532808917e+00,-1.390054238096350980e-01,-3.389428013314412236e-01
2.758305150972552688e+00,-1.382804013210281457e-01,-2.410587907783353356e-01
2.761505972063367675e+00,-1.378159673032184618e-01,-1.446582489067356481e-01
2.767413610219422448e+00,-1.389528888975051779e-01,-4.792641729584682514e-02
2.766921942891872099e+00,-1.402820898982226616e-01,4.992268225687825078e-02
2.772003832111991972e+00,-1.392210526537205617e-01,1.447375197012371051e-01
2.775149043168759544e+00,-1.392038805757216946e-01,2.443819002021966613e-01
2.778373681885687674e+00,-1.389449864048774297e-01,3.396544049592598036e-01
2.781412556130639313e+00,-1.392257089267646131e-01,4.403276550967904490e-01
2.786204598499254725e+00,-1.396606395022462477e-01,5.440526695587678541e-01
2.789000461114130136e+00,-1.400758733028929781e-01,6.470792233463792398e-01
2.774566530661823460e+00,-1.003805299664635997e-01,-7.438572503886634601e-01
2.779768147878400431e+00,-1.000459106237731183e-01,-6.426938824229182501e-01
2.785080425784426605e+00,-1.000945607823134353e-01,-5.403656887988498303e-01
2.785785311560261768e+00,-1.013068272112441631e-01,-4.424777714817599295e-01
2.790042659273447523e+00,-9.948815561448834388e-02,-3.453398821834683385e-01
2.793636370352460041e+00,-9.827260494804007651e-02,-2.461331632817325421e-01
2.800376756357238150e+00,-1.005434294489841868e-01,-1.475562286069412588e-01
2.803696282833354481e+00,-9.997788763641843324e-02,-5.032751569836727695e-02
2.805923929256753713e+00,-1.010686994141208467e-01,4.969728577531716540e-02
2.808839459269886429e+00,-9.932512858002513767e-02,1.468148951624254628e-01
2.812850903749593900e+00,-9.917982874786863967e-02,2.465810018540134652e-01
2.815255632521228346e+00,-9.894947792108141349e-02,3.457799805726397002e-01
2.820083600695646453e+00,-1.004826940129167900e-01,4.460227169448515161e-01
2.822325064600251565e+00,-1.006296601555519143e-01,5.504609224663340461e-01
2.829038131891499663e+00,-1.018892431465094062e-01,6.534393634922817107e-01
2.817243024429915810e+00,-5.940580081580543181e-02,-7.539718430259544357e-01
2.820329923881536249e+00,-6.016764193295269514e-02,-6.520163137161447686e-01
2.825594813568498509e+00,-6.047651464193073978e-02,-5.492756810492992470e-01
2.828066508351377184e+00,-5.996225282281136132e-02,-4.484742312033048739e-01
2.832359591021912149e+00,-6.043227175120306771e-02,-3.478399943553961426e-01
2.837115502751938578e+00,-5.979636040416753257e-02,-2.482529471240071672e-01
2.838769032480727095e+00,-5.893235814455757143e-02,-1.474222273694230090e-01
2.844964058142490426e+00,-6.140748673975000155e-02,-4.870390252052984870e-02
2.846886744887344722e+00,-6.116130439045196210e-02,4.948070808232910012e-02
2.850253352302516863e+00,-6.182180326814883109e-02,1.510063096437554708e-01
2.854463976949006110e+00,-6.167650144288594483e-02,2.496496230023126373e-01
2.857459098870463343e+00,-6.183995374957479418e-02,3.498507792617466805e-01
2.862893640889451863e+00,-5.981934314678499787e-02,4.530608972842129489e-01
2.866535189531518313e+00,-6.102946608362781744e-02,5.574146534916112339e-01
2.869889083800179375e+00,-6.020659526401142547e-02,6.641137963163720181e-01
2.854754441974161505e+00,-2.063052558276680035e-02,-7.644724856378940503e-01
2.859284226612855750e+00,-1.973385798452055931e-02,-6.602008908509027219e-01
2.864394813272494567e+00,-1.722575796682221730e-02,-5.567816946863516359e-01
2.868633040796281453e+00,-2.072150058528339847e-02,-4.541256019314979242e-01
2.872270742520697251e+00,-2.004432883910251331e-02,-3.526066757668903651e-01
2.874449195206552066e+00,-2.305823822689928235e-02,-2.507800452470610453e-01
2.880395326247568555e+00,-1.891688769728762723e-02,-1.519764976303195625e-01
2.882638703580955752e+00,-2.115763227236415120e-02,-4.887109415520844019e-02
2.886267084238247627e+00,-2.180355226360181781e-02,5.213146126614948139e-02
2.890833826240939430e+00,-2.127675285767558627e-02,1.504801113058998330e-01
2.891585724586464234e+00,-2.033356481268432450e-02,2.538615679514082957e-01
2.898071555340668404e+00,-2.067623430451935931e-02,3.553737284527211382e-01
2.900831366085340868e+00,-2.131128842926172454e-02,4.593467945436424116e-01
2.906316845108402713e+00,-2.068808503857897871e-02,5.644243887209881017e-01
2.909835469343184933e+00,-2.085029173072602132e-02,6.691198043069682688e-01
2.899603446857944800e+00,2.244485679454742005e-02,-7.787291180705648852e-01
2.904219116424699543e+00,2.321656115046718052e-02,-6.694919620781494274e-01
2.909845566666047212e+00,1.905188657557951165e-02,-5.662336276156131332e-01
2.911632112740544898e+00,2.160895858164453218e-02,-4.618975691617034918e-01
2.915592147377283450e+00,2.010120563444522945e-02,-3.573125711533663984e-01
2.920217243174636934e+00,2.105458163936985497e-02,-2.558435329857501328e-01
2.925317119853361625e+00,2.103325663272269039e-02,-1.549396316901690274e-01
2.929729670339231706e+00,2.115637358012351088e-02,-5.295562186122994286e-02
2.931881780841867347e+00,2.259147603420659858e-02,5.250455741991329889e-02
2.935425194827646855e+00,2.083032839061374486e-02,1.537718339871295692e-01
2.938475319307656264e+00,2.144922860685108054e-02,2.555523866590617699e-01
2.941950845629752731e+00,2.208122853898116661e-02,3.620629401076067011e-01
2.946829335705202002e+00,2.004732146421061775e-02,4.662078874217389091e-01
2.952757801230986967e+00,2.229222913131177417e-02,5.710499347517483670e-01
2.953694775610402612e+00,2.072291695250399676e-02,6.821739227258817317e-01
2.940305689605684503e+00,6.304101338874648630e-02,-7.886615301174367820e-01
2.945915406466995456e+00,6.246107325044742559e-02,-6.814509613545057798e-01
2.950144194672020603e+00,6.379993910464173967e-02,-5.727859682293378052e-01
2.952524653726668280e+00,6.134688207198964877e-02,-4.674645641705318377e-01
2.956477216289409071e+00,6.345468723584042625e-02,-3.626216550617099577e-01
2.961390687400474508e+00,6.418582773773456873e-02,-2.602809267236589341e-01
2.964879448134912110e+00,6.362390379433399690e-02,-1.557589251673381359e-01
2.967714961097497994e+00,6.446639888427078968e-02,-5.113316493606352015e-02
2.970981085645314934e+00,6.448063522393936153e-02,5.101095136689823284e-02
2.975884437667174254e+00,6.420464672928549721e-02,1.554374088166523837e-01
2.978638320470018197e+00,6.381195413987564291e-02,2.613885213210711544e-01
2.984502513859399020e+00,6.426898374938860847e-02,3.666674758705427140e-01
2.987274707211036162e+00,6.428147152400223718e-02,4.733360304205268543e-01
2.992934747594809597e+00,6.182319542629213099e-02,5.801447359310806240e-01
2.994693977236321025e+00,6.487971866928191056e-02,6.910370510046821568e-01
2.989671045600901689e+00,1.075185261482373283e-01,-8.009613674334009614e-01
2.991590775802519975e+00,1.077055213974923570e-01,-6.905943046601380475e-01
2.996962665214575328e+00,1.071066321633867419e-01,-5.829674824023179935e-01
3.000724719719117140e+00,1.075571468411975484e-01,-4.772466870736582489e-01
3.004618270766278965e+00,1.068749877657982073e-01,-3.696850776794872728e-01
3.010259620572155903e+00,1.062173289570760015e-01,-2.651823661126005427e-01
3.013043218278181001e+00,1.072375235777255353e-01,-1.583692288887483535e-01
3.014026615747597670e+00,1.078984078880915048e-01,-5.269510194844125028e-02
3.019558727253287334e+00,1.087353235142382857e-01,5.395399680846986457e-02
3.023182316685073534e+00,1.053645864749308964e-01,1.573603303277636423e-01
3.028691626936189429e+00,1.091600914625495550e-01,2.642887085447216400e-01
3.031829920307283377e+00,1.091143850999891640e-01,3.724255108409773030e-01
3.036671580882547072e+00,1.079952800847533284e-01,4.799203475100952132e-01
3.040601472544552486e+00,1.099314990166392753e-01,5.905239769111519932e-01
3.043531333987423260e+00,1.099554619890651536e-01,7.037391368869648778e-01
3.031050865911734782e+00,1.529593856559292309e-01,-8.131544691963825677e-01
3.037045750948661027e+00,1.526320393325712177e-01,-7.034496023914993401e-01
3.039770210217244806e+00,1.515385969350682427e-01,-5.907004358580141279e-01
3.043424841630936850e+00,1.518696833155079862e-01,-4.824330905131490321e-01
3.047649646555803393e+00,1.521496005100042848e-01,-3.749064044647670846e-01
3.053565975175922098e+00,1.503493620101071515e-01,-2.690161615513664839e-01
3.055566955710675714e+00,1.530052984230045043e-01,-1.603183739631675042e-01
3.058737595876348969e+00,1.519380489646072474e-01,-5.381322679924371161e-02
3.064240495080288174e+00,1.551925572536418108e-01,5.241928757795970284e-02
3.067899327580885682e+00,1.550013644329582829e-01,1.603233602115765599e-01
3.069261000468140210e+00,1.545389887573940524e-01,2.695974009503548374e-01
3.074507954278520305e+00,1.551470289104965317e-01,3.780016162740864050e-01
3.078922673951159705e+00,1.525732934639544569e-01,4.898653542427952590e-01
3.084736025653922908e+00,1.540735460758579090e-01,5.998092451736674047e-01
3.087601327111604732e+00,1.539107770126677821e-01,7.154605207957542845e-01
3.080223074539239381e+00,1.970081912812341740e-01,-8.251666647609597893e-01
3.086689340984847707e+00,1.980400604100898410e-01,-7.155994241094093544e-01
3.089541270910373782e+00,2.003526655241825993e-01,-6.027188691165678014e-01
3.092734576865349805e+00,2.003537691789473718e-01,-4.896119921291838262e-01
3.098735117041496068e+00,1.996383615931313360e-01,-3.819249792118802889e-01
3.103219668926080033e+00,2.005624224531124544e-01,-2.729710971621741589e-01
3.107406839346750882e+00,1.988486099620493941e-01,-1.625121623713195740e-01
3.109955994924228140e+00,2.013412673901595340e-01,-5.482962278115917354e-02
3.113661433676809587e+00,2.018918827316001086e-01,5.463738096616945622e-02
3.118654739200239945e+00,2.015553293192316742e-01,1.644134880219602635e-01
3.120058559914396401e+00,2.021033005565058271e-01,2.757585509160813131e-01
3.125742782306552670e+00,2.016722085914159079e-01,3.839988226568693541e-01
3.128536407826090660e+00,2.028782031148452514e-01,4.960262816300083366e-01
3.134312345734701744e+00,2.026826052286540003e-01,6.106750580296526065e-01
3.139128058671113664e+00,2.018150558637659686e-01,7.284704519835506487e-01
3.127767519967310061e+00,2.461373898621637135e-01,-8.399340226942418886e-01
3.130439076704470747e+00,2.472498075635357340e-01,-7.278197260535014257e-01
3.134375667215290928e+00,2.486258514444757151e-01,-6.109176746520951218e-01
3.141369117205041306e+00,2.480523335043979816e-01,-4.978299569654325296e-01
3.143068435245709669e+00,2.458316220683774422e-01,-3.872795686227395451e-01
3.146785538435105334e+00,2.484735891473928149e-01,-2.764490451695993944e-01
3.153510064238092880e+00,2.504702748354832309e-01,-1.669974909467827340e-01
3.156703811987044528e+00,2.499515377561138396e-01,-5.683301943964894770e-02
3.161867662868233175e+00,2.471394752266329042e-01,5.342457509471506411e-02
3.164828352415992363e+00,2.490034749856216978e-01,1.685819295278839780e-01
3.167483982770136652e+00,2.498107717478685597e-01,2.783893680771476475e-01
3.172752099009453985e+00,2.487489376731871205e-01,3.923199653280231569e-01
3.177330103307199227e+00,2.517481875584009487e-01,5.048639318716650060e-01
3.180632667976055483e+00,2.511606916401941669e-01,6.199800231072102319e-01
3.183571121827907024e+00,2.509030616794707957e-01,7.381957877893198239e-01
3.182378265144390816e+00,2.958671977915970919e-01,-8.550878447588894371e-01
3.184334800947807409e+00,2.971102927461263254e-01,-7.386025537734566271e-01
3.191401688924123459e+00,2.984121530690318491e-01,-6.241166585558737268e-01
3.193702016956864398e+00,2.983057418379779224e-01,-5.074349302214538060e-01
3.197116303593424469e+00,2.981310436589285073e-01,-3.935513127737446659e-01
3.201335677292013848e+00,2.984839834395529024e-01,-2.801813931936618096e-01
3.204423147838273866e+00,2.991193660732257009e-01,-1.694799889537264848e-01
3.211079478896428085e+00,2.999161688662005387e-01,-5.693082138831961209e-02
3.215687865173464832e+00,2.995936434241119883e-01,5.546761134343426020e-02
3.221124569062427945e+00,3.007290648031907265e-01,1.710051873303080616e-01
3.223859481247457914e+00,3.015817070217071683e-01,2.832856329051154365e-01
3.228706172437461497e+00,3.020723803982687250e-01,3.967508918968271070e-01
3.233779361880734893e+00,3.029458945124173797e-01,5.134501883333223438e-01
3.236837960794323177e+00,3.039921618134309722e-01,6.328041826107183576e-01
3.240885117304050045e+00,3.034810291385655612e-01,7.519832689137384563e-01
3.229522194509303112e+00,3.493414439798877003e-01,-8.711917960010580053e-01
3.234529967171259734e+00,3.494682538964381524e-01,-7.518645766590117407e-01
3.238290449468562482e+00,3.496979544065000889e-01,-6.324749137039401559e-01
3.243527055929773084e+00,3.493168035015657424e-01,-5.162064860319310888e-01
3.247324598756584635e+00,3.498453832557637533e-01,-4.013744164626594224e-01
3.251062037569050212e+00,3.505620071190719278e-01,-2.856522807303515377e-01
3.256806438625466260e+00,3.514368545730982563e-01,-1.701027625696185097e-01
3.259941371227031315e+00,3.521706730798760954e-01,-5.566604067443929604e-02
3.263691048333706046e+00,3.514397365598205258e-01,5.730357444558220603e-02
3.269140017029911860e+00,3.514153291377490329e-01,1.695397052060038379e-01
3.273260397789871323e+00,3.525539615592481746e-01,2.879421307782853989e-01
3.276561229879956461e+00,3.520690423586066986e-01,4.030941860704199131e-01
3.280279482190943341e+00,3.528185323323082545e-01,5.222575728472901302e-01
3.285195256509766626e+00,3.544076926474545863e-01,6.434292154887211179e-01
3.290902766421957448e+00,3.551612654382351741e-01,7.658689443540327435e-01
3.286583979976304359e+00,4.014428232256719298e-01,-8.861366860149997304e-01
3.291081708316246246e+00,3.999205656277735055e-01,-7.655241666636433129e-01
3.295075686776751667e+00,4.043315342567931903e-01,-6.454587935716777913e-01
3.300147981522607576e+00,4.012040927538255697e-01,-5.284247708523905906e-01
3.304272446220513970e+00,4.030478289451727703e-01,-4.096552918285957245e-01
3.309496593806452669e+00,4.038646370382282802e-01,-2.911737118366387045e-01
3.315281430828601383e+00,4.053564066303279589e-01,-1.755827656210422749e-01
3.317372145606789502e+00,4.046480222322152986e-01,-5.892856044266536059e-02
3.321527262255691060e+00,4.042454842409418658e-01,5.815692771416101220e-02
3.325821446851288332e+00,4.061503546503499318e-01,1.752647871333669616e-01
3.331552298510758625e+00,4.061767853969700526e-01,2.938390066750415364e-01
3.337080471566045148e+00,4.081047805920135496e-01,4.118118914595033098e-01
3.339084385609552452e+00,4.068613986199059451e-01,5.331288736789577820e-01
3.343631328971460981e+00,4.092549598418989132e-01,6.556806529818396401e-01
3.348319310467884335e+00,4.096770132954870580e-01,7.790100208507250157e-01
3.339116602449330173e+00,4.546250612216694020e-01,-9.036550517924717418e-01
3.345131448993450274e+00,4.579582319051480055e-01,-7.780160600190135778e-01
3.346921305866330520e+00,4.582631986435276583e-01,-6.552363668415410736e-01
3.353478507340999393e+00,4.580392304121754243e-01,-5.351587943868374442e-01
3.355705807456661027e+00,4.591112920837296385e-01,-4.134243126408567726e-01
3.361833358927546644e+00,4.590402682359343012e-01,-2.954476170772138421e-01
3.366454153370285862e+00,4.606136717268547454e-01,-1.788094226823218891e-01
3.369826984714845430e+00,4.607443167320119382e-01,-5.960132886186909201e-02
3.375432139676138199e+00,4.613073148003006274e-01,5.990945970133651488e-02
3.379011834300358341e+00,4.607410229525339962e-01,1.792623377644420313e-01
3.383026315494621183e+00,4.621006116482926918e-01,2.976734423030525933e-01
3.387295978165684840e+00,4.638223643333503898e-01,4.206608958735030268e-01
3.392556056944608045e+00,4.625553392106073747e-01,5.419358751865703816e-01
3.395543973460231069e+00,4.631317144222095727e-01,6.663201769159121657e-01
3.401229618103161823e+00,4.654376378591985053e-01,7.923548733818487344e-01
3.400548883460219773e+00,5.149858095835946337e-01,-9.215947350139568339e-01
3.404353898852055416e+00,5.148997503188674774e-01,-7.948691922127905096e-01
3.408101740787536027e+00,5.167987483132809867e-01,-6.702049365867631670e-01
3.413160933558141430e+00,5.178381092346188153e-01,-5.455743232388539088e-01
3.419200163238131474e+00,5.177321910684848927e-01,-4.235190124353979124e-01
3.423412695375032566e+00,5.186715418910511355e-01,-3.017908136074730630e-01
3.427019668741735359e+00,5.198429313525262385e-01,-1.815058024214086796e-01
3.431360876470589183e+00,5.187156323010270187e-01,-5.866724518297860430e-02
3.435227667749819247e+00,5.204790233389338105e-01,6.007568367383109287e-02
3.441593977715104558e+00,5.204385021580432147e-01,1.844020857382037137e-01
3.444536481551568219e+00,5.226147370929489222e-01,3.052507807506910642e-01
3.449854679596099150e+00,5.239680907117001407e-01,4.283170566147198044e-01
3.457621211040941223e+00,5.237452092239238688e-01,5.540944800069971254e-01
3.459997213094590407e+00,5.238257831234159889e-01,6.799873394516616765e-01
3.464470877515068992e+00,5.253692926667450358e-01,8.084453676542672218e-01
3.463219689431961790e+00,5.744580633652767165e-01,-9.398540678575982854e-01
3.468496097093409780e+00,5.774301050006522829e-01,-8.120845876288698140e-01
3.471821338675114887e+00,5.743770338535177933e-01,-6.828895001383145091e-01
3.477038068559779482e+00,5.776048384224988785e-01,-5.583027765566792588e-01
3.482302169629307276e+00,5.786152322935999015e-01,-4.330781500100743808e-01
3.486336660951280475e+00,5.801252052195152720e-01,-3.090534421660472986e-01
3.492444275437091683e+00,5.799882787435048925e-01,-1.859446688635152112e-01
3.494464097233095590e+00,5.809966351095479098e-01,-6.176483997004064003e-02
3.499723141948918315e+00,5.818910443012824674e-01,5.996651884040971048e-02
3.503252053164056523e+00,5.834494858780161497e-01,1.872778418646928733e-01
3.508383981159257647e+00,5.828401325127426924e-01,3.098888960565104322e-01
3.514222555102851420e+00,5.829304785093580854e-01,4.360289181164230810e-01
3.517893631703815416e+00,5.851900841758724825e-01,5.666123613081180954e-01
3.524231738008884118e+00,5.836456742569822165e-01,6.937758127017558119e-01
3.529169612007224899e+00,5.866222962673692809e-01,8.261626366062438942e-01
3.520451383733767425e+00,6.374215132967812059e-01,-9.577652026628797888e-01
3.526067959695902143e+00,6.366167028582476739e-01,-8.251107641089970857e-01
3.531504467575449002e+00,6.390382174445674579e-01,-6.978006564221045371e-01
3.534781209289088011e+00,6.385921255293565135e-01,-5.685238691559018065e-01
3.539507670026052377e+00,6.404334148631718460e-01,-4.415949505576239886e-01
3.545522720401592665e+00,6.384375714820444969e-01,-3.145603264480322792e-01
3.549616002922040714e+00,6.405895307989728504e-01,-1.903413987042292255e-01
3.556157440289867022e+00,6.421477857355006869e-01,-6.349199382726937457e-02
3.557083299103875884e+00,6.439428136521913038e-01,6.200662157269425795e-02
3.564300040855373997e+00,6.457171290706457123e-01,1.895999351092720331e-01
3.567022459168091686e+00,6.464765823945690659e-01,3.167705696552419736e-01
3.572944271444932873e+00,6.469459402788614311e-01,4.456683226648660012e-01
3.575955690454025504e+00,6.459559097023022112e-01,5.774029160045608400e-01
3.582622113892711013e+00,6.464128913510596153e-01,7.086036547854023260e-01
3.588011523989249607e+00,6.477798137465620165e-01,8.416416741264792778e-01
3.589505260379504570e+00,7.027912456697821275e-01,-9.800840693191488207e-01
3.595480476433577710e+00,7.032855058073859134e-01,-8.457005997141759934e-01
3.599300368701421782e+00,7.035315169401757940e-01,-7.135241226775894674e-01
3.604853445707606241e+00,7.055901114680053210e-01,-5.806660925220580305e-01
3.607756834217230590e+00,7.060597561754142770e-01,-4.526848600992339766e-01
3.613166154360975213e+00,7.068626155738031436e-01,-3.206455081443105315e-01
3.618002073080151870e+00,7.071041827989128503e-01,-1.950251914664243025e-01
3.623167921229004662e+00,7.088465817184596007e-01,-6.422801772471016524e-02
3.627940593823450133e+00,7.091473251810577194e-01,6.679158677312502235e-02
3.631057347103050947e+00,7.112642569900083922e-01,1.944638220174298993e-01
3.635678944534807222e+00,7.117994648117652590e-01,3.244348124688826163e-01
3.643546600339298891e+00,7.134757223469844201e-01,4.574380819987139968e-01
3.647343868132864930e+00,7.134485427542660574e-01,5.867426577219961858e-01
3.650614178436976331e+00,7.131668789020284560e-01,7.229581723859341835e-01
3.657913326690569900e+00,7.158718901406265767e-01,8.598596082243930017e-01
3.660515182729880745e+00,7.701183196625154270e-01,-9.999325526803958253e-01
3.665149397791043206e+00,7.732747626367453275e-01,-8.641872692652192711e-01
3.667844290845287070e+00,7.717401056384168845e-01,-7.274770012564869548e-01
3.675844486426480984e+00,7.732524736081339833e-01,-5.938633814049467663e-01
3.678278211514671270e+00,7.752625298155811917e-01,-4.616919267044045094e-01
3.685437751825395569e+00,7.755806578393341644e-01,-3.308153857125935016e-01
3.690074361491438637e+00,7.761292449371606228e-01,-1.986522858544333137e-01
3.695419928478412608e+00,7.796324846445433776e-01,-6.661221426537203283e-02
3.697726216619695361e+00,7.802330901374315841e-01,6.903180661025733189e-02
3.702397433149671180e+00,7.791404690647422138e-01,1.981919950649538575e-01
3.709623418342872903e+00,7.808791547093472118e-01,3.305862261149449255e-01
3.711587450730848392e+00,7.816686190868799011e-01,4.685413872595117213e-01
3.718224363826111212e+00,7.815807100106967331e-01,6.008918307142140369e-01
3.723280557120660639e+00,7.843256711854726948e-01,7.396252880895047843e-01
3.727826563402878879e+00,7.837687967080011475e-01,8.788816147248394994e-01
3.732893885230661901e+00,8.415411746837284657e-01,-1.024975444246925882e+00
3.737054719185778140e+00,8.437877999955294417e-01,-8.848208960867615103e-01
3.743331885232837664e+00,8.441417575028130615e-01,-7.481182539412142285e-01
3.746683365045119452e+00,8.463609472221081953e-01,-6.085622439607336620e-01
3.753093489716638587e+00,8.475869748598501285e-01,-4.736273705085174979e-01
3.758297609699600361e+00,8.457199079644923678e-01,-3.362146681509489143e-01
3.762151881546162091e+00,8.470195305404999431e-01,-2.011425283611928405e-01
3.767123124010922641e+00,8.512733837270771708e-01,-6.686436884512508838e-02
3.771644860275895628e+00,8.513065592594774023e-01,6.771662840921172100e-02
