9.266303920863887544e-01,-1.028277468528169036e+00,-3.183511504814050541e-01
9.271839687838713262e-01,-1.027828488380628125e+00,-2.685143615661351180e-01
9.271494658095076336e-01,-1.029514099949204731e+00,-2.206846199245879880e-01
9.302857367210086714e-01,-1.031586955715741771e+00,-1.691808618141122933e-01
9.306300154664270963e-01,-1.033260352450029007e+00,-1.226096685778749473e-01
9.305649712024761655e-01,-1.034019245038598322e+00,-7.249782646661064034e-02
9.305513674174799021e-01,-1.035752603732828625e+00,-2.465334033606532763e-02
9.352525485791922666e-01,-1.036295296391803289e+00,2.419039438814864218e-02
9.332434435088170499e-01,-1.037407254308599702e+00,7.209434959156585387e-02
9.368155486117873965e-01,-1.036407649018648014e+00,1.229090878294001182e-01
9.360265035917458842e-01,-1.039138835939550587e+00,1.710056555459847361e-01
9.380116751413010157e-01,-1.040983333418865842e+00,2.232338579904994957e-01
9.395714590075172623e-01,-1.041782390457805185e+00,2.728333520020323477e-01
9.413494017380517054e-01,-1.043886773867708673e+00,3.256331948067390791e-01
9.480783231940418387e-01,-1.024440523594649655e+00,-3.752343059203105957e-01
9.501928991589629891e-01,-1.026139716705896987e+00,-3.223194851165825936e-01
9.512994291241482214e-01,-1.026344234277103862e+00,-2.726335774262560463e-01
9.523826725856057163e-01,-1.027489603085815606e+00,-2.232957815635970567e-01
9.533055242466998980e-01,-1.030606961542259281e+00,-1.730185447217953698e-01
9.554461329941651426e-01,-1.028998490674107646e+00,-1.237648550944366044e-01
9.582814161459181079e-01,-1.031554801672168509e+00,-7.329406334782054278e-02
9.580347658900250085e-01,-1.032112218957401018e+00,-2.275597221033968942e-02
9.604383120132438112e-01,-1.034906856561013555e+00,2.419592585278735469e-02
9.606653100409017210e-01,-1.036303381989929884e+00,7.439142172057092162e-02
9.612630188554073252e-01,-1.037427812306060293e+00,1.240209563669235487e-01
9.634983932405585261e-01,-1.038651130817739299e+00,1.753887585257494497e-01
9.641023594834328136e-01,-1.039280937112580183e+00,2.248777496966204714e-01
9.623322163548244657e-01,-1.039520667055925385e+00,2.760719994270787181e-01
9.659069112215455943e-01,-1.041509716400257357e+00,3.284732199592699242e-01
9.743970186778659892e-01,-1.021825914116953227e+00,-3.801345965801014026e-01
9.785837900045397664e-01,-1.023397548923468348e+00,-3.269004580743641308e-01
9.765665477764300384e-01,-1.024918333927244962e+00,-2.754134831715395748e-01
9.795389786042361102e-01,-1.027465690495402706e+00,-2.249976979996886617e-01
9.811348483814773536e-01,-1.026756873771676792e+00,-1.741892123722804109e-01
9.822796687065468157e-01,-1.028761010772721640e+00,-1.251780785088822956e-01
9.822666027967452695e-01,-1.028919375848708739e+00,-7.370664894342690565e-02
9.840199670459668368e-01,-1.031870138905179868e+00,-2.505406693906692822e-02
9.861258872021868571e-01,-1.031413313131872567e+00,2.388453004775303867e-02
9.866185384976984274e-01,-1.033523265630015286e+00,7.446800020501434525e-02
9.850283065361854495e-01,-1.035734221008834499e+00,1.265374311299480858e-01
9.887625525179057906e-01,-1.035793771998203772e+00,1.757443904098028031e-01
9.905035586636024014e-01,-1.036631310299705566e+00,2.276826746852874117e-01
9.924740402087559588e-01,-1.038049232534653754e+00,2.807700401151426162e-01
9.941386655213464429e-01,-1.039888640657006480e+00,3.306843431496864216e-01
1.001239070225114380e+00,-1.021489193850595889e+00,-3.831073824533579031e-01
1.002609787111315542e+00,-1.021999894196700787e+00,-3.295103904882636936e-01
1.005614829820731249e+00,-1.023339419329327482e+00,-2.788322827477298094e-01
1.005143461608373645e+00,-1.024049904677994949e+00,-2.271906633681230470e-01
1.006026245939750874e+00,-1.025463667668894852e+00,-1.762922456680753869e-01
1.008558471718163707e+00,-1.027795186396861737e+00,-1.262158155895276856e-01
1.009429221206643801e+00,-1.029497857942511363e+00,-7.429233632034183687e-02
1.012699936149638713e+00,-1.029679474115499982e+00,-2.467914660023752885e-02
1.010910469244934218e+00,-1.031468409732301694e+00,2.515748431253362477e-02
1.012728948800093454e+00,-1.030194907625143541e+00,7.641950305990627412e-02
1.015036838447803458e+00,-1.034998158457790529e+00,1.258978253928218771e-01
1.015932743092545554e+00,-1.034745703499737157e+00,1.770903362828288585e-01
1.017207451225014880e+00,-1.036114310543626571e+00,2.281353588313331793e-01
1.019152067846825105e+00,-1.037294933776103933e+00,2.823421683731761056e-01
1.019394923762390048e+00,-1.038612106173749883e+00,3.359935644446185310e-01
1.028733763857652139e+00,-1.018339320361563827e+00,-3.893834061950424141e-01
1.032316293918462469e+00,-1.020573110751537893e+00,-3.356060283787866694e-01
1.030296067760498202e+00,-1.022147747525735673e+00,-2.804645269216944348e-01
1.034390541421525977e+00,-1.023093830317693964e+00,-2.302895484282320715e-01
1.035534903864862910e+00,-1.024140222123097521e+00,-1.778733434782736322e-01
1.035682194435518788e+00,-1.026223356068954207e+00,-1.273959676313409783e-01
1.037332125113942904e+00,-1.027950449036740155e+00,-7.605855390996812959e-02
1.038573662041273549e+00,-1.026327130061840176e+00,-2.627100910163741518e-02
1.039852660480710345e+00,-1.030033333744849067e+00,2.607766354526400848e-02
1.041182830296236705e+00,-1.030112726510940657e+00,7.633548895553753100e-02
1.041738569946992321e+00,-1.031142365616142031e+00,1.280890893936122710e-01
1.043986868058871975e+00,-1.032579202361031623e+00,1.807652049129587490e-01
1.045191495024035966e+00,-1.034138864900502552e+00,2.315357232470376392e-01
1.046522584638200914e+00,-1.033922310414533197e+00,2.867497638433590401e-01
1.047174779142961754e+00,-1.036426575386021343e+00,3.412485011457901396e-01
1.057348129306341367e+00,-1.016254576678583765e+00,-3.937143727575907470e-01
1.059763991500139557e+00,-1.017039845465003589e+00,-3.397325730718613879e-01
1.059282023705112596e+00,-1.019855268590402098e+00,-2.844083856656035580e-01
1.059805143045681852e+00,-1.021588697665218426e+00,-2.343063497777344018e-01
1.060769494108155131e+00,-1.023623194893292565e+00,-1.825617422773237186e-01
1.063776303992421735e+00,-1.020249220673425938e+00,-1.299985396085787392e-01
1.065686581483374251e+00,-1.023528345449898902e+00,-7.801769044325349012e-02
1.066144112760236240e+00,-1.025535748923489754e+00,-2.562735191466462142e-02
1.068212623751798374e+00,-1.028413010518470116e+00,2.697951666490130268e-02
1.071321731132351518e+00,-1.028076214310413627e+00,7.814161296461544226e-02
1.070764004391111968e+00,-1.029573910872950027e+00,1.307598757803161149e-01
1.072340754870857449e+00,-1.028840622321297804e+00,1.827185229611553996e-01
1.076115082276721369e+00,-1.031609560452422691e+00,2.355551163132019177e-01
1.074517009590604033e+00,-1.033095058454634563e+00,2.898500847605993136e-01
1.075801293831315286e+00,-1.034436600043834309e+00,3.434624933380330813e-01
1.085984729706642282e+00,-1.014878100918135351e+00,-3.984366535945050858e-01
1.086104501374846709e+00,-1.015702798454737099e+00,-3.430914117982156175e-01
1.088045308232247876e+00,-1.016965244479247410e+00,-2.899505136722904108e-01
1.089890573626685955e+00,-1.019032591593420634e+00,-2.369280599133298804e-01
1.090059566131330371e+00,-1.019341546899078965e+00,-1.848286056201092209e-01
1.092694250220672458e+00,-1.020034269863278720e+00,-1.316069873065859597e-01
1.095360616587365055e+00,-1.022631261610832176e+00,-7.875307861262539899e-02
1.095308637518728645e+00,-1.023011432448682534e+00,-2.586532036599019715e-02
1.097666793664276996e+00,-1.025058540783610361e+00,2.814613192849020618e-02
1.097714669668082843e+00,-1.027828080345187134e+00,7.898006357186476700e-02
1.099578666567418317e+00,-1.023822054633056977e+00,1.311296552980975028e-01
1.101772630962767341e+00,-1.028005818197618382e+00,1.837584904952805909e-01
1.101828929179367034e+00,-1.030711886307574821e+00,2.397139550279917541e-01
1.100796074130492297e+00,-1.031858941183139367e+00,2.928389553716070348e-01
1.103457128562307599e+00,-1.032281712802254336e+00,3.485622904423637536e-01
1.117079201182123560e+00,-1.014039537888641540e+00,-4.033543750755427815e-01
1.116742346642593420e+00,-1.015130165129408457e+00,-3.481630822593166918e-01
1.118440457280419631e+00,-1.013771747516696964e+00,-2.948997619634966538e-01
1.120491553985172306e+00,-1.015950569816269189e+00,-2.385316235217883885e-01
1.122699777916273511e+00,-1.018223020110098131e+00,-1.867102784905871060e-01
1.123483765015659941e+00,-1.019717983634741421e+00,-1.343435633691109077e-01
1.125875526198700793e+00,-1.020926659832649630e+00,-7.817761905287050339e-02
1.124961500675151216e+00,-1.020698157817454987e+00,-2.694444589263203516e-02
1.128058321780748496e+00,-1.021900610507159524e+00,2.912884829126392849e-02
1.128646574122604385e+00,-1.025745856273917678e+00,7.786904852324366688e-02
1.130387026389165994e+00,-1.025150546691584674e+00,1.330932620677812983e-01
1.132610237448187451e+00,-1.028450035776989679e+00,1.872531705678418534e-01
1.132196154988684977e+00,-1.028523755629169534e+00,2.423541501032167034e-01
1.134493804995583943e+00,-1.028859613192803835e+00,2.984832628308647373e-01
1.135435991043131532e+00,-1.031795530826503215e+00,3.546318089591983247e-01
1.146765132826441214e+00,-1.011086001670311374e+00,-4.107691359074454596e-01
1.147935341637979167e+00,-1.011604652208156985e+00,-3.531725075835011607e-01
1.149458362280227686e+00,-1.011263590779324595e+00,-2.986942736398275344e-01
1.153277746366788703e+00,-1.014523191246756495e+00,-2.411029330348268274e-01
1.151270801511241615e+00,-1.015943059732740128e+00,-1.886208948778451133e-01
1.151239819194862957e+00,-1.016472457378545080e+00,-1.352054267058444836e-01
1.154887779397298697e+00,-1.017681474527074581e+00,-8.005918615704120389e-02
1.154644959386646352e+00,-1.019801456112492843e+00,-2.730780729350804417e-02
1.158103496127089072e+00,-1.020618683206888866e+00,2.596681549304369688e-02
1.158652504797293759e+00,-1.023042593537257572e+00,8.216599627183926446e-02
1.159038329774594311e+00,-1.023404612425709459e+00,1.346604204922697834e-01
1.162401041906794275e+00,-1.025166013401802356e+00,1.901169037318482802e-01
1.164011832387705780e+00,-1.024348090681334478e+00,2.458910709313671117e-01
1.164873793847390093e+00,-1.026606598911588675e+00,3.015815072683925013e-01
1.165813752586250418e+00,-1.027844292536671311e+00,3.576564601930606879e-01
1.177490137519208835e+00,-1.005538818347395225e+00,-4.154725924258748648e-01
1.177920738723826632e+00,-1.009904814720125499e+00,-3.584628833984396801e-01
1.180951926369049332e+00,-1.012224256868845096e+00,-3.027564111955907689e-01
1.181587838793122680e+00,-1.012248596590376692e+00,-2.462324970333680252e-01
1.181150288709776008e+00,-1.012757808797951853e+00,-1.894046335472652498e-01
1.184876062876226488e+00,-1.016245014702700455e+00,-1.366114854153661629e-01
1.184558839873132818e+00,-1.016539967986519688e+00,-8.165474830014125829e-02
1.188743994430532469e+00,-1.018476758666312598e+00,-2.756415435343634660e-02
1.191549082713688978e+00,-1.018034227936435387e+00,2.863727262692974604e-02
1.191286723679281456e+00,-1.020057486768120913e+00,8.170513712381036187e-02
1.190604257550995859e+00,-1.021557985047692574e+00,1.370262286122560791e-01
1.193130199303080730e+00,-1.021358555541788560e+00,1.899586545113874092e-01
1.193576639479728030e+00,-1.023761998847221077e+00,2.494574662689999223e-01
1.195708248058799272e+00,-1.025751050824286414e+00,3.072102551348818156e-01
1.198089203604267627e+00,-1.026094137202748335e+00,3.636328185089236498e-01
1.209322670321592463e+00,-1.009012875405149723e+00,-4.210334990042150505e-01
1.210883484937085974e+00,-1.006441841681940952e+00,-3.641960129220744857e-01
1.210155417401194589e+00,-1.008925266349129934e+00,-3.063176132872188484e-01
1.212255506135296867e+00,-1.009140779808770816e+00,-2.501545075602902291e-01
1.214928509803812506e+00,-1.012430928434315147e+00,-1.944885777717059727e-01
1.214883490662720611e+00,-1.010751180881358957e+00,-1.378220003824179307e-01
1.217153047383861653e+00,-1.013739742155495449e+00,-8.115416152799879990e-02
1.219776561278698823e+00,-1.015102336613411538e+00,-2.872688174680620293e-02
1.218173087565135981e+00,-1.015504618893080524e+00,2.730027887194009031e-02
1.224105907909534885e+00,-1.016568930223347378e+00,8.301577940222415464e-02
1.223521964512755966e+00,-1.018546231677660563e+00,1.383844432323014517e-01
1.224718723183121583e+00,-1.018441949274676128e+00,1.951793546714604144e-01
1.225085424284643398e+00,-1.022345314886396572e+00,2.527123196655857718e-01
1.228068239617601254e+00,-1.022447708286913226e+00,3.093172426501849537e-01
1.230042405138617179e+00,-1.023872263844385566e+00,3.702926427575523594e-01
1.243157481584288959e+00,-1.005821765802794809e+00,-4.294568221845965761e-01
1.245835180823917421e+00,-1.005791600605332015e+00,-3.695580159332431669e-01
1.245339040804138930e+00,-1.007645928435390026e+00,-3.114028742680627349e-01
1.248814239134994120e+00,-1.006883121922205637e+00,-2.543918297787186034e-01
1.251329630834475681e+00,-1.010298000484024739e+00,-1.962743911118709217e-01
1.250271294719738746e+00,-1.010011164698307429e+00,-1.405363342633400292e-01
1.252298195316676077e+00,-1.011784357475648211e+00,-8.234685218142123730e-02
1.254212620247587395e+00,-1.013037319907194700e+00,-2.768724751071719586e-02
1.254766628841478493e+00,-1.013493252597525318e+00,2.865770783392786181e-02
1.256328596428484712e+00,-1.017321093424092826e+00,8.376462313636903745e-02
1.258892251289215114e+00,-1.017494192479124537e+00,1.419421175433894233e-01
1.259380137993690196e+00,-1.020099421841499598e+00,1.987399226118448659e-01
1.259612782870321857e+00,-1.018963862508833973e+00,2.592745317832856333e-01
1.263224018751506028e+00,-1.019676772406720167e+00,3.159967251772698438e-01
1.263157243185729195e+00,-1.021636724397137597e+00,3.746157472715009318e-01
1.274003079287667095e+00,-1.001074354900837182e+00,-4.343421306048902419e-01
1.276277357617615626e+00,-1.002777214032475328e+00,-3.763798138636439972e-01
1.281304471648591514e+00,-1.003917849601107637e+00,-3.166514692729631153e-01
1.280471375753691188e+00,-1.004453602419492109e+00,-2.571272225696566993e-01
1.280894069728169216e+00,-1.006005504784744931e+00,-2.003377487894597853e-01
1.285143039915381369e+00,-1.007792341170306472e+00,-1.431751048225480272e-01
1.284718829137821539e+00,-1.009812175466687556e+00,-8.706447983222272147e-02
1.285537765825762513e+00,-1.009641252683663559e+00,-2.901324580216712440e-02
1.286584563618581978e+00,-1.012643494413655310e+00,2.877636209956455429e-02
1.291539516588964709e+00,-1.011069627252965342e+00,8.463034881970367407e-02
1.291130471540925084e+00,-1.014548103084692343e+00,1.433655263585172368e-01
1.293759993727871205e+00,-1.015389804020960574e+00,2.019672799165718180e-01
1.293453008523702819e+00,-1.016987556843369722e+00,2.616604112868968213e-01
1.296723918805051889e+00,-1.016048645334928668e+00,3.198777881712718263e-01
1.297665208568424378e+00,-1.018257493651428147e+00,3.796284825868972979e-01
1.310112711908832939e+00,-1.000790490144706668e+00,-4.406490842266279073e-01
1.312383397008085151e+00,-1.000611968847815891e+00,-3.800141384465928751e-01
1.313163162891859637e+00,-1.001747451675247813e+00,-3.211977936573798820e-01
1.317471674496697442e+00,-1.002021060165920519e+00,-2.642463623992198918e-01
1.318653170852333467e+00,-1.006341946548416466e+00,-2.006416131382862122e-01
1.319062992319659289e+00,-1.007023758580273043e+00,-1.468955434894148315e-01
1.321367744891314366e+00,-1.008343616030807466e+00,-8.640866329825615255e-02
1.322873282922418792e+00,-1.007986242259347520e+00,-2.999680419071320062e-02
1.325249617128950064e+00,-1.009081851728271362e+00,2.983881400095781192e-02
1.324443013650352441e+00,-1.011073266132848314e+00,8.673855533834481935e-02
1.328722214495151599e+00,-1.013139728020195030e+00,1.460447103741666364e-01
1.328749700097424213e+00,-1.012456181323352133e+00,2.053289104397053588e-01
1.329351977536148199e+00,-1.013052237348070816e+00,2.671957917653176584e-01
1.333307041667154191e+00,-1.014839547459494673e+00,3.249348678159312831e-01
1.334854342141809758e+00,-1.015584708273570724e+00,3.891115132976003532e-01
1.347310570067865587e+00,-9.967684739419838680e-01,-4.496412733849172172e-01
1.349110758665730048e+00,-9.978150920204488239e-01,-3.878358504161816822e-01
1.351499263684640351e+00,-9.988900689949192779e-01,-3.260058730113735148e-01
1.353884073257309417e+00,-9.994295251271745339e-01,-2.665812426085302778e-01
1.354479326746619083e+00,-1.001817487208018109e+00,-2.081414617547751311e-01
1.355357115243542410e+00,-1.002049185955090849e+00,-1.467234314726009736e-01
1.356510835666011383e+00,-1.003389005287036895e+00,-8.603845109444430150e-02
1.360591188659549644e+00,-1.006032603627986743e+00,-2.887246904401235409e-02
1.358851752589336881e+00,-1.008289225905002251e+00,2.741575574212920183e-02
1.361413955136691722e+00,-1.008053732550916681e+00,8.820131189806230954e-02
1.365234776309274922e+00,-1.011023521512004697e+00,1.485995257816932202e-01
1.366173862609080025e+00,-1.010251003587435692e+00,2.084805177431013345e-01
1.368331933581514726e+00,-1.012989632047129662e+00,2.697171152841973396e-01
1.369542952560117266e+00,-1.012793489958468740e+00,3.310356000106541297e-01
1.370944455727648004e+00,-1.014214279939906538e+00,3.942581129906650994e-01
1.385554968955670985e+00,-9.943112336221766601e-01,-4.578377970355591575e-01
1.387082167303940627e+00,-9.954087893998271319e-01,-3.944323202189994881e-01
1.390106058074685125e+00,-9.985806296318793240e-01,-3.316964250592763230e-01
1.390179760384445240e+00,-9.980357845340467327e-01,-2.703530411818516610e-01
1.392620570476950759e+00,-9.992370306145816894e-01,-2.089782017768702094e-01
1.392543001624548804e+00,-1.002570078744688287e+00,-1.508803218795400358e-01
1.395720221974699360e+00,-1.001068895346075793e+00,-9.069911957034403061e-02
1.397248370676464013e+00,-1.002883397718491665e+00,-3.122404287183455293e-02
1.399030146492530546e+00,-1.004104828321571885e+00,3.107918862917727343e-02
1.401050249853672103e+00,-1.005676086323450624e+00,9.104675752606587735e-02
1.403476190047238559e+00,-1.006660782494325002e+00,1.505074859124369280e-01
1.403971297580697497e+00,-1.008218281282423412e+00,2.132267137740246898e-01
1.406246082710299827e+00,-1.009256464957321686e+00,2.756217665629187019e-01
1.406020006367540987e+00,-1.011485602178078258e+00,3.376138157062729683e-01
1.410653028851375002e+00,-1.012837559995329428e+00,4.000859883370229131e-01
1.425418500615447615e+00,-9.914002601059461739e-01,-4.654723926269321299e-01
1.428211283064071191e+00,-9.940999816983853155e-01,-4.012691563396381111e-01
1.427899079960523121e+00,-9.950241013392134848e-01,-3.383294060847948925e-01
1.430691543356323203e+00,-9.952148046684502480e-01,-2.765437047048777131e-01
1.432310910747768062e+00,-9.948858270105377377e-01,-2.125307217257216552e-01
1.433549797090106992e+00,-9.974239840296819093e-01,-1.510683814521664725e-01
1.437526195241216387e+00,-9.984262565343925422e-01,-9.160784334936113160e-02
1.437540910612132405e+00,-1.001092637560807574e+00,-3.147359971226176140e-02
1.439005497111163656e+00,-1.000303573654775180e+00,3.060148170971218815e-02
1.440340559948031895e+00,-1.002424258822014469e+00,9.045222133497622663e-02
1.443695941241231129e+00,-1.005857381564172037e+00,1.540010022843618653e-01
1.444994804881251094e+00,-1.006302142755080675e+00,2.165385840174025023e-01
1.446605512402602489e+00,-1.005016902349597618e+00,2.788504013943319260e-01
1.446359160062408167e+00,-1.008590153672861645e+00,3.439804993239589104e-01
1.450696812643292644e+00,-1.009550339315998357e+00,4.077489657691459879e-01
1.464879102744373274e+00,-9.878693339239675852e-01,-4.743864203579412075e-01
1.466634668534551489e+00,-9.907814723383522315e-01,-4.080931494903736745e-01
1.467759348615322201e+00,-9.910315993992306893e-01,-3.434655305100853262e-01
1.469604479901968297e+00,-9.894435322412541423e-01,-2.823069106324574418e-01
1.471925802042181264e+00,-9.926409799465399919e-01,-2.181600055581779385e-01
1.472710383903386822e+00,-9.949018036995249670e-01,-1.555745514650390127e-01
1.473462920927367525e+00,-9.938925302945184059e-01,-9.163520288622047094e-02
1.475221748408692468e+00,-9.993759897130353176e-01,-3.229971368354295908e-02
1.478789129337196195e+00,-9.982337925680502266e-01,3.118127347651026074e-02
1.482124533274464806e+00,-1.000054535091136731e+00,9.385603227205116528e-02
1.483101262130393394e+00,-1.000957189825141480e+00,1.550784147160066684e-01
1.484708734448622280e+00,-1.001558315641835950e+00,2.187719084282998550e-01
1.486567339505437513e+00,-1.002028775013878548e+00,2.831514689670524554e-01
1.487263630856251018e+00,-1.005970465592604279e+00,3.496629439715769339e-01
1.490000622902295513e+00,-1.006273902557776712e+00,4.159841985105598439e-01
1.506704369707918545e+00,-9.858902201508388252e-01,-4.819656528207921786e-01
1.508293291644819067e+00,-9.867797552133781291e-01,-4.162412591678413265e-01
1.507742754565695176e+00,-9.909932917478035952e-01,-3.499832823108586233e-01
1.511333414216399440e+00,-9.887534955429865269e-01,-2.859687677770354486e-01
1.511437081658138393e+00,-9.890439663126118219e-01,-2.199265024719214423e-01
1.513981405064088959e+00,-9.921625139684965289e-01,-1.607212285659623263e-01
1.516039132767966757e+00,-9.926480138754114613e-01,-9.440136774290204535e-02
1.518191894396636377e+00,-9.949967533739763059e-01,-3.122367292580776471e-02
1.520179476251261264e+00,-9.966892023413796986e-01,3.161466117787776337e-02
1.521176515014872610e+00,-9.953088335083111193e-01,9.386647062366346161e-02
1.523959348589725815e+00,-9.991271026638438579e-01,1.583155242840857679e-01
1.526704672671101992e+00,-9.986480626036045027e-01,2.251960106033608355e-01
1.527743528824183850e+00,-9.991479391542645860e-01,2.893787635580786777e-01
1.529554902036841080e+00,-1.003037778122007451e+00,3.563163159893329435e-01
1.532466648779010621e+00,-1.001759100756336451e+00,4.226692662771475151e-01
1.549163098945611772e+00,-9.826531079097252652e-01,-4.917398772795034123e-01
1.551969232833894097e+00,-9.838308019595569665e-01,-4.240899624589858918e-01
1.551875610018992324e+00,-9.845337754640461903e-01,-3.577866109411471651e-01
1.554516181987405599e+00,-9.861927745304440718e-01,-2.900075779303353252e-01
1.558306050496617523e+00,-9.882806986850110054e-01,-2.271111753167729397e-01
1.559295746714756348e+00,-9.893232401375271490e-01,-1.616043359444140071e-01
1.558345765131359029e+00,-9.903292004715511521e-01,-9.631886600246242214e-02
1.562031806495062680e+00,-9.917021370792595825e-01,-3.203503658231866141e-02
1.564288738983443228e+00,-9.921149391876440404e-01,3.219613244236324556e-02
1.566396661905629095e+00,-9.943002687887542157e-01,9.813409192688257732e-02
1.569192574634348913e+00,-9.949348480103634706e-01,1.633134296524101081e-01
1.570079067017369878e+00,-9.963126591412658772e-01,2.295858501455014244e-01
1.572263412751907952e+00,-9.964490240702893464e-01,2.957137412126333853e-01
1.574412903037480715e+00,-9.979866393097281962e-01,3.620352407655784699e-01
1.576461263506442334e+00,-9.995804956885078196e-01,4.307846599112513108e-01
1.595275147526532988e+00,-9.818097517186986645e-01,-5.014363961099514988e-01
1.596389371125242151e+00,-9.822208764899195144e-01,-4.334175270293305071e-01
1.597027709968390496e+00,-9.826241415561046688e-01,-3.638907850877445838e-01
1.599976447649923195e+00,-9.849941525449276147e-01,-2.963032928004180611e-01
1.601199480546953824e+00,-9.847932969601213005e-01,-2.303058920543306076e-01
1.604918218457264567e+00,-9.868277566878830287e-01,-1.637504635607131276e-01
1.604558766363558542e+00,-9.874855492137465385e-01,-9.895305732397161047e-02
1.608857594490830767e+00,-9.893980963424590103e-01,-3.421382863198155905e-02
1.609239164932880994e+00,-9.897025482581592870e-01,3.309248181491744600e-02
1.612116317277933142e+00,-9.917879413377269637e-01,9.819283403502775120e-02
1.614667595582741866e+00,-9.938326201361985524e-01,1.649328297373556240e-01
1.615596299293803995e+00,-9.926744931640023584e-01,2.341619815465168786e-01
1.620330393365475352e+00,-9.932759658337840802e-01,3.007052042164412020e-01
1.620728253018926424e+00,-9.975795890318570613e-01,3.679864603654515731e-01
1.623500801072520705e+00,-9.956866973615717820e-01,4.415463732281257880e-01
1.641718896073017131e+00,-9.773847683454502944e-01,-5.131390287617255686e-01
1.645361515349739179e+00,-9.791980624658513932e-01,-4.418384096527476768e-01
1.646997807376273437e+00,-9.811857434830681957e-01,-3.718139084116037218e-01
1.648857240397668900e+00,-9.817857315886133751e-01,-3.041894181387524987e-01
1.650289579187799172e+00,-9.830708564979724340e-01,-2.366349591148310394e-01
1.653000535840257301e+00,-9.837871567867446654e-01,-1.702446475661454628e-01
1.656012537971852883e+00,-9.855129166588861844e-01,-1.004266711893722214e-01
1.657842189552871659e+00,-9.851476230951221602e-01,-3.385642322547542660e-02
1.658549489222695517e+00,-9.865010013123407528e-01,3.481694015154248451e-02
1.661296126596449430e+00,-9.892525960204524571e-01,1.020625530654175189e-01
1.663350337064521067e+00,-9.889064040900633623e-01,1.705570201773794203e-01
1.666033906597836678e+00,-9.901774799298930230e-01,2.390369002578510704e-01
1.668452590538520131e+00,-9.937416493698358888e-01,3.072280463583346166e-01
1.669441741156601822e+00,-9.939154461211143765e-01,3.764019661182611554e-01
1.671238569569463817e+00,-9.939938752148516077e-01,4.495700114546982151e-01
1.690837656927057342e+00,-9.738247908008260678e-01,-5.220569863819046752e-01
1.692487549790232748e+00,-9.757725343929861683e-01,-4.497794888586456596e-01
1.695296663703198092e+00,-9.743011256592687408e-01,-3.787457437438833119e-01
1.695424414919049383e+00,-9.799233208215615276e-01,-3.114840078731384576e-01
1.699865029674421546e+00,-9.789041648425605979e-01,-2.420067112223207306e-01
1.700180839157544144e+00,-9.789554976771062123e-01,-1.714710563078069017e-01
1.703856944379541716e+00,-9.810500535568845715e-01,-1.035276892147686534e-01
1.707864903544777269e+00,-9.824722675800428018e-01,-3.353411512495303726e-02
1.707351074838898697e+00,-9.842246767719402545e-01,3.419880513352135248e-02
1.709810120966702263e+00,-9.845187622005100447e-01,1.044117842319060158e-01
1.712388004689252119e+00,-9.848505839321045618e-01,1.743215288772189120e-01
1.712611519013188754e+00,-9.879185945020694248e-01,2.415097446935146053e-01
1.714951059563486702e+00,-9.893913257187892940e-01,3.137879261923703367e-01
1.718915441560955104e+00,-9.886285831121727208e-01,3.855941311643915070e-01
1.720604501965202759e+00,-9.903948689566802743e-01,4.593471386928587030e-01
1.740486466560870360e+00,-9.714028594315879950e-01,-5.344268834902335952e-01
1.743452420754725063e+00,-9.705492209812238702e-01,-4.622635961635555568e-01
1.745367719104972792e+00,-9.714319671652704713e-01,-3.870819827208503150e-01
1.748755273911910990e+00,-9.723700284425602636e-01,-3.162194573998594604e-01
1.751212888973354254e+00,-9.760831221131088808e-01,-2.469371592801292703e-01
1.751947839012784058e+00,-9.768130165678771126e-01,-1.768905825631796880e-01
1.753285492118058508e+00,-9.773605238495484127e-01,-1.045046921905291026e-01
1.756687508419318755e+00,-9.787262837641936830e-01,-3.554049078153347779e-02
1.759275395053222057e+00,-9.798865948690941297e-01,3.304501059153163584e-02
1.763742518899325873e+00,-9.804761197128937233e-01,1.060177940556915471e-01
1.763870738810572991e+00,-9.816265392572879334e-01,1.767830949939727114e-01
1.766138312974339541e+00,-9.807205619366812233e-01,2.477735894289931073e-01
1.767631563989984445e+00,-9.852375949709833991e-01,3.196984133549859997e-01
1.771398170342032063e+00,-9.849799256933071678e-01,3.941577485129665881e-01
1.772240551177186596e+00,-9.868562592094393127e-01,4.678238255595517647e-01
1.795461076885096263e+00,-9.659487486988513893e-01,-5.469854633036580482e-01
1.797763516512591142e+00,-9.687944404548136657e-01,-4.723673242401945083e-01
1.800242798864822413e+00,-9.690518890432617827e-01,-3.965405094110467377e-01
1.801610117910477760e+00,-9.686752712942833243e-01,-3.234573095605268178e-01
1.804691446524554266e+00,-9.735863346816786557e-01,-2.509486465381680076e-01
1.805962394007233351e+00,-9.725265082265397432e-01,-1.806124939422683318e-01
1.808441836428246630e+00,-9.732121369821742363e-01,-1.067452386674282855e-01
1.808723596806697476e+00,-9.751216846115160486e-01,-3.711347739186732220e-02
1.811705087010644366e+00,-9.762229598169215317e-01,3.681747421978633084e-02
1.814274719457716234e+00,-9.775486467970979643e-01,1.078539503982033632e-01
1.815490919010688931e+00,-9.788802088609347418e-01,1.792406069512187949e-01
1.819505228869542135e+00,-9.783730498073800463e-01,2.539641097135817427e-01
1.823749026673266993e+00,-9.818081480969079733e-01,3.283158957967960423e-01
1.824957309859625676e+00,-9.827232675102109960e-01,4.041743636982117471e-01
1.827426604639213581e+00,-9.849491568604645808e-01,4.784297123293789200e-01
1.851878955272838079e+00,-9.616589248689851877e-01,-5.582291742609581942e-01
1.854182966917681030e+00,-9.651358354591369482e-01,-4.842395804790136093e-01
1.855994036154123616e+00,-9.656997323976834746e-01,-4.059668161925566454e-01
1.858950825085935898e+00,-9.651287248557142151e-01,-3.306102009077918624e-01
1.861704722999427242e+00,-9.669649269171555206e-01,-2.563764844418950362e-01
1.862954128517398944e+00,-9.658513278329418084e-01,-1.831472645230086127e-01
1.866013687377704899e+00,-9.695606752332140976e-01,-1.103602835445805230e-01
1.867799200673931903e+00,-9.717934860263043317e-01,-3.647934886262551440e-02
1.869385864673308362e+00,-9.733172160574208309e-01,3.659777720698054876e-02
1.872756364472616397e+00,-9.745515873230616855e-01,1.087467955925476293e-01
1.874726729685875171e+00,-9.755563284191139939e-01,1.853498167836318544e-01
1.877238242825183479e+00,-9.767320501467967597e-01,2.593216925226342617e-01
1.878379297440478490e+00,-9.767009260752220756e-01,3.342234748958807788e-01
1.882096479653830201e+00,-9.784606157951277750e-01,4.115321511509550945e-01
1.883565455177806047e+00,-9.794689215381283676e-01,4.881900315360854781e-01
1.913596136394956959e+00,-9.602857864386542541e-01,-5.737338608384804362e-01
1.914821592499635905e+00,-9.610832211426568739e-01,-4.925389181824434970e-01
1.917001922389014901e+00,-9.634809806254548414e-01,-4.173865625462945261e-01
1.920270750646252633e+00,-9.646304111386108104e-01,-3.407959596146453718e-01
1.923288271432703533e+00,-9.641983916668482868e-01,-2.656068434915780929e-01
1.923429228861599505e+00,-9.652910918659135531e-01,-1.865475502654515561e-01
1.925525258991300115e+00,-9.668103532527942967e-01,-1.132067607382994251e-01
1.927755459084393053e+00,-9.692538795937636342e-01,-3.906959551008803988e-02
1.928716470724052501e+00,-9.699607144940891601e-01,3.752580999892710101e-02
1.933322401953730285e+00,-9.715580186208844227e-01,1.138118270783476799e-01
1.937361965798812591e+00,-9.722379642844514169e-01,1.895717447748179463e-01
1.938773736752828825e+00,-9.708474716542525584e-01,2.678378448088822306e-01
1.940677378488433691e+00,-9.746192677410607796e-01,3.445620762324488329e-01
1.943476565438732706e+00,-9.761885183703792324e-01,4.220376145440991600e-01
1.943784117322780336e+00,-9.766459582060065259e-01,5.020625185158824610e-01
1.971378970526938001e+00,-9.538878399398210695e-01,-5.863678558046653277e-01
1.974882036609178604e+00,-9.550686542409756452e-01,-5.061853113973333596e-01
1.978037691578256041e+00,-9.568982478273082570e-01,-4.271895616317309408e-01
1.978534196623406016e+00,-9.584262017666627109e-01,-3.492425452581519041e-01
1.982254106215389777e+00,-9.592228763994867791e-01,-2.685328894601625160e-01
1.984840086488667721e+00,-9.587413124717951707e-01,-1.938783575197692011e-01
1.987794545486854636e+00,-9.629543522752875839e-01,-1.175492494201266502e-01
1.988901763832052305e+00,-9.633910299590677795e-01,-3.843273575083756138e-02
1.991900182885675941e+00,-9.639294730891204699e-01,3.896837046774236785e-02
1.993460720843339917e+00,-9.640610759611377700e-01,1.147450945743131723e-01
1.995583457851750842e+00,-9.655992611694418359e-01,1.951853505347926343e-01
1.998625551066617323e+00,-9.674853007781726300e-01,2.727084869093135966e-01
2.000989210931772622e+00,-9.690359560468259081e-01,3.511032980917659363e-01
2.002699373273967964e+00,-9.693818979632136124e-01,4.319166416333483638e-01
2.006949690724257884e+00,-9.700006056027549173e-01,5.140108820405536738e-01
2.039122059346964555e+00,-9.518017723733398494e-01,-6.030275466662025075e-01
2.041617109047360934e+00,-9.520099181692581736e-01,-5.194932247631652844e-01
2.044685577216445616e+00,-9.551182900275206888e-01,-4.382639763188451165e-01
2.046847412110559539e+00,-9.560144996423104446e-01,-3.574121118263712815e-01
2.049619570350532438e+00,-9.549137512429844987e-01,-2.774700611924190707e-01
2.051607245764103471e+00,-9.560099229814751354e-01,-1.971053285029948365e-01
2.054121543663313343e+00,-9.587576361950121973e-01,-1.185911068416434649e-01
2.057420668491435567e+00,-9.584203262329087369e-01,-3.926769644626025568e-02
2.061312036232484601e+00,-9.613816598960011062e-01,3.976811554923086189e-02
2.063118443875082253e+00,-9.627388303452658613e-01,1.198205408706096570e-01
2.066542298553449175e+00,-9.626389711208680477e-01,1.991513045838111673e-01
2.066859266317306432e+00,-9.659273966451282778e-01,2.800423054637762865e-01
2.071828435804081270e+00,-9.653827203776148558e-01,3.624638314047208820e-01
2.073491999196832136e+00,-9.665486585563501931e-01,4.440875301000288822e-01
2.075241694217606625e+00,-9.667396532624487060e-01,5.282669088790493683e-01
2.107025644213020854e+00,-9.457541776157729618e-01,-6.188933380052591415e-01
2.108374878746472003e+00,-9.466112941400142144e-01,-5.329576307922051503e-01
2.111889948791930927e+00,-9.490338138676741586e-01,-4.514712436243776272e-01
2.115616882153872780e+00,-9.514309792931560095e-01,-3.680063954621813904e-01
2.118684273963293396e+00,-9.515801788520636961e-01,-2.850197995204707402e-01
2.118369168424706572e+00,-9.528349463745998671e-01,-2.025152336786750495e-01
2.122487914767805961e+00,-9.511781079274315154e-01,-1.226973593898423726e-01
2.124810492893295599e+00,-9.546568039922606053e-01,-4.157287792081288541e-02
2.127626538671790968e+00,-9.558033745071528031e-01,3.948447522517923441e-02
2.130802059642140645e+00,-9.574945906524198191e-01,1.221456397232644903e-01
2.131741898395649315e+00,-9.591439909458466806e-01,2.034705167697564987e-01
2.135606620702330538e+00,-9.599338477246323054e-01,2.877491151003304659e-01
2.138472291359010846e+00,-9.597311766094485108e-01,3.699745558131067313e-01
2.140811264931484104e+00,-9.624421374980174360e-01,4.569062369476198926e-01
2.143809654323233449e+00,-9.621419782576914326e-01,5.426092701455533795e-01
2.175471731265416153e+00,-9.425003220841149387e-01,-6.349171326875604482e-01
2.180280454283894720e+00,-9.413972304858340134e-01,-5.497396875898653557e-01
2.184540942252751083e+00,-9.432514137137804067e-01,-4.618648325563902146e-01
2.186480394506443492e+00,-9.458050583098703834e-01,-3.776113368170283535e-01
2.189503020531506028e+00,-9.468136331293918184e-01,-2.915307734871660506e-01
2.192575419073641285e+00,-9.456765525881386525e-01,-2.081143721274814062e-01
2.192894039029135822e+00,-9.480187741850473193e-01,-1.245075266080539617e-01
2.196347056106168427e+00,-9.503171743279525963e-01,-4.312109843792948094e-02
2.198475108483667118e+00,-9.502060969420687009e-01,4.195079572559580472e-02
2.203778779760657169e+00,-9.516918486293706181e-01,1.255803630380240843e-01
2.205677593638884826e+00,-9.538332234489235173e-01,2.112403464709546042e-01
2.208864163415810378e+00,-9.551944540245690396e-01,2.955717205595418950e-01
2.210392336982015316e+00,-9.551091757658904946e-01,3.825190557175215944e-01
2.212312922605958576e+00,-9.574262164686417886e-01,4.695981022524369775e-01
2.213272193484627337e+00,-9.576025628954404345e-01,5.573603731133763839e-01
2.253815517125647094e+00,-9.355776887774455153e-01,-6.548270667766022957e-01
2.257622256673078809e+00,-9.378042755531038610e-01,-5.648599542845071930e-01
2.259114987423416654e+00,-9.391922037574208515e-01,-4.754181320908705266e-01
2.265193141647085184e+00,-9.383370022017826217e-01,-3.866860826364935666e-01
2.263634320010117218e+00,-9.398112744438574806e-01,-3.018860454728172771e-01
2.269039874159720416e+00,-9.434378689472600055e-01,-2.141824469417068222e-01
2.270411979027392668e+00,-9.442560863134127347e-01,-1.280768208611685055e-01
2.275859329743966875e+00,-9.439865306236229214e-01,-4.236106085987419861e-02
2.278337915145918657e+00,-9.471640339522906515e-01,4.293508217364018498e-02
2.278052121839205579e+00,-9.471072966769195078e-01,1.290777586764146612e-01
2.284098972710491449e+00,-9.475252260867605969e-01,2.164659736011251001e-01
2.284628884869605248e+00,-9.489743218926361967e-01,3.044153963043106370e-01
2.287785068082373030e+00,-9.504001886095957419e-01,3.923787006400709099e-01
2.289369377010908924e+00,-9.530228153660366130e-01,4.807833759560103948e-01
2.293835516026638821e+00,-9.531342852458917214e-01,5.730151009405977103e-01
2.335813713637030276e+00,-9.318215160816634146e-01,-6.742208564170822926e-01
2.336930203871971923e+00,-9.323370870850254954e-01,-5.820093903775880317e-01
2.340986444997271043e+00,-9.322753440790366719e-01,-4.893808591223251514e-01
2.343251930725253285e+00,-9.354991399231956661e-01,-4.007399325654066868e-01
2.348553824890077024e+00,-9.361112758309960702e-01,-3.095954513851089662e-01
2.350551824805179102e+00,-9.375474538582155848e-01,-2.217021091377333053e-01
2.351600618788958208e+00,-9.379727189221903627e-01,-1.324851589405521279e-01
2.356055384303101352e+00,-9.385803067505108510e-01,-4.360597466876913603e-02
2.359932213117925670e+00,-9.389932650790590030e-01,4.345776459312147844e-02
2.361815556430403973e+00,-9.417193172983668870e-01,1.337958483503290941e-01
2.363869875260511400e+00,-9.433329284724447650e-01,2.218566431426966801e-01
2.367799898947951842e+00,-9.437670160602809055e-01,3.123473383478300169e-01
2.367699632884061600e+00,-9.455923727578766647e-01,4.019975989207053568e-01
2.373854100430512926e+00,-9.470183983623327029e-01,4.969887610078367324e-01
2.376696471291634083e+00,-9.481327933219430015e-01,5.911183840523976940e-01
2.422162040180491527e+00,-9.269097885041148732e-01,-6.973145757520062826e-01
2.426252001499179745e+00,-9.274178098007486160e-01,-6.011976888908053818e-01
2.430047426031603841e+00,-9.302322340065849460e-01,-5.064855200115009337e-01
2.431750615727166220e+00,-9.276201760377188466e-01,-4.137633811499195624e-01
2.435408891579079693e+00,-9.299640048484349997e-01,-3.190316506128381691e-01
2.437541629349452954e+00,-9.312648234364756528e-01,-2.289517679885955947e-01
2.441256466140360626e+00,-9.319397614403257535e-01,-1.370359571081935235e-01
2.444561149122603361e+00,-9.325600234307320768e-01,-4.542000737584508258e-02
2.449112500156596095e+00,-9.341021314360354877e-01,4.634037368202816032e-02
2.451471524082376341e+00,-9.373821911611261992e-01,1.374323309170208951e-01
2.454070138037840909e+00,-9.362889196831095662e-01,2.282076752801148467e-01
2.456046433367514492e+00,-9.367135195452044316e-01,3.231279516527271189e-01
2.460156965525188699e+00,-9.400447428729141741e-01,4.176199539915838588e-01
2.464135649172020326e+00,-9.403035200782167147e-01,5.118184745245221157e-01
2.467505623761960809e+00,-9.410519812928479499e-01,6.088141913743708722e-01
2.510287514140697063e+00,-9.175767979204261238e-01,-7.135879205997045505e-01
2.514223945139263616e+00,-9.200401343139482657e-01,-6.189089880260687515e-01
2.513389589621212394e+00,-9.195765352975163731e-01,-5.215561906536417824e-01
2.519285931351385344e+00,-9.217772476104044710e-01,-4.265830220134065320e-01
2.522726291021410105e+00,-9.231092125483674193e-01,-3.308067631909163420e-01
2.525817127362043113e+00,-9.243134742209095922e-01,-2.357972217856893482e-01
2.528558466600502097e+00,-9.247860401708797307e-01,-1.409131683139171753e-01
2.532616736746697406e+00,-9.267759279457096211e-01,-4.703365000912756305e-02
2.533702477130340913e+00,-9.270894906044808703e-01,4.800312480804938553e-02
2.537745797582561025e+00,-9.277457521079137681e-01,1.442382306634991951e-01
2.541854928879904385e+00,-9.300767503572827666e-01,2.368541800766485739e-01
2.543430764469566618e+00,-9.307754358030061459e-01,3.328536561969692165e-01
2.547253555282795290e+00,-9.317529074349035767e-01,4.308370576526717732e-01
2.549913625168705344e+00,-9.328824189595740224e-01,5.275010596404487995e-01
2.554537654582573758e+00,-9.320876781661320276e-01,6.270534512882590672e-01
2.612321894111215848e+00,-9.126328304611326381e-01,-7.409978525205760391e-01
2.614522904855663299e+00,-9.137464691073868828e-01,-6.402936810587814831e-01
2.617719934019018702e+00,-9.154736946096105887e-01,-5.392464054670712548e-01
2.620263365979952574e+00,-9.164025549585077535e-01,-4.395012055913403715e-01
2.623490277576887575e+00,-9.160791161854007214e-01,-3.402747681840042060e-01
2.626842253867905264e+00,-9.182785350078956910e-01,-2.435465535112598945e-01
2.630780567645647494e+00,-9.199180500142337680e-01,-1.456339927612933238e-01
2.632010194642281142e+00,-9.219464560277325083e-01,-4.914925574174887346e-02
2.635233479748841035e+00,-9.219954681422142251e-01,4.776856035268366163e-02
2.639538525684214321e+00,-9.230489457214474669e-01,1.472329041512743242e-01
2.643704453415447908e+00,-9.240594669846755593e-01,2.448713111560414935e-01
2.646724495394631393e+00,-9.249072249379358679e-01,3.460290998981285226e-01
2.648823678083392696e+00,-9.266359588345095544e-01,4.431510629956775249e-01
2.655275920490940411e+00,-9.288540904639691620e-01,5.473875541506451059e-01
2.654730263603505502e+00,-9.295713761849166978e-01,6.497106629216612417e-01
2.708794716359939070e+00,-9.026031422502531765e-01,-7.656515057185614426e-01
2.716585966870844082e+00,-9.053254689813736711e-01,-6.623428062425332774e-01
2.715663628651877382e+00,-9.063544187501026972e-01,-5.558857272809664130e-01
2.720006167054862534e+00,-9.089538563384200742e-01,-4.549435799597792429e-01
2.723423959883592094e+00,-9.077865531937934218e-01,-3.512087672941397454e-01
2.727839032403393649e+00,-9.117180391962699249e-01,-2.519859671138168222e-01
2.731579178213939141e+00,-9.111899717916984720e-01,-1.509154960011275526e-01
2.733426967840443922e+00,-9.120903427761837268e-01,-4.883474135737923827e-02
2.737332400608299743e+00,-9.139314048311472094e-01,4.949101797707829847e-02
2.739684146704906897e+00,-9.133578708503368171e-01,1.522832229405306492e-01
2.744932515289148167e+00,-9.154175819380317991e-01,2.543550627382319407e-01
2.748973051647632726e+00,-9.181832263309831488e-01,3.551052867320682593e-01
2.750815028456580436e+00,-9.175230397200679899e-01,4.598511418288617758e-01
2.753333868778664595e+00,-9.213211011499089498e-01,5.628737928466337470e-01
2.756422209324457917e+00,-9.211121027220657842e-01,6.707048637786130474e-01
2.829784966560612514e+00,-8.982189606840771390e-01,-7.954533376280323864e-01
2.832589666168337406e+00,-8.980997789864961778e-01,-6.857960842500286924e-01
2.836476297591628004e+00,-9.001946453991913621e-01,-5.784245471097780866e-01
2.839941300211945130e+00,-9.029599973189149642e-01,-4.717602531825210166e-01
2.842833063455131093e+00,-9.037630851255371578e-01,-3.672513281317104084e-01
2.847817046384575335e+00,-9.049688836237808065e-01,-2.613935233065167174e-01
2.848838208735654298e+00,-9.060847240395050184e-01,-1.552488744517456221e-01
2.854229178507842857e+00,-9.076061147331274670e-01,-5.267381486760948361e-02
2.856799917774166975e+00,-9.085697952112807840e-01,5.207702406624686170e-02
2.861961443541968464e+00,-9.097925749665876083e-01,1.564389445129550082e-01
2.863181495674454791e+00,-9.108998005142490140e-01,2.653005886205737629e-01
2.869191847643095539e+00,-9.107339420399398477e-01,3.704965339952280279e-01
2.870543814143122319e+00,-9.129766171193269830e-01,4.784123087625497539e-01
2.875127577657304201e+00,-9.141171805022877406e-01,5.877081984053109665e-01
2.877572429835800083e+00,-9.138605468391285402e-01,6.977875610291512931e-01
2.945273472184468222e+00,-8.901239258410870159e-01,-8.241347224274847560e-01
2.949762503554218540e+00,-8.905244313751257135e-01,-7.122647876019660984e-01
2.953666410528981157e+00,-8.935928869728091417e-01,-6.002284722409300111e-01
2.957088354453856649e+00,-8.939064295893203171e-01,-4.906761227372174461e-01
2.962233378101341241e+00,-8.938705278747206551e-01,-3.804493082566003381e-01
2.965004773218328449e+00,-8.966958044548092310e-01,-2.691619494509619459e-01
2.967352561557401458e+00,-8.949726809697400309e-01,-1.614680653243102670e-01
2.971780529191984765e+00,-8.998096389515238824e-01,-5.529876557045389912e-02
2.975069400744180914e+00,-8.992937894059642723e-01,5.388312714131383852e-02
2.977282868919694181e+00,-8.980292140786332311e-01,1.632710715360626563e-01
2.982489208988177154e+00,-9.024284304517463662e-01,2.731061250270266361e-01
2.985268314518515709e+00,-9.028063834001339716e-01,3.829950861406432594e-01
2.991988221642438717e+00,-9.019081773798325319e-01,4.932777665788517507e-01
2.993793783466008218e+00,-9.041042244857224741e-01,6.088018834191079032e-01
2.997687333712512725e+00,-9.057792076506361312e-01,7.239114394957901766e-01
3.074731560704315303e+00,-8.796306417399518685e-01,-8.575515167209274425e-01
3.076409724641135490e+00,-8.822617876692324668e-01,-7.388802022170966044e-01
3.081456418333655023e+00,-8.822348702224492856e-01,-6.225781525083675660e-01
3.084867515533415983e+00,-8.840262481178974285e-01,-5.076470683216257607e-01
3.088764234146051724e+00,-8.841053660102272671e-01,-3.928499093641065754e-01
3.091941693921689716e+00,-8.867240861216647563e-01,-2.810639737730861176e-01
3.095618044175754147e+00,-8.860148936395622066e-01,-1.705482962525453616e-01
3.099841029167289541e+00,-8.882281329605209441e-01,-5.721973478358235304e-02
3.101645792350813835e+00,-8.900660875526851257e-01,5.593592010644118234e-02
3.107962057181536508e+00,-8.898435330709955071e-01,1.691342083365170168e-01
3.111602214765095464e+00,-8.926913289509438298e-01,2.824988672191000583e-01
3.114943294251237837e+00,-8.908556244552806591e-01,3.964236754586429878e-01
3.119318271118206809e+00,-8.932461111106598795e-01,5.120299141172323099e-01
3.123455270667721884e+00,-8.945184513502315582e-01,6.311858319486869373e-01
3.126623211157328441e+00,-8.967037174398988508e-01,7.485536565987915836e-01
3.208353781911803981e+00,-8.711742696730784274e-01,-8.911865885173994029e-01
3.215442836099138724e+00,-8.715916842248361274e-01,-7.684708891730960278e-01
3.220977403447013998e+00,-8.728811683735432370e-01,-6.464808742080434545e-01
3.224686614657287453e+00,-8.732867952346075047e-01,-5.305460696772431595e-01
3.227177457012597728e+00,-8.758225522543322539e-01,-4.093442568588868125e-01
3.230987188269390131e+00,-8.758488218582928253e-01,-2.932162608579340080e-01
3.235445324439805592e+00,-8.776136399860062776e-01,-1.756077341526846580e-01
3.240269482575752757e+00,-8.776623825520546429e-01,-6.036535473948715508e-02
3.242266853063479282e+00,-8.788758144484937196e-01,5.824036768817698884e-02
3.248766657685811854e+00,-8.806622064292890517e-01,1.752995774796581030e-01
3.251697586971006082e+00,-8.821272895179610440e-01,2.939895891648792725e-01
3.255151544338028557e+00,-8.818872392940325655e-01,4.144489415615034145e-01
3.260499824416005943e+00,-8.848747653098697485e-01,5.358953784430033895e-01
3.263360950343634936e+00,-8.854858279284751887e-01,6.558582044752240270e-01
3.269179907157589771e+00,-8.859708226208387050e-01,7.821633200510358375e-01
3.360715953684827006e+00,-8.600928766516913182e-01,-9.308166629066180198e-01
3.367037199992831908e+00,-8.614952406674979413e-01,-8.048542939481765357e-01
3.369214896297046735e+00,-8.624413006071693921e-01,-6.762886507353571552e-01
3.374511317410911371e+00,-8.641591192360812412e-01,-5.518289546042501881e-01
3.378398765659077263e+00,-8.645470162007625747e-01,-4.272674734521759721e-01
3.382956475085299175e+00,-8.662276703011635437e-01,-3.053038269936264593e-01
3.389666491358399814e+00,-8.680104938836386008e-01,-1.818534827985702207e-01
3.392506745773853805e+00,-8.665213817397828810e-01,-5.974450626300555067e-02
3.395687801335479428e+00,-8.682438394013991534e-01,6.109421463428834492e-02
3.398266928494522165e+00,-8.704278268736203028e-01,1.845545299266699024e-01
3.404739751574294981e+00,-8.713974267436581655e-01,3.061537850287820994e-01
3.409010848574278274e+00,-8.708485322710353138e-01,4.321226696648976517e-01
3.412730164492367102e+00,-8.731551642574468808e-01,5.571259586249804885e-01
