1.577823452720568564e+00,4.764655072667938751e-01,-2.029284981963923040e-01
1.581604293543309669e+00,4.783313620430758029e-01,-1.453935214941468046e-01
1.583053415843832301e+00,4.784320997052731173e-01,-8.714520794404119475e-02
1.583108538092942608e+00,4.793982946383550381e-01,-2.995448376375953875e-02
1.586395317444533104e+00,4.796227835322279254e-01,2.977316066140386214e-02
1.588411459931536873e+00,4.793332569810816457e-01,8.819827982288323820e-02
1.591619380084970503e+00,4.808179042967042349e-01,1.475304609518623133e-01
1.593203434639542726e+00,4.812169370913795818e-01,2.042278924971150100e-01
1.593661866588529819e+00,4.800652727557572219e-01,2.640776522136468185e-01
1.593894356114977429e+00,4.832131091848509974e-01,3.257553909467178488e-01
1.597512496535104631e+00,4.803705954574056247e-01,3.851822862092912914e-01
1.545807678713288169e+00,4.910372369905176559e-01,-4.336211800141503425e-01
1.548758690666932614e+00,4.916988135040532004e-01,-3.761991421171432814e-01
1.549234143239527794e+00,4.929753452070392838e-01,-3.149540703083678617e-01
1.550564169873637876e+00,4.933152909773380057e-01,-2.593727041738150274e-01
1.553835936632580905e+00,4.951353212724129982e-01,-2.010815566306342617e-01
1.556424776005767674e+00,4.948576539730334956e-01,-1.437329108883422801e-01
1.556195758106743154e+00,4.951842252175052694e-01,-8.573773759356986823e-02
1.559819621761688646e+00,4.949578200280718709e-01,-2.666342270769871819e-02
1.561033242515106778e+00,4.958816323748275745e-01,2.765499862646737805e-02
1.563250838925777764e+00,4.984374063016202006e-01,8.505527421945840993e-02
1.564944380545409963e+00,4.981487909512461454e-01,1.422171008791675295e-01
1.567410888542465353e+00,4.984322497687195819e-01,2.006945905053331980e-01
1.569920804871159481e+00,4.987979600292312132e-01,2.591879565323018664e-01
1.572845995982135037e+00,4.987047170695087517e-01,3.205243147435360984e-01
1.574060400142132554e+00,4.987729062117337020e-01,3.828281020874589324e-01
1.520368305737236581e+00,5.074622716051594429e-01,-4.267653204647256504e-01
1.522751312469346585e+00,5.072208118752894457e-01,-3.700552824641610283e-01
1.524057675171484272e+00,5.083264588320597355e-01,-3.105924070734892295e-01
1.527362028282412298e+00,5.093681353483598961e-01,-2.544424875808887210e-01
1.526793322397770769e+00,5.100396313615772614e-01,-1.963893469175042872e-01
1.528732823559964871e+00,5.088217865126519746e-01,-1.414408821615735223e-01
1.531304167149764472e+00,5.108407696952318444e-01,-8.452512692960383045e-02
1.533306591462576973e+00,5.129930000665154921e-01,-2.909917672326251675e-02
1.537395085905399528e+00,5.130914228391143528e-01,2.656822815000562527e-02
1.536457480063839975e+00,5.142471316619579014e-01,8.618651644322217198e-02
1.539505276355622287e+00,5.147311129670097962e-01,1.415518102694121039e-01
1.539591891144608482e+00,5.144612427628327822e-01,1.983679871391039462e-01
1.542876865617907267e+00,5.162723109559307355e-01,2.591611107383734458e-01
1.544217985362124734e+00,5.153314446034930052e-01,3.175191830399877735e-01
1.547196242699745206e+00,5.141730916393913997e-01,3.753677354589419757e-01
1.497941156810687957e+00,5.238709589458601101e-01,-4.268636340368846538e-01
1.499047041109858425e+00,5.243559665759217614e-01,-3.667163185079140852e-01
1.501426854109314535e+00,5.258026464995152471e-01,-3.091241512829674409e-01
1.503639399215392247e+00,5.260727024210984926e-01,-2.517417998795716816e-01
1.505014990629463423e+00,5.261314870905686725e-01,-1.956889057864044934e-01
1.506233436933504422e+00,5.242299933807316181e-01,-1.408125165388665612e-01
1.508737539345202494e+00,5.288383620253607198e-01,-8.401586504359809249e-02
1.511783929234990609e+00,5.284562149815347221e-01,-2.823333111155851630e-02
1.511274625901153135e+00,5.297799474855697799e-01,2.749030296858579261e-02
1.513429897378008482e+00,5.299764181212166525e-01,8.301759373479189463e-02
1.516288173229054737e+00,5.321662831174154284e-01,1.394948045086356614e-01
1.518692848082689784e+00,5.301213427169289005e-01,1.967257413152045942e-01
1.519129927223946241e+00,5.311431722043390424e-01,2.544890438320577264e-01
1.521817191525582702e+00,5.333166364506534141e-01,3.127662062675669041e-01
1.522975065309077447e+00,5.324027870813762275e-01,3.721506260805705901e-01
1.474920151615093156e+00,5.405039825648533247e-01,-4.214494244187805827e-01
1.475906390436271254e+00,5.388769037787529692e-01,-3.621411063048383672e-01
1.477553050677886226e+00,5.392184556534249662e-01,-3.042031310765204721e-01
1.478054732330240872e+00,5.387423795704088247e-01,-2.495854146906265614e-01
1.481439205738878995e+00,5.418918446955647283e-01,-1.939244672522595636e-01
1.483317038789566888e+00,5.445141512605311540e-01,-1.402256962145768115e-01
1.485193737088376098e+00,5.401664709911456752e-01,-8.366685719098070073e-02
1.486020126821590903e+00,5.447182719049865618e-01,-2.925178768252599884e-02
1.486708711479393763e+00,5.443152338087848818e-01,2.918193292412220308e-02
1.488677842657665007e+00,5.448487855629345900e-01,8.299342846725435430e-02
1.490326217565705713e+00,5.459914329545373368e-01,1.389310456778712344e-01
1.492687959029566303e+00,5.459726726452936996e-01,1.956075953512216303e-01
1.494511627093899619e+00,5.461533375968266046e-01,2.524669242836209970e-01
1.497791593929518772e+00,5.472899984289827380e-01,3.089440626528839329e-01
1.498781872699853190e+00,5.471004772833010232e-01,3.675821673701162862e-01
1.450538063897931496e+00,5.552001292323015536e-01,-4.143541378672501163e-01
1.452524022067279708e+00,5.558070991730683641e-01,-3.595741715351151724e-01
1.454792934554845818e+00,5.560208889602029636e-01,-3.031418867026164365e-01
1.457672798166976369e+00,5.582675100232079579e-01,-2.480611076264794823e-01
1.458975978055215394e+00,5.558397289859361434e-01,-1.914701378323428183e-01
1.461474934599048758e+00,5.588807807093000291e-01,-1.368460259671896440e-01
1.463185471039247121e+00,5.577519273367883557e-01,-8.134791692201988333e-02
1.464171725619629605e+00,5.599152747011640896e-01,-2.719734861081869390e-02
1.464522285938862467e+00,5.608509354135967628e-01,2.763416987098371927e-02
1.468333750083225642e+00,5.628639475728447472e-01,8.330852685431623661e-02
1.469783873323144974e+00,5.596751229762194635e-01,1.379605376532863636e-01
1.469910220950658708e+00,5.624553122753382928e-01,1.921265451438868843e-01
1.474119984231634373e+00,5.627648803176958925e-01,2.502074331430735321e-01
1.476040806936174565e+00,5.639033156759576393e-01,3.063580152601615425e-01
1.474883632060644656e+00,5.635605326041768226e-01,3.632544165491110588e-01
1.429132354739140132e+00,5.696085381726682106e-01,-4.104373248361047333e-01
1.431054567234224972e+00,5.702818666166374895e-01,-3.562363807293891238e-01
1.430424033449283039e+00,5.725533878800689314e-01,-3.003645996374750271e-01
1.434987953552097073e+00,5.720769098334264058e-01,-2.442252210306364024e-01
1.436326158491483485e+00,5.711129549193267874e-01,-1.906990807471664606e-01
1.437832703121687317e+00,5.724430699636787745e-01,-1.334857924340979440e-01
1.438996906768820194e+00,5.739055237077029803e-01,-8.157002853448581947e-02
1.440204891625369577e+00,5.756800643047118582e-01,-2.540574741092852321e-02
1.444113649244915365e+00,5.764870710930566355e-01,2.619525138611888959e-02
1.443835159636697840e+00,5.748491310513708097e-01,8.251862637525037014e-02
1.444435080132840055e+00,5.757880743849197458e-01,1.365085277484561765e-01
1.446754188145709774e+00,5.772656173553555314e-01,1.906812102862362746e-01
1.449368689846116443e+00,5.785536294547604097e-01,2.487197912796625943e-01
1.452211400169658662e+00,5.783388117447442189e-01,3.046988036335334105e-01
1.452598617675820991e+00,5.786216531238201899e-01,3.610944179193523729e-01
1.404595782603390797e+00,5.841773217355883396e-01,-4.073841569963393416e-01
1.406263603685808716e+00,5.864343026529675873e-01,-3.523431857723242633e-01
1.408395036902418074e+00,5.836798572022212639e-01,-2.986614843458512691e-01
1.412953518458401003e+00,5.854111591598821773e-01,-2.426413900965208592e-01
1.413546825535529461e+00,5.874351664687047503e-01,-1.888689998889580557e-01
1.414556886601431529e+00,5.868468662368168109e-01,-1.332778393679462103e-01
1.416648705803441377e+00,5.861992907919416629e-01,-8.042384048549462705e-02
1.418026312150403534e+00,5.883548913955911619e-01,-2.507361501005422183e-02
1.418734632051884770e+00,5.908987966107772660e-01,2.683758501592094572e-02
1.420960598438161027e+00,5.914759808689569187e-01,8.036794766883872954e-02
1.422638662771597673e+00,5.917841832151551351e-01,1.330702789794080410e-01
1.425637054204965670e+00,5.920973644330133068e-01,1.901415098615023835e-01
1.427391013759092608e+00,5.925269289115383531e-01,2.442785042543731411e-01
1.428688565160364687e+00,5.915750053226130900e-01,2.997354735203254239e-01
1.432729206073064310e+00,5.939293617447919393e-01,3.570537788774591492e-01
1.384858982384068460e+00,5.987995581246543519e-01,-4.061208528754433056e-01
1.386151586401515923e+00,5.994042011555619220e-01,-3.485210441959918359e-01
1.388425363474325547e+00,6.027507848301654203e-01,-2.937736942184340783e-01
1.389745744484685241e+00,6.015248859523808500e-01,-2.400232318377854557e-01
1.392905257404317032e+00,6.005733473019863045e-01,-1.860377823454265334e-01
1.393195760267951666e+00,6.028464700759698092e-01,-1.336160260227754193e-01
1.397083804987308886e+00,6.015743175266353715e-01,-7.890264488562739875e-02
1.396662757619488993e+00,6.036073207731187384e-01,-2.716061601143462956e-02
1.397130719530565557e+00,6.040792705160543674e-01,2.623335122988085591e-02
1.399745988002862429e+00,6.039365019512340504e-01,8.099707936764664884e-02
1.402160846790863502e+00,6.057702549360830524e-01,1.315906763933069323e-01
1.403859152932070531e+00,6.057664768245314413e-01,1.892193516769689610e-01
1.406266981414539430e+00,6.081043640385390692e-01,2.420912318440392452e-01
1.405639571852649317e+00,6.090452009277663725e-01,2.982295690904149810e-01
1.409990318492416961e+00,6.082042646997708468e-01,3.544687374461472085e-01
1.361912044805287714e+00,6.128554065213080992e-01,-4.007003507447670643e-01
1.365915215687844686e+00,6.142476799202706284e-01,-3.470252696316817875e-01
1.365065739929471000e+00,6.158590711512416105e-01,-2.898289462255745907e-01
1.369295066855633625e+00,6.154375690203166549e-01,-2.388888788369966099e-01
1.370498367922980743e+00,6.160528300160716952e-01,-1.834351221272623178e-01
1.371570606942681403e+00,6.169076676445003349e-01,-1.313989519056979471e-01
1.372930009654432570e+00,6.167111892893444303e-01,-7.991854212339524755e-02
1.376375014905677707e+00,6.194540259267047322e-01,-2.771949307880159502e-02
1.375141730830359732e+00,6.185261810409057315e-01,2.560356654305958463e-02
1.379955951168713391e+00,6.196902495601449568e-01,7.867213738097864062e-02
1.379146010973441916e+00,6.216627498385186579e-01,1.342797113924895647e-01
1.382271196242615519e+00,6.211064047047520909e-01,1.862695185873219916e-01
1.384347971630632168e+00,6.218792753081984204e-01,2.395376779245751431e-01
1.385379991685889767e+00,6.236250599483211809e-01,2.942036629360980649e-01
1.387606423378452414e+00,6.253253977071974168e-01,3.502539799710809865e-01
1.344467591756185243e+00,6.263652236728988187e-01,-3.960181280945491156e-01
1.344823318695499204e+00,6.264906034911411625e-01,-3.427298210369322251e-01
1.345927560071317197e+00,6.278323934490614988e-01,-2.894235724207726013e-01
1.349811492978796323e+00,6.280773156048077288e-01,-2.350066365815710601e-01
1.349577324395780931e+00,6.304903992458471551e-01,-1.809236754080154608e-01
1.352439913329922083e+00,6.302229209880005900e-01,-1.315824170272977545e-01
1.352813376890751984e+00,6.315005426222172202e-01,-7.903621998780192837e-02
1.353477356031226764e+00,6.339064468953895526e-01,-2.592249466505929661e-02
1.357016087870642984e+00,6.332390783537399370e-01,2.567966779170845204e-02
1.360304074404393049e+00,6.329004724186276798e-01,7.750943940936626253e-02
1.359734813963516586e+00,6.341654200331268143e-01,1.321822573964629710e-01
1.361063281261158719e+00,6.358544408381632262e-01,1.836236066555387569e-01
1.363178705479017649e+00,6.350753624405163222e-01,2.388399277784694352e-01
1.363580225693875159e+00,6.380452821278899123e-01,2.917945108620665362e-01
1.367219216965232187e+00,6.384475007547969483e-01,3.482195856482978580e-01
1.321364172547231375e+00,6.405811049610619090e-01,-3.926943640938588276e-01
1.323397808067914516e+00,6.416360155402196508e-01,-3.407089262044906142e-01
1.324421936125081301e+00,6.424088663710320057e-01,-2.861793470768864700e-01
1.327135036703239956e+00,6.425193245136928688e-01,-2.340499024675112560e-01
1.327948581728437549e+00,6.444539222458272043e-01,-1.805862827654161062e-01
1.331603137297258099e+00,6.437030398192448155e-01,-1.284511456380342254e-01
1.332628987031474921e+00,6.459448103108040851e-01,-7.638925813255878494e-02
1.333300761825812808e+00,6.449938419767340392e-01,-2.459899124691086389e-02
1.333645769865407615e+00,6.452737599470331764e-01,2.647387211525665737e-02
1.338030377234349144e+00,6.476797592479910382e-01,7.742622930721443364e-02
1.338687991438898051e+00,6.467833129140231341e-01,1.303249308880625734e-01
1.339857543360882808e+00,6.488963822926903102e-01,1.838631628832378961e-01
1.341883546154247320e+00,6.497993131630082075e-01,2.352432953364386736e-01
1.344181854110149121e+00,6.495773884610362980e-01,2.907515987488622500e-01
1.344341237236885700e+00,6.498888442266299581e-01,3.440803934331186364e-01
1.302647410955092955e+00,6.529258863676865587e-01,-3.914294029758939031e-01
1.304367792709592244e+00,6.526340426224380709e-01,-3.372664585966017592e-01
1.306020758188414677e+00,6.542873952928986991e-01,-2.816210583079367669e-01
1.306746733619212675e+00,6.566636878469587213e-01,-2.310186175962739008e-01
1.310670746481204629e+00,6.568167649690092036e-01,-1.804894672730359695e-01
1.311337937876320137e+00,6.595101605104123355e-01,-1.300940955932747556e-01
1.311108419936364067e+00,6.575142659591030059e-01,-7.654878031151131357e-02
1.313266063740645473e+00,6.597922039559525054e-01,-2.483683129926161567e-02
1.314327858341668209e+00,6.591276938571437594e-01,2.524582916239200350e-02
1.318488346904989506e+00,6.610833454193830727e-01,7.704825769753620435e-02
1.318187370106841838e+00,6.609313977038954180e-01,1.299277509359183791e-01
1.318417723031933608e+00,6.633388869591816395e-01,1.799355366937408218e-01
1.321599372294012698e+00,6.627510352623181555e-01,2.341885156459946049e-01
1.322759897187902656e+00,6.639841406112009237e-01,2.885460023093965876e-01
1.325034451220268750e+00,6.643240745358194310e-01,3.423957386968343730e-01
1.280887772681633452e+00,6.676150646912478726e-01,-3.876752767628559582e-01
1.283780959510538500e+00,6.681183767762451930e-01,-3.342576211792257501e-01
1.285005686138929404e+00,6.665969849666125713e-01,-2.820675570121385367e-01
1.288769556806873551e+00,6.693171457149347248e-01,-2.298453915152398330e-01
1.291300579919449465e+00,6.693530836374921300e-01,-1.786441362147862533e-01
1.291235595197461228e+00,6.703043487766151554e-01,-1.277120986989754847e-01
1.291767605496553006e+00,6.723657017359131460e-01,-7.723746262163809495e-02
1.291820143110095964e+00,6.733263680758656555e-01,-2.486182974564501991e-02
1.294648351824511989e+00,6.726803845312046004e-01,2.518694233912116900e-02
1.296733041416832988e+00,6.738989188662453111e-01,7.598945153842177891e-02
1.299095215233663669e+00,6.752143102566373623e-01,1.263354100508037869e-01
1.299454266459409091e+00,6.772093497822498920e-01,1.795613479987375471e-01
1.301756647969360081e+00,6.768768195548853228e-01,2.333531392054221110e-01
1.303044550148070080e+00,6.767147194970537516e-01,2.862185294892516385e-01
1.304998956650658126e+00,6.780612505081640151e-01,3.391688566125259374e-01
1.263142394532502655e+00,6.807900675697217130e-01,-3.857491779639059537e-01
1.264523040500325601e+00,6.823239918646434310e-01,-3.317096667821727851e-01
1.265026442061322642e+00,6.819817428607523047e-01,-2.800556092256923368e-01
1.267282508292088439e+00,6.820109646773110379e-01,-2.278981502807785608e-01
1.268303962916440764e+00,6.823168204801101089e-01,-1.772989617441877441e-01
1.270033201557284386e+00,6.831880384659996253e-01,-1.256117579927557848e-01
1.272385869525098467e+00,6.832754157308528198e-01,-7.693961157302234288e-02
1.272740720327857789e+00,6.829408970214396746e-01,-2.522291448589615917e-02
1.275274461746022547e+00,6.867554543507248255e-01,2.586831124568069254e-02
1.276356211657293960e+00,6.871857118833238909e-01,7.444670590045306124e-02
1.277061320654474530e+00,6.888424916319957347e-01,1.260536889370609259e-01
1.279369478837450558e+00,6.889228411527407170e-01,1.795523339272357688e-01
1.279455302443206488e+00,6.902471377377309425e-01,2.301663085313283008e-01
1.283213064304208118e+00,6.892913048240216778e-01,2.820195972180258304e-01
1.284174472043089432e+00,6.918665193663144919e-01,3.377500714463761433e-01
1.244454714871051859e+00,6.916475254958937002e-01,-3.817525949872123125e-01
1.243991442960761029e+00,6.921011824591566386e-01,-3.318441169208313779e-01
1.246761609751803279e+00,6.943731777482390344e-01,-2.762565256825408322e-01
1.246614164242469736e+00,6.954642015800804877e-01,-2.261938721119600149e-01
1.248374270212900372e+00,6.960489705735812827e-01,-1.745904986166410267e-01
1.251735923374746040e+00,6.979712666550957900e-01,-1.262439672780123756e-01
1.252190187100804097e+00,6.985936536325868529e-01,-7.518083675300113455e-02
1.255060549029411776e+00,6.991017087734771041e-01,-2.419646211799767604e-02
1.254446585016369964e+00,6.996486717859673465e-01,2.511254026759372412e-02
1.257260033614965744e+00,6.990009974138395865e-01,7.598121777810749877e-02
1.257757697316000511e+00,7.006171479790036516e-01,1.263083517766802610e-01
1.258776523565246830e+00,7.031583511399094322e-01,1.784164722626961908e-01
1.260354219697603195e+00,7.024345954016346649e-01,2.277851884875459754e-01
1.262033489411534370e+00,7.049052439029623862e-01,2.789580725136209249e-01
1.264986298576110002e+00,7.058837435523828141e-01,3.342614739769063648e-01
1.224139222369121649e+00,7.045726657463546871e-01,-3.764468199954573158e-01
1.224895329264971799e+00,7.054945174672794250e-01,-3.253619622755432594e-01
1.227061853745499587e+00,7.069428517156243208e-01,-2.759551757113751780e-01
1.228952024570032275e+00,7.070632746615123088e-01,-2.247536814621753920e-01
1.230714275344855224e+00,7.074466043715504915e-01,-1.747345983436657813e-01
1.232303856398635489e+00,7.087566537048136661e-01,-1.239311385467447429e-01
1.234019779850701326e+00,7.125640690679444500e-01,-7.440360198741839681e-02
1.233759354161599209e+00,7.115602654979049646e-01,-2.415668120621501658e-02
1.236211345077117052e+00,7.113967396664719889e-01,2.382090330104433620e-02
1.238561320970079649e+00,7.125511396414209164e-01,7.730818884289419879e-02
1.239033371974649578e+00,7.140400082478652877e-01,1.255784945696300503e-01
1.240421302769296075e+00,7.134287285260718647e-01,1.726334229319170521e-01
1.242952606299003726e+00,7.154570727954783216e-01,2.271418493516601522e-01
1.244130447841566234e+00,7.147083738580879420e-01,2.798222974881096059e-01
1.244788428005034975e+00,7.177337990059688977e-01,3.309827674826683608e-01
1.205420120014846663e+00,7.180292800673021558e-01,-3.759517179697172140e-01
1.208407397852524934e+00,7.183771988495554206e-01,-3.244981622685494393e-01
1.208831627594123548e+00,7.204176185462960458e-01,-2.739036558200110272e-01
1.211220954259056182e+00,7.193193011986456220e-01,-2.228232062062898144e-01
1.212288021517410552e+00,7.216075663339290847e-01,-1.745348060163958159e-01
1.214928861756721323e+00,7.223665380153814208e-01,-1.264103268801733126e-01
1.217950995081219512e+00,7.231427271219100783e-01,-7.369562624886315250e-02
1.216493809506713486e+00,7.238451943916980325e-01,-2.474317478004550361e-02
1.220160296938588296e+00,7.268449015262893331e-01,2.485583584918185651e-02
1.218178031158998920e+00,7.250537501014853170e-01,7.369342588294432173e-02
1.220589122431737117e+00,7.273237254387158179e-01,1.245216996357328548e-01
1.223218407530686891e+00,7.267997599869804315e-01,1.742982279201362450e-01
1.224165357481611149e+00,7.308502733918058603e-01,2.257718494664502917e-01
1.224309580178307488e+00,7.297581675713198379e-01,2.773422014516158107e-01
1.228158126612645784e+00,7.309748881901074746e-01,3.290046637623490478e-01
1.187371553728581608e+00,7.293376740569003092e-01,-3.738297110153793734e-01
1.188089321950877686e+00,7.313353214881255226e-01,-3.225671646973488071e-01
1.190751675297765377e+00,7.306414139402300778e-01,-2.708659119257880721e-01
1.192118167636621040e+00,7.315009851589249212e-01,-2.227839104801773440e-01
1.192329813925017135e+00,7.337420763632965803e-01,-1.718056631289995861e-01
1.194830189696337808e+00,7.355680426969128938e-01,-1.235084250037924020e-01
1.196410371690189267e+00,7.355707283032140165e-01,-7.496345405752764812e-02
1.197576878006153533e+00,7.367985378418843156e-01,-2.512674486436119320e-02
1.199086510056318167e+00,7.383421329862289717e-01,2.437263626051523399e-02
1.201583482203342657e+00,7.381018843057344236e-01,7.146914847930091463e-02
1.201908278969352928e+00,7.390569350080175015e-01,1.247418080308144300e-01
1.203108720511959495e+00,7.382823365137821670e-01,1.738679287953971420e-01
1.205818744723965219e+00,7.407249217892689641e-01,2.231235563473155936e-01
1.206294114009377028e+00,7.428835950189991433e-01,2.755533365312168304e-01
1.207810679088767492e+00,7.458129105900731526e-01,3.298752036453512781e-01
1.169443570413075228e+00,7.402165930879257560e-01,-3.694614283653132047e-01
1.171050704142308829e+00,7.418595939391592342e-01,-3.183396389485817490e-01
1.173196661008643726e+00,7.440897229998892914e-01,-2.710945818139459118e-01
1.174712519633734020e+00,7.438455813079372092e-01,-2.206399702144232200e-01
1.174441143210610550e+00,7.452500902657513970e-01,-1.714722418719056563e-01
1.178244589579655832e+00,7.458987945835044986e-01,-1.220020428143564484e-01
1.177776217192231245e+00,7.456445125809432195e-01,-7.152221808291822636e-02
1.179723569085156409e+00,7.478379705902921115e-01,-2.440498523426980204e-02
1.179336288520667742e+00,7.478816632145262044e-01,2.398431412926033818e-02
1.183494598741703596e+00,7.492277321197066131e-01,7.280257374704983409e-02
1.185603111994499859e+00,7.502666580517929340e-01,1.207544299521556286e-01
1.186057527122589494e+00,7.519285284012304782e-01,1.719140237038532248e-01
1.185874064296048136e+00,7.543813706566686594e-01,2.219280141450322152e-01
1.188074446253396088e+00,7.524639650787374734e-01,2.737859966649331400e-01
1.190561534370564001e+00,7.551454887708168862e-01,3.266478564864256917e-01
1.152449682761405247e+00,7.520613695574215329e-01,-3.695868436879550800e-01
1.153351990422582851e+00,7.529384971442829588e-01,-3.175872340087318446e-01
1.153475996503092738e+00,7.576088019785660599e-01,-2.670657958572282831e-01
1.155353092604675780e+00,7.571855771980530170e-01,-2.177380292404393625e-01
1.158597310633910471e+00,7.542885083074286623e-01,-1.693786546851189234e-01
1.158617318825488907e+00,7.577830175639662658e-01,-1.206025570698307653e-01
1.160850617320891009e+00,7.611347314693988064e-01,-7.103220043214340806e-02
1.160952910121546999e+00,7.615657356848145598e-01,-2.314951597492547267e-02
1.163492468396128299e+00,7.616883064728982022e-01,2.394870018368996240e-02
1.165566679659734151e+00,7.608040189701610334e-01,7.299597733847443259e-02
1.164861594067738260e+00,7.623748618455243875e-01,1.210014437967415063e-01
1.167492466788357497e+00,7.646655929390708817e-01,1.698738316541112681e-01
1.169793715560551117e+00,7.645986922820430243e-01,2.215958146924015826e-01
1.170538715423828924e+00,7.672722006819917562e-01,2.701354871771048938e-01
1.172236696614315177e+00,7.667088033380781154e-01,3.231726547138780714e-01
1.133767364901022257e+00,7.640599525546248882e-01,-3.660565021949516717e-01
1.134238056487010038e+00,7.668386332632048941e-01,-3.167642956763589424e-01
1.135499901812485835e+00,7.673625181282105467e-01,-2.654145907093475310e-01
1.139535538730559239e+00,7.671602783985236318e-01,-2.169490382788646088e-01
1.139367917642982064e+00,7.722314137903174558e-01,-1.692817473871208733e-01
1.140789716249895891e+00,7.692538735688554397e-01,-1.203040817285239428e-01
1.142490994820525740e+00,7.712807927734371960e-01,-7.286959560802019897e-02
1.144648730747125143e+00,7.725578458281038285e-01,-2.489315869695983216e-02
1.144934502930426978e+00,7.733258105416345174e-01,2.315844001533633179e-02
1.144050718380197784e+00,7.737042382070570268e-01,7.207875258090891413e-02
1.148492891538522409e+00,7.754671293657495745e-01,1.201009510692992166e-01
1.149204765878024448e+00,7.774067983361738765e-01,1.702645612665692199e-01
1.152492147936275080e+00,7.761848725946843830e-01,2.200906377788268975e-01
1.152272930512969529e+00,7.768365122201836837e-01,2.710855855578866436e-01
1.152702038240077886e+00,7.806588939555939577e-01,3.234761330078765318e-01
1.116584485141280725e+00,7.777266375957478939e-01,-3.664070470471927354e-01
1.116765570920370321e+00,7.783364868478150900e-01,-3.157313340045560524e-01
1.118837167787732678e+00,7.792736778274512721e-01,-2.638031141735176499e-01
1.120213779897879069e+00,7.800393611434556229e-01,-2.167700379227934793e-01
1.122505842707710588e+00,7.828454424842402615e-01,-1.677949641153796689e-01
1.121473808646346049e+00,7.829033179049503799e-01,-1.192494990214203743e-01
1.125849046783045093e+00,7.823075522518568858e-01,-7.235836303288753490e-02
1.128055189477225273e+00,7.838317453617437147e-01,-2.426746075215845816e-02
1.127492539592969578e+00,7.843941905353187805e-01,2.276905513271654941e-02
1.126985221870530962e+00,7.848709404914544496e-01,7.124226186607778011e-02
1.130371296746527365e+00,7.875603493462500770e-01,1.211548978975790225e-01
1.131853178856432551e+00,7.878443020706307198e-01,1.687002320399773880e-01
1.132605132124768765e+00,7.903373831402544791e-01,2.185392187743499803e-01
1.134486953751761673e+00,7.888169538510237944e-01,2.692576443391164753e-01
1.135709777891469319e+00,7.924143122205973278e-01,3.209937718309793797e-01
1.099369080558084466e+00,7.881877003916032409e-01,-3.605135390793062777e-01
1.100037714290673652e+00,7.908099842335145624e-01,-3.126604569230446162e-01
1.101612567408433829e+00,7.924723702872343845e-01,-2.647057645818466365e-01
1.103178745570446706e+00,7.911643207664696975e-01,-2.140643929703920090e-01
1.106204884713659631e+00,7.944238209819833862e-01,-1.667145046147941456e-01
1.105934966793105323e+00,7.950269723516947273e-01,-1.203431010430796311e-01
1.107386740328790475e+00,7.932608029304691888e-01,-7.095843840695986726e-02
1.110244966685141499e+00,7.965607695382166398e-01,-2.320404342302579206e-02
1.111650220612407258e+00,7.960875213806550832e-01,2.241935623641198513e-02
1.111660613400077269e+00,7.994331349342103099e-01,7.181779561421752778e-02
1.112371336636237551e+00,8.003082107464015715e-01,1.198948000274835668e-01
1.115315706604249391e+00,7.998840201487825707e-01,1.680163756345605663e-01
1.115944233386672702e+00,8.023312833315081605e-01,2.192299183017210884e-01
1.116949028318381387e+00,8.009508163197878172e-01,2.664442259122583034e-01
1.117505854500511875e+00,8.029763247066677989e-01,3.172439313369247449e-01
1.081519810896250045e+00,8.001652595852545291e-01,-3.601037091216363062e-01
1.083314916360981872e+00,8.018512955371767115e-01,-3.112402486851299499e-01
1.085812731517498131e+00,8.017417505778073883e-01,-2.628409287171659670e-01
1.085988948570716817e+00,8.031964022782137613e-01,-2.145442420001809902e-01
1.087196528239019688e+00,8.058252465959396815e-01,-1.651451363254147486e-01
1.088402314670510185e+00,8.054813651895929016e-01,-1.171389351808117402e-01
1.088754826572647438e+00,8.078949264572838906e-01,-7.120975803913859314e-02
1.091743938332124575e+00,8.074896373543484218e-01,-2.330464392038802610e-02
1.092577347459381398e+00,8.085444069443106230e-01,2.268177598119611171e-02
1.093711471638469934e+00,8.101152630711766500e-01,7.192672370274318105e-02
1.095604094709353049e+00,8.094065430889726409e-01,1.202450200061396662e-01
1.097964608335380232e+00,8.108704064823705204e-01,1.685373106008543342e-01
1.097994572671949554e+00,8.122796229653029831e-01,2.161241283538054003e-01
1.099319407166950757e+00,8.131703673823869050e-01,2.667838586887344432e-01
1.101954129513690317e+00,8.144301454085075553e-01,3.168707037563608941e-01
1.065064170766200080e+00,8.101447656776451511e-01,-3.581744976938994740e-01
1.066727100322414801e+00,8.122903512561958639e-01,-3.100505977471586516e-01
1.069481181981882356e+00,8.147391889190801484e-01,-2.615731416736279957e-01
1.070339940714135851e+00,8.123561746428096253e-01,-2.125266962714911778e-01
1.072016624118115935e+00,8.160533885864423853e-01,-1.653723682678326645e-01
1.072495050339672629e+00,8.173217261975518344e-01,-1.181796761872469376e-01
1.074679443201681739e+00,8.182988462321523215e-01,-6.978188051194471331e-02
1.073197734064238906e+00,8.180791195947841876e-01,-2.466392164845280718e-02
1.074322613009851546e+00,8.198747505854926398e-01,2.368911663678329588e-02
1.077263155657367300e+00,8.221798530047011999e-01,7.068120580657488716e-02
1.078830585781433093e+00,8.230459478560839814e-01,1.183588579112994227e-01
1.078972106328378144e+00,8.221059157625832947e-01,1.676627314102058230e-01
1.080374935940880965e+00,8.236577841389226551e-01,2.141216702109489944e-01
1.082822434570252401e+00,8.243372101134915919e-01,2.634494754533099892e-01
1.084212468649082162e+00,8.242983488083954757e-01,3.154246414557909106e-01
1.048342706870973196e+00,8.238752637403589096e-01,-3.555609727470917525e-01
1.049373869730367836e+00,8.261500335949247820e-01,-3.074285162236135571e-01
1.050373717460727940e+00,8.252667712854082627e-01,-2.596313400956359319e-01
1.051363650487978418e+00,8.248680130756087525e-01,-2.113096335182862440e-01
1.054102494548697866e+00,8.264265868614935062e-01,-1.642085586359323113e-01
1.052621891350265626e+00,8.280435461514058515e-01,-1.189623089227918040e-01
1.055336242548027270e+00,8.306767026641994622e-01,-6.967526391249750928e-02
1.057053840992798976e+00,8.287985806233709729e-01,-2.324427890508303299e-02
1.058622753996746102e+00,8.322312089192747120e-01,2.484745117774092224e-02
1.059528692466694677e+00,8.327735746136577522e-01,7.084372987833367774e-02
1.059977101377916453e+00,8.329148017858123421e-01,1.176183659655583441e-01
1.063178457227953233e+00,8.324775186674788774e-01,1.663766678406191080e-01
1.063502083228452078e+00,8.356895956222311073e-01,2.127468384531436552e-01
1.064443552715496955e+00,8.359833557683193916e-01,2.630954342868074836e-01
1.065745505730768983e+00,8.361910081847452325e-01,3.135340314872536727e-01
1.032745834263254947e+00,8.341475059169172201e-01,-3.542964155079782462e-01
1.032965843156859354e+00,8.371778958588216302e-01,-3.062034284117788330e-01
1.034535450223046604e+00,8.356126191396379133e-01,-2.599188517587940339e-01
1.034919896877302792e+00,8.374839423513275039e-01,-2.092502917341065583e-01
1.036051590482938378e+00,8.385152834977714909e-01,-1.630142481784121189e-01
1.038606557914071526e+00,8.395524811408929811e-01,-1.161999526800426841e-01
1.039627316891200470e+00,8.410421264439194022e-01,-7.001460585259725034e-02
1.039477494346275455e+00,8.418390107808295664e-01,-2.184694813152186776e-02
1.041667549887553612e+00,8.401825109423387561e-01,2.437343748239566982e-02
1.043941276833903808e+00,8.417440049260733748e-01,7.005299166117513743e-02
1.044336269486542790e+00,8.424602756483878796e-01,1.194196310110448717e-01
1.046063276113743390e+00,8.466908445039922348e-01,1.650032537183105663e-01
1.047458737992546629e+00,8.449244342209913938e-01,2.147324781376239444e-01
1.048752816959926948e+00,8.463607008084755856e-01,2.620262142854637988e-01
1.050674620954209493e+00,8.490626389492180737e-01,3.114061655260594863e-01
1.015445715999047982e+00,8.447383444627262206e-01,-3.525332649689568165e-01
1.015309739010574752e+00,8.451718364678570961e-01,-3.041057366028911968e-01
1.016543839560243745e+00,8.480365933973964543e-01,-2.587811185642435730e-01
1.018716658749117876e+00,8.494391432339799541e-01,-2.098518864575821818e-01
1.020802134072168910e+00,8.486923100670690223e-01,-1.621965567313880252e-01
1.020963359168568951e+00,8.507263416903891873e-01,-1.149208178738720665e-01
1.023821949493040728e+00,8.525039227705274447e-01,-7.100754924371849297e-02
1.024314282219236816e+00,8.529404584491779850e-01,-2.164677524099599057e-02
1.024447822148325971e+00,8.545498250050743705e-01,2.303335078739042821e-02
1.028758178880225582e+00,8.553236031911567450e-01,7.027458244887092864e-02
1.029204839292370499e+00,8.561096984968261658e-01,1.158838262948393844e-01
1.029721533768708452e+00,8.544122441345620711e-01,1.644088524233773552e-01
1.031455572399270659e+00,8.598656666193844611e-01,2.114961934603968863e-01
1.031961367745860336e+00,8.587623132621650113e-01,2.593939197297515098e-01
1.032322531920295772e+00,8.610263271075306868e-01,3.097622957458623372e-01
9.983383583902488700e-01,8.560303514177277640e-01,-3.518535605097659613e-01
1.000022885683197194e+00,8.555019874566521798e-01,-3.056630577125165615e-01
1.002093439453345836e+00,8.575019667690119141e-01,-2.558203632147987849e-01
1.001674067781272548e+00,8.584434784884283909e-01,-2.076130544141766565e-01
1.005130582425999730e+00,8.604746791335730061e-01,-1.628378324826728618e-01
1.005478288623277150e+00,8.594977692030301153e-01,-1.168738048456178236e-01
1.005813597524823688e+00,8.614834870340254414e-01,-7.050555941928252079e-02
1.007431353309810484e+00,8.631589079239183615e-01,-2.280666688799973946e-02
1.008841288170906125e+00,8.661459598385594649e-01,2.414243048488417392e-02
1.007875344672753082e+00,8.656993894969667869e-01,6.962382376299364184e-02
1.011386665743099655e+00,8.671061505892495580e-01,1.166223090315881006e-01
1.012824466838055271e+00,8.679856893374394700e-01,1.623744069549621083e-01
1.014536804733296549e+00,8.686081647157382069e-01,2.105012172525401737e-01
1.013671305725433625e+00,8.704913982281629048e-01,2.586045409787688931e-01
1.017555138092997025e+00,8.718960509317673635e-01,3.097560215435778419e-01
9.829634861987982530e-01,8.662108871713675162e-01,-3.517435942626115364e-01
9.841090999985721011e-01,8.671852056496698324e-01,-3.045438567784211070e-01
9.854972973063177433e-01,8.685416734093935887e-01,-2.548380190487097852e-01
9.860239079932879847e-01,8.701951400003725690e-01,-2.081773857199459843e-01
9.875483149340492650e-01,8.722583397956422679e-01,-1.613319924355910429e-01
9.886654026355080616e-01,8.715992157216281289e-01,-1.154577064454983260e-01
9.922741540575097385e-01,8.734382214655553867e-01,-6.805855610000317857e-02
9.918303179356343646e-01,8.743211401096940838e-01,-2.379103702076321158e-02
9.937874223081748504e-01,8.776664337506322466e-01,2.334936511889648333e-02
9.932411799700731070e-01,8.754316732476942198e-01,7.122998043697574555e-02
9.925170924952988472e-01,8.791272708030830607e-01,1.170637275321989440e-01
9.963014255790021423e-01,8.783680676092920914e-01,1.633183910292076157e-01
9.985996989934792234e-01,8.797544177861927883e-01,2.107179764223744145e-01
1.000166853358021024e+00,8.806883485977449189e-01,2.586022822583355363e-01
1.000316035627166311e+00,8.826583891621893052e-01,3.078336029635441728e-01
9.646377984844589637e-01,8.769474561328064466e-01,-3.487470340890428955e-01
9.693631488951077735e-01,8.773718556955555359e-01,-3.026920449722481088e-01
9.688475599790294934e-01,8.807482667838734125e-01,-2.536185410662156192e-01
9.712016218990463523e-01,8.817709386009411343e-01,-2.075428999364627713e-01
9.715683642951580268e-01,8.814706080501297780e-01,-1.611320680758864532e-01
9.714424118856037627e-01,8.823945209578342164e-01,-1.143681044883448905e-01
9.732007045891679642e-01,8.847215022061605261e-01,-6.841383754305735421e-02
9.769202420074507565e-01,8.849308128677559893e-01,-2.356025445904232768e-02
9.767020701600291899e-01,8.867387103748849420e-01,2.339743005623361183e-02
9.793110165174960802e-01,8.869770585074231439e-01,6.802016339703374770e-02
9.790783997117903370e-01,8.890904861448662988e-01,1.151295357487090998e-01
9.790067251803102888e-01,8.888985964217342994e-01,1.631673358868321044e-01
9.793233810807578932e-01,8.894161941143045036e-01,2.092898578671738563e-01
9.836818122290017508e-01,8.904268092354371555e-01,2.561556623372823194e-01
9.822159051308146926e-01,8.925550414760623497e-01,3.075845075887113644e-01
9.516728205351445702e-01,8.868808178510956264e-01,-3.486019603484498131e-01
9.512212639603735420e-01,8.890427020265404545e-01,-3.023810603088577520e-01
9.539484174648368286e-01,8.915127431256181234e-01,-2.528235752287752991e-01
9.548263719471906663e-01,8.911057480387716279e-01,-2.085752287121971638e-01
9.567405413156032656e-01,8.924893011959770250e-01,-1.619724987494086388e-01
9.563767234255546867e-01,8.964466183002220978e-01,-1.157701604729743511e-01
9.569948209664015382e-01,8.952502920166377498e-01,-6.998545449640912464e-02
9.582680250653344833e-01,8.944863453498419492e-01,-2.185293777694936185e-02
9.608269431173837027e-01,8.977221281977783018e-01,2.473820809607193624e-02
9.625020940774450251e-01,8.977442113811258118e-01,6.686598786377155601e-02
9.617649137578812013e-01,8.966563674725502864e-01,1.147054818209073956e-01
9.630124044644113868e-01,9.008220016851038459e-01,1.603488119446857263e-01
9.650944049569037952e-01,9.020022590333343082e-01,2.097569638418677329e-01
9.649145066336395349e-01,9.026486266465095776e-01,2.587622861421211562e-01
9.678115181491728780e-01,9.037086186925943343e-01,3.060346789333576734e-01
9.346978195835736747e-01,8.996743823726952582e-01,-3.479248302314239538e-01
9.352899926461559765e-01,9.017483125481771111e-01,-3.006271486519076497e-01
9.361591518921528188e-01,9.013799675057724281e-01,-2.533457277872915303e-01
9.377729640016841950e-01,9.050318454240420252e-01,-2.062652185571653973e-01
9.391483012624920468e-01,9.016736666586273596e-01,-1.598887852094940110e-01
9.401718853840203005e-01,9.053571815229269903e-01,-1.127721021738997548e-01
9.415003158787325077e-01,9.054222409265828553e-01,-6.808225688411932708e-02
9.425775404417084946e-01,9.066770545371964918e-01,-2.029119185694270092e-02
9.449419936179942470e-01,9.082505754654867092e-01,2.297554414570090672e-02
9.448819827153368545e-01,9.075156145322398338e-01,6.832735700172680449e-02
9.464451446185815353e-01,9.100295332432951634e-01,1.159917049578196580e-01
9.470763550008201026e-01,9.097423993169595491e-01,1.632820822059369015e-01
9.490727514990912050e-01,9.128547848948648236e-01,2.095586380114612679e-01
9.498306814181294300e-01,9.138827091762656840e-01,2.565793872245206719e-01
9.503998750237763193e-01,9.141391428371846706e-01,3.047725307273753681e-01
9.194724982741885322e-01,9.102608268728750174e-01,-3.468993493885961232e-01
9.196967421217322469e-01,9.111958071390626746e-01,-2.991788698061558782e-01
9.211773173345013666e-01,9.109754034763936081e-01,-2.511880322542443533e-01
9.224007601875269247e-01,9.123192113571413353e-01,-2.049329754838628004e-01
9.260983548807333321e-01,9.148687047539093564e-01,-1.574436026732963789e-01
9.256570538304212947e-01,9.136235079523469249e-01,-1.147740905689924734e-01
9.257637116361718821e-01,9.157285526487212168e-01,-6.896980559355925244e-02
9.254898802447468764e-01,9.186031086328727557e-01,-2.320096898759960516e-02
9.287138662130979272e-01,9.185106070832871339e-01,2.234214368237785742e-02
9.288031160093658256e-01,9.203004824378877569e-01,6.841038470301386010e-02
9.289407747582644204e-01,9.211573869870649522e-01,1.151139473080119296e-01
9.316804207179046893e-01,9.223554696092550742e-01,1.618031694593766445e-01
9.337023513043334333e-01,9.223301202432880874e-01,2.059906186867563327e-01
9.359945897577509610e-01,9.235335825983697067e-01,2.553353930535601224e-01
9.352127491125543646e-01,9.252201668219584008e-01,3.051638977644939299e-01
9.027484893430121060e-01,9.203651803294082834e-01,-3.457199799893305725e-01
9.053468453397262028e-01,9.224756777414928610e-01,-2.968064639570938135e-01
9.048178544208672625e-01,9.218343004087323767e-01,-2.512558214471059537e-01
9.065158585496553290e-01,9.231699290480289699e-01,-2.040393245200916861e-01
9.082437289791387425e-01,9.245495428007083349e-01,-1.583288840919901130e-01
9.094866874992292294e-01,9.243844222192260096e-01,-1.133013215516374822e-01
9.092427587012160695e-01,9.264091776054090843e-01,-7.014563613766847117e-02
9.122128942833218623e-01,9.277057442859012459e-01,-2.176865482307802080e-02
9.129461743084356096e-01,9.291615841748153137e-01,2.207611033142770768e-02
9.139795478100378734e-01,9.290583740048673489e-01,6.778632155264389947e-02
9.151304206726550428e-01,9.316216065671277802e-01,1.132791331513988836e-01
9.153143335681346304e-01,9.334530030893780639e-01,1.607505294558045916e-01
9.162441021634291083e-01,9.340777525725536545e-01,2.084370542653196934e-01
9.180911884675578838e-01,9.318117833616003098e-01,2.542717249868814977e-01
9.192364073820601389e-01,9.338926901848066953e-01,3.030134374513562268e-01
8.895728236443503079e-01,9.298772701231305948e-01,-3.449785910832879887e-01
8.880948791792038222e-01,9.315089431926953933e-01,-2.959995476200923403e-01
8.900950355361997302e-01,9.335793611423325311e-01,-2.495484503754222816e-01
8.907204190023616519e-01,9.325155839269042568e-01,-2.057864701163232835e-01
8.910899205168717474e-01,9.340624645278273741e-01,-1.593575193145048696e-01
8.939207756619512724e-01,9.376393651097978399e-01,-1.129844708232056738e-01
8.938183621879198792e-01,9.359175281841283223e-01,-6.662413049795290476e-02
8.954745796479705033e-01,9.381621988453580085e-01,-2.388736683436812683e-02
8.973044930024142163e-01,9.398843957325350162e-01,2.446131841701624024e-02
8.981212501974126239e-01,9.420933816156216167e-01,6.839651235906525628e-02
8.976730437578539501e-01,9.424782130646969236e-01,1.144009858799072965e-01
9.016624716246954829e-01,9.414854541057715576e-01,1.584521746918222673e-01
9.021837502481412363e-01,9.436186570075889568e-01,2.071005468967658802e-01
9.016161396144285467e-01,9.453235311405701058e-01,2.545093076187680547e-01
9.008767874455404501e-01,9.474881890339121870e-01,3.027255201668763163e-01
8.735964789340233683e-01,9.409629049861837347e-01,-3.450503187131779836e-01
8.738095104343978070e-01,9.412689357054495609e-01,-2.971087631901380144e-01
8.745812211759104171e-01,9.440382428480947885e-01,-2.512475708687970100e-01
8.750768930242273091e-01,9.423359866139606744e-01,-2.051383393776348985e-01
8.760710968169052038e-01,9.456993039672504375e-01,-1.576800100101238000e-01
8.774711944847395362e-01,9.452111031040308919e-01,-1.134765805961630569e-01
8.790894264206924325e-01,9.483625362615678567e-01,-6.808433275380559868e-02
8.800892932419517312e-01,9.476595969320866786e-01,-2.402904110603232626e-02
8.803998047863724752e-01,9.510639936223451718e-01,2.329111624690587135e-02
8.822353278696146717e-01,9.498222222868178966e-01,6.820442489972403100e-02
8.829092654128902762e-01,9.513592395816889979e-01,1.145626164717978152e-01
8.816105034083929759e-01,9.531688372094587747e-01,1.595574929591392910e-01
8.845667466130899825e-01,9.543503297002319252e-01,2.061467507655483922e-01
8.843431360068058078e-01,9.560840686497916741e-01,2.530044936902290931e-01
8.865239351145886015e-01,9.555264235850028376e-01,3.010066743654155053e-01
8.577290890246885846e-01,9.501613293034113505e-01,-3.418854989242690601e-01
8.589295104556574634e-01,9.511364314099093331e-01,-2.961598687921100370e-01
8.589263003367038074e-01,9.534174371912846890e-01,-2.500807011109043021e-01
8.613751065490220515e-01,9.536480854425216647e-01,-2.036652570004665597e-01
8.612731823471196924e-01,9.548597403279187601e-01,-1.589892285343006140e-01
8.615669233837019991e-01,9.566851043062529758e-01,-1.113735394134924561e-01
8.622774363809562193e-01,9.566505850758382223e-01,-6.707079699048326682e-02
8.631702719788804101e-01,9.594279763383101178e-01,-2.417039226939133797e-02
8.670953470207094504e-01,9.594240463494205784e-01,2.578774484198880293e-02
8.651520486468585736e-01,9.606198686581082224e-01,6.828287023216574048e-02
8.701629106743150599e-01,9.611809064433040062e-01,1.126338944609468623e-01
8.680182964778743182e-01,9.627904414901147234e-01,1.601227934299976341e-01
8.704174510245460405e-01,9.650116900702575551e-01,2.063646482844119223e-01
8.694779116063816593e-01,9.670365895931073430e-01,2.505559256447615901e-01
8.717835596215121052e-01,9.658448503004778418e-01,3.017326807548079137e-01
8.430418797377964291e-01,9.615395371472973407e-01,-3.435439485601044507e-01
8.443028542758329591e-01,9.615754937853030482e-01,-2.943781389906384161e-01
8.424579020187322742e-01,9.615548113183512990e-01,-2.495540099045274463e-01
8.455425298849248428e-01,9.641293514128619346e-01,-2.020022361616991002e-01
8.439632793728868432e-01,9.650454874295555374e-01,-1.591408746957841680e-01
8.460911785872208268e-01,9.682542694637661373e-01,-1.130926739780177132e-01
8.471763960652166636e-01,9.674495877078906902e-01,-6.707722308516918253e-02
8.490568827912705618e-01,9.703700288582953748e-01,-2.173784679284054486e-02
8.496681323909092143e-01,9.684352940461354864e-01,2.370150697123374686e-02
8.517559922665022265e-01,9.735857839003204672e-01,6.715154872319625823e-02
8.538140267760423452e-01,9.731183402873616606e-01,1.134237796334647691e-01
8.527390761004091102e-01,9.742929636889149370e-01,1.611043992071958253e-01
8.551095621873656683e-01,9.759144945828301942e-01,2.042066569568763423e-01
8.516338337286759597e-01,9.771088670386742780e-01,2.511521989263240107e-01
8.574219748826898968e-01,9.791428724144897178e-01,2.994969389754150169e-01
8.271926409050780471e-01,9.718666670924860362e-01,-3.402725737492903191e-01
8.282413081628733353e-01,9.731394113635125631e-01,-2.930996718865990780e-01
8.296214472550254015e-01,9.729727397445119275e-01,-2.489242626849590134e-01
8.284006732849255039e-01,9.758595845369609778e-01,-2.026730999217471463e-01
8.305056332559432875e-01,9.769956273653650491e-01,-1.547180289061801384e-01
8.321302975718288808e-01,9.763943063569456848e-01,-1.117430648784995678e-01
8.332544062845309574e-01,9.788493480295890059e-01,-6.921117859272822581e-02
8.345961840807791798e-01,9.805299758355672246e-01,-2.355542935704009466e-02
8.343856816739677607e-01,9.807381330999097591e-01,2.296216613764227518e-02
8.362782194754130316e-01,9.828233281367332319e-01,6.676320893681128577e-02
8.370682540732140575e-01,9.827417720682987134e-01,1.146859687719518767e-01
8.380651626066721871e-01,9.858636800346559648e-01,1.591023569382037650e-01
8.364427237451240726e-01,9.875273764822448674e-01,2.041352519630388329e-01
8.392512991313509918e-01,9.861928443376032360e-01,2.539313086668574804e-01
8.408715575149879884e-01,9.891641361314895686e-01,2.989306377744302412e-01
8.093179107994236121e-01,9.801535469929532063e-01,-3.426041456927632622e-01
8.117786104961342009e-01,9.839092037699215254e-01,-2.954861404055759144e-01
8.131811407772451261e-01,9.817408369898912301e-01,-2.481863611478602183e-01
8.154006274347723737e-01,9.848825374580340020e-01,-2.033528626955139751e-01
8.145532635745345029e-01,9.854425975567312479e-01,-1.570462885813439791e-01
8.150167421229053133e-01,9.883290858592882477e-01,-1.131911829139279069e-01
8.158069732697503795e-01,9.889837816238165047e-01,-6.785897651283186172e-02
8.188850019482460940e-01,9.894248154852728350e-01,-2.191652525324638487e-02
8.193042871841013097e-01,9.918144016394029316e-01,2.216856196304611490e-02
8.203996355654863404e-01,9.927936401848270753e-01,6.747529812130519111e-02
8.193624306359110765e-01,9.936763338792158340e-01,1.108095550585863065e-01
8.226429535779511415e-01,9.949201125103778187e-01,1.600081934828500030e-01
8.249045587934065171e-01,9.959746352935535674e-01,2.058228035614477480e-01
8.230877308854827046e-01,9.974135763728900761e-01,2.510028054664715791e-01
8.242498733634150421e-01,9.967785141652701908e-01,2.988125234828557519e-01
7.967755333598954826e-01,9.909789746377742903e-01,-3.404150370706390261e-01
7.960266601432507416e-01,9.929139814410177234e-01,-2.931111507666510074e-01
7.990399641668410879e-01,9.936309100308828857e-01,-2.468255989485315105e-01
7.996763397111973370e-01,9.957057856126082518e-01,-2.023130302845265183e-01
7.999075484194793084e-01,9.975713984582530447e-01,-1.569322916167889270e-01
8.016262697872839071e-01,9.981838063899481917e-01,-1.117862486342317413e-01
8.010358730369492308e-01,9.991605012701042510e-01,-6.759600774545948543e-02
8.039066796725236053e-01,9.997967868863144592e-01,-2.169697893841585415e-02
8.029884178564029584e-01,1.002388319559931684e+00,2.149505703421752609e-02
