7.376892459156811910e+00,-1.443751036224752538e+00,-1.190519292121283268e+00
9.660464001256228173e+00,-1.890287896362369269e+00,-1.210023899899832944e+00
9.673174248925928254e+00,-1.893477993384172331e+00,-8.620766914830929606e-01
9.684010271741223974e+00,-1.896488577302317902e+00,-5.174251412790947802e-01
9.695944132759747092e+00,-1.897377601918241341e+00,-1.726240764793906812e-01
9.708453165518974970e+00,-1.898327832210495281e+00,1.731986777443552672e-01
9.720501387083881895e+00,-1.903520868102271058e+00,5.192685012495045216e-01
9.732853368246322745e+00,-1.904466362056488782e+00,8.694956598312353346e-01
9.745125183368022803e+00,-1.908443606188156227e+00,1.217650418699923742e+00
3.950895109314155551e+00,-7.161210690066880380e-01,-1.075906759281922032e+00
4.703067170579187994e+00,-8.512072812799698074e-01,-1.103580711892775623e+00
5.746189277143817442e+00,-1.039166686268293338e+00,-1.134966981076820591e+00
7.474746371650185850e+00,-1.353751361582513413e+00,-1.203204861108875923e+00
9.686139679598404939e+00,-1.750477001469963101e+00,-1.208232729432445307e+00
9.698331559042932426e+00,-1.752150985316516252e+00,-8.621969004238017042e-01
9.710231135868268026e+00,-1.757040685554332793e+00,-5.161701378270938667e-01
9.720578793734231837e+00,-1.758139730829894942e+00,-1.738843593953587896e-01
9.734519978891199798e+00,-1.760166185387163962e+00,1.728808847136655835e-01
9.746997932312266855e+00,-1.763435729912383509e+00,5.202770078505211115e-01
9.757540322585096959e+00,-1.764031302982158600e+00,8.669481557261708993e-01
9.772129581984868807e+00,-1.767935519481343531e+00,1.220500119721499299e+00
3.950766641087621434e+00,-6.565434331028444648e-01,-1.072827273805630810e+00
4.704383547582362546e+00,-7.816350838634276155e-01,-1.100456727186262196e+00
5.805008655689288588e+00,-9.644841367392869014e-01,-1.145900465296678217e+00
7.474158459317777670e+00,-1.242181500745849654e+00,-1.200580725390810288e+00
9.710088618412727968e+00,-1.613538425701397605e+00,-1.207255269644232909e+00
9.723058911964747253e+00,-1.614183985638212304e+00,-8.609900978183852027e-01
9.732813747431189100e+00,-1.619109075003796638e+00,-5.172989653247274111e-01
9.744788867347415007e+00,-1.619836205915079264e+00,-1.732624659764743502e-01
9.757975892792529748e+00,-1.621527713566211615e+00,1.720574940276928255e-01
9.769012789546994924e+00,-1.622619481799195684e+00,5.173577906724158293e-01
9.783052341201464941e+00,-1.625617361826825924e+00,8.662877037124396828e-01
9.792560772980856143e+00,-1.625927929576933328e+00,1.218777608483182506e+00
3.953673550387522884e+00,-6.006468300167402408e-01,-1.071759025490666595e+00
4.702647982624322154e+00,-7.124184815596975584e-01,-1.096368566224895869e+00
5.806390211893719844e+00,-8.792796435283128931e-01,-1.142109197900070594e+00
7.474746286683044083e+00,-1.132899008522687989e+00,-1.196968108593728930e+00
1.048269630313122214e+01,-1.587423245461808241e+00,-1.300749199154047631e+00
1.750156118169128305e+01,-2.650388678593679881e+00,-1.548786276561466169e+00
2.479603823941807406e+01,-3.753859388048184531e+00,-1.313907221073179921e+00
2.482446673156150752e+01,-3.757719168071972593e+00,-4.386526835426410864e-01
2.485462520971678302e+01,-3.765619389315186805e+00,4.388347725432673596e-01
3.980720195074272105e+00,-5.448042021904082599e-01,-1.076045473522291962e+00
4.705921625231389349e+00,-6.444247587074144468e-01,-1.096968055365816097e+00
5.807922488274452455e+00,-7.949425261136022769e-01,-1.140502299328141955e+00
7.477268764199368256e+00,-1.022902235651393710e+00,-1.195270709550408261e+00
1.048197486490380292e+01,-1.435592109703815344e+00,-1.299376981177140067e+00
1.750107031492458276e+01,-2.395204475836895774e+00,-1.544995029739795189e+00
2.485725643434514964e+01,-3.400967843849730610e+00,-1.313683551681479544e+00
2.488698540011065319e+01,-3.405798109548066499e+00,-4.391502291359185017e-01
2.491919547771611576e+01,-3.408939690979258419e+00,4.408782747745434993e-01
3.982459425288917831e+00,-4.883625094915221010e-01,-1.072567076436115929e+00
4.745741272370345598e+00,-5.793994849162789063e-01,-1.103900090519474020e+00
5.807388083924723610e+00,-7.099935849936881427e-01,-1.137638219281555951e+00
7.477884178982130869e+00,-9.128143462593192314e-01,-1.194951556492821032e+00
1.048432638009563789e+01,-1.280898838904592330e+00,-1.297390688108047252e+00
1.750360716103607217e+01,-2.140567271106346592e+00,-1.542583830079775842e+00
2.492018359912858116e+01,-3.046765845134243200e+00,-1.315854124759402888e+00
2.494788863633808162e+01,-3.050664215719833372e+00,-4.385553893823628258e-01
2.497756947660562332e+01,-3.052608984294490568e+00,4.382074819542143285e-01
3.982830352025648057e+00,-4.298838916331677584e-01,-1.070997059478260960e+00
4.747864595353161299e+00,-5.114373260442243163e-01,-1.100735764331529642e+00
5.807578107866014250e+00,-6.243677212515503783e-01,-1.136042299248653631e+00
7.477748451200201707e+00,-8.048874240215585507e-01,-1.191635326186687660e+00
1.048548938279255971e+01,-1.131185920547945978e+00,-1.293670383469685214e+00
1.750411663895731706e+01,-1.887613819251114711e+00,-1.538664904938943812e+00
2.498014208807202152e+01,-2.692358459836817541e+00,-1.317700125279838819e+00
2.501060123895988241e+01,-2.695405327878171331e+00,-4.391123055839155076e-01
2.504289670870946338e+01,-2.699678998624751802e+00,4.404244234562864624e-01
3.982005169061280547e+00,-3.708096947481469563e-01,-1.071463191239576007e+00
4.747475183094805651e+00,-4.438968218043465308e-01,-1.100870926928412263e+00
5.808320707994537813e+00,-5.409018016174563792e-01,-1.132052914203671934e+00
7.581022083680777790e+00,-7.081150754110866474e-01,-1.206093620289345303e+00
1.068822054936271293e+01,-9.989524129582697531e-01,-1.317312044901536083e+00
1.750708236048642874e+01,-1.633031589947699480e+00,-1.539266312553458915e+00
2.504249813923113877e+01,-2.337672910287113215e+00,-1.316636005701249390e+00
2.507292205865037360e+01,-2.339605730095901670e+00,-4.419949029458785095e-01
2.510239167630474100e+01,-2.342373426122537072e+00,4.392363862801866303e-01
4.008661431229150196e+00,-3.150206177615083036e-01,-1.078333708927715184e+00
4.746507325481102768e+00,-3.752362732883463003e-01,-1.099393129779245859e+00
5.868499130775800765e+00,-4.629307016628084193e-01,-1.143149405749242398e+00
7.581314010737086662e+00,-5.972311740713701633e-01,-1.205530019046875179e+00
1.068980725263133635e+01,-8.426691286926082380e-01,-1.316607029930874528e+00
1.750697198017443768e+01,-1.380536704680755733e+00,-1.536035337199829431e+00
2.510627238786165094e+01,-1.981032593454811863e+00,-1.319926790959782048e+00
2.513606536240755673e+01,-1.983285731470390667e+00,-4.395545405985531451e-01
2.516866998171961711e+01,-1.985919832317136979e+00,4.411484861283053172e-01
4.008439499226652991e+00,-2.584675544863757612e-01,-1.075878219088325372e+00
4.745388264285210767e+00,-3.091789806458375978e-01,-1.098669409980622236e+00
5.870406924605634735e+00,-3.775162868437972885e-01,-1.143663140479982188e+00
7.580071191800218600e+00,-4.885159046521120874e-01,-1.203268429653129079e+00
1.068901841349023130e+01,-6.890581911816411331e-01,-1.316233170896570881e+00
1.751077397984679962e+01,-1.128713269337877412e+00,-1.535646706411996076e+00
2.516843314837243994e+01,-1.621935982074182769e+00,-1.322510822064896008e+00
2.519618477464118200e+01,-1.625074404132829775e+00,-4.396945149343138848e-01
2.522755249896659890e+01,-1.625684649715812169e+00,4.403885805348083382e-01
4.011154672360796702e+00,-2.020796893885477008e-01,-1.076887266713948854e+00
4.746272165045994029e+00,-2.362908231884643107e-01,-1.096970936273078401e+00
5.871117965544189410e+00,-2.946856476931360991e-01,-1.142602703216410109e+00
7.582596805288605246e+00,-3.786611030923727195e-01,-1.201071141183716939e+00
1.068892973923069789e+01,-5.375088989174350296e-01,-1.313962594293053954e+00
1.751190979756700017e+01,-8.768185747023581333e-01,-1.533925773571748419e+00
2.523142406837061102e+01,-1.264372597547710031e+00,-1.326114494386921194e+00
2.526098028252077299e+01,-1.265454731941112687e+00,-4.411327109596347995e-01
2.529330468015724165e+01,-1.270014893125269939e+00,4.427578403540637919e-01
4.010637745175090529e+00,-1.421118162960858522e-01,-1.075884142420234113e+00
4.745538094546557062e+00,-1.699153349173613825e-01,-1.096224317225556133e+00
5.869641443785933888e+00,-2.109683102861547865e-01,-1.141553404350284850e+00
7.581814925096504787e+00,-2.706086873474584098e-01,-1.201908700443036437e+00
1.069106821308069932e+01,-3.818592713254208570e-01,-1.311665338312375972e+00
1.751602394211140279e+01,-6.278983387836465369e-01,-1.533450909316609545e+00
2.529042668596056842e+01,-9.050206150490948120e-01,-1.327166180405498386e+00
2.532450599813746450e+01,-9.062287082938256244e-01,-4.416481025518902981e-01
2.535584260057116879e+01,-9.073679173883164584e-01,4.417676030696400247e-01
4.010227285134415176e+00,-8.790074216356928705e-02,-1.075847901625056169e+00
4.748152014799259746e+00,-1.009045543856187110e-01,-1.096269707724129905e+00
5.870082276162376544e+00,-1.255227001591557034e-01,-1.139627134348866200e+00
7.580845563539020837e+00,-1.625060314176948184e-01,-1.200633585390540325e+00
1.069326280782587446e+01,-2.301785481188566573e-01,-1.313834215341721512e+00
1.751567994376520332e+01,-3.746953843675507323e-01,-1.532421902502284716e+00
2.535589366736957118e+01,-5.463079143499095514e-01,-1.329174037724783597e+00
2.538814327093134438e+01,-5.435269232560530073e-01,-4.428887141344982625e-01
2.542114559515936634e+01,-5.447351337242575253e-01,4.435258150668457966e-01
4.012965490574506688e+00,-2.932860605442239380e-02,-1.075861494098372395e+00
4.787031171431455512e+00,-3.405539260521359829e-02,-1.103128676406663011e+00
5.871408546593196220e+00,-4.271397460534927248e-02,-1.141970761446509330e+00
7.584848277943371464e+00,-5.365543797774971480e-02,-1.200954954183026668e+00
1.069113026192462890e+01,-7.507964819482387808e-02,-1.314410675896369396e+00
1.751500016316273189e+01,-1.253251099286120940e-01,-1.531508873823076655e+00
2.541900921718098161e+01,-1.818205917909443137e-01,-1.333538223100786846e+00
2.544850447643537805e+01,-1.826385539412542502e-01,-4.418977629179516309e-01
2.548104128864678231e+01,-1.819408949108760887e-01,4.438780027757611713e-01
4.013141045379343019e+00,2.671030663805578492e-02,-1.075994506996128974e+00
4.787662053965655140e+00,3.428967282701235464e-02,-1.104952681900967626e+00
5.867662268496636635e+00,4.247692783399983907e-02,-1.142939137251703929e+00
7.583248055778653907e+00,5.379616845418201676e-02,-1.201433789456252343e+00
1.069403721911423766e+01,7.682478168106450511e-02,-1.314078208774244860e+00
1.751863416709829124e+01,1.268854222693017453e-01,-1.531671783991471081e+00
2.548601516777713627e+01,1.819058519958380582e-01,-1.335141617352049392e+00
2.551762993826106651e+01,1.819668713860921883e-01,-4.465959514488385129e-01
2.554767726362798186e+01,1.830262433172793746e-01,4.462876382783170226e-01
4.011235648660901099e+00,8.745097770513501900e-02,-1.075444800075669560e+00
4.748336490351554140e+00,1.031697017988538190e-01,-1.095892231348120305e+00
5.868978567201432739e+00,1.247005628834541163e-01,-1.140891494689964869e+00
7.581954972995749387e+00,1.632793119911745139e-01,-1.201310591763647295e+00
1.069268435787464533e+01,2.301987637121742092e-01,-1.313781264837740048e+00
1.323925623109835747e+01,2.833848875112951471e-01,-1.157413050723716585e+00
1.325945514540624437e+01,2.842426806922417337e-01,-6.964143614427507067e-01
1.327668357374069608e+01,2.861086835652782434e-01,-2.318519937441463896e-01
1.329607186345129755e+01,2.863994840155808519e-01,2.327235024048700529e-01
1.331107646166259251e+01,2.857799762640864660e-01,6.995015495497974856e-01
1.332979121815261792e+01,2.871468459833028120e-01,1.167174061580519950e+00
4.011587568716334040e+00,1.427066906813156955e-01,-1.076212745065972864e+00
4.746925107194783777e+00,1.703370374863852066e-01,-1.096164355864334805e+00
5.871287200677447693e+00,2.099966922374079115e-01,-1.143272322003153318e+00
7.584732315817527493e+00,2.691474280352588178e-01,-1.200948852068945083e+00
1.069401171417202434e+01,3.804928043648385105e-01,-1.312406456575677449e+00
1.117550128750220395e+01,3.996728410864214265e-01,-9.770085169643404344e-01
1.119130603484611264e+01,4.024619600670985009e-01,-5.892759652455584751e-01
1.120649087110579245e+01,4.015078898017995779e-01,-1.943489443081528045e-01
1.122251535830042002e+01,4.013652600533561543e-01,1.978082851868111502e-01
1.123628290581303268e+01,4.017985726427477644e-01,5.886015558279681370e-01
1.125010513224783182e+01,4.037435743631906382e-01,9.855032623678307013e-01
4.009316774470423006e+00,2.008390060432466151e-01,-1.075751060643147516e+00
4.749645434808381417e+00,2.397098621388099593e-01,-1.098120695951607217e+00
5.871218887296394406e+00,2.929614645802598449e-01,-1.144148378694654467e+00
7.583791748216242468e+00,3.788774105623946564e-01,-1.202425323815393687e+00
9.802021355225130961e+00,4.930271262431103474e-01,-1.203248496173116466e+00
9.814521649931325697e+00,4.918234627927018932e-01,-8.596035848470621188e-01
9.829343627584803400e+00,4.928400327862750840e-01,-5.156162761104782222e-01
9.841676722707227043e+00,4.954491252319688788e-01,-1.715980823830871582e-01
9.854787473580108426e+00,4.929585826636332935e-01,1.715174265640468099e-01
9.866983995892720571e+00,4.931729297490737296e-01,5.196271435163387631e-01
9.881103635893465409e+00,4.962440034811544942e-01,8.665299517396365392e-01
9.893875959556680755e+00,4.959287087500856561e-01,1.215902549799188437e+00
4.010601639470478652e+00,2.608167131637618152e-01,-1.078628057070615487e+00
4.748315972646352634e+00,3.063816289785324942e-01,-1.098305419737876099e+00
5.871438790437196076e+00,3.793706956240334716e-01,-1.143374204440003927e+00
7.584587041741017721e+00,4.890745340958098653e-01,-1.204938533728985073e+00
8.621385256745638159e+00,5.556355841861447820e-01,-1.060643010383009566e+00
8.631217124469447555e+00,5.559484988550528195e-01,-7.564971525035464328e-01
8.643112379893981512e+00,5.593895884399412433e-01,-4.524285930567481517e-01
8.655193369823129146e+00,5.592495058932558383e-01,-1.502436444146985906e-01
8.666832015594810201e+00,5.613555395351431665e-01,1.502543774083134054e-01
8.679103241674850366e+00,5.591621741846917182e-01,4.564500829733725284e-01
8.689525177396275168e+00,5.601761683806878445e-01,7.617217799213418239e-01
8.701568477527832357e+00,5.612751157952585723e-01,1.071831363670582515e+00
4.009601537485843359e+00,3.151300386853250757e-01,-1.077791856965652384e+00
4.747032265368393844e+00,3.746950501268555001e-01,-1.100999238781684042e+00
5.871282430975170996e+00,4.638664543229049642e-01,-1.144414395785146255e+00
7.584505795613271317e+00,5.966627839043775472e-01,-1.203066156616814153e+00
7.786494854039311520e+00,6.137427668286711269e-01,-9.603302366172370430e-01
7.797377733835178404e+00,6.142139037192775319e-01,-6.831410458508552219e-01
7.807800930648237880e+00,6.158935977546495799e-01,-4.091606445194623243e-01
7.818282104116787146e+00,6.166806430303497510e-01,-1.367618261948871372e-01
7.828322876847388478e+00,6.183696755537234635e-01,1.367358171844450521e-01
7.837073759197117795e+00,6.195033483643528349e-01,4.112857823907292709e-01
7.846528023982699551e+00,6.205514276211090419e-01,6.893320256624182463e-01
7.858113186293252284e+00,6.212197410077249238e-01,9.688532824555011747e-01
7.870643994876245664e+00,6.222696338540560923e-01,1.250007186557159589e+00
3.983083875201803625e+00,3.722318171090278072e-01,-1.071140552332155327e+00
4.748306099555635207e+00,4.416538723165160385e-01,-1.101398923746148562e+00
5.811761372789561619e+00,5.424064587772572388e-01,-1.134748914865413516e+00
7.013902897709786366e+00,6.541643813688379216e-01,-1.115272636905405568e+00
7.023219653933164608e+00,6.549631891356477720e-01,-8.665210322849363767e-01
7.035096946923569128e+00,6.569349559167264596e-01,-6.185807335787769645e-01
7.042785009231148585e+00,6.566370798361863548e-01,-3.704441026284143179e-01
7.054047750095480573e+00,6.562290817944170795e-01,-1.243297721211189671e-01
7.059378701210223817e+00,6.585379393826806815e-01,1.228471214522536270e-01
7.068770084135008069e+00,6.593704142372905919e-01,3.729882145497470658e-01
7.078058624809733246e+00,6.598380570267713408e-01,6.205263649228358602e-01
7.088569919484117854e+00,6.598291358888328517e-01,8.734240131855870448e-01
7.097392448548912824e+00,6.620177204205499599e-01,1.128140560533379411e+00
7.107529367602659853e+00,6.630969836134065210e-01,1.389783986509264713e+00
3.982240940445896271e+00,4.289786271078838142e-01,-1.074649117339178117e+00
4.746919117359041707e+00,5.106607070164966844e-01,-1.101880905542732991e+00
5.810801219432508269e+00,6.239181520223138211e-01,-1.135121781835956911e+00
6.453509860764515160e+00,6.957459359496813711e-01,-1.027828470338919331e+00
6.460167285848352314e+00,6.962888092983399169e-01,-7.987263181450702243e-01
6.469608576863003613e+00,6.962728154208785991e-01,-5.688953307793440661e-01
6.477629421680001442e+00,6.987173716437052873e-01,-3.414371643579568461e-01
6.484365030755466108e+00,6.974441372145555595e-01,-1.125592735327326371e-01
6.492396570153285751e+00,6.999866862718926441e-01,1.119322662664066492e-01
6.501889642641911493e+00,7.021473876931512148e-01,3.421842680236123480e-01
6.510100840961412061e+00,7.020567897842120431e-01,5.705233002173160095e-01
6.520124921994074896e+00,7.027932523621663874e-01,8.044634803519596922e-01
6.529319008645867228e+00,7.031721195026701121e-01,1.039520785948553794e+00
6.536251629777449779e+00,7.042866719965887867e-01,1.277713025723772988e+00
3.982021446494487638e+00,4.872310863650447521e-01,-1.074676424780797834e+00
4.747498765163044254e+00,5.811243646637963556e-01,-1.106229352007303213e+00
5.809759266572716463e+00,7.105043034906499688e-01,-1.139205673628103321e+00
5.919402890423026697e+00,7.239366516035181665e-01,-9.437946241837376071e-01
5.925045135674830377e+00,7.243478215192352687e-01,-7.334701964012010356e-01
5.932493629256414103e+00,7.258723313480440753e-01,-5.223738173118991357e-01
5.939977104483109116e+00,7.264239977198218012e-01,-3.143193715149061318e-01
5.949115034918876610e+00,7.266165956896238898e-01,-1.052439622004090192e-01
5.955786448087646789e+00,7.276163697822503051e-01,1.036583896473488864e-01
5.963224211320339307e+00,7.285599870020021962e-01,3.158671382226007629e-01
5.973341223759910612e+00,7.297438784486307561e-01,5.261272000746854971e-01
5.980019469490954975e+00,7.323679087344968641e-01,7.392177453381261198e-01
5.986179278176480878e+00,7.320577800497428678e-01,9.540980834576486824e-01
5.995262171530041151e+00,7.339604508415088491e-01,1.172139477362741822e+00
6.003253724449771234e+00,7.353247820375179433e-01,1.396060344132786790e+00
3.979763265320190868e+00,5.449633544066204704e-01,-1.076853291929301237e+00
4.706583544786177242e+00,6.448400862151401070e-01,-1.098047688773905239e+00
5.504972796347178843e+00,7.525247552793264960e-01,-1.081308502331927324e+00
5.511920466182787415e+00,7.545339352178458414e-01,-8.829013357560838715e-01
5.519258457411417851e+00,7.559725354725669311e-01,-6.840344543109238007e-01
5.526049144906881594e+00,7.564611371555897135e-01,-4.887490658489214157e-01
5.532773896118882817e+00,7.567665283457528647e-01,-2.934268300583693923e-01
5.540264646876781107e+00,7.565321218888874100e-01,-9.608326039674557062e-02
5.548187238369676422e+00,7.594391012170988997e-01,9.682887385394700619e-02
5.554956970447719300e+00,7.609766561282070851e-01,2.962575250366325519e-01
5.561214217822103123e+00,7.608848938290794228e-01,4.928129393246080681e-01
5.567853651472148613e+00,7.642136653974861416e-01,6.892390286774396913e-01
5.576720530407651033e+00,7.636980606163469298e-01,8.906172761999625598e-01
5.584395012115259682e+00,7.638780787418312235e-01,1.095607377028132268e+00
5.589454002566673019e+00,7.665033349336984880e-01,1.302430234796221553e+00
3.953745308039111617e+00,5.978553237985456681e-01,-1.070494853939238267e+00
4.707072470347933191e+00,7.122938999594567999e-01,-1.098227923163667574e+00
5.109911222243738393e+00,7.748640779312032656e-01,-1.005674134348338633e+00
5.117989475194231197e+00,7.755095525583695082e-01,-8.197572128872894215e-01
5.125319297672314534e+00,7.784839153662925781e-01,-6.376811045547479129e-01
5.132066825231529350e+00,7.775418055619104374e-01,-4.542381015889874196e-01
5.135956306152437811e+00,7.771352204164087007e-01,-2.734626305165089866e-01
5.143850286052719767e+00,7.777277133078522864e-01,-9.164491488097285810e-02
5.150194069038570355e+00,7.782441575412848422e-01,9.216484688393783431e-02
5.156664162133143492e+00,7.801300336301827398e-01,2.750364220651724256e-01
5.163189283723061962e+00,7.829385095517484849e-01,4.557214953499240107e-01
5.169477859160961586e+00,7.840038414586397719e-01,6.432365844377976316e-01
5.177628440120924047e+00,7.843890114361116161e-01,8.285770624408738128e-01
5.184599883617138971e+00,7.869164342353347497e-01,1.018828269027512556e+00
5.192102916241085886e+00,7.844683583619567191e-01,1.212484728030804648e+00
3.953919258935811865e+00,6.572127441285107174e-01,-1.075275476144105902e+00
4.706424085425937598e+00,7.828829389987461695e-01,-1.101917107281935815e+00
4.769133517692395685e+00,7.927274951066183295e-01,-9.381741308794627754e-01
4.777465095739984235e+00,7.930135480811374427e-01,-7.665193094851062705e-01
4.781716491561332383e+00,7.933487740649612929e-01,-5.932378798929045516e-01
4.789231354294516407e+00,7.958369780803546956e-01,-4.241988968651476677e-01
4.792505967731097272e+00,7.958983721102372844e-01,-2.546768131863372808e-01
4.800716755005788983e+00,7.968679025930598403e-01,-8.684625842966949005e-02
4.805686109926908145e+00,7.979780386283478189e-01,8.543571315705277003e-02
4.812558478377973792e+00,7.995016806757850869e-01,2.555297742067870193e-01
4.819859704843384662e+00,7.986851015070740578e-01,4.281974986792924098e-01
4.824796812225763176e+00,8.033879624737231273e-01,5.995425542179371181e-01
4.830584783126303350e+00,8.007211487735674815e-01,7.745249012042442205e-01
4.838732252482919272e+00,8.046005742788296944e-01,9.543109241147107458e-01
4.845732185453642593e+00,8.040844157972428796e-01,1.133582115176413829e+00
3.953505888538578539e+00,7.139207989748183047e-01,-1.077146571659753693e+00
4.495208685969696916e+00,8.123255550017802751e-01,-1.055042216888186335e+00
4.501622899129276156e+00,8.135979734984108980e-01,-8.882632373588962293e-01
4.506706389814952196e+00,8.154522335736305028e-01,-7.261206546032649145e-01
4.512717531437075102e+00,8.163520351782701523e-01,-5.658129948373585849e-01
4.519611092269609998e+00,8.185643740321584261e-01,-4.011980692206534860e-01
4.524211677677618226e+00,8.171877980753309290e-01,-2.418690935221347593e-01
4.532344802991569388e+00,8.198913464941418594e-01,-7.793528877514292741e-02
4.537029457511867925e+00,8.215253208366025683e-01,8.051962308788829237e-02
4.541585708632128515e+00,8.210526953236036984e-01,2.404470954137669647e-01
4.548470666974473886e+00,8.206166961018599437e-01,4.036996393918680925e-01
4.553876824641527321e+00,8.238330412544705439e-01,5.687673471109507828e-01
4.560251464460464810e+00,8.246431380950928203e-01,7.332216686056246546e-01
4.564865163800984504e+00,8.257527861485732812e-01,9.019178890757046929e-01
4.573901767251841832e+00,8.267171268926916117e-01,1.073748837670860823e+00
3.925752177980138313e+00,7.669366876779213360e-01,-1.072587469297330287e+00
4.230020629167722035e+00,8.271797232969527736e-01,-9.940637975587596209e-01
4.237317947328349987e+00,8.300366135934464928e-01,-8.392221569616155064e-01
4.240790045692603982e+00,8.301768636261517287e-01,-6.858860791041597738e-01
4.247786985912057389e+00,8.311823428563939187e-01,-5.302324298934993907e-01
4.251532158707952647e+00,8.327288379995612111e-01,-3.795817733636844271e-01
4.256571916274525691e+00,8.321225937996422628e-01,-2.291193970827701820e-01
4.263675141342512909e+00,8.339103682900894654e-01,-7.481231774845954752e-02
4.268200846269511572e+00,8.340583415904245790e-01,7.553539025179738242e-02
4.271405968806497810e+00,8.356116816143653869e-01,2.289357288254985634e-01
4.278324631621022611e+00,8.374554320986385969e-01,3.812460537557835205e-01
4.283041337837999230e+00,8.382448081464252132e-01,5.379886823603831081e-01
4.290543833218532832e+00,8.399937934316170640e-01,6.927201505681618299e-01
4.294994622155710928e+00,8.381666260816622582e-01,8.506135410655181195e-01
4.300639944197354403e+00,8.389755231578898131e-01,1.012819219846044394e+00
3.925564578929670034e+00,8.273706094047444948e-01,-1.074243414641327110e+00
3.993640317499998371e+00,8.423385659848360296e-01,-9.429682559444727552e-01
3.999005219655521248e+00,8.427144574754362738e-01,-7.943688251305195402e-01
4.002336323486021641e+00,8.424805244154317529e-01,-6.483841028564936160e-01
4.007815268767000561e+00,8.440720955626085376e-01,-5.047217088941831076e-01
4.013745745876222237e+00,8.468335266199906730e-01,-3.598385728421442109e-01
4.017866552105436639e+00,8.478086504710028448e-01,-2.169383827866081249e-01
4.022291793373783619e+00,8.470634930760010395e-01,-7.164299442768137793e-02
4.027580109662625141e+00,8.477932146260058754e-01,7.175986347481896899e-02
4.033575852322042188e+00,8.495671647202661658e-01,2.172786119320462561e-01
4.038435462125609554e+00,8.503897185702535833e-01,3.599407844456508632e-01
4.043689552022208034e+00,8.518923404282728873e-01,5.087675970448166662e-01
4.048623841843957294e+00,8.535889821628539487e-01,6.531349438066342827e-01
4.054236889800627353e+00,8.511453480455805076e-01,8.034183307562628995e-01
4.058992275751432288e+00,8.561887587697173396e-01,9.581324591782304223e-01
3.775183007748342590e+00,8.524857860122653230e-01,-1.036572367246946458e+00
3.780887171690512805e+00,8.535752373767179213e-01,-8.961971996908409954e-01
3.784767566989426957e+00,8.538315172922678054e-01,-7.535823971243711394e-01
3.790285094642960928e+00,8.547704451659099423e-01,-6.160211353596842798e-01
3.795752646316380208e+00,8.545027385089041250e-01,-4.774658184698885588e-01
3.800618889133791090e+00,8.570122658045722375e-01,-3.413613278206741874e-01
3.805788916998634974e+00,8.605161648900083726e-01,-2.065419368031086444e-01
3.811840908196611366e+00,8.608854063975684978e-01,-6.666684385688460834e-02
3.813308206596034200e+00,8.587530717332568786e-01,6.854530208502618294e-02
3.820637393377998681e+00,8.616554875088431320e-01,2.060445287714510743e-01
3.825281687727912328e+00,8.615139710059657174e-01,3.433319276804888132e-01
3.831028103795437900e+00,8.647024579498611141e-01,4.821011115309805639e-01
3.832331972768508344e+00,8.650589987450459928e-01,6.229721343337800699e-01
3.838367169222287600e+00,8.660684971401023668e-01,7.643965033308114387e-01
3.844145321103009216e+00,8.684480199978147352e-01,9.098950801344950490e-01
3.587461467138299387e+00,8.637430169924368295e-01,-9.892661862831449993e-01
3.591188719044563271e+00,8.642751064451992260e-01,-8.542833587130429507e-01
3.597254841261675828e+00,8.643884266491573820e-01,-7.184472637228704883e-01
3.601159676217032590e+00,8.673870234206735308e-01,-5.868003296862576157e-01
3.605017568560987762e+00,8.660786600567966786e-01,-4.548561198093540869e-01
3.609138949639234095e+00,8.682396179366753675e-01,-3.258881607459692131e-01
3.615032336249853095e+00,8.701571333000014397e-01,-1.937674978524599467e-01
3.617544070901097975e+00,8.709705479627231073e-01,-6.352615995993129983e-02
3.624269422868650281e+00,8.730054414306968047e-01,6.469985041174426688e-02
3.627920511989346952e+00,8.722896995001639953e-01,1.953811902260634281e-01
3.632732770170719494e+00,8.743396253082807990e-01,3.279332328225023074e-01
3.637894954856032648e+00,8.753148463868188900e-01,4.601037097275721410e-01
3.641049470449915226e+00,8.761313747256361806e-01,5.930560421281810823e-01
3.646910305692922183e+00,8.765024368094900264e-01,7.276817290501471636e-01
3.650320429942973455e+00,8.769070906495066708e-01,8.671815104114154460e-01
3.413691893905960839e+00,8.732869920727852620e-01,-9.450070842188997844e-01
3.418621536566939234e+00,8.759341940900796653e-01,-8.149691699617452878e-01
3.424428041064072836e+00,8.756014815035072507e-01,-6.889104611444389903e-01
3.427200295263961749e+00,8.748760154467963845e-01,-5.615822706264820274e-01
3.433708235413543974e+00,8.777474552148826215e-01,-4.341629191862470538e-01
3.435356492056937494e+00,8.797991660398356562e-01,-3.088693397702532706e-01
3.441362022242630658e+00,8.807359966551706609e-01,-1.880240843339612000e-01
3.444943299944120518e+00,8.812107900633228130e-01,-6.299413021296974835e-02
3.449420304848454855e+00,8.827578596569323199e-01,6.228512130346531422e-02
3.452394728431059434e+00,8.821799657075675150e-01,1.866260400973905331e-01
3.456802587009741856e+00,8.843265987432477049e-01,3.128628761006988501e-01
3.461843321801686635e+00,8.843954833351970191e-01,4.402140622423669214e-01
3.468086549600687629e+00,8.872451478934683111e-01,5.653602917143095707e-01
3.470466366511725909e+00,8.877230984576491846e-01,6.953382735121164115e-01
3.475989437852192054e+00,8.901831781262785626e-01,8.288975575967153508e-01
3.257424695175597851e+00,8.833770615590074149e-01,-9.036597094885712167e-01
3.262207745106728396e+00,8.848981543349099255e-01,-7.806771447897038474e-01
3.269363108303065424e+00,8.839225433936609422e-01,-6.569234995997426108e-01
3.271504275783463811e+00,8.868636920042148875e-01,-5.369248303668038291e-01
3.274985659232997559e+00,8.891261137393093872e-01,-4.173797696875301555e-01
3.278951958965948599e+00,8.877464543948009323e-01,-2.953861993860885660e-01
3.283589739927606388e+00,8.905892885378857704e-01,-1.770880567685068074e-01
3.287085911339678201e+00,8.932631954329843804e-01,-5.885034862471494321e-02
3.291484290770581911e+00,8.916975776108558849e-01,5.745581020115848869e-02
3.295291177343559585e+00,8.937929377462762170e-01,1.802602577370633896e-01
3.300422197986763617e+00,8.967428088839206612e-01,3.002282058988409164e-01
3.304145522116630040e+00,8.951284385763627061e-01,4.202420586746138387e-01
3.310081386759080146e+00,8.977139656642778576e-01,5.422050011031686045e-01
3.313765176469729123e+00,8.982282016245599632e-01,6.657751528867412727e-01
3.317534781235217167e+00,8.991562526040279835e-01,7.921743130841309988e-01
3.116860427756597662e+00,8.938556085559921094e-01,-8.683838746131766761e-01
3.120918873961194162e+00,8.929644381623271787e-01,-7.485204684624114924e-01
3.122596607088891751e+00,8.938519304604907179e-01,-6.319292415428059417e-01
3.127009649762834353e+00,8.960721836094851511e-01,-5.167445221933927302e-01
3.132990742655858973e+00,8.985895276957535094e-01,-3.999963058170737940e-01
3.135136831585455308e+00,8.984948217298728279e-01,-2.864020669317543510e-01
3.139890953417700636e+00,8.990690590713991126e-01,-1.725975551692378873e-01
3.143804616495328830e+00,9.007345841237389683e-01,-5.668527319815754029e-02
3.144509523989286404e+00,9.021670231598052370e-01,5.701370744841388616e-02
3.150482585034712901e+00,9.020641606560044767e-01,1.722216672844920915e-01
3.155822997832807175e+00,9.030693884720369935e-01,2.877803692955732129e-01
3.157747415085194742e+00,9.061642693392016890e-01,4.061816923320130668e-01
3.162931448919181321e+00,9.054441040728643530e-01,5.204109327286241538e-01
3.168106494390303673e+00,9.082041566328921123e-01,6.405902883044793938e-01
3.170805801948070712e+00,9.092512970189633448e-01,7.615750933300634573e-01
2.984772325084867006e+00,9.013823706654592316e-01,-8.352793815233153785e-01
2.987434479906404317e+00,9.030869066623856689e-01,-7.213084648404196608e-01
2.991687915386794572e+00,9.034354039688562432e-01,-6.073355180107875562e-01
2.994851527813251035e+00,9.044190041020755411e-01,-4.948852441898643484e-01
3.000737102745764773e+00,9.063339834507521120e-01,-3.838729323530225557e-01
3.004077910257628492e+00,9.085710072112661573e-01,-2.745513271573691849e-01
3.007178642303480753e+00,9.082684885923747453e-01,-1.637989940845487047e-01
3.010977737317966696e+00,9.094184947038221889e-01,-5.506595272507229522e-02
3.013804720273424831e+00,9.112368579966584337e-01,5.464210569397744133e-02
3.020088651390848256e+00,9.133523237522241933e-01,1.642661339511818364e-01
3.023613176983240169e+00,9.142058539306880949e-01,2.765578359179522994e-01
3.026567254024213671e+00,9.138314166259117188e-01,3.887902897477945596e-01
3.029843094341211795e+00,9.158146857038508282e-01,5.023570614002201840e-01
3.034273462237863761e+00,9.155720684165195022e-01,6.169460300181529577e-01
3.039672648721057246e+00,9.177446446688765080e-01,7.325559219777677544e-01
2.862736606573414555e+00,9.100906124527595731e-01,-8.077188167710765976e-01
2.867522370224365069e+00,9.116079735214809299e-01,-6.941000943196338202e-01
2.872443171434590159e+00,9.130499123397360917e-01,-5.865094218284884198e-01
2.876335228337968619e+00,9.136187814790113215e-01,-4.783470541721798197e-01
2.879966971585847357e+00,9.148140588715257815e-01,-3.710508291115280355e-01
2.882265285911822961e+00,9.142434316272128880e-01,-2.642304469520178056e-01
2.885031756502106415e+00,9.172096249720940175e-01,-1.562051790212816427e-01
2.891244834283710041e+00,9.182285124726603520e-01,-5.355458593626269415e-02
2.893773590409817853e+00,9.187304511885827640e-01,5.260384107607206372e-02
2.897727876945858316e+00,9.217067830381294735e-01,1.596378169160127258e-01
2.902066239537145265e+00,9.213479034153716496e-01,2.668519650240594454e-01
2.904585897205141709e+00,9.238928131807873090e-01,3.745745241001266490e-01
2.909240396946263907e+00,9.251851865448491585e-01,4.843417810202406693e-01
2.912979005980295355e+00,9.251371356292438231e-01,5.934253808639800010e-01
2.915764728726029098e+00,9.253961939792425540e-01,7.073635572107094260e-01
2.743037572555788728e+00,9.129892498480642882e-01,-7.743293209889903217e-01
2.747265262646613859e+00,9.162853489105634575e-01,-6.694073085362861608e-01
2.751847942503914624e+00,9.194458076132022706e-01,-5.639637577278736602e-01
2.752134309376417676e+00,9.178751034755953109e-01,-4.592731224647590427e-01
2.757518734776442049e+00,9.204355421012709870e-01,-3.581407866231997583e-01
2.759301251147251666e+00,9.214323143725742238e-01,-2.545666822958950193e-01
2.764207770488913862e+00,9.231438532572908695e-01,-1.531334446478536115e-01
2.766907398809902663e+00,9.231432878359316918e-01,-5.111735678693609536e-02
2.771792089727307840e+00,9.248128850209011986e-01,5.159622357996048597e-02
2.776088185820833942e+00,9.262985066787005062e-01,1.544747394606895974e-01
2.778528666373524025e+00,9.257651997249977116e-01,2.560296785620469473e-01
2.780407021976244675e+00,9.278325251928878359e-01,3.602068660294615032e-01
2.783794749692628745e+00,9.293319376217555883e-01,4.637650976909165612e-01
2.786962217778424122e+00,9.308605976335480037e-01,5.700731047827761744e-01
2.793066660910708432e+00,9.317663721718846270e-01,6.779803524555534366e-01
2.640967343139262180e+00,9.220520366124921319e-01,-7.476371463920843397e-01
2.643747901905077580e+00,9.253321858484978568e-01,-6.467401569459420019e-01
2.646297507470248167e+00,9.260588409502304996e-01,-5.437034775206008863e-01
2.649319222531752782e+00,9.261926811928850034e-01,-4.434710876855044170e-01
2.656335251394256414e+00,9.283272135140618886e-01,-3.434836163535091025e-01
2.658050330775277637e+00,9.286524271370990569e-01,-2.474028121658242152e-01
2.660609647270312905e+00,9.309698996740903842e-01,-1.470705201754251290e-01
2.663149741214594801e+00,9.311444093751063411e-01,-5.018512069797510106e-02
2.665572532139030226e+00,9.330588950944150861e-01,4.695057088053558592e-02
2.671100397847692598e+00,9.346544693526304126e-01,1.462089288862199743e-01
2.674556831300804127e+00,9.335527557036696900e-01,2.454327889169868882e-01
2.676722982935192174e+00,9.364218406022638552e-01,3.478595027656557481e-01
2.680178268952665199e+00,9.365769973374969970e-01,4.499494997101126104e-01
2.685726186445897667e+00,9.397078736420646505e-01,5.513570754302348220e-01
2.688761911563631646e+00,9.402580323251248373e-01,6.584346592029501899e-01
2.536966868413081500e+00,9.284727823383802647e-01,-7.238178225319549242e-01
2.540812144661152683e+00,9.293990244786063393e-01,-6.237595744045607571e-01
2.542545317284711004e+00,9.299753792922362816e-01,-5.256829117210393143e-01
2.546984060323119525e+00,9.306970009671398092e-01,-4.328364283707681337e-01
2.550279457693216401e+00,9.309334409167232538e-01,-3.327634965967822267e-01
2.553500077713982019e+00,9.340955041586680441e-01,-2.392983079102709021e-01
2.553743906633555216e+00,9.360824598279218201e-01,-1.425905085995410604e-01
2.558584896792683860e+00,9.362964621633452778e-01,-4.704929017142656100e-02
2.562516627095361432e+00,9.367839808978677407e-01,4.758225426859361701e-02
2.565838037638211500e+00,9.394331463943612626e-01,1.429686337468021040e-01
2.568801765782890545e+00,9.391807425806552034e-01,2.397054281192449454e-01
2.570484881318889858e+00,9.413840685604571989e-01,3.365409008251033507e-01
2.576296116594703367e+00,9.429534675551700662e-01,4.332721390560965169e-01
2.578842774503633972e+00,9.420979272125692416e-01,5.330827187863953487e-01
2.583214334590012928e+00,9.453220952347527462e-01,6.345106164346810962e-01
2.449085264225335123e+00,9.372420134172655404e-01,-7.012185720720983673e-01
2.451431788477158147e+00,9.367530362434209890e-01,-6.052415808439195466e-01
2.453724673808553636e+00,9.387015215385072775e-01,-5.092407871708785061e-01
2.456703525985021841e+00,9.402616542138275690e-01,-4.158121189413633845e-01
2.460194338912222722e+00,9.397575700146537647e-01,-3.227482658998286347e-01
2.462867228528446972e+00,9.425844909426408513e-01,-2.312268898780448501e-01
2.465460431673369701e+00,9.441915814275144703e-01,-1.373048676061204565e-01
2.469931962539009263e+00,9.428846307165519303e-01,-4.777005515347948483e-02
2.473848507712349321e+00,9.434974369795831040e-01,4.623723408818349728e-02
2.477766297423023900e+00,9.473354277693587511e-01,1.390768881193368556e-01
2.477826033474072709e+00,9.476263430120469566e-01,2.315830370775364411e-01
2.482766802833095365e+00,9.485322535290140467e-01,3.267715612892300725e-01
2.483984953533895812e+00,9.523358731743369887e-01,4.202604853133263818e-01
2.488827308053955800e+00,9.511346083955132258e-01,5.172291615083377536e-01
2.492123838387600543e+00,9.508833937710157169e-01,6.159194700578712878e-01
2.358062322877243489e+00,9.398381318484352320e-01,-6.803214543194090469e-01
2.360013222420120016e+00,9.399694809688837749e-01,-5.863799608765331017e-01
2.364495449758410750e+00,9.418481636054695239e-01,-4.933945972925110612e-01
2.368441212374631455e+00,9.431830455617019604e-01,-4.037619144384932968e-01
2.370212038838926283e+00,9.444563063617494869e-01,-3.128709393518785964e-01
2.374194327030719087e+00,9.469736859106223648e-01,-2.230679600965165266e-01
2.376546829473830780e+00,9.478984081416658158e-01,-1.347853342022587442e-01
2.379498216835462365e+00,9.486930885681597037e-01,-4.695391778706796415e-02
2.380308309504435282e+00,9.512538388236878584e-01,4.339017133589585795e-02
2.388862247757200574e+00,9.510110593983042149e-01,1.328549328276837083e-01
2.386801596874243536e+00,9.525932829534372592e-01,2.266500531325915113e-01
2.391051394657295326e+00,9.526848442631424829e-01,3.154082950007857655e-01
2.394588287587386954e+00,9.536786373511424442e-01,4.076580708405516118e-01
2.399414376950554928e+00,9.558484899773646015e-01,5.012710659984909167e-01
2.402648018481879699e+00,9.575995535045374041e-01,5.952947647580145718e-01
2.273528144951545649e+00,9.458565758189465544e-01,-6.596935239783296989e-01
2.278058998694789228e+00,9.457925227480940000e-01,-5.705987630915425601e-01
2.281519145382148395e+00,9.484108501548167425e-01,-4.809767183944943514e-01
2.283407328828220617e+00,9.472206736431533214e-01,-3.900286441894472156e-01
2.286324819308016565e+00,9.486900829569215876e-01,-3.036285146771007804e-01
2.290886202784542913e+00,9.499070975534849026e-01,-2.174674508239650139e-01
2.294819279342473539e+00,9.514640350736416341e-01,-1.298900893883743191e-01
2.295728624244357974e+00,9.512450727411951856e-01,-4.323695325393765720e-02
2.295893480219039162e+00,9.552062272105860119e-01,4.420053448283287056e-02
2.302697576940729629e+00,9.545946102102843556e-01,1.312332934715549904e-01
2.301887661504256499e+00,9.566407131977244793e-01,2.179758284071499630e-01
2.309153734114729239e+00,9.594949120582328961e-01,3.064028815392820237e-01
2.310479892627947507e+00,9.582532976820780091e-01,3.961968701849927776e-01
2.311603538607610808e+00,9.601752107482410814e-01,4.855039510674900582e-01
2.315445354203258699e+00,9.619090955599195469e-01,5.793242285755954013e-01
2.197219976101613348e+00,9.493025204204744716e-01,-6.422719342866796133e-01
2.200467174166429007e+00,9.498585238054291224e-01,-5.541030225608457593e-01
2.203010114781484674e+00,9.518355469986307105e-01,-4.655428563264173425e-01
2.204132161695911751e+00,9.530912891499656592e-01,-3.800648334477100820e-01
2.206185143129371085e+00,9.554461593340366488e-01,-2.932932648813552090e-01
2.208904608804544534e+00,9.549724673648334328e-01,-2.100056497204535744e-01
2.214038790999075079e+00,9.572502420360333719e-01,-1.261268812870425804e-01
2.214156491472961896e+00,9.557799450822463960e-01,-4.316259964610191791e-02
2.220330932759293940e+00,9.576457455328009072e-01,4.082115630353885805e-02
2.221363829338679707e+00,9.603235278775625883e-01,1.262071714200370398e-01
2.226106866051223321e+00,9.602579728061189090e-01,2.116378412727679681e-01
2.228412716260207649e+00,9.652138451394740581e-01,2.962857831954801568e-01
2.230057939755522689e+00,9.638500069582314200e-01,3.837290419941115083e-01
2.233920478098382123e+00,9.656123106761278496e-01,4.733785583345360148e-01
2.237427247530236141e+00,9.672666153103414155e-01,5.633989649608516226e-01
2.124715523716760757e+00,9.547433598159787982e-01,-6.253056943736384765e-01
2.127376869505508417e+00,9.528212644959956901e-01,-5.370614678207353831e-01
2.129542902094234247e+00,9.582654907889520679e-01,-4.518541330064914652e-01
2.131866452950077928e+00,9.592824896853160421e-01,-3.697106826026624327e-01
2.133541865386013203e+00,9.583907742595526580e-01,-2.886141346994542944e-01
2.136059848703734776e+00,9.605904932759604664e-01,-2.046363404608859959e-01
2.140883661599430443e+00,9.615446540867056413e-01,-1.232381410889077933e-01
2.143014118644354760e+00,9.621114176174231369e-01,-4.178761882205319494e-02
2.145095586392978593e+00,9.651790429403185323e-01,3.905616197633863390e-02
2.148316574052560046e+00,9.649762980011471480e-01,1.212330964259777377e-01
2.151261908117101385e+00,9.658573256619920055e-01,2.059170342642351881e-01
2.154232316510727330e+00,9.666129062189349197e-01,2.926250433953044849e-01
2.157218512373725972e+00,9.695427335907825794e-01,3.740950249649343529e-01
2.158560676808117140e+00,9.690368753202281971e-01,4.619553663570982738e-01
2.165190183994742945e+00,9.700016480571594935e-01,5.475402735686586420e-01
2.055961243798665627e+00,9.581574447805575323e-01,-6.076228942982841996e-01
2.057451404579975662e+00,9.610733994917782796e-01,-5.247738599683000604e-01
2.062228848345288412e+00,9.626628456681856072e-01,-4.431448417967958631e-01
2.064797777154951941e+00,9.624556570956880330e-01,-3.605459341535882656e-01
2.065495153031563724e+00,9.627028241973734080e-01,-2.825641303139725391e-01
2.069536402344196446e+00,9.647235741470332471e-01,-1.988474146568052214e-01
2.071444859409204309e+00,9.663874667900482773e-01,-1.221436927996270294e-01
2.073477929501032602e+00,9.674408527184462647e-01,-3.996493829670774711e-02
2.076790420437817808e+00,9.692525477735520756e-01,4.160562687052363207e-02
2.078769113529489232e+00,9.690661478857173217e-01,1.211112401860821725e-01
2.081127326499259578e+00,9.726300567797960817e-01,2.010789265176712581e-01
2.086190103354825798e+00,9.728848278233792612e-01,2.816183487846546929e-01
2.086256757575387422e+00,9.733415428766621913e-01,3.663549806860804670e-01
2.092182071431043955e+00,9.748151676817496947e-01,4.495222231855241501e-01
2.091032927419934850e+00,9.770698790386588284e-01,5.325463001497930948e-01
1.985887322039643799e+00,9.621355975115911674e-01,-5.898356638153470222e-01
1.988064769369352058e+00,9.625938192368327373e-01,-5.090521343285683287e-01
1.992860283530580201e+00,9.624457429721995361e-01,-4.299422800717766502e-01
1.994218224153937458e+00,9.658782703939539083e-01,-3.502273875326772923e-01
1.996598694162208698e+00,9.670089053647852317e-01,-2.723986108252728355e-01
1.998310111335354078e+00,9.679244630693619733e-01,-1.964217720785772225e-01
2.002916148711552324e+00,9.679256672940169670e-01,-1.159166629011318811e-01
2.002402520716792367e+00,9.695512872582967567e-01,-3.952116751573472864e-02
2.007573737142023695e+00,9.711596044225145885e-01,3.797238864502184424e-02
2.008441678618379633e+00,9.735057682272382218e-01,1.173349791498943251e-01
2.009912177841232772e+00,9.732500658247371650e-01,1.968443820960304735e-01
2.014755685920005313e+00,9.748668708433266827e-01,2.747281697612548035e-01
2.016290428225786080e+00,9.763397038894587876e-01,3.556212169207294549e-01
2.019216611846184062e+00,9.775951126099104993e-01,4.350030962108065724e-01
2.023918231001097023e+00,9.784184882105509962e-01,5.208876069315689916e-01
1.926152512408997541e+00,9.656818458095478563e-01,-5.793479780793694411e-01
1.927608528227366502e+00,9.669648801123429394e-01,-4.986263978589796086e-01
1.929037681545793470e+00,9.690807900548719100e-01,-4.191073168802008642e-01
1.933225731752814092e+00,9.709211849178821518e-01,-3.423653649251717779e-01
1.935543894010635757e+00,9.711910522398821133e-01,-2.666460648902173602e-01
1.937954667142145704e+00,9.729550038601094686e-01,-1.909999816176093657e-01
1.940804813576562315e+00,9.746275962402601856e-01,-1.157529217485405437e-01
1.943922198739880702e+00,9.737611875204897904e-01,-3.725658637693093217e-02
1.944984103144114629e+00,9.756005885627981877e-01,3.883657047126243961e-02
1.948181292234357986e+00,9.766571127115240003e-01,1.136573730927361026e-01
1.949724650340708187e+00,9.793071050850752357e-01,1.893412196392445512e-01
1.953180437378268186e+00,9.788746315254547303e-01,2.684137908209200396e-01
1.955355372054929930e+00,9.819630427703753828e-01,3.459012196674735029e-01
1.956339114629207954e+00,9.836547057067610567e-01,4.256116689699945832e-01
1.961479093638790028e+00,9.844394459314392831e-01,5.055483223304882978e-01
1.863865777284670067e+00,9.701169893413384981e-01,-5.625558038515150461e-01
1.867201669778693063e+00,9.707787931618625521e-01,-4.863573949520624273e-01
1.870203494294078173e+00,9.717863600874679930e-01,-4.099864975408830658e-01
1.872216266523962558e+00,9.716553743744700267e-01,-3.328194110741699574e-01
1.873367993669261988e+00,9.755890255497706720e-01,-2.601935629135734285e-01
1.878112104966246143e+00,9.741785975641754636e-01,-1.842683242856251180e-01
1.878699164450155834e+00,9.767727451717010956e-01,-1.119854104261795297e-01
1.882840360210650044e+00,9.780306776209620745e-01,-3.700921432550782070e-02
1.884623787211417323e+00,9.794600185034808559e-01,3.781587055926188129e-02
1.887130453949875442e+00,9.818992039686365025e-01,1.114002520688727182e-01
1.888521252499509862e+00,9.808762926671096283e-01,1.849280902504239488e-01
1.890560828521812287e+00,9.828410367205648868e-01,2.612840215968313395e-01
1.892736188682470955e+00,9.844498612995615794e-01,3.374208183996077470e-01
1.894999808386651052e+00,9.863306965821936334e-01,4.139396863826174666e-01
1.898084796344146730e+00,9.852556732309750709e-01,4.925772054352660079e-01
1.807805716790803929e+00,9.721993073376121730e-01,-5.501995697709416433e-01
1.809752006338777530e+00,9.720947552111213197e-01,-4.755759555723081400e-01
1.811530674795547080e+00,9.758695957415576272e-01,-3.986025155727725422e-01
1.814181887570046170e+00,9.765398738192968553e-01,-3.254036750783786403e-01
1.816559793254074018e+00,9.766663441083773822e-01,-2.530648413075617942e-01
1.819674572379696542e+00,9.798395351758990568e-01,-1.811496903746718790e-01
1.821826671598953507e+00,9.792323582077971933e-01,-1.087723383783240211e-01
1.820581619520976968e+00,9.831976147582673908e-01,-3.561175599033182537e-02
1.825738604330662262e+00,9.812459296794349140e-01,3.698245520349944387e-02
1.827174785301180826e+00,9.821666353491217416e-01,1.079520677095757442e-01
1.829363968360603332e+00,9.835366771657116924e-01,1.812619463325018110e-01
1.832452263681913829e+00,9.859699820659501013e-01,2.561712018625880161e-01
1.833809542579872387e+00,9.881969091735453015e-01,3.306250304974428511e-01
1.838099812345544981e+00,9.879636370823980940e-01,4.060498527629156085e-01
1.840815862062120889e+00,9.911004828102518704e-01,4.825167436286163514e-01
