1.220970312746352260e+00,8.007934484335235137e-01,8.736055570012975224e-02
1.083355485968919396e+00,7.477608281621271891e-01,2.794121630826582742e-02
1.165451876163936529e+00,8.858662274322408603e-01,2.117037711218676954e-01
1.139161351216551266e+00,7.641528626588021123e-01,1.293629665096997783e-01
1.100891058528932431e+00,7.394733650771496691e-01,1.987929829702908269e-01
1.076235546308980329e+00,8.100350676118134308e-01,2.213676758460259020e-01
1.214551691069416517e+00,8.443059552032728954e-01,2.899639189617978507e-01
1.135816241639811874e+00,7.798988305109062491e-01,-4.078432499605840755e-01
1.088172809668717100e+00,7.737591548077649151e-01,-2.764929150905056643e-01
1.075290748136127350e+00,7.937168998026363775e-01,-3.075967046887815304e-01
1.074307699083809631e+00,8.331957273681614984e-01,-1.620017681028493861e-01
1.038290109603027700e+00,8.232462936697710898e-01,-2.092865657137409630e-01
1.037200884809191148e+00,8.445495769064866876e-01,-1.169723777047053243e-01
1.110535689687941918e+00,8.973442467028031055e-01,-1.004115832811367792e-01
1.073468304889190650e+00,7.888232704995534750e-01,7.361851665561237185e-03
1.145723367185841779e+00,8.532271260153136971e-01,-2.225684326892785059e-02
1.177616048796535253e+00,7.352796315935092863e-01,4.390473546703889396e-02
1.089500903561114509e+00,8.159319394846230589e-01,1.161099429233121427e-01
1.093574266026646091e+00,8.345994437927978238e-01,1.514026778593929312e-01
1.124219992236847432e+00,8.535567414990844481e-01,2.171924075397529963e-01
1.030235930127969768e+00,7.655025660792131870e-01,3.063431227773870669e-01
1.033267681806087968e+00,8.695373297004520552e-01,2.620222292101755945e-01
1.101764903615271018e+00,8.085794588602362998e-01,-3.632452155257128723e-01
1.069612664141305292e+00,8.020082072484806535e-01,-2.893182785528464751e-01
1.086010132480318857e+00,7.945000819281867743e-01,-2.786360641878344868e-01
1.054504104634828909e+00,7.065893146287284265e-01,-2.178322926629770728e-01
1.076690506201806841e+00,8.204547999368534406e-01,-1.381278039146256742e-01
1.101729375389938648e+00,8.292641702848787544e-01,-2.096273586041935699e-01
1.050816617710287559e+00,8.113301027899733064e-01,-7.662888593990185848e-02
1.112200266325973130e+00,7.464629526605170984e-01,-2.274887868095301982e-02
1.067154978589011094e+00,8.574612279561638628e-01,8.768206844299289426e-02
1.086204629373033859e+00,7.634356982161730754e-01,2.995759539933537385e-02
1.100257721162876123e+00,7.952857444675139886e-01,1.328613148475617789e-01
1.057917508736940349e+00,7.526386713194150868e-01,2.341548459836010898e-01
1.181061407052093948e+00,8.234306251323728620e-01,1.882285194632066505e-01
1.087606688225122076e+00,8.777059722948824527e-01,2.376886897482461403e-01
1.076792309602715658e+00,7.488607323183467113e-01,2.751212287462107553e-01
1.068761712587498858e+00,7.537011493193774836e-01,-3.242026535266750442e-01
1.098211076522646046e+00,8.135920945054633258e-01,-2.645668897250834650e-01
1.055319139178948262e+00,8.905656000285839813e-01,-2.189245814877997243e-01
1.152467715028232531e+00,9.471057051736941901e-01,-2.125285192918645594e-01
1.066312664876872818e+00,8.365715528312448468e-01,-2.286253543832316160e-01
1.072341615831925443e+00,9.171348372706493723e-01,-1.234035885320428488e-01
1.079291998896672711e+00,7.918995277921977438e-01,-8.028242761937454119e-02
1.129160703075256400e+00,8.851397426244965727e-01,2.815750914533398513e-02
1.093044672395284689e+00,8.002226209120040235e-01,2.974390386298015818e-02
1.027284313953556572e+00,7.583643339261117999e-01,1.364108682991407862e-01
1.068334588651724593e+00,8.663347164553658608e-01,8.888590725599035403e-02
1.038601878828582237e+00,6.893781283571422946e-01,1.553189413948946607e-01
1.105444223696840922e+00,7.719057713808172849e-01,2.247799329281445213e-01
9.634359371658459681e-01,8.211458889035784248e-01,2.404581418483933697e-01
1.047044901457027777e+00,8.689507405944364438e-01,3.162056971310497344e-01
9.900841056725121492e-01,8.324952844814775821e-01,-3.959575230081466835e-01
1.005159903010619082e+00,8.377133592333324552e-01,-3.209103771890602363e-01
1.134941682959581977e+00,8.776485184348082891e-01,-2.519245197319311402e-01
9.944497721494569564e-01,8.960390693484130420e-01,-1.822680963967024115e-01
1.060322593949114101e+00,9.439803404298419132e-01,-1.805090126546088358e-01
1.060373134547105689e+00,7.856641136042472606e-01,-1.804056791097305434e-01
1.003831033926842364e+00,7.701502134704505398e-01,-1.046719389461474581e-01
1.043234756062937141e+00,8.096830392922467201e-01,-2.007907515911347071e-02
9.638432057096080197e-01,8.060720660676651272e-01,3.542311509920940960e-02
1.049582779912558994e+00,8.626928702690354056e-01,2.183284344441984576e-02
1.026356426925786103e+00,8.316575074896885855e-01,1.686558675489785164e-01
1.085556402706482793e+00,8.314253959252740911e-01,1.195836833754190393e-01
1.134813900957756472e+00,8.677785735662202349e-01,2.084309968353449671e-01
9.775003547271232662e-01,7.514722651938392506e-01,1.448169170476078516e-01
1.021985297058467745e+00,8.179009716478133907e-01,3.335134752990009388e-01
1.018030893023198491e+00,8.953699425035567261e-01,-3.307847331109668998e-01
1.008887886780055032e+00,8.589362460715525005e-01,-2.472654871863779191e-01
1.033859017119010959e+00,8.349077621395598614e-01,-3.385895432880940414e-01
1.066773801956810264e+00,8.555551063428387115e-01,-6.586107370721275278e-02
1.120781598509287269e+00,8.972908154301620920e-01,-1.824379626270490884e-01
1.001798924518798595e+00,8.173304797242373354e-01,-1.453243469228659712e-01
1.024867773774841284e+00,8.315785220921962928e-01,-5.442823781365024871e-02
9.749788733789892525e-01,8.818041176215485333e-01,2.741494425549696745e-03
1.041796089219413357e+00,7.933734993540251246e-01,-3.601026661020270692e-02
1.057415198376860266e+00,8.619009484275386157e-01,3.696234277175080435e-02
1.044026988727522198e+00,7.706770901696401443e-01,8.576523382081904789e-02
1.038789122682840516e+00,8.446717990781019703e-01,2.293597786147175133e-01
1.152999398996206404e+00,9.395743495426388536e-01,1.554648280572774044e-01
1.021966696028173915e+00,9.814018060347453609e-01,2.086770543109898457e-01
1.027581837006412036e+00,9.041941785067345583e-01,3.701940093239915464e-01
9.394588975358658667e-01,8.197712889028557770e-01,-4.066633732132665102e-01
1.073184936006549961e+00,8.411289382611467635e-01,-3.402298879696876721e-01
1.007007576153537309e+00,8.819510110438297801e-01,-3.190771508390505273e-01
1.010040921586581764e+00,8.486894358005838690e-01,-1.037529361549003049e-01
9.684010028456245811e-01,8.178540656206976234e-01,-9.937201406186180197e-02
1.000849885503969361e+00,9.019369466723049511e-01,-1.751896915343906236e-01
9.948229189092869795e-01,8.263209674191163145e-01,-7.988854112208082503e-02
1.031368742896598079e+00,9.017715193475225322e-01,-4.907374030730393688e-02
1.054804879779573490e+00,8.970991972983498597e-01,-4.894551343798740628e-02
1.119225912469985929e+00,8.708037734345527303e-01,3.321117522935037453e-02
1.057354414921565455e+00,9.253243471232850403e-01,1.347882906409044179e-01
1.042775635049836724e+00,8.708259399951208124e-01,1.225880271575129910e-01
9.943528184227814481e-01,8.738706887511593635e-01,2.357064897243145718e-01
1.084449138330094486e+00,8.964183533162257689e-01,2.607839419266731462e-01
1.084428358599725639e+00,8.917425576957456190e-01,2.750243904235289971e-01
1.022281926533265217e+00,8.840152997697726667e-01,-3.244518775442447045e-01
9.441987152648281256e-01,8.770100678267443994e-01,-3.076305842839550664e-01
9.902980828159647642e-01,9.051231202044081048e-01,-3.612807773118358323e-01
9.957599581684402068e-01,9.588865902068791636e-01,-2.074994196772533828e-01
9.868439306959352342e-01,7.971999789316311924e-01,-2.330636213203501617e-01
9.418802383530854305e-01,9.795889907651478268e-01,-1.787682429945091633e-01
9.963184441666956825e-01,9.615151681014028062e-01,-3.294413548794953434e-02
9.488648489754464288e-01,8.297097573378735547e-01,1.424821368759503215e-02
9.517890504713253375e-01,9.535806835131114267e-01,6.614800154466779492e-02
9.723501738991066068e-01,8.831199482324150196e-01,8.911497207621303651e-02
1.023930516338660501e+00,8.550822433937603773e-01,7.447382063359248017e-02
9.198778572477555038e-01,8.876521540047459524e-01,2.417508455815289836e-01
9.187249419996971200e-01,9.382937113572559218e-01,1.529450051530488741e-01
1.041963416394388053e+00,8.097332024160518449e-01,1.977912484606754451e-01
9.458714263860283911e-01,9.204453472260507585e-01,3.335464682628330735e-01
1.019086130339156071e+00,9.621178697753016706e-01,-4.029506025838047178e-01
8.736324897260662192e-01,8.570119159306748280e-01,-2.766881502241237412e-01
9.729307210547080143e-01,8.985445347296119323e-01,-2.541739514311593395e-01
9.485322567817623396e-01,9.639439714870062792e-01,-1.589548292555749143e-01
1.050783910377141472e+00,8.963508234556617493e-01,-2.309763749725215476e-01
1.009359924061900449e+00,9.384024686495866518e-01,-1.404029020314314369e-01
9.813493225459511970e-01,8.252227825955913421e-01,-1.573509068580369319e-01
1.002132476975340136e+00,8.116316478134235624e-01,-8.822647634097467717e-02
9.929098801306176503e-01,8.954784840990798189e-01,-1.051772808441281404e-02
9.818376723916961701e-01,9.237347082931849362e-01,1.357732616302691486e-01
9.292385416828979894e-01,9.353443351436402375e-01,1.205865344881072443e-01
9.019240313903003070e-01,8.790686735644920313e-01,1.943560612214528249e-01
1.060247859258398817e+00,9.436765354884788515e-01,1.702547919456005865e-01
9.935075086620026585e-01,8.609034361370905275e-01,2.598573097340593496e-01
9.572137421294445447e-01,8.608682481331730862e-01,2.768857802397192702e-01
9.526598866161761769e-01,8.184826324631027106e-01,-4.113380268693979103e-01
9.184961225657518602e-01,8.847827514986862374e-01,-3.039743223534126515e-01
9.394374986865126065e-01,9.328406621297774537e-01,-2.420409979543446666e-01
9.833423928768743050e-01,9.257565362156063848e-01,-2.467853249739260790e-01
8.589676882751929865e-01,8.710583060243445308e-01,-2.662149141494700166e-01
9.212233425771086948e-01,9.703032818140281401e-01,7.536321352533376094e-03
1.057017141598957322e+00,8.482240231792226304e-01,-9.467016802308032830e-02
9.861331274441856864e-01,9.375261151180872554e-01,-7.273766287927618812e-02
9.398579371921824688e-01,8.703655020485652205e-01,3.427401862944180755e-02
9.784423640127720700e-01,9.647075275547019046e-01,3.944416816240907397e-02
8.992221288526561773e-01,8.685815007890749229e-01,9.099352439819691218e-02
9.735481757159824001e-01,9.122642066202014677e-01,1.565866047155690111e-01
9.718203340362761011e-01,8.513217647897872720e-01,2.367760985872973123e-01
9.322581490252511704e-01,9.138684091016774369e-01,2.227584346769717338e-01
9.663299509491084516e-01,9.050436079839034864e-01,3.383150909217345070e-01
9.754932972598192586e-01,8.230970442313917390e-01,-3.411917513007134972e-01
9.357683281446763646e-01,8.550723086899449932e-01,-2.391942501725419501e-01
9.818003088428707281e-01,8.506531117397131414e-01,-2.733157287020888671e-01
9.896807984479568665e-01,9.129354280799734100e-01,-2.225203178066384180e-01
9.108782271911776141e-01,8.523084392508810669e-01,-2.069807438584569670e-01
8.847081648288832589e-01,8.933559450319710216e-01,-1.388075878016248321e-01
9.111916799252968158e-01,9.737484256880257760e-01,-9.477987150749238310e-02
1.017926577414133948e+00,9.173867686860145421e-01,9.355385316456507616e-03
8.410104548916694789e-01,9.266757412988037013e-01,5.974710056144488107e-02
9.679811118200065678e-01,8.880752390709305555e-01,7.167563800918358430e-02
1.005159109673209095e+00,9.171341224024562866e-01,1.748526171702240173e-01
9.300013444237440474e-01,9.270651432762451183e-01,1.435583604765917065e-01
8.998681921040394549e-01,9.006254753365724453e-01,2.574613768501969879e-01
9.457117208224817828e-01,9.321082891061064357e-01,2.993041276699895392e-01
9.963473650876054633e-01,8.756106798453245910e-01,3.034923372136539288e-01
1.057254725942468498e+00,9.515086523232482163e-01,-4.495489087785552451e-01
9.085014526976010751e-01,9.158289977740149412e-01,-2.908750124179523278e-01
9.641464105849754107e-01,8.679930531653498038e-01,-2.179904141942594076e-01
9.415059548400840361e-01,9.958374772857827573e-01,-2.233695985369296699e-01
9.226578504933204972e-01,7.977606570283589660e-01,-9.970094596420134292e-02
9.316532656889807695e-01,1.017917087955156230e+00,-4.805761739389953491e-02
8.753490937733565680e-01,8.764795987828157831e-01,3.231399416597044438e-03
9.581784012911330750e-01,8.806357187646662865e-01,-6.833393782071008754e-03
9.911266537521520315e-01,9.064646498925864604e-01,1.834003657240859675e-02
9.400093076621612864e-01,9.515416591361021137e-01,5.487455330583698027e-02
9.740478150997968765e-01,8.969438806634930650e-01,8.941218947073181766e-02
9.723116268862596057e-01,8.782148139503416218e-01,1.414591506762382933e-01
9.417789699570254802e-01,8.483830559444789365e-01,2.398907789673671576e-01
8.955751831537888119e-01,9.026993963559626355e-01,3.231736399715903207e-01
9.124160404847350136e-01,8.929637648294981300e-01,2.503002729705926521e-01
8.644602701202069861e-01,9.302912940203358350e-01,-3.262518368885606312e-01
9.379732911991776056e-01,9.318718988848281315e-01,-3.303498825816428841e-01
9.467548096484963427e-01,8.353639580753273730e-01,-1.330742247587063387e-01
1.030453538356895571e+00,9.382523944139025129e-01,-2.222238229568695989e-01
8.148036055885201634e-01,9.695748821088836511e-01,-6.562594674527594263e-02
9.110400137392027364e-01,8.122535890776181322e-01,-1.085621840559875956e-01
9.033050323551868876e-01,1.014201329482371072e+00,-1.328912764472076624e-01
8.569688597912857864e-01,9.158469084488530809e-01,-6.035062604569270406e-02
9.193756623092920188e-01,8.653339932423965708e-01,-1.657405679339129384e-02
8.914442589901961922e-01,9.438938319951653000e-01,7.050744586498368383e-03
8.505723476797568683e-01,9.632109046381979178e-01,1.640836199089069358e-01
9.616849149138437802e-01,7.919645587119318320e-01,1.469086534963388035e-01
8.352102807542871599e-01,9.255055217982109950e-01,1.666614401019190783e-01
8.276307297687509612e-01,9.955943181029800471e-01,2.918221865169011164e-01
9.773257651627741405e-01,9.135283894107439906e-01,3.583397712350853137e-01
8.872553778669427516e-01,8.594435906348930621e-01,-3.931185248753110151e-01
8.578164768960367947e-01,9.696965130527521737e-01,-3.535704381258107931e-01
8.603327559546417591e-01,1.024964690119151145e+00,-2.876098839278575237e-01
8.610233127983342172e-01,9.063615138741565325e-01,-1.655423442005297674e-01
8.480308231021784771e-01,9.348299113872839960e-01,-2.229488425644946259e-01
9.020886006679209590e-01,8.359951655207371601e-01,-1.502177896381796107e-01
8.283819786911768013e-01,1.002751000834213757e+00,-5.480287681999997107e-02
9.021883675477214704e-01,9.211802362634494701e-01,-3.742247044301164061e-03
9.120176250158503750e-01,1.001463228043977249e+00,8.005460006860862232e-02
9.114877019049548723e-01,9.057055984361189749e-01,7.645107376340318228e-02
9.219369867744244829e-01,9.028702025691209831e-01,1.802349636202787986e-01
9.487349889299256933e-01,9.417474538209280599e-01,1.204244218026736257e-01
8.916563480227678307e-01,9.810910189613262222e-01,1.670653092455059163e-01
8.800633807700983802e-01,8.495786911153526688e-01,2.939243887716613268e-01
9.567992861885100675e-01,1.038895131950558159e+00,3.160477172127847956e-01
8.772295162578053196e-01,9.108994032331046986e-01,-4.644039708110801468e-01
8.578456809352472678e-01,9.085496814346100125e-01,-3.315018538589001307e-01
9.078019934144326841e-01,9.437202084386872025e-01,-2.762630618440349295e-01
9.049556087666746906e-01,9.478533255605652297e-01,-2.260271645071527946e-01
9.214829765459948696e-01,8.941791176037185984e-01,-1.309658549894008872e-01
7.584056658651954219e-01,9.627478708416569164e-01,-9.396330366109091614e-02
8.710226647976552217e-01,8.965834208692256002e-01,-1.140487404486482392e-01
8.902205366235993456e-01,9.624692636612712793e-01,-4.612637143965876707e-02
8.573160769847747442e-01,9.185291991582038573e-01,-5.773676336315015922e-03
9.197529258775185568e-01,9.392058579033821797e-01,-3.538292858619718206e-02
8.866497804343359546e-01,9.480087616526675642e-01,1.571650575153015761e-01
9.149035975468863269e-01,9.755238778774422137e-01,2.150177826351784838e-01
8.482870976643952510e-01,9.238930255389095070e-01,2.312051776681679216e-01
8.721359946876201530e-01,8.808680046568148070e-01,1.440509534758280807e-01
9.526374252606603088e-01,9.421993182522525601e-01,3.623082541959357084e-01
8.622611922817712271e-01,9.306066269328405749e-01,-2.910595974315791645e-01
8.845893365616448456e-01,9.080481603187857687e-01,-2.767047941226461472e-01
9.017885717976599214e-01,9.571567473718143315e-01,-2.588825178376210068e-01
7.599892614571903682e-01,9.654183044386842605e-01,-2.064190111937785066e-01
8.724145982299919000e-01,1.018884267302084812e+00,-1.674276248169792036e-01
9.072941862982303318e-01,1.010814647613122563e+00,-2.225125144696707413e-02
9.028614400577051891e-01,1.006717814993384197e+00,1.326166028847625133e-02
8.815417834943848341e-01,9.511609958841404922e-01,-1.812554628322027642e-02
8.393453316752467197e-01,1.027175136990338133e+00,6.254170690548960243e-02
8.300198345004952127e-01,9.052666670917915992e-01,9.628597610635875048e-02
8.808835849415070918e-01,9.772591697591683779e-01,8.606034790986054339e-02
8.799158143658381004e-01,9.497200203002358343e-01,8.971471427442412327e-02
7.812013080415984856e-01,9.541522152070811558e-01,1.733241711761596693e-01
9.042552843914889449e-01,9.128350373112927851e-01,2.497257028763904541e-01
8.766009624776149867e-01,9.908312367444469526e-01,2.890676960064344492e-01
8.179852300965304579e-01,9.632243123697682430e-01,-3.642818053406831069e-01
8.259334205983658306e-01,9.166787807072462879e-01,-4.039553352010200604e-01
8.522278852542505279e-01,1.008893177704748734e+00,-2.636216406208282681e-01
8.943567999817629843e-01,1.029396677069449151e+00,-2.430646096326371519e-01
8.114006704489825639e-01,9.425349294694957969e-01,-1.094738394414189186e-01
8.367775722177950293e-01,9.464817914831143986e-01,-6.281458089372521369e-02
8.736288890636672022e-01,9.794549804909745694e-01,-1.151235682023569323e-01
8.181968404567376840e-01,1.031772857270538246e+00,4.357884916092687189e-02
8.857991752552720754e-01,9.415392759426726155e-01,9.798684634927504189e-02
8.602535659382433142e-01,1.044414110922492256e+00,5.838263011094259325e-02
7.529957614363477214e-01,9.931620962849322387e-01,1.404746728203168649e-01
8.200501360823748698e-01,1.067304719776129618e+00,1.446403546408731311e-01
8.583062539388449652e-01,8.838415060388811195e-01,1.688918439818206663e-01
8.725455652038097698e-01,9.135043448193127524e-01,2.863431994844058415e-01
8.945534597805113730e-01,1.008052744217916574e+00,2.004751173728980818e-01
9.366693378270531944e-01,9.240529159909580681e-01,-2.839105490640204121e-01
8.687410119418225163e-01,9.631278140941571531e-01,-3.305040544202565433e-01
8.900394488397416204e-01,9.449299989548618495e-01,-2.819231519287176968e-01
7.628122284640437289e-01,8.879119670350975602e-01,-1.598234473752342399e-01
8.753419522734815494e-01,9.665138678018049267e-01,-1.716344907621653038e-01
8.045528435753929175e-01,1.010662737937351618e+00,-9.931154926864506349e-02
7.235607522770679534e-01,1.022349557627754590e+00,-8.936070021953804177e-02
8.500839393678061295e-01,8.987315302685446872e-01,-3.468777219115323773e-02
8.650599836573640289e-01,1.061106782249789271e+00,6.745927612413693542e-02
7.947400844976693080e-01,9.696855690874230937e-01,1.093214603969576287e-01
7.057650957082161058e-01,9.554007300202629338e-01,7.421304880262927228e-02
7.927551813980179274e-01,9.650795469225156298e-01,1.659886366840464533e-01
8.039897768002203238e-01,9.844779904598677245e-01,1.841981179021017767e-01
9.131172223782523245e-01,9.649072555758249070e-01,2.581155139612374971e-01
7.994680938682350302e-01,9.422602170901528407e-01,2.678602882711940691e-01
8.012724697501958371e-01,1.019381042406610760e+00,-3.008298196887489451e-01
7.323590684695495678e-01,9.160024692073399644e-01,-3.635457991572141889e-01
7.259890348949494809e-01,1.027436951200034532e+00,-2.185663740368805064e-01
8.233572314634574063e-01,1.017894359995653142e+00,-2.619659624394272135e-01
8.050828966622093352e-01,9.769323126736804142e-01,-1.422550786604785122e-01
7.792841554346093824e-01,9.804965431248623409e-01,-3.653323285863334380e-02
8.276644331303337765e-01,1.012680708416747732e+00,-7.218522402871870025e-02
8.018569811456195406e-01,1.018376491692647434e+00,-6.810651275778976943e-04
8.263812983355730557e-01,1.017162523603094781e+00,2.770950052197842378e-02
7.515533364158040186e-01,1.031321713865346545e+00,8.953325634116465759e-02
8.597379631126684796e-01,9.870702960267916382e-01,7.174809701630696646e-02
7.299723027059503710e-01,9.190412039778251829e-01,1.699463295899146520e-01
8.344715471105598192e-01,1.004266825210796021e+00,3.341207519698941031e-01
8.403984559856141345e-01,1.024707327541031443e+00,3.169886780413863070e-01
9.197229184809208036e-01,1.022330636483029798e+00,3.182188514312204730e-01
8.260522726608409139e-01,9.350769383189950767e-01,-3.311892641166848672e-01
8.117071316212363108e-01,9.647996812964797497e-01,-2.898410169697562822e-01
7.517036632964120280e-01,9.877378932330371786e-01,-1.982205098162778401e-01
9.065283295281030274e-01,1.024659618858851262e+00,-2.119982519382197228e-01
8.723974092117556811e-01,9.658377247725116188e-01,-1.189198351211182281e-01
7.801306783004487988e-01,1.003830015350581695e+00,-1.096396122846541726e-01
8.619173560944066725e-01,1.009713930568044704e+00,-1.896151083112635610e-02
7.716119323856327483e-01,9.108103664672517752e-01,6.728569527334044009e-02
7.795835824886732102e-01,1.085394552827447123e+00,6.478577056543032009e-02
7.231339758971203624e-01,1.003630847973824292e+00,2.978596161484618754e-02
8.446911547132740505e-01,1.000772855254424165e+00,1.563253848639080679e-01
7.420094283083422670e-01,1.025890947687404520e+00,1.849237495904712814e-01
7.713763121729434458e-01,9.432873432788903001e-01,2.727583380354018372e-01
7.245367853684017145e-01,1.027032820648558165e+00,2.328326307440865273e-01
8.013301220144666281e-01,1.037814591942325393e+00,3.246870328908365577e-01
7.961516506689078065e-01,1.047822544922948351e+00,-3.106254404524135260e-01
7.825678686467548717e-01,9.746405103822842753e-01,-2.740769243614963324e-01
7.440348545796943158e-01,1.001145819482930799e+00,-1.869005340453640529e-01
7.020850120738678646e-01,1.020549780353901204e+00,-2.218231527599300590e-01
7.840274246322669338e-01,9.996724981770396257e-01,-1.428973308251719199e-01
8.106730119688927427e-01,1.010584212717486885e+00,-1.571722331583763343e-01
8.771561414242977639e-01,1.018952572646380839e+00,-1.240222638395561822e-01
8.222953784264246391e-01,1.013119214494574649e+00,9.610580702563840949e-03
7.603677395627068680e-01,1.171079591085739668e+00,-2.225897572827838927e-02
8.456759091837502407e-01,1.003278904193876997e+00,9.763265122270636809e-02
7.808392297978277163e-01,1.021239041726873964e+00,1.057071704776312432e-01
7.846474403457005531e-01,1.046794534331726867e+00,1.933472746773658990e-01
7.088708432794930125e-01,9.725962822168922051e-01,1.854344009734243404e-01
8.180435982703544440e-01,1.051888336042090533e+00,3.006518666039371124e-01
7.335565431950623605e-01,8.834502008530313866e-01,3.649292420821335092e-01
7.642523830553603625e-01,1.021959431589720246e+00,-3.892448001901277488e-01
8.260324676445888192e-01,9.546413370347365257e-01,-2.141549010964500788e-01
7.406275143376863657e-01,1.072445602286321575e+00,-2.724535549571666104e-01
7.363219527449821333e-01,1.063040098286069712e+00,-2.292324051869432111e-01
7.864145695771718181e-01,9.658276513199127722e-01,-1.439390026151444180e-01
8.339798402581799497e-01,1.087590253530621665e+00,-5.287667196936463726e-02
7.608517395868499289e-01,1.131845608423598604e+00,-5.339560465681379708e-02
7.163979345652651265e-01,1.064715283389875200e+00,-5.642083743947942653e-02
6.760447525142752045e-01,1.074670552529335188e+00,8.353041978279312010e-03
6.987759863232161361e-01,9.626705028832325262e-01,8.032679010593410385e-02
8.598306661012874441e-01,9.767114556632001676e-01,1.037488567746519541e-03
7.379987396128694366e-01,9.678752159162189450e-01,1.680612994100592339e-01
7.081835307247532629e-01,9.953823831936913225e-01,2.521992909997338161e-01
8.014478127388241502e-01,9.934129870276422469e-01,1.473319229182987744e-01
8.198739080063557338e-01,1.111622855103524099e+00,3.139581630341034546e-01
7.499084161569465889e-01,9.833959827103686546e-01,-3.435974508720678333e-01
7.784437917742629276e-01,1.052490883744757078e+00,-1.485406592289450489e-01
8.117612410334372752e-01,1.002010270053091290e+00,-3.197989133841943055e-01
7.453999060015720213e-01,1.054154057028942271e+00,-1.634851163338584545e-01
8.540597975921880858e-01,1.079334837620316012e+00,-2.383643708437204745e-01
7.915575340183369502e-01,1.032901087540588181e+00,-1.340605399311194101e-01
7.176008893958875090e-01,1.070811290274053862e+00,-7.860067505741016869e-02
7.040903149777705261e-01,1.050915577433719106e+00,-3.278017041559028177e-04
7.023417038313475302e-01,1.103634085398633946e+00,-3.561812701609811532e-02
8.195377012769501368e-01,1.076512800273233594e+00,1.048240595074555609e-01
7.531368393071663503e-01,1.080218761243352255e+00,6.590910051206372300e-02
7.710655362129257284e-01,1.053286428640377581e+00,1.903045333339840606e-01
7.551805381622588298e-01,9.751804182588740266e-01,1.836569355944705495e-01
7.263413513472571914e-01,1.086451674716714999e+00,2.439083876638873383e-01
7.102455513232910356e-01,1.080903879218800379e+00,2.271719832695303087e-01
7.274791810397780445e-01,9.790179199561641621e-01,-2.580703190617108511e-01
6.856806884620578746e-01,1.092509321899928887e+00,-3.121164619451069488e-01
7.017442152288423385e-01,1.102407084246466606e+00,-2.659725954342509469e-01
7.833508778484082891e-01,1.068613929279238484e+00,-2.144206250929529822e-01
6.814233672864494773e-01,1.062138516286537770e+00,-1.953624867504330509e-01
8.390837926936706159e-01,1.019891083013069411e+00,-1.901887599696581166e-01
7.532467125759358950e-01,9.610808954434173490e-01,-6.643452270788910430e-02
7.440891242815205198e-01,1.066252242904010883e+00,-4.811410213132415181e-02
7.907388373774515422e-01,1.064906985412974239e+00,6.629278912642221078e-03
7.457049346685282742e-01,1.072890773362353611e+00,5.464190923689642848e-02
7.549884057514710811e-01,1.033619393015210441e+00,9.305601651601355662e-02
8.535597576703184419e-01,1.053702215441851164e+00,1.566162661449282123e-01
7.703051463981168689e-01,1.018211145871878776e+00,2.413554384742642722e-01
7.977910052807664076e-01,1.034956956486436042e+00,2.589554254267142364e-01
7.519528966532017522e-01,1.037646377617313931e+00,3.227080823593909686e-01
7.458291184264886908e-01,1.099740364349655275e+00,-3.465362462039633384e-01
6.752771073297849647e-01,1.074853847167385856e+00,-2.492492852643984902e-01
7.158861305348585002e-01,1.007976549233261743e+00,-2.127091977072482210e-01
6.944333843222632030e-01,1.078830294165901371e+00,-2.358824949310154850e-01
7.074996204265814326e-01,1.154222691388405053e+00,-6.253967459454400080e-02
6.955143307608476766e-01,1.109200505428258765e+00,-4.902215531561445599e-02
7.082935454693851662e-01,1.018669199668349457e+00,-1.416924022145774065e-01
7.725288835090750039e-01,1.092944881411417546e+00,-9.087269674051044743e-02
7.465905203528419021e-01,1.076243941059652265e+00,-1.942812586092773630e-02
7.046668683780977771e-01,1.025506488557988094e+00,5.718353423265638141e-02
7.401567304523771762e-01,1.137210895664290788e+00,7.149610070858164468e-02
6.969732019988131855e-01,1.192432049821133599e+00,2.143631686361835986e-01
7.521324510753359949e-01,1.034986983811420957e+00,1.458896899975541395e-01
7.358078029037422585e-01,1.059827237952951196e+00,2.813048832555594125e-01
8.123052539451560694e-01,1.032380159484691751e+00,2.553056083889881367e-01
6.495339885086344189e-01,9.753167936222837398e-01,-3.546896183439504635e-01
7.626471799489186187e-01,1.023289811298497831e+00,-2.674412955481478837e-01
6.188030902155102764e-01,1.077227466133270584e+00,-2.165409701936072961e-01
6.257750548255011092e-01,9.877142078315533924e-01,-2.090679504164847657e-01
7.430639805255953023e-01,1.004974359279377838e+00,-1.232199838646268752e-01
7.205404261063743654e-01,1.108427034938732625e+00,-1.751704015985521279e-01
7.214233288465453642e-01,1.058603215149058308e+00,-3.918074750685562185e-02
7.249196450874738629e-01,1.049617524498771992e+00,-1.695735711885273597e-02
6.286608755706819540e-01,9.682759155721223365e-01,8.676278243941527857e-02
6.687966740227180296e-01,1.044429140205041850e+00,1.460730452016456571e-01
6.217645066666021014e-01,1.043536004583342169e+00,1.090627471783104513e-01
6.497308774946811694e-01,1.107882685989551641e+00,2.219361345685039733e-01
7.051926370776908648e-01,1.112019960267529139e+00,2.118396335723351509e-01
7.733425649446505901e-01,1.183107791980613221e+00,3.266207855327311615e-01
6.418705368018260415e-01,1.041638921536635953e+00,4.092533429936047740e-01
5.825736840505219005e-01,1.184021197246174939e+00,-3.141910334074342614e-01
6.631699296015796108e-01,1.011199439863268656e+00,-3.742621558939426274e-01
7.031981967209277595e-01,1.081734443275361723e+00,-2.106805019293910008e-01
7.541250141764526127e-01,1.172800388220470724e+00,-1.625097963590378669e-01
6.615402512799237744e-01,1.062425665008789544e+00,-1.369094234590332304e-01
6.730820723965637020e-01,1.171032256658752546e+00,-1.843071205906217924e-01
6.969459542995964929e-01,1.037163506423313786e+00,-5.454596382681880379e-02
6.020654600172794524e-01,1.035459169526236067e+00,-1.022726315315698881e-01
6.582816435516396503e-01,9.537677502891107606e-01,4.087865801013255973e-02
7.636745090171219719e-01,9.994414370234707690e-01,9.688317523271874898e-02
7.084055815332536143e-01,1.021817228334617189e+00,5.108915211539705181e-02
7.213241928674506420e-01,1.144408267192728035e+00,1.775265989594089211e-01
7.110011721654621031e-01,1.076686311594698964e+00,2.393234608125800467e-01
6.653450013108046512e-01,1.078202044596119125e+00,2.160546785905785305e-01
6.578904534365909162e-01,1.082138130083594385e+00,2.795779822903503020e-01
5.929929487040908054e-01,1.146435985750117181e+00,-4.246933803251518591e-01
6.494837732635190264e-01,1.132834147282983706e+00,-3.775062009522020534e-01
7.422528933557371866e-01,1.055878625754644418e+00,-2.094275013064258451e-01
7.002296063987508701e-01,1.068317790600576744e+00,-1.652426398542829744e-01
7.408381046425963623e-01,1.060623843857946280e+00,-2.381183116044572334e-01
7.079375905924316648e-01,1.128781067251901860e+00,-1.735152531898664363e-01
6.612903644046909113e-01,1.034847936871372998e+00,-7.528020716696157133e-02
7.363447622622312227e-01,1.068394030571308884e+00,-1.095290150321478057e-01
6.690042763008274829e-01,1.018901068227727968e+00,-2.296475303231663295e-02
6.682478886632633452e-01,1.121164984650108831e+00,3.416168657029818728e-02
5.811526738165309069e-01,1.135358701540069237e+00,1.549102915785433021e-01
7.753394069977539438e-01,9.252910719682068130e-01,1.317575007295130052e-01
7.062979878534646483e-01,1.031972454605567302e+00,1.876916057615899136e-01
7.169434802795361383e-01,1.050391391327368140e+00,2.409032868870256971e-01
7.000346475449595873e-01,1.137458258886294038e+00,4.405403325645765311e-01
5.591078589225715323e-01,1.049370546716133390e+00,-3.872453248730019504e-01
7.243986623862266327e-01,1.139474919851336088e+00,-3.644996307944958214e-01
6.374081609255076719e-01,1.064653558357111729e+00,-2.271194665053056505e-01
6.631240691860853520e-01,1.058362195215902579e+00,-2.211170687717098626e-01
7.350707412998120915e-01,1.098567625190075780e+00,-1.847854793819674324e-01
6.923865970882085996e-01,1.115917345474568112e+00,-6.831748173892612797e-02
7.291926030405304626e-01,1.146904748138614094e+00,-5.396510012494872000e-02
7.160417907667619986e-01,1.144842992708163365e+00,-3.987124579016892295e-02
7.151456396493831580e-01,1.082399580826673535e+00,8.729283076254228113e-02
6.428227113764707346e-01,1.094920222064153181e+00,1.263367953643583230e-01
5.884775234068210237e-01,1.060847748966341264e+00,9.170480281914802911e-02
6.718752086010981728e-01,1.182263266562844084e+00,1.256856367692392173e-01
6.421964448652421886e-01,1.055112671667843394e+00,1.620750996592657811e-01
6.733859403719518744e-01,1.147875588409823733e+00,1.927045590476648140e-01
6.233959274345042267e-01,1.074820544477249395e+00,3.467772625443460432e-01
7.070563763585380190e-01,1.015511654294277699e+00,-3.006836718028926825e-01
6.724496763436325075e-01,1.108596041547440292e+00,-2.954540891735047414e-01
6.402072247271529681e-01,1.095934081475438138e+00,-1.801566280313357526e-01
6.475625451130850863e-01,1.076255775433634154e+00,-2.006483349823042217e-01
5.707118002220594732e-01,1.122758499826038259e+00,-5.186184407035555888e-02
5.758317535189116931e-01,1.073116154847566728e+00,-1.906831334850098425e-01
5.837245969843500859e-01,1.115061655764187920e+00,-7.144802215894946462e-03
6.848551818160623084e-01,1.114374701345096197e+00,6.640427547692392268e-03
6.299540748809656643e-01,1.086185832569187104e+00,-1.286600977271628449e-02
6.432168045454977889e-01,1.038875633207576366e+00,1.228372655461346941e-01
6.530332378047564168e-01,1.096193706730970163e+00,1.087225968828787748e-01
5.873786424276850049e-01,1.145241424804026131e+00,1.675111361256163001e-01
6.345100620662029733e-01,1.133185299806894086e+00,2.690783835955299907e-01
6.645701250520100745e-01,1.112563589117988139e+00,2.204439949098143947e-01
5.859543780341235353e-01,1.063443190372372449e+00,2.226238657852286085e-01
6.719507339168870885e-01,1.058473631214952970e+00,-3.739495781424713172e-01
6.462872421615011298e-01,1.004094867272709690e+00,-3.048464157108817241e-01
5.708632278885387157e-01,1.018985000043892031e+00,-2.568573180760733710e-01
7.004523544005363256e-01,1.042718643208249363e+00,-2.834145337713210866e-01
6.290568425572535816e-01,1.174222616457156310e+00,-2.006957176167348533e-01
5.582984023695716225e-01,1.102976073126737511e+00,-1.343410964732295876e-01
6.447687897748826114e-01,1.141740518057775100e+00,-1.372315613941537671e-01
6.842467305704535985e-01,9.898290837472604187e-01,-4.403733810758186928e-02
6.708040606878150625e-01,1.069788167744726293e+00,-6.671374417790362082e-03
6.986295102022713754e-01,1.066960335614188571e+00,1.066713261428299253e-01
5.589068472064517845e-01,1.201656171732962353e+00,9.026944814047460630e-02
5.640050159443266153e-01,1.131891799661820297e+00,1.571432556113074586e-01
6.928942064486954822e-01,1.111658308660000483e+00,2.102866779643718931e-01
7.159939419163113827e-01,1.130348181379312145e+00,3.574593411900626183e-01
7.084238397913188434e-01,1.143658300930833427e+00,3.480971272197652122e-01
6.370210691358706434e-01,1.184245152758610420e+00,-4.489034658980347037e-01
6.172096354225076187e-01,1.231606408247990725e+00,-2.679212474412096534e-01
6.944073263186223421e-01,1.061242598032130724e+00,-3.735393769779897788e-01
6.803580393898333023e-01,1.132363317233301414e+00,-1.311376072221590583e-01
6.276978232752348230e-01,1.169436569682646310e+00,-1.653369940296552931e-01
5.724879532034043983e-01,1.246529647062211810e+00,-1.383247549948568023e-01
6.156286858524198102e-01,1.096249385185393610e+00,-5.792886977609972010e-02
6.147310235977752058e-01,1.219041701485980012e+00,2.725131595719340605e-02
6.439840186561228697e-01,1.127991448086449688e+00,1.159172518451854067e-01
5.708367832519042340e-01,1.061251633552604323e+00,3.751811942999668664e-02
6.126843960153027790e-01,1.036450210945231820e+00,1.301175194270229318e-01
7.370290692970973279e-01,1.166012580534200316e+00,1.675328725663446650e-01
6.320637671973875493e-01,1.236054881735437760e+00,1.374805089302240102e-01
6.222008288324044623e-01,1.090176056299071217e+00,3.584826014693219265e-01
6.114873767317169362e-01,1.052392002910127244e+00,2.563713511726440908e-01
6.050751256506652354e-01,1.137987067320701318e+00,-3.570376025271494447e-01
6.248263572909076302e-01,1.133941218464875611e+00,-2.812595576981102852e-01
5.251636551788230189e-01,1.140761850426870172e+00,-2.517947462292434158e-01
5.248385690822490179e-01,1.207886961955319638e+00,-1.888964595360491383e-01
5.952383670111893732e-01,1.184713548766179292e+00,-1.054553856327094530e-01
5.519324856098741794e-01,1.127848665991172172e+00,-1.158182078606458804e-01
6.304362757234907022e-01,1.171944237560383018e+00,-4.552044173496375828e-02
6.731422449531820895e-01,1.131819871583188863e+00,-2.894361538365438150e-02
5.546683968352429384e-01,1.143386472853244795e+00,7.660216868237507137e-02
5.313118231588922491e-01,1.209637499198444655e+00,1.575068773543039646e-01
5.584379286560201550e-01,1.195488505324627360e+00,1.073449688857510687e-01
6.269074937009768700e-01,1.149742803810225755e+00,2.128473300593713147e-01
5.959307579148347411e-01,1.199113684901089494e+00,2.987409869299670895e-01
5.429607949807302436e-01,1.176940676372939754e+00,1.766347031920026955e-01
6.449659163545335971e-01,1.149745772035803304e+00,3.007341326678137916e-01
5.472151159463838344e-01,1.110078798872534689e+00,-3.162758961300358718e-01
5.834120965876148368e-01,1.111530752745296446e+00,-2.868880762883877500e-01
6.135004801208521208e-01,1.106603963465182305e+00,-2.796104360213756967e-01
6.400312018472059661e-01,1.153144724695382317e+00,-2.274758091847779717e-01
6.768676834339895088e-01,1.153519227653360124e+00,-1.412357051350921211e-01
5.963512813914149113e-01,1.184994762261717183e+00,-1.662165979039076924e-01
5.875003576109369963e-01,1.161315415369050807e+00,-3.569247388094522883e-02
5.079361214074005204e-01,1.179453123464618391e+00,-8.920466017864543684e-02
5.573760670171377107e-01,1.204113711411370691e+00,-1.838652695255903191e-02
5.908283655734053452e-01,1.174151337759351765e+00,5.914666648312497804e-02
6.572239370107213485e-01,1.187263613404237139e+00,1.245570608286959147e-01
5.228275249918341583e-01,1.179397543885606359e+00,2.577705796539577765e-01
5.319084565198685111e-01,1.074667360959589812e+00,1.945232076111568786e-01
5.940669060778752675e-01,1.159591132747963993e+00,1.728874402146693412e-01
6.804341712825430211e-01,1.148955749843617369e+00,3.663800946637574274e-01
7.321936598791662920e-01,1.148702530294642532e+00,-2.402438736427591759e-01
5.550247597806104993e-01,1.188399324402852786e+00,-2.305792602068632569e-01
6.659669716426797059e-01,1.185390176797273876e+00,-3.080108440225978184e-01
5.514532940201591904e-01,1.088940137817495435e+00,-2.152397770566658597e-01
6.360864390108708077e-01,1.212972904918772521e+00,-1.461312465492145551e-01
4.958085594084838954e-01,1.120573088277123430e+00,-8.255365416072377172e-02
6.025937700124420759e-01,1.100336125022280731e+00,-4.332501965937117505e-02
5.577338576095841605e-01,1.193048048116006177e+00,7.447205040525406439e-02
5.716900604859681545e-01,1.190378466896990117e+00,5.544121014653788371e-02
6.500026939594386599e-01,1.146080909025061212e+00,9.703387031729007739e-02
6.090188255900979009e-01,1.218346274713768995e+00,1.600137107583459728e-01
5.825700028236029393e-01,1.114509669439806894e+00,1.118929389299563315e-01
6.182810218279229941e-01,1.109445875396414261e+00,1.501598997618756870e-01
6.791263137913490233e-01,1.234881473366168825e+00,2.239021350795975529e-01
4.583181781263011012e-01,1.164769433668844112e+00,3.138381143236898541e-01
5.871435139292570105e-01,1.161736717897055460e+00,-2.964529037139023715e-01
6.470519642124195059e-01,1.122621215972939845e+00,-2.537770927534440113e-01
6.046656165374608705e-01,1.072681455371485626e+00,-2.239871217945016424e-01
5.461393666414277037e-01,1.130582835198051361e+00,-1.281074685891128717e-01
5.596130403943694320e-01,1.090133484251597951e+00,-2.402944886080668752e-01
5.406291822849887962e-01,1.150595787139572668e+00,-6.457585153395004052e-02
5.121854099117199022e-01,1.188974945054053656e+00,-1.833748070214484271e-01
6.018046647605247434e-01,1.113486839121252459e+00,-5.952377543916616970e-02
5.491457215843691397e-01,1.118243054866994379e+00,2.135251466079759464e-01
5.407147045411906383e-01,1.190649685478621933e+00,2.031862135954581872e-02
4.907813080081894763e-01,1.240998837859941695e+00,6.845637481490855769e-02
5.223055216274856694e-01,1.180102724982446061e+00,1.340932512170817381e-01
6.383654613372402586e-01,1.268436713475630029e+00,1.631852321765826785e-01
4.497954366017311023e-01,1.274965861247655985e+00,1.963718136566299788e-01
6.519907873946814147e-01,1.151011454154702740e+00,2.795828520276616991e-01
5.091886343918021751e-01,1.264969319733439956e+00,-3.106474762140540857e-01
6.151575871963137487e-01,1.157813007287064044e+00,-3.419796132494115071e-01
4.259068084981202928e-01,1.205730873360670641e+00,-3.775254823321093633e-01
5.022722080174396586e-01,1.100090466251803178e+00,-2.219306396013732141e-01
5.792634871526043394e-01,1.124564931493238662e+00,-1.760584325608958167e-01
4.135640830342546259e-01,1.190945835094809224e+00,-1.504618981067525341e-01
6.461047226280165479e-01,1.284283513088661177e+00,-8.569588268674631359e-02
5.345459551418274557e-01,1.129154293761505556e+00,-4.479109941702107134e-02
4.991829703671277763e-01,1.182789619550196791e+00,-2.776506395545094708e-02
5.855238224071768194e-01,1.256648695363537849e+00,-3.245636033706340851e-02
5.100997374267398632e-01,1.151343765675555186e+00,1.191184702326006789e-01
5.140195885686519306e-01,1.007104830217733671e+00,1.964064295511311065e-01
5.100246502770269252e-01,1.129274617613734266e+00,2.219181481862558536e-01
6.106286771019944215e-01,1.175760478914264162e+00,2.324459261055546733e-01
5.549990542589713360e-01,1.267846365174043477e+00,2.760335153449802181e-01
5.096299827197210419e-01,1.156286551843002552e+00,-3.370737518552024969e-01
5.309314284006086959e-01,1.160956695026466479e+00,-2.560915236496950076e-01
5.273792939854975437e-01,1.166853510091885981e+00,-3.123367931073586234e-01
4.509430585366481781e-01,1.203329478502164873e+00,-2.159821926744169840e-01
5.708485017644921999e-01,1.133005327044473987e+00,-1.660837632493085692e-01
3.957887409822110625e-01,1.204306039211801238e+00,-6.051038105908646686e-02
5.213833732011010635e-01,1.214322394966225183e+00,-1.440111077882047508e-02
5.260804074572282829e-01,1.155241015540394933e+00,-1.986557612738977519e-02
5.431838031399188749e-01,1.201798973382490532e+00,6.038834045052927924e-02
5.464840883255166482e-01,1.139726256738419652e+00,1.016359119793838750e-01
4.899350980486331109e-01,1.101048787957137787e+00,1.098770196939428123e-01
5.549500338941176780e-01,1.171162666865651181e+00,1.621540930127008673e-01
4.716659918064460832e-01,1.113987085670259392e+00,2.175831696952956473e-01
4.939465873910072191e-01,1.259467259332531786e+00,3.449550131632164174e-01
5.425285769717455020e-01,1.213190699521904614e+00,3.412913153358879681e-01
5.548794397978193960e-01,1.184398258984683761e+00,-3.458787092822131481e-01
4.341851868339711151e-01,1.151518258192108179e+00,-3.069687291032361376e-01
4.700889370741637152e-01,1.267350425802141745e+00,-2.554263839637392342e-01
4.946343982847333787e-01,1.208816488585462201e+00,-2.563953915958682717e-01
5.772340791908744384e-01,1.158743018435218541e+00,-1.798646421524652261e-01
5.904904223717221123e-01,1.222496342056186291e+00,-1.766828117892002281e-01
4.947403874479016084e-01,1.314774738351222716e+00,5.555736888968085263e-03
5.113880365215214274e-01,1.240748176146122761e+00,-9.305839615212968541e-02
4.931756836255738463e-01,1.134367104061883236e+00,1.696270156477815497e-02
4.439111026536524673e-01,1.275268419759328919e+00,7.850691745025034640e-03
4.779903616647556697e-01,1.236683450326579559e+00,3.694916345286214376e-02
5.361508255742092333e-01,1.151057340437961596e+00,1.224209657044316168e-01
5.184528725735898513e-01,1.204462244772967372e+00,2.557437481994893069e-01
4.786017227590952938e-01,1.190488427430062224e+00,2.742715787331448385e-01
5.074010775868323941e-01,1.127867105790957059e+00,4.162929145035195733e-01
6.573518725186455747e-01,1.210998102383217923e+00,-3.471899870436192526e-01
4.349655925977661264e-01,1.131972038644671663e+00,-3.292277359059845865e-01
4.670960306528388339e-01,1.231787927444302433e+00,-2.711886895571076206e-01
4.606152683084830946e-01,1.217021674965329314e+00,-1.934617563291274878e-01
4.482281951861070146e-01,1.109308828374733435e+00,-1.981397399192875441e-01
5.410512491147109193e-01,1.161051354645733502e+00,-7.369823995283159013e-03
4.800029161195669691e-01,1.256903803126195651e+00,-9.353549927471835335e-02
5.392960403303419525e-01,1.172384114130246902e+00,-1.186797653300640520e-01
4.659933699669789320e-01,1.207451431574919631e+00,-4.535520976017404227e-02
4.755247806318747550e-01,1.146764259155465204e+00,7.573937967221044953e-02
5.064302863920823183e-01,1.307664401353880068e+00,3.869720939776714885e-02
4.285725923600043896e-01,1.269504003710360429e+00,1.678553578308436267e-01
4.566087487749276308e-01,1.177037421051243982e+00,2.402666008087818994e-01
4.686197806104981933e-01,1.191786169365002257e+00,3.150001222786705801e-01
5.146209058957217364e-01,1.303493466645250010e+00,3.307450558076344138e-01
4.917725717002480734e-01,1.122755895362837153e+00,-3.998675701954738093e-01
4.963184789831914245e-01,1.153010475789606692e+00,-2.788612376254269720e-01
4.618587703663657451e-01,1.234643303865440744e+00,-2.528976447936738814e-01
4.761079811435826592e-01,1.226195713143779509e+00,-1.161945314324582396e-01
4.757265537472285533e-01,1.210713522928359653e+00,-1.747755295058321390e-01
5.540294337489906074e-01,1.158853430890934622e+00,-5.091953534379119184e-02
4.809472727913598478e-01,1.400082972803889714e+00,-5.766841554467472958e-02
5.430010731447110217e-01,1.172675563400769505e+00,-5.798795244298664275e-02
5.270639178480766018e-01,1.196331582382540004e+00,5.747366230898134226e-03
5.223171982640862909e-01,1.167267174880753711e+00,2.041926082672276127e-02
4.915256216521324273e-01,1.236380524173318785e+00,1.905908585107814746e-01
3.960194484198521492e-01,1.175027784105438622e+00,1.145698151974090251e-01
4.365316893083416305e-01,1.222736901897473860e+00,1.870621918280452600e-01
5.534427218653321656e-01,1.156217868605863286e+00,2.993731320009241359e-01
4.845761717381075750e-01,1.168654016871420342e+00,3.322349451854303415e-01
4.781749127931079757e-01,1.189058999828294771e+00,-3.152368923876155971e-01
5.862006588004473606e-01,1.163977347641225624e+00,-3.410987595005016138e-01
4.631388882730021472e-01,1.214845123998002929e+00,-2.639964148753224937e-01
4.471062318143986247e-01,1.252994131138917666e+00,-2.513352989767982382e-01
4.356901335560800503e-01,1.276025750403459336e+00,-1.696329650529286026e-01
5.729104121023919083e-01,1.295513785703123588e+00,-1.607229919609012569e-01
4.584412352329167994e-01,1.264416152118600367e+00,4.390319252541535766e-02
5.850024090339158711e-01,1.265909993062503069e+00,9.878380312985039768e-03
4.144653266231398403e-01,1.231928952290138657e+00,-9.458166383894635321e-03
4.593302222339623042e-01,1.314108944556223957e+00,1.488029263381824285e-01
5.325034150629899266e-01,1.267942521231108399e+00,7.650331368420261458e-02
6.348110012899512711e-01,1.172512523542785789e+00,1.014468309568058307e-01
5.355390932759050981e-01,1.107176221233876934e+00,2.749977237064826219e-01
4.292523674882847140e-01,1.292201642506933146e+00,2.482213492966419965e-01
3.142106125873603828e-01,1.185596083967326742e+00,3.470079037946640632e-01
3.973660115852057917e-01,1.338359558857520781e+00,-4.000057684608238073e-01
4.654647495005027613e-01,1.232750223041226167e+00,-2.949931258356136565e-01
4.150175608970880781e-01,1.237331665942627890e+00,-2.460174609293672432e-01
4.387754232414576294e-01,1.160220094436249516e+00,-2.808836805295246708e-01
4.456869610890357714e-01,1.211081273008353332e+00,-2.222249199047841572e-01
4.137278951129961246e-01,1.295409666200766363e+00,-8.001297965076140106e-02
4.109640248684393593e-01,1.298914961344600050e+00,-5.858592790786680549e-02
4.199708334934927900e-01,1.237313273841699646e+00,-7.340023603907908090e-02
5.292757305645164889e-01,1.273851393521140185e+00,-2.954053031735061341e-02
4.083135458598496914e-01,1.217755270089781128e+00,4.257805578960992265e-02
4.366131518773054832e-01,1.156272257066741194e+00,7.465695201693350880e-02
4.970041936524307591e-01,1.220633667568679304e+00,2.334159530758281864e-01
4.692580215218631334e-01,1.206671219728921329e+00,2.044358597140888134e-01
