-3.008093577537981567e+00,-3.737019472392572705e+00,-1.067369269466405202e+00
-3.087080803296370579e+00,-3.756001097523836929e+00,-8.373247032204653717e-01
-2.909891734679009190e+00,-3.774554471600953143e+00,-7.322840724335382134e-01
-3.026066520659203896e+00,-3.850988150789258047e+00,-6.058634503352193779e-01
-2.901163372283193986e+00,-3.818990888428191788e+00,-4.663765116792708554e-01
-3.037830596696716512e+00,-3.898401240304692372e+00,-2.744897578695368878e-01
-3.016999571719184203e+00,-3.821816103592568847e+00,-1.308177443808716256e-01
-2.965033424744941026e+00,-3.901818925750918599e+00,6.176474360725184298e-02
-3.011362045202171434e+00,-3.886860966927901284e+00,2.445370596740241154e-01
-3.094061271130429613e+00,-3.848028969519181608e+00,4.460694326793153142e-01
-3.052500205934172595e+00,-3.812392742597567441e+00,5.522779121000858105e-01
-3.013237446312475143e+00,-3.870733119532694833e+00,7.421506510565029080e-01
-3.015821880303604541e+00,-3.764898035798588616e+00,9.619492238806528484e-01
-3.086828958588866634e+00,-3.906694829997594987e+00,1.082007600381839962e+00
-2.387899385502883831e+00,-3.178408677205938559e+00,-9.692305122270779005e-01
-2.961236827392222715e+00,-3.742560567631648905e+00,-1.079604848843375819e+00
-3.098589852461634653e+00,-3.962769885622972055e+00,-9.061417205278334830e-01
-2.964904166602762903e+00,-3.947496277799407149e+00,-7.837186076613843477e-01
-2.922473548632714913e+00,-3.917905578761450958e+00,-6.717685236174596453e-01
-3.035849871299133529e+00,-3.976095928968337301e+00,-3.834668416935658741e-01
-3.010011855057116215e+00,-3.921226224936042559e+00,-2.079057194130321806e-01
-3.052749124917031320e+00,-3.909950544786393145e+00,-7.797666234611436153e-03
-3.119074906227789157e+00,-3.955579398931293067e+00,-5.238660035225772837e-03
-3.016329563485300458e+00,-3.981599827502389388e+00,2.233094845317084021e-01
-3.049939807027846062e+00,-4.005967869111160873e+00,4.453723067635601551e-01
-3.086661474472533140e+00,-4.003546972072673071e+00,5.900238446316081742e-01
-3.095828072031905354e+00,-4.081421886094643625e+00,8.050651585731920523e-01
-3.074134485570868325e+00,-3.939989109703959436e+00,9.499203436576650894e-01
-3.110442660163208473e+00,-4.001963889387762485e+00,1.071914629075105818e+00
-2.319988821529632261e+00,-3.163686719949991843e+00,-1.157916483555054832e+00
-2.866302815115890468e+00,-3.763681909778640922e+00,-1.024467378690807839e+00
-3.148429834125306304e+00,-4.062810543223803528e+00,-9.594619101105876791e-01
-3.048422954616249569e+00,-4.058668348831126593e+00,-7.911586304774058664e-01
-3.083913331579774209e+00,-4.095934281495646978e+00,-6.398358763503364521e-01
-3.013333167303454463e+00,-4.048240579491107383e+00,-4.795237650000289120e-01
-3.031382820481396401e+00,-4.140179967903023339e+00,-2.155942862778220392e-01
-3.108992434677837036e+00,-4.098965966646910708e+00,-1.028648424357948149e-01
-3.029444791386848745e+00,-4.115805557200417297e+00,5.058848163881333321e-02
-3.047270021912718896e+00,-4.195653985059689894e+00,3.721465538121750960e-01
-3.112808461951981798e+00,-4.181076331722815453e+00,4.107789603460337280e-01
-3.014270614188270248e+00,-4.250064787899784591e+00,6.689093243328770866e-01
-3.096827807758768980e+00,-4.075475256446430272e+00,8.463698023868230225e-01
-3.092277420554015777e+00,-4.212468095751784602e+00,1.117920675500210015e+00
-3.194704981119006248e+00,-4.242348395769870883e+00,1.194744205169087303e+00
-2.332628555648178725e+00,-3.209314436718244679e+00,-9.740387358606250601e-01
-2.748024792855590981e+00,-3.806477000772153563e+00,-1.080021281240095110e+00
-3.125390100937649684e+00,-4.331714035424189646e+00,-1.065823567292340179e+00
-3.070710385378338181e+00,-4.271210501279127492e+00,-8.535326680431569724e-01
-3.080648289064491063e+00,-4.212760699327080971e+00,-7.280280778768695171e-01
-3.107126528999779147e+00,-4.338223936918366164e+00,-4.215723825460582774e-01
-3.048035372174742630e+00,-4.292883986069182534e+00,-2.340599059921389113e-01
-3.066557168170001013e+00,-4.365587970690883779e+00,-1.071657838356267489e-01
-3.111222605910332728e+00,-4.290831094401761803e+00,-2.490017273788849850e-03
-3.192453997080813899e+00,-4.249831127038043554e+00,2.547354480646087938e-01
-3.181948163964297915e+00,-4.352110557891470499e+00,5.371876960635725284e-01
-3.173592273614262105e+00,-4.298748317757506321e+00,6.575202946216534006e-01
-3.196214385586249929e+00,-4.361620221289840060e+00,8.033454950598655220e-01
-3.193582213281162208e+00,-4.327709480266457298e+00,9.890183877160905190e-01
-3.130117121898993826e+00,-4.308530322425133008e+00,1.298458171254329274e+00
-2.299223039950777814e+00,-3.313170211411664567e+00,-1.125637008363003400e+00
-2.691645227152951403e+00,-3.791710237932810923e+00,-1.129182320051660193e+00
-3.178647563592843728e+00,-4.574221499186142736e+00,-1.016282602323783868e+00
-3.133651845688204318e+00,-4.432013787703129815e+00,-9.012664492083728440e-01
-3.139082915125047890e+00,-4.501370344084159036e+00,-6.414346223952837045e-01
-3.185596405139651921e+00,-4.362689780541784579e+00,-4.619806164954168293e-01
-3.158758264825702877e+00,-4.448587197570933682e+00,-2.580604364279449059e-01
-3.243195128748335154e+00,-4.549788518948630234e+00,-1.018388215075473613e-01
-3.192851495272908569e+00,-4.479077620250075498e+00,1.241358868526568071e-01
-3.082373381811318147e+00,-4.543424742465346000e+00,3.819422022933770533e-01
-3.117946806141719929e+00,-4.452695904145692829e+00,4.902220812552764428e-01
-3.212148081328999094e+00,-4.473150483506774577e+00,6.350853078263420937e-01
-3.113847077969845500e+00,-4.547957977059313706e+00,8.037238909070943960e-01
-3.191436161370465818e+00,-4.497293115963624466e+00,1.016069853067738782e+00
-3.107482348122767579e+00,-4.546572745243526725e+00,1.350043447030441435e+00
-2.294333343118923008e+00,-3.345987256770010632e+00,-1.063872265982646725e+00
-2.609289755362105723e+00,-3.962492068328925310e+00,-1.121868550751145888e+00
-3.195744239731796554e+00,-4.629094725588311476e+00,-1.157226386870948920e+00
-3.115082754803946585e+00,-4.699163295706894061e+00,-9.803309673269713365e-01
-3.232444390385040389e+00,-4.785691325937606599e+00,-6.563629020773729117e-01
-3.185648890123040644e+00,-4.631505994045491903e+00,-5.051462588075408267e-01
-3.149398560998069918e+00,-4.606440827945323946e+00,-2.287401259734121450e-01
-3.247728878209529491e+00,-4.773100267046076262e+00,-1.574690061338218094e-01
-3.184478131200360274e+00,-4.670239768348054987e+00,3.116900661453729515e-02
-3.209476441765914512e+00,-4.688772744517915037e+00,3.617357321137548154e-01
-3.214590534886411444e+00,-4.677954258964134304e+00,5.146802736453729432e-01
-3.140645440854047621e+00,-4.662198364659680294e+00,6.414703671346980718e-01
-3.157076148643217728e+00,-4.793324503626398503e+00,9.261599422973481044e-01
-3.189014912700166793e+00,-4.680605188492607205e+00,1.059216247359932472e+00
-3.212356159294241120e+00,-4.783083724808989246e+00,1.364183625031753833e+00
-2.148751878083362321e+00,-3.301737337171839481e+00,-1.186189404877925790e+00
-2.654540907169590458e+00,-3.939626975523701446e+00,-1.095102260277177830e+00
-3.202690497127857583e+00,-4.792095414023870070e+00,-1.176978240523303354e+00
-3.237346489518357462e+00,-4.761066140368941824e+00,-8.952428428355014844e-01
-3.238741922103166360e+00,-4.956941467332736551e+00,-6.964757541315695910e-01
-3.254261875950177796e+00,-4.834408093605969015e+00,-5.695837794371263474e-01
-3.205815807672545592e+00,-4.933238558484558389e+00,-3.433144672002338416e-01
-3.262991725405136823e+00,-4.881505004971933737e+00,-5.250364663190933839e-02
-3.355980357297721373e+00,-4.883070264630935853e+00,-1.255075787405877941e-02
-3.229250316623484274e+00,-5.012001767549397080e+00,3.608140729871573971e-01
-3.182129150458120836e+00,-4.774896103758075938e+00,6.323108058945021703e-01
-3.217733426143996933e+00,-4.938924107845463318e+00,6.233089504099802447e-01
-3.200657329263149276e+00,-4.853127142961043639e+00,9.278749026354891072e-01
-3.275645263393968776e+00,-4.850206471651071105e+00,1.146753873926193767e+00
-3.291750917600545279e+00,-4.835827436943401558e+00,1.357162648655074078e+00
-2.166724007346377157e+00,-3.412701565287682204e+00,-1.048082202690333808e+00
-2.531862075511073673e+00,-4.044109058306468718e+00,-1.092677759260338499e+00
-3.189351418858090259e+00,-4.969724791634940964e+00,-1.021923440384764792e+00
-3.236794658826865234e+00,-5.085210288182018701e+00,-9.575141726512145235e-01
-3.276393434265088889e+00,-5.132597882856151372e+00,-7.484812070395097106e-01
-3.331698962768847583e+00,-5.065905001391580953e+00,-5.309919231584948607e-01
-3.171399604425630514e+00,-5.139895538261974650e+00,-3.418886706385933505e-01
-3.365582371826285168e+00,-5.051168630066718457e+00,-9.754638406230164982e-02
-3.330202329477095269e+00,-5.254018750980865349e+00,8.526314153819478103e-02
-3.246598742863649800e+00,-5.182428986893142131e+00,3.725068322002018650e-01
-3.249586949942702585e+00,-5.183675694266023370e+00,5.259653701233458767e-01
-3.288226926812167328e+00,-5.049197593921630478e+00,6.979802074182925864e-01
-3.283875244861218956e+00,-5.168636418966225499e+00,9.968262146726162287e-01
-3.260242226269171706e+00,-5.139765152542015159e+00,1.373269365489914851e+00
-3.278123449062928518e+00,-5.154870860663187671e+00,1.370899823785741711e+00
-2.174458954465851690e+00,-3.452691609659102046e+00,-1.097161286441952432e+00
-2.521917875858499691e+00,-4.038933217263632969e+00,-1.090758479695864036e+00
-3.170632059219365750e+00,-4.939948023498072160e+00,-1.200550771965829711e+00
-3.307441550324324631e+00,-5.407483146125757756e+00,-1.105365911023682202e+00
-3.263063990220793187e+00,-5.251986124743899254e+00,-8.614840917792934150e-01
-3.234452793040767382e+00,-5.344958448240650917e+00,-5.824995996565022205e-01
-3.313401524163864131e+00,-5.345529023793122114e+00,-3.572018738011276673e-01
-3.258217978882507193e+00,-5.362072193138735621e+00,-1.462244429064691875e-01
-3.322263640121385642e+00,-5.262212359165621578e+00,1.429834238356980924e-01
-3.326465414704117940e+00,-5.383255892270361720e+00,3.513435547887922006e-01
-3.374253524413761696e+00,-5.277016696375497418e+00,6.162176790310516239e-01
-3.286821451574549080e+00,-5.306155487699760087e+00,8.068528331918719543e-01
-3.279179834733390475e+00,-5.358858639694874526e+00,1.055737204628686365e+00
-3.379455017924982929e+00,-5.390884622674658289e+00,1.174754075108747520e+00
-2.033552119155724203e+00,-3.297804188642525336e+00,-1.034393112987911145e+00
-2.485334495955239920e+00,-4.102621600781589883e+00,-1.084715327830017229e+00
-3.068893946199655609e+00,-5.047843246759351921e+00,-1.106898320260903512e+00
-3.338885112705571423e+00,-5.641069569367868297e+00,-1.013655140696331669e+00
-3.431301566158778904e+00,-5.578841745075268754e+00,-7.659530616100377332e-01
-3.355198875973525396e+00,-5.581531123547444295e+00,-5.420403573662712082e-01
-3.403689007100126673e+00,-5.554055850674709305e+00,-3.404255478042575445e-01
-3.413886023604605136e+00,-5.572532109026185232e+00,-1.085988547276171973e-01
-3.337838132179776096e+00,-5.591863072768234133e+00,1.573034143152556297e-01
-3.467348159362510174e+00,-5.580012581993183396e+00,3.442397176725934260e-01
-3.377284822255318897e+00,-5.590698234405095057e+00,5.672050812828989264e-01
-3.365269027593491113e+00,-5.724230669044123587e+00,8.034369854733461880e-01
-3.332634885404554659e+00,-5.679346389790644878e+00,1.089223084200669600e+00
-3.418162226818567628e+00,-5.616625906226624387e+00,1.240325067460416264e+00
-2.011251267367837769e+00,-3.457262766915878860e+00,-1.049175507140096997e+00
-2.433968051995941018e+00,-4.091622634045207541e+00,-1.124528864856885413e+00
-2.970058280647426052e+00,-5.077194363052575987e+00,-1.163756340779276144e+00
-3.444772867181650877e+00,-5.796480144833455306e+00,-1.132608547438932023e+00
-3.361268515870658558e+00,-5.928645371262189379e+00,-8.233379212875973074e-01
-3.372762182607770054e+00,-5.841406283132218213e+00,-5.889192123106591348e-01
-3.415872628101637165e+00,-5.818093609148768053e+00,-4.004087013666738359e-01
-3.371157861326259386e+00,-5.898155607947376033e+00,-6.128070958753242814e-02
-3.379502516798878364e+00,-5.855292161666945994e+00,7.617756055840024798e-02
-3.384099684584777723e+00,-5.884530245242972413e+00,3.294010355270386436e-01
-3.385927816550313718e+00,-5.856666347190171429e+00,6.192225836962028662e-01
-3.436398681020589763e+00,-5.865577521954852713e+00,8.496673130604968094e-01
-3.443715767428542129e+00,-5.835656479121604789e+00,1.158671273710283778e+00
-3.368351929524762589e+00,-5.912927721049372032e+00,1.309277197758760725e+00
-1.994349904746390401e+00,-3.550272715887726971e+00,-1.056785725727904746e+00
-2.305951404905777657e+00,-4.230310611505815999e+00,-1.225817219564228955e+00
-2.927909670724974323e+00,-5.008578807679712419e+00,-1.122304609439069178e+00
-3.550727420316621696e+00,-6.184561385424189872e+00,-1.202751666218926374e+00
-3.511177545174307024e+00,-6.129340905474507828e+00,-8.634912543973664034e-01
-3.502587750250357512e+00,-6.099052841978697792e+00,-5.185380948051785399e-01
-3.472850488745778286e+00,-6.124655347158922680e+00,-2.840369051872819184e-01
-3.507808958129512877e+00,-6.184102356746506324e+00,-1.047443091688528699e-01
-3.483197221940995014e+00,-6.133473461069659294e+00,1.367246910171400487e-01
-3.565299243884714198e+00,-6.212243215871743551e+00,3.376158953548580310e-01
-3.442436265690038244e+00,-6.285825858294287194e+00,6.752795499271910806e-01
-3.475982850856713657e+00,-6.293149624660293817e+00,8.697171548353411774e-01
-3.485666973640871635e+00,-6.158498834095165186e+00,1.186742426213764023e+00
-3.458856672301337642e+00,-6.183917626747597929e+00,1.292649958700576862e+00
-1.939620263913842457e+00,-3.508743953346490585e+00,-1.076392952294844330e+00
-2.313667617482316086e+00,-4.180469604458779465e+00,-1.019390540510983767e+00
-2.847286599103006299e+00,-5.037838811841868214e+00,-1.107012328870979223e+00
-3.619511992787733057e+00,-6.397420197013716781e+00,-1.161528007742556268e+00
-3.504212032258016585e+00,-6.463965411500658398e+00,-8.400645503313581841e-01
-3.589502593678906450e+00,-6.418529298948029371e+00,-6.998097105071310331e-01
-3.556624651217020094e+00,-6.419189809069993480e+00,-3.827358880635175487e-01
-3.500836257028707266e+00,-6.491743678726354716e+00,-1.848316784387653844e-01
-3.501713190671500886e+00,-6.520383360468121836e+00,1.565490911585285250e-01
-3.534957631572076764e+00,-6.567201230162766912e+00,4.117713021439511900e-01
-3.555159613445610489e+00,-6.571749778268030084e+00,7.370577933433106743e-01
-3.494481984718585288e+00,-6.527170765949263043e+00,9.401077324377605793e-01
-3.574285831807324509e+00,-6.513142090032165044e+00,1.198926932316654481e+00
-1.892627043590599190e+00,-3.545080238275928775e+00,-1.118409865379929036e+00
-2.225677360706656227e+00,-4.103756119407425018e+00,-1.025533146270653839e+00
-2.785165676694679071e+00,-5.125116089306615663e+00,-1.186524190983663463e+00
-3.561638881698739212e+00,-6.718720612315540741e+00,-1.140407020983860154e+00
-3.619885825858117911e+00,-6.857842314764449831e+00,-9.230099117955162802e-01
-3.585802984080019851e+00,-6.809786308808199351e+00,-6.580821660817026686e-01
-3.518794601427951640e+00,-6.840734372817744102e+00,-4.799431648452533450e-01
-3.623728625271713355e+00,-6.830160483316591424e+00,-1.465903563437442880e-01
-3.602446260826166036e+00,-6.952191127177034247e+00,1.700331548635461432e-01
-3.510398439559170303e+00,-6.845371467833572865e+00,4.348976295406419279e-01
-3.562475113210304301e+00,-6.866526800079004289e+00,6.319333592693100465e-01
-3.579227852191534165e+00,-6.849406870611747244e+00,9.178694841446608521e-01
-3.611079635480631822e+00,-6.876775387864753952e+00,1.179413906947046176e+00
-1.816344665313790907e+00,-3.541416956273174321e+00,-1.124695064432900571e+00
-2.164602072662636711e+00,-4.163125546436778457e+00,-1.091134705206019184e+00
-2.654207282080380370e+00,-5.189983651189249869e+00,-1.165927489694924102e+00
-3.415350415629792469e+00,-6.777196779947454175e+00,-1.199479126647589045e+00
-3.697146552053116597e+00,-7.227139252879802633e+00,-1.035227209318450248e+00
-3.685335573464774139e+00,-7.204416303404278743e+00,-7.680318225000625221e-01
-3.715808186023988657e+00,-7.263202117121498880e+00,-4.424542421724669827e-01
-3.716061567952634537e+00,-7.307674178155482814e+00,-2.271893967345336718e-01
-3.622787784789922583e+00,-7.241871107411793851e+00,1.640748413247659354e-01
-3.692270717331372243e+00,-7.260663992136040967e+00,3.735672514647428444e-01
-3.739182443278479262e+00,-7.250007143200703830e+00,7.012188117788248354e-01
-3.667298420091158029e+00,-7.221778899197031087e+00,1.097208743296164135e+00
-3.665427988143384219e+00,-7.263356685865159257e+00,1.339093848044123236e+00
-1.699024738937857215e+00,-3.534880341265862924e+00,-9.859176910242415381e-01
-2.044453653945342175e+00,-4.296529394348761244e+00,-1.022838282547130273e+00
-2.597041010638230674e+00,-5.287477582664366516e+00,-1.177909556512056310e+00
-3.329396533744215958e+00,-6.802004321060810987e+00,-1.175394805365175932e+00
-3.718906481059342628e+00,-7.546682685709793503e+00,-1.034549545490263123e+00
-3.713045626829020840e+00,-7.680553270435798829e+00,-7.832265858771262357e-01
-3.680750518417804429e+00,-7.655920803621830473e+00,-4.175691029046547098e-01
-3.735451547456769106e+00,-7.553356366342757866e+00,-1.338849215580232288e-01
-3.647461681692060864e+00,-7.748976356733299653e+00,1.165363005712405364e-01
-3.699987317940821807e+00,-7.628431231796258594e+00,4.572959257926805798e-01
-3.769331818195526651e+00,-7.652108834923961211e+00,8.430593084197507414e-01
-3.706623387638027012e+00,-7.626971083118666783e+00,9.922645768637006203e-01
-1.724991763082908358e+00,-3.724274824753353030e+00,-1.028550659578849835e+00
-2.027993868976499137e+00,-4.296958342872509107e+00,-1.051852500614276487e+00
-2.436141182150906026e+00,-5.279843185135634442e+00,-1.105980190777049010e+00
-3.266378494654147424e+00,-6.858001743246365578e+00,-1.239986873300364500e+00
-3.784214188634525744e+00,-8.018744320087915156e+00,-1.109875252081940378e+00
-3.808397460724744388e+00,-8.016057208574423498e+00,-7.103991607692734522e-01
-3.722770628641294710e+00,-8.074253923569928659e+00,-4.863598223659305608e-01
-3.790343119355873203e+00,-8.162639408978927591e+00,-1.714289961531088313e-01
-3.937623858094993157e+00,-8.171400996818981355e+00,2.133019359475884502e-01
-3.882002395908372705e+00,-8.038616324121827361e+00,4.380843170033005829e-01
-3.871194939652657485e+00,-8.172364358648323446e+00,7.214931255211042282e-01
-3.762655610445176713e+00,-8.120710854982238658e+00,1.192919892864613418e+00
-1.641847505685215758e+00,-3.606691510128384071e+00,-1.025173944993891029e+00
-1.998234353220082138e+00,-4.253638601548684228e+00,-1.160515917376447437e+00
-2.373449916406497273e+00,-5.331754507872444648e+00,-1.181230383065420053e+00
-3.078312399578641223e+00,-6.934333672940636184e+00,-1.224730209647767243e+00
-3.862217778358396192e+00,-8.366292238274473547e+00,-1.234773598095433300e+00
-3.708631804746329585e+00,-8.344723440641459433e+00,-7.871099058451902497e-01
-3.729038479621331614e+00,-8.376689923062796694e+00,-5.142334681675712060e-01
-3.665181538068467137e+00,-8.318564300230624653e+00,-2.013112467302109465e-01
-3.847765502645597024e+00,-8.297810443389414203e+00,2.045565816939130255e-01
-3.739942375177213840e+00,-8.346975002192950299e+00,4.245116256465666926e-01
-3.757913515089677414e+00,-8.371951868233150407e+00,8.519696784234199738e-01
-3.797049958851259177e+00,-8.416385992253237802e+00,1.160150120681354924e+00
-1.547590856841135620e+00,-3.667255226816006797e+00,-1.001142739794937953e+00
-1.944095301004437282e+00,-4.358414317563394924e+00,-1.060333881218333163e+00
-2.285119438075913667e+00,-5.305537311114727927e+00,-1.072819493397451973e+00
-2.981015553305388810e+00,-6.836237570734278179e+00,-1.276142477160303379e+00
-3.779579257867501596e+00,-8.601649697729408572e+00,-1.102042468068912040e+00
-3.740853938573125426e+00,-8.805280909043680992e+00,-8.026073672489801858e-01
-3.787503531038251658e+00,-8.557726601257936494e+00,-4.862949695271744921e-01
-3.763774345252400622e+00,-8.550359481926363969e+00,-1.887009942772648330e-01
-3.809545686481192295e+00,-8.746508050170808346e+00,2.051452305110678387e-01
-3.889528393866406031e+00,-8.676629655420164511e+00,5.105946361492079699e-01
-3.769371247258504365e+00,-8.715394244843540861e+00,8.763665700200449216e-01
-3.747083057823846985e+00,-8.750530310511145160e+00,1.074883012503587087e+00
-1.591474184735614417e+00,-3.647421270557009265e+00,-1.157103142566958676e+00
-1.860869982189921279e+00,-4.408527275594969375e+00,-1.134273711561707643e+00
-2.305370198140887172e+00,-5.418932335631500230e+00,-1.105775365313164116e+00
-2.901993895731799000e+00,-6.904709257097970010e+00,-1.241365531007203815e+00
-3.788321002852800934e+00,-8.989301936629422229e+00,-1.128599904005135990e+00
-3.834854752452660165e+00,-8.977689637374609788e+00,-8.551513610290221168e-01
-3.832603862818203755e+00,-8.961251778414085933e+00,-5.382817500723937609e-01
-3.769240165948940735e+00,-8.930269062802322466e+00,-1.898577067206907998e-01
-3.764277950260576322e+00,-8.964712472543304500e+00,1.270450740679807400e-01
-3.747761128025308253e+00,-9.075883879001999333e+00,4.656844961844266995e-01
-3.784400898919197509e+00,-9.062569917468895397e+00,8.691290706901148022e-01
-3.743385319990520710e+00,-9.025147728606212283e+00,1.247392776546321969e+00
-1.520676616894304223e+00,-3.731330083872054892e+00,-1.140208203541229315e+00
-1.773778259748054698e+00,-4.334655225078258844e+00,-1.096144170237650650e+00
-2.233008314898244251e+00,-5.441059293674323172e+00,-1.227361224151336305e+00
-2.879280871428369970e+00,-6.946967062641805413e+00,-1.194785565775086544e+00
-3.711988317583849728e+00,-9.345432807224788974e+00,-1.190050517402000851e+00
-3.764322602444709620e+00,-9.327079637419036118e+00,-8.945225838228100246e-01
-3.783647755212403485e+00,-9.311909492828418067e+00,-5.148086977540747844e-01
-3.798476804130240581e+00,-9.385643361529400153e+00,-1.592150977740726947e-01
-3.703197013026282125e+00,-9.406125468092989550e+00,1.500890288385567928e-01
-3.768213580190677092e+00,-9.387266595741246888e+00,5.822550553490323244e-01
-3.825092142154507879e+00,-9.346260421872003121e+00,1.002420057074351778e+00
-3.826562199697895572e+00,-9.328484979823048917e+00,1.238683750807196171e+00
-1.410354240106341361e+00,-3.710664316427309650e+00,-1.135616349155643245e+00
-1.716472248464416150e+00,-4.425083854461198563e+00,-1.082790662013710437e+00
-2.111568985355196659e+00,-5.506833649496434724e+00,-1.169420757092158203e+00
-2.737675090386867183e+00,-6.896101761708405498e+00,-1.128965801208076325e+00
-3.698818160102546493e+00,-9.704335958134807427e+00,-1.305027267155568493e+00
-3.766476443036666399e+00,-9.716888684477900995e+00,-8.996972819802230292e-01
-3.752147125860065824e+00,-9.607171294500634673e+00,-5.744696737770661477e-01
-3.639950002440773602e+00,-9.651634052223156957e+00,-2.360435951223782691e-02
-3.736708822727201618e+00,-9.727882941791044402e+00,2.528223542377554534e-01
-3.779593843835272970e+00,-9.766676186542360583e+00,5.488026792550926292e-01
-3.734368990113217102e+00,-9.739125903669977546e+00,9.325013082465442027e-01
-3.698827435695196897e+00,-9.732671290141912124e+00,1.205602494259176982e+00
-1.327951290714859178e+00,-3.776944429685466176e+00,-1.057038425532802028e+00
-1.740194720333398504e+00,-4.492707265092788838e+00,-1.082279790277631326e+00
-2.095350824827048708e+00,-5.465570329919732018e+00,-1.146904908472845097e+00
-2.706247264724535029e+00,-7.114423519530395978e+00,-1.174897055502285070e+00
-3.672260128105410359e+00,-9.887831286213108584e+00,-1.330124109575791191e+00
-3.650986351878989122e+00,-1.012486625891825476e+01,-9.511128574020328852e-01
-3.666972096969983053e+00,-1.012979007208632787e+01,-6.078852484041837867e-01
-3.827318992620280635e+00,-1.004596023881769895e+01,-2.202493766104708373e-01
-3.645650603039427562e+00,-1.016490017129397927e+01,2.077900640193369175e-01
-3.682821073447415383e+00,-1.010542787378751406e+01,5.103766309047008676e-01
-3.818427270096981463e+00,-1.006470206952953639e+01,9.999566501084771186e-01
-1.439812827174267618e+00,-3.810578416457280682e+00,-1.139529934384845511e+00
-1.539653923119395085e+00,-4.500522449017655191e+00,-1.076358293728480797e+00
-1.898545941159341055e+00,-5.478156338691544391e+00,-1.157598617960086340e+00
-2.531839761067274708e+00,-7.090258072960966551e+00,-1.194758393405775276e+00
-3.583394932864111926e+00,-1.004675303209367776e+01,-1.227390253984513180e+00
-3.772021815879890827e+00,-1.047970184486004186e+01,-9.396451086110819695e-01
-3.772154408985211038e+00,-1.048430143654729996e+01,-4.961783644840707108e-01
-3.761034541305437351e+00,-1.043214738894822879e+01,-2.152278263975902772e-01
-3.780509807515295861e+00,-1.054652228907095690e+01,1.215269138280722361e-01
-3.749429718492951924e+00,-1.052436296981709241e+01,5.296777328233585047e-01
-3.701143407060554225e+00,-1.055790578875853392e+01,1.027893836975698250e+00
-1.201285843931093833e+00,-3.688785662416146138e+00,-1.068560753294504950e+00
-1.544345862348372345e+00,-4.545602062235715835e+00,-1.094636503639561109e+00
-1.883202104322348358e+00,-5.638501722935360227e+00,-1.162532832090171997e+00
-2.365643744692337069e+00,-7.022846009636431575e+00,-1.145319147925597747e+00
-3.425833121333079934e+00,-1.010514218084575866e+01,-1.382245936933514496e+00
-3.721703029754924508e+00,-1.089063704299210578e+01,-9.851569122387366928e-01
-3.626742924553906899e+00,-1.087247392409001279e+01,-5.859117659477670603e-01
-3.631237653913342189e+00,-1.105546928739369150e+01,-1.762031147918511342e-01
-3.702410483157904331e+00,-1.092357579511054055e+01,2.667493158797460406e-01
-3.599226059864246707e+00,-1.107911067864351295e+01,5.806361835987734477e-01
-3.827168828618972896e+00,-1.097567193174415401e+01,9.856389054699367103e-01
-1.246052973171941636e+00,-3.751829599033596363e+00,-9.833334326636176126e-01
-1.449794370167353241e+00,-4.470395000786187900e+00,-1.134445265937025882e+00
-1.755020887877424052e+00,-5.583146216892286517e+00,-1.154274039542693808e+00
-2.346534921336287827e+00,-7.211786784768078107e+00,-1.184634107627500654e+00
-3.343879722714516500e+00,-1.021031487680825300e+01,-1.301006505561654203e+00
-3.638354138355089695e+00,-1.132608720301572269e+01,-1.028391293740378742e+00
-3.624251623907319253e+00,-1.142997145339287179e+01,-6.245228428383401420e-01
-3.756298903299744474e+00,-1.141997593402822808e+01,-2.086040540753202055e-01
-3.602022611315508271e+00,-1.137442343871017236e+01,2.987596805581785864e-01
-3.632201706727033574e+00,-1.144043355192845546e+01,6.242119054599222228e-01
-3.654577366494696999e+00,-1.147941530619762851e+01,1.055808888088945796e+00
-1.098728865413400424e+00,-3.827561579839021011e+00,-1.155746674403211660e+00
-1.416208993514544323e+00,-4.523172856887311966e+00,-1.146563275219387279e+00
-1.764272257804059718e+00,-5.561957194053621656e+00,-1.152957056166552308e+00
-2.280444987407622470e+00,-7.121620459503231970e+00,-1.130435092178955658e+00
-3.040854504155547033e+00,-9.990534523845161274e+00,-1.308018572523943490e+00
-3.641867824574535728e+00,-1.193486593090696779e+01,-1.066438286202485930e+00
-3.611132272159573997e+00,-1.196314964200336561e+01,-5.987453707562238048e-01
-3.654402722826878502e+00,-1.192748723872611727e+01,-1.394865593654984193e-01
-3.575785904423708583e+00,-1.185367063814676669e+01,1.883726407799648228e-01
-3.696152800540557060e+00,-1.195140892584915981e+01,5.989875299567920530e-01
-3.717659571700185683e+00,-1.190586662442933275e+01,1.105192202410985924e+00
-1.066447949648896776e+00,-3.841663753742746490e+00,-1.062453074801877895e+00
-1.224209808893372164e+00,-4.612950154779109191e+00,-1.074253443071714109e+00
-1.675416018438849797e+00,-5.586389827541068165e+00,-1.108801675367778738e+00
-2.032554365149970899e+00,-7.251558301132852158e+00,-1.205359773531696987e+00
-2.955730421330069912e+00,-1.008826427921668767e+01,-1.282534889660900568e+00
-3.640526028099004385e+00,-1.247614125404951579e+01,-1.100088474226507795e+00
-3.630927243522535708e+00,-1.241649154815361200e+01,-6.798506620743471895e-01
-3.587431790418262878e+00,-1.255326643184190161e+01,-1.795250886514699051e-01
-3.652229170750046272e+00,-1.250073719611094880e+01,2.097082224526903571e-01
-3.694854591073517103e+00,-1.250564141245933847e+01,6.343377522764706011e-01
-3.658570969617992663e+00,-1.253650401874953069e+01,1.216633973504267052e+00
-1.036731207671475197e+00,-3.862272820304997190e+00,-1.017893519591302809e+00
-1.266228833958239486e+00,-4.579946548432549669e+00,-1.205267702213797643e+00
-1.589902542091516935e+00,-5.631443467708837858e+00,-1.138755027952957910e+00
-2.010886177401530528e+00,-7.249040765979275491e+00,-1.187258145023066147e+00
-2.794789743656130199e+00,-1.021681440019126441e+01,-1.315077225126463967e+00
-3.523821142159117681e+00,-1.305064569392835416e+01,-1.150054616048643119e+00
-3.559212167373810853e+00,-1.315522212828179249e+01,-7.429549846764995635e-01
-3.730443735674950023e+00,-1.323199146494794221e+01,-2.257362382354901054e-01
-3.587399455653260016e+00,-1.308755797209802196e+01,1.765552259950325942e-01
-3.637141636160871716e+00,-1.311680301533934490e+01,7.751863898571246247e-01
-9.813173789156226512e-01,-3.893722206016041465e+00,-1.047438247152673974e+00
-1.221069148054778841e+00,-4.603733500035556148e+00,-1.130141650363289285e+00
-1.559326785616852895e+00,-5.665425039119464934e+00,-1.059824337747131917e+00
-1.818777966287117520e+00,-7.236805984187880902e+00,-1.223817016492200427e+00
-2.671627109927275256e+00,-1.029632933359351021e+01,-1.288301987659869141e+00
-3.510308678952180017e+00,-1.377360623516666216e+01,-1.257700206989052161e+00
-3.593555743400386415e+00,-1.377517082339526233e+01,-7.203086309833870438e-01
-3.621699282231559458e+00,-1.384095351032624421e+01,-2.433904353782301855e-01
-3.629174092568917320e+00,-1.381466336840318299e+01,2.002630987724173250e-01
-3.588663580571240797e+00,-1.380728073762782238e+01,6.564615541886973382e-01
-9.991977080306255754e-01,-3.882340071171409335e+00,-1.075001736498475635e+00
-1.115868852077288365e+00,-4.657836256077778181e+00,-1.113836574515597810e+00
-1.468337254237366052e+00,-5.702619623057575637e+00,-1.086936119117170696e+00
-1.791421340009608398e+00,-7.412561719729481524e+00,-1.223415766607020450e+00
-2.494642449905311476e+00,-1.038842419590627308e+01,-1.291987933972096103e+00
-3.550024714527327596e+00,-1.444267757429432564e+01,-1.249728339688186862e+00
-3.553434288233362714e+00,-1.449341408553909005e+01,-7.389450822076610859e-01
-3.503094928504375094e+00,-1.454319856944079881e+01,-2.079478242691594758e-01
-3.615867838854411431e+00,-1.456817099804885451e+01,1.934420681803517561e-01
-3.580319260831916761e+00,-1.464055918054850203e+01,8.136807915429152827e-01
-1.017297004075701228e+00,-3.963963703722177545e+00,-1.116951868087414201e+00
-1.046080079909755600e+00,-4.688509863388220289e+00,-1.027004518585039161e+00
-1.377014514028832348e+00,-5.625403127970362682e+00,-1.084396579807191729e+00
-1.666068010303674685e+00,-7.341065012420628477e+00,-1.132751198172304186e+00
-2.496548599003903579e+00,-1.030169782881893070e+01,-1.377842152621003624e+00
-3.578548928332933254e+00,-1.521698323898030303e+01,-1.388835579470935278e+00
-3.508025517088609213e+00,-1.525651706719835587e+01,-8.423937909393854895e-01
-3.602825224658798842e+00,-1.530680352059843941e+01,-2.244394963523754505e-01
-3.502262559189448066e+00,-1.541554124107500989e+01,3.067828149667058968e-01
-3.457069135948504623e+00,-1.537749024364325656e+01,8.280769212744788499e-01
-8.075237359409018767e-01,-3.934433184986614762e+00,-9.651439506200094609e-01
-1.047533968637185620e+00,-4.595743545263070828e+00,-1.175904039173695903e+00
-1.268051665361574765e+00,-5.620667437677022704e+00,-1.158636961724734071e+00
-1.559753052150208985e+00,-7.346896240905981479e+00,-1.142164695150339027e+00
-2.350104390629201845e+00,-1.020722472468516528e+01,-1.187510510729278490e+00
-3.450021276920146374e+00,-1.620252547386153097e+01,-1.468387254755229909e+00
-3.506870803223104183e+00,-1.628178143790466947e+01,-8.575357296495575987e-01
-3.536496066521639392e+00,-1.629497102368760508e+01,-3.202668087526011620e-01
-3.591741985982772611e+00,-1.632183086519196635e+01,2.416562878472577336e-01
-3.602816694199508341e+00,-1.632220050980183856e+01,8.057810156092530818e-01
-7.589907839298840608e-01,-3.971968207826052755e+00,-1.120637030354069141e+00
-8.914009196599780305e-01,-4.654241219185151657e+00,-1.089907164476365153e+00
-1.134798190349110447e+00,-5.716663285965732477e+00,-1.195167070525016806e+00
-1.461527341909593325e+00,-7.357234905491890409e+00,-1.103476376407224624e+00
-2.031747867813189945e+00,-1.036369078840805003e+01,-1.277902834994367520e+00
-3.418554343829181441e+00,-1.732452015641256793e+01,-1.491917897030772489e+00
-3.395469500288376352e+00,-1.729647213875353273e+01,-9.708459650477793135e-01
-3.377755895741796799e+00,-1.736412457982334345e+01,-4.343965823271459525e-01
-3.473806257088995597e+00,-1.733501431027501738e+01,2.572994159389702662e-01
-3.441109520172302538e+00,-1.733455590140284031e+01,9.581245454514969451e-01
-7.152731206708431433e-01,-3.899004090455016058e+00,-1.098300752421202509e+00
-9.006183064295802954e-01,-4.715520868090722573e+00,-1.075071416655095646e+00
-1.008461097431451847e+00,-5.811242941009842511e+00,-1.158517905509389934e+00
-1.368449104139622730e+00,-7.356428317346979995e+00,-1.221977206902717716e+00
-1.866142151286863671e+00,-1.047976067123013699e+01,-1.289390170584455042e+00
-3.261093472640245849e+00,-1.758338894454877277e+01,-1.561279944448554113e+00
-3.474898708605829611e+00,-1.837905079834264299e+01,-1.075536857813588654e+00
-3.358046213454373596e+00,-1.847979440570509624e+01,-3.842498829059768362e-01
-3.432161501161521855e+00,-1.842393791144936799e+01,2.815111026217979040e-01
-3.390074867927057589e+00,-1.833775720488391059e+01,9.346770492977100053e-01
-7.449731881795359500e-01,-3.990315049101987643e+00,-1.117894781518993685e+00
-6.991704624005116164e-01,-4.699880462774335577e+00,-1.059563454044874842e+00
-9.868767204008735971e-01,-5.730946168328508783e+00,-1.137688543367140870e+00
-1.295742490237075772e+00,-7.345685900640186894e+00,-1.166309052178862160e+00
-1.726836366705617243e+00,-1.037955040957375630e+01,-1.321759391238233050e+00
-2.910635407501242167e+00,-1.719241512838124919e+01,-1.492691371383836119e+00
-3.296272133413261418e+00,-1.970144340020152640e+01,-1.010048848009526434e+00
-3.400030740154518227e+00,-1.981768212559405029e+01,-3.621714735120797335e-01
-3.317005052380610053e+00,-1.977858067693417254e+01,3.111109323996008591e-01
-6.009545621260035109e-01,-3.940594538109378320e+00,-1.137218507567598014e+00
-6.588026261868983324e-01,-4.724212157630453213e+00,-1.083858998610515600e+00
-9.026101372481790674e-01,-5.744550404053735626e+00,-1.158465905580617461e+00
-1.190247963105973472e+00,-7.494880188115057074e+00,-1.192744648611267611e+00
-1.640515882544067106e+00,-1.045236823797659120e+01,-1.312244389706962222e+00
-2.708691418359957304e+00,-1.728224590393294591e+01,-1.535392485285156150e+00
-3.358784177178417707e+00,-2.130568337749201291e+01,-1.057620759208105499e+00
-3.286942558327158093e+00,-2.123006770665744369e+01,-3.811832911427834314e-01
-3.228192292237986205e+00,-2.124477155015570062e+01,3.906962750698769749e-01
-5.320988928288613584e-01,-4.007277108453405567e+00,-1.153006236748019386e+00
-6.535383070446213472e-01,-4.680832981113733027e+00,-1.083413423275804144e+00
-8.316985671095057375e-01,-5.767183969363368412e+00,-1.048266136244815572e+00
-9.737159184756184471e-01,-7.419007871736747362e+00,-1.260202616510845974e+00
-1.553677506972700906e+00,-1.056036256371351101e+01,-1.386805843302551411e+00
-2.517356758325532073e+00,-1.747499015140610368e+01,-1.647410598478599608e+00
-3.200371521519477014e+00,-2.292935862191305674e+01,-1.218834606980841340e+00
-3.288524885206538517e+00,-2.292081610700931549e+01,-4.697246177354878482e-01
-3.152172278529187022e+00,-2.297086019024577297e+01,3.447631279534763560e-01
-4.015470955872722514e-01,-3.925122361958447659e+00,-1.025775476557272858e+00
-6.034304026050699710e-01,-4.665419485559892721e+00,-9.494958370666478631e-01
-7.158084535635610424e-01,-5.882055094445648891e+00,-1.218200479612906229e+00
-9.656475071615941985e-01,-7.487098917948221910e+00,-1.118942661017541917e+00
-1.340241830143852786e+00,-1.043331774745387541e+01,-1.348457353413792692e+00
-2.281833894616705827e+00,-1.752115555272151326e+01,-1.492446259755320526e+00
-3.173938353405895807e+00,-2.483376894052521422e+01,-1.332640450164528145e+00
-3.128861393446344064e+00,-2.492920024363007769e+01,-4.532957044958311754e-01
-3.116082860336621074e+00,-2.493514025241572440e+01,4.506312763725041082e-01
-3.981445207670278319e-01,-4.006909416023108683e+00,-1.047983987276010387e+00
-4.696733560660500406e-01,-4.693546360551366092e+00,-1.042177937651885822e+00
-5.373000739034408113e-01,-5.642242695830352872e+00,-1.188284233626326403e+00
-7.920569334814357987e-01,-7.486145773705334072e+00,-1.228122578436322998e+00
-1.119516193106194768e+00,-1.050454271702047038e+01,-1.297321361972986864e+00
-1.917783611503522279e+00,-1.765162963446175937e+01,-1.636274862377162798e+00
-3.031407423736947493e+00,-2.741260524049119596e+01,-1.288428819326831842e+00
-3.072902041627787462e+00,-2.737633303181992517e+01,-4.595300556626809585e-01
-3.007913465906077555e+00,-2.735966850887830759e+01,5.262073705882445163e-01
-3.550330950208334668e-01,-3.977181768900978742e+00,-1.110195723347564556e+00
-3.617760545566935382e-01,-4.713067922102379903e+00,-1.124942665758534188e+00
-4.150104015046588435e-01,-5.855830465828015363e+00,-1.101701632534154207e+00
-7.065188396337053200e-01,-7.562445082918865857e+00,-1.263374273457206654e+00
-1.053603803249758331e+00,-1.056231179062695524e+01,-1.241273343432151899e+00
-1.719031838894065523e+00,-1.728050042054760382e+01,-1.442385264883891294e+00
-2.970843852627869985e+00,-3.007752050631242824e+01,-1.537143942226696147e+00
-3.019318338556601145e+00,-3.025177740829749240e+01,-6.379117275489032401e-01
-2.990659065314688725e+00,-3.016146669617640086e+01,4.979998114304739487e-01
-2.778782364120345738e-01,-4.013809690144307218e+00,-1.090411390599593355e+00
-3.649699732001987496e-01,-4.748407728298206898e+00,-1.063019214257145073e+00
-4.607374682050797698e-01,-5.825403267892669490e+00,-1.189931142260845176e+00
-6.924219153174312469e-01,-7.484298880809281407e+00,-1.205298697566735910e+00
-6.569872660050397606e-01,-7.764453428232060084e+00,-9.961027724442603759e-01
-5.977528587940628135e-01,-7.780546172510423908e+00,-7.679764580041497091e-01
-5.847842850697453354e-01,-7.786037306800023039e+00,-4.106816521407786191e-01
-6.643691987861567450e-01,-7.665744883325260162e+00,-4.775675130865338069e-02
-6.769619194968529152e-01,-7.835263600284878116e+00,2.742113533229776356e-01
-6.415301598292005858e-01,-7.769001280019526057e+00,3.888759387828832903e-01
-6.306537684666303489e-01,-7.725591697003278746e+00,6.618321383651362133e-01
-6.392695844824852758e-01,-7.824167883161658565e+00,1.072366568680265475e+00
-6.161408736984619328e-01,-7.885427535990194414e+00,1.137256757421597486e+00
-2.616952630150394810e-01,-3.987903438158112657e+00,-1.058721994841885117e+00
-3.417427658849725436e-01,-4.738540762356079128e+00,-1.080787390236511047e+00
-3.951111065001142175e-01,-5.797699979596550257e+00,-1.091310594435190851e+00
-4.434175740440050029e-01,-5.822817623715328850e+00,-8.745299147856070432e-01
-4.471986584137068177e-01,-5.930845049186879159e+00,-8.145077392773896197e-01
-4.577928204023749559e-01,-5.910382886394522473e+00,-4.701227416007467408e-01
-4.034755398866153309e-01,-5.828779172492592586e+00,-1.745843184844421137e-01
-3.925690745719525032e-01,-5.800932218957967734e+00,-1.221474219603420341e-01
-3.969257096991821165e-01,-5.919817885094817989e+00,1.112736258209803403e-01
-3.774115067664639556e-01,-5.914603721775044676e+00,4.051712245986336391e-01
-3.854322184658036665e-01,-5.895838845873676348e+00,5.117433582328759778e-01
-3.898144725168650182e-01,-5.905895033153728768e+00,8.046614504543065927e-01
-3.761764373182706067e-01,-5.961500598647303306e+00,9.557830952514198009e-01
-3.810779603141111194e-01,-5.843964593658615314e+00,1.037501035191184862e+00
-4.925177673242865373e-01,-5.886891686973038773e+00,1.357690706282457471e+00
-1.694156953295291590e-01,-3.955634862689781261e+00,-1.146598883286645831e+00
-2.107485136593277297e-01,-4.650776328542204574e+00,-1.119390635180864235e+00
-1.977097622724891812e-01,-4.530673155027441723e+00,-9.101488488250298881e-01
-2.794379624217310787e-01,-4.627517192833541237e+00,-7.449876807408318813e-01
-1.895716359844204502e-01,-4.580432185889027785e+00,-5.852041753669928736e-01
-1.678554850612996308e-01,-4.570805380855327726e+00,-3.071198165779775446e-01
-2.614659604716579322e-01,-4.731992867462926355e+00,-2.510176552750414958e-01
-2.481927018026258425e-01,-4.736028158578871938e+00,-9.309765996640305408e-02
-1.820590835462573831e-01,-4.677408547193989463e+00,4.182369291092002950e-02
-3.644773239610315518e-01,-4.682409552217762005e+00,2.146486703668374907e-01
-2.859130791394731697e-01,-4.686187062364055578e+00,4.034526912401303345e-01
-1.847978875127586074e-01,-4.698428234730854136e+00,5.637191698824786101e-01
-1.814851093729255016e-01,-4.665322981575386940e+00,7.375095454979677667e-01
-2.219782286803839433e-01,-4.676833473939066899e+00,8.530276879519613775e-01
-2.006052054085256942e-01,-4.619733956834529032e+00,1.038818218939489224e+00
-1.696326254935470457e-01,-3.848603199558366939e+00,-1.022997042690963809e+00
-1.190387257992399084e-01,-3.834469632823405583e+00,-8.825545081322296870e-01
-1.852379521636032256e-01,-3.949290746547832409e+00,-8.826487472677370105e-01
-1.818852388139014231e-01,-3.852824149166400147e+00,-5.222859473917462747e-01
-1.245003769618758666e-01,-3.930636175441097446e+00,-3.961192217808248706e-01
-1.573304907641828732e-01,-3.838573784312842907e+00,-3.256432406571027061e-01
-1.515843468651531800e-01,-3.971092481644630467e+00,-3.061918789941781016e-01
-1.345773956913513536e-01,-3.938934439211510874e+00,-5.330652701853397235e-02
-1.298895627049417301e-01,-3.873375067773703329e+00,1.240164460855308626e-02
-1.685371583813864427e-01,-3.842005724026339220e+00,1.446697864046538329e-01
-2.118438363472737729e-01,-3.978497334260114204e+00,2.998537222711776806e-01
-1.814277893234229055e-01,-4.009166257004154410e+00,4.957431226447389094e-01
-1.561419764848210323e-01,-3.838600926372779831e+00,5.834728463564895495e-01
-2.790803842465007789e-01,-3.984142014743482285e+00,8.033124740261742280e-01
-1.038470145930547039e-01,-3.953063785770182914e+00,8.407903255360136274e-01
-4.215777513596602466e-02,-3.292331544606645455e+00,-8.618975767429398749e-01
-8.241569897115014198e-02,-3.272891735393630874e+00,-7.326748664695703628e-01
-4.120640192326514850e-02,-3.365184530814100405e+00,-6.983419369969781076e-01
-2.470746140313091060e-02,-3.365594880733628891e+00,-5.265949029850112151e-01
-1.522389805990364553e-01,-3.310820785570038449e+00,-4.327915498277531969e-01
-6.402221326350891750e-02,-3.362352695160633065e+00,-2.945687634551983347e-01
-1.143611949479429457e-01,-3.275551352946395323e+00,-1.577841459469217500e-01
-1.133326702140997622e-01,-3.359460237723335574e+00,-2.020969425442086659e-02
-1.839239987798288456e-01,-3.346863267502413031e+00,1.202238506131518003e-01
-1.358027885701119097e-01,-3.368018492961607713e+00,1.304182128933234486e-01
-9.876636004931088619e-02,-3.330058216606273547e+00,2.236406801449574988e-01
-1.106796663357017263e-01,-3.287654929758770272e+00,3.443539408122774370e-01
-9.761156650404453905e-02,-3.330888675757523565e+00,5.126548955211506220e-01
-1.044548770428024020e-01,-3.311697519650417920e+00,7.058553502578657213e-01
-1.109160564033338514e-01,-3.331445392542474515e+00,7.589968679047780498e-01
-1.062439776000591168e-01,-2.916427830344385352e+00,-8.124347573619384866e-01
1.922722569065026671e-02,-2.933082382139777344e+00,-6.237488853291286439e-01
1.006855820006344604e-01,-2.908162841281016764e+00,-6.042470028266125892e-01
-6.862768397389858166e-02,-2.926768247843074988e+00,-5.204395122908910265e-01
-6.936947642951482584e-02,-2.934258345699823689e+00,-3.810680587368276417e-01
3.787902889759407754e-02,-2.927267549339615638e+00,-3.638329666294848885e-01
-1.160897908675150303e-01,-2.951105786670150000e+00,-1.267435783715732400e-01
-3.637382990372764469e-02,-2.863259846346920323e+00,-6.642101895841068249e-02
-6.532508899453917661e-02,-2.997196306656733977e+00,1.056953653301859891e-01
-5.980282901886081054e-02,-2.961805253349158118e+00,1.016777953673558554e-01
8.256547717370697759e-02,-2.990952144892708997e+00,2.248471522335329931e-01
-7.869968825084586173e-02,-2.849642718496599336e+00,3.915129242943621302e-01
-9.769478265059895750e-02,-2.945732032920777232e+00,5.006571656386339386e-01
1.889006181828809666e-02,-2.938347073287865374e+00,5.580596430674610309e-01
-8.025470449890850788e-02,-2.896530726164980418e+00,7.016827130400304924e-01
-5.693430621782342993e-02,-2.502876302424721366e+00,-7.099347777542909244e-01
1.179575975499097713e-02,-2.516841178596198603e+00,-7.011795707259125265e-01
7.543246373491534207e-02,-2.479383626438765642e+00,-5.336641126177471550e-01
-1.177845510102160792e-02,-2.602219177237527159e+00,-4.464020224962980121e-01
-1.539021325437839663e-02,-2.668830024337978557e+00,-3.373863917416573543e-01
1.967417665423866480e-02,-2.625323675615756081e+00,-2.683449880329350501e-01
1.262084644489892826e-02,-2.495150880441701968e+00,-1.862700746673066898e-01
9.900073960573319010e-02,-2.508888846752740598e+00,-3.267209695550712945e-02
8.282309942953468285e-02,-2.621854902323318193e+00,5.869457350608142665e-02
2.821093780615321726e-03,-2.506929326989543849e+00,1.690437067164689833e-01
-3.050458589967757622e-02,-2.637027973560233107e+00,1.795543754521965463e-01
-4.112880583469559481e-02,-2.595989148611748121e+00,3.455121668957559788e-01
-1.240461181859581208e-02,-2.673943093341719202e+00,3.392288371826970850e-01
5.362532998043723076e-02,-2.589211646945615009e+00,5.259989256733300644e-01
2.561084093720350854e-02,-2.636081885627076904e+00,7.320625522895963799e-01
5.685238902378933479e-02,-2.375542198584448261e+00,-6.407529212670977081e-01
1.247870274366201515e-02,-2.276503972467699199e+00,-5.061599523261948175e-01
5.857120160338642745e-02,-2.275849577478398000e+00,-5.247838315046475799e-01
9.013379431837237332e-02,-2.318501418322889140e+00,-4.916690708150456279e-01
5.270970538736889643e-02,-2.359179833312134988e+00,-2.768352564542189143e-01
-7.228995039494645614e-05,-2.371523213034340660e+00,-2.360960079715419269e-01
8.512670674032668527e-02,-2.317211025347140296e+00,-1.373654470666606231e-01
8.418796403986142374e-03,-2.214948772459684356e+00,-2.535340760257608766e-02
8.496830072757495522e-02,-2.272511276048787110e+00,4.463852091827051616e-02
6.435898778423615463e-02,-2.332469630421642126e+00,1.651255196745693710e-01
5.076540981462290825e-03,-2.240403705558270619e+00,2.563331112734809070e-01
-7.068924178920484025e-02,-2.443553606913446696e+00,2.246864260206619668e-01
-2.629628341916004364e-02,-2.408592755807464236e+00,3.471974338939337046e-01
1.447015640415307836e-01,-2.289532978136436636e+00,4.066346769245778869e-01
8.935933500610007685e-02,-2.432211819122912289e+00,5.160175165527690622e-01
4.358588092503705436e-02,-2.122992584969364049e+00,-4.346967283196551124e-01
-3.807008376471854305e-03,-2.136395966528277679e+00,-5.447519477897084794e-01
9.778337309340257022e-02,-2.138336993705584277e+00,-4.129237663489787602e-01
3.240793249544464405e-02,-2.049048950637257338e+00,-4.159173294947794419e-01
4.865591516358265534e-02,-2.114058274913124258e+00,-1.702027299644686409e-01
1.067208567705666411e-01,-2.124883567833314668e+00,-1.220492499710177370e-01
2.969895517429399501e-02,-2.088992953351939352e+00,-5.403563864252712567e-02
1.620697801178676289e-01,-2.131890490475159439e+00,-4.779596209639767890e-02
9.221204527096465986e-02,-2.137113646029837444e+00,-2.085732274698063465e-02
1.464901786043836251e-01,-2.092585312241864504e+00,1.255033538333622800e-01
6.654797810361265387e-02,-2.147710098198107431e+00,2.317931090189166154e-01
1.187829930310777826e-01,-2.078308642149373497e+00,2.532056519495086144e-01
