4.697700977325439453e+00,7.463624954223632812e+00,-1.539353281259536743e-01
4.706336498260498047e+00,7.477344989776611328e+00,1.542183011770248413e-01
4.711537361145019531e+00,7.485608100891113281e+00,4.635428190231323242e-01
4.720546245574951172e+00,7.499920845031738281e+00,7.753101587295532227e-01
4.716277599334716797e+00,7.493139266967773438e+00,1.087112665176391602e+00
2.090265989303588867e+00,3.428872823715209961e+00,-1.076019763946533203e+00
2.482986450195312500e+00,4.073091506958007812e+00,-1.101297497749328613e+00
3.064046621322631836e+00,5.026262283325195312e+00,-1.144231438636779785e+00
3.945250988006591797e+00,6.471790313720703125e+00,-1.200475692749023438e+00
4.546630382537841797e+00,7.458293437957763672e+00,-1.072505831718444824e+00
4.550099372863769531e+00,7.463984012603759766e+00,-7.647842168807983398e-01
4.561555862426757812e+00,7.482776641845703125e+00,-4.592773020267486572e-01
4.560883522033691406e+00,7.481674194335937500e+00,-1.529455035924911499e-01
4.567723274230957031e+00,7.492894172668457031e+00,1.531748622655868530e-01
4.578005790710449219e+00,7.509761810302734375e+00,4.609335660934448242e-01
4.577598094940185547e+00,7.509092807769775391e+00,7.694062590599060059e-01
4.579257011413574219e+00,7.511814117431640625e+00,1.080202102661132812e+00
2.041726112365722656e+00,3.459705352783203125e+00,-1.076414227485656738e+00
2.424522876739501953e+00,4.108354568481445312e+00,-1.101336121559143066e+00
2.963673830032348633e+00,5.021945953369140625e+00,-1.133475542068481445e+00
3.856424808502197266e+00,6.534712314605712891e+00,-1.201785206794738770e+00
4.407176494598388672e+00,7.467961311340332031e+00,-1.064715743064880371e+00
4.415553092956542969e+00,7.482155323028564453e+00,-7.600923776626586914e-01
4.424790859222412109e+00,7.497808933258056641e+00,-4.562658965587615967e-01
4.423332691192626953e+00,7.495337963104248047e+00,-1.519149690866470337e-01
4.431350708007812500e+00,7.508924007415771484e+00,1.521903276443481445e-01
4.434865474700927734e+00,7.514880180358886719e+00,4.573047459125518799e-01
4.441139698028564453e+00,7.525511741638183594e+00,7.644968628883361816e-01
4.451977729797363281e+00,7.543877124786376953e+00,1.075539231300354004e+00
1.993555784225463867e+00,3.491293668746948242e+00,-1.077253937721252441e+00
2.356224775314331055e+00,4.126431941986083984e+00,-1.097028851509094238e+00
2.911065578460693359e+00,5.098118782043457031e+00,-1.141146779060363770e+00
3.744248151779174805e+00,6.557262897491455078e+00,-1.195953726768493652e+00
4.277603149414062500e+00,7.491322517395019531e+00,-1.059208631515502930e+00
4.282460212707519531e+00,7.499828338623046875e+00,-7.555834054946899414e-01
4.287996292114257812e+00,7.509523868560791016e+00,-4.531974196434020996e-01
4.291097164154052734e+00,7.514954566955566406e+00,-1.510522216558456421e-01
4.301265239715576172e+00,7.532761573791503906e+00,1.514101475477218628e-01
4.301657676696777344e+00,7.533448696136474609e+00,4.546413123607635498e-01
4.312038898468017578e+00,7.551629066467285156e+00,7.608020901679992676e-01
4.316670894622802734e+00,7.559741020202636719e+00,1.068882465362548828e+00
1.935803294181823730e+00,3.505738973617553711e+00,-1.073051691055297852e+00
2.311257362365722656e+00,4.185685634613037109e+00,-1.103873610496520996e+00
2.835022449493408203e+00,5.134224414825439453e+00,-1.140028595924377441e+00
3.665423154830932617e+00,6.638079166412353516e+00,-1.201001644134521484e+00
4.144344806671142578e+00,7.505406379699707031e+00,-1.052704930305480957e+00
4.153523921966552734e+00,7.522029399871826172e+00,-7.517535090446472168e-01
4.155066013336181641e+00,7.524822235107421875e+00,-4.504853487014770508e-01
4.164422512054443359e+00,7.541767120361328125e+00,-1.503776460886001587e-01
4.166007995605468750e+00,7.544638156890869141e+00,1.504348814487457275e-01
4.166753768920898438e+00,7.545989036560058594e+00,4.517525136470794678e-01
4.178733825683593750e+00,7.567684650421142578e+00,7.563163042068481445e-01
4.183183193206787109e+00,7.575742721557617188e+00,1.062570214271545410e+00
1.886128664016723633e+00,3.534392356872558594e+00,-1.073448777198791504e+00
2.244538307189941406e+00,4.206011772155761719e+00,-1.100648641586303711e+00
2.758695840835571289e+00,5.169485092163085938e+00,-1.138973593711853027e+00
3.560932397842407227e+00,6.672785758972167969e+00,-1.197936534881591797e+00
4.022147655487060547e+00,7.537051200866699219e+00,-1.048961043357849121e+00
4.025033950805664062e+00,7.542459487915039062e+00,-7.479609251022338867e-01
4.034080982208251953e+00,7.559413433074951172e+00,-4.490534067153930664e-01
4.027296066284179688e+00,7.546699047088623047e+00,-1.493112891912460327e-01
4.043432712554931641e+00,7.576937198638916016e+00,1.499095559120178223e-01
4.045429229736328125e+00,7.580678462982177734e+00,4.503166079521179199e-01
4.042289733886718750e+00,7.574795246124267578e+00,7.511675953865051270e-01
4.053708076477050781e+00,7.596191883087158203e+00,1.057191848754882812e+00
1.838849782943725586e+00,3.567812681198120117e+00,-1.075495004653930664e+00
2.189222574234008789e+00,4.247620582580566406e+00,-1.103224039077758789e+00
2.677645206451416016e+00,5.195278167724609375e+00,-1.136095881462097168e+00
3.464912891387939453e+00,6.722767353057861328e+00,-1.197883367538452148e+00
3.894829988479614258e+00,7.556910991668701172e+00,-1.043859362602233887e+00
3.896218776702880859e+00,7.559605121612548828e+00,-7.440546154975891113e-01
3.902360916137695312e+00,7.571522712707519531e+00,-4.464089572429656982e-01
3.900541543960571289e+00,7.567992210388183594e+00,-1.486127525568008423e-01
3.904037952423095703e+00,7.574776172637939453e+00,1.487459689378738403e-01
3.913508892059326172e+00,7.593152046203613281e+00,4.476842284202575684e-01
3.922651290893554688e+00,7.610890388488769531e+00,7.491024136543273926e-01
3.919712305068969727e+00,7.605188369750976562e+00,1.050528049468994141e+00
1.782851338386535645e+00,3.584220170974731445e+00,-1.072638630867004395e+00
2.118413686752319336e+00,4.258830547332763672e+00,-1.098147630691528320e+00
2.610569000244140625e+00,5.248252868652343750e+00,-1.139392375946044922e+00
3.377150535583496094e+00,6.789377689361572266e+00,-1.201015949249267578e+00
3.763850927352905273e+00,7.566794872283935547e+00,-1.037676572799682617e+00
3.772680521011352539e+00,7.584546089172363281e+00,-7.411185503005981445e-01
3.774771451950073242e+00,7.588749885559082031e+00,-4.441936016082763672e-01
3.771948099136352539e+00,7.583073616027832031e+00,-1.478335708379745483e-01
3.783492088317871094e+00,7.606281757354736328e+00,1.482860147953033447e-01
3.784413099288940430e+00,7.608133316040039062e+00,4.453281760215759277e-01
3.793285131454467773e+00,7.625969409942626953e+00,7.451661825180053711e-01
3.791883230209350586e+00,7.623151302337646484e+00,1.045405030250549316e+00
1.738925457000732422e+00,3.625117301940917969e+00,-1.077318549156188965e+00
2.065146923065185547e+00,4.305187225341796875e+00,-1.102365970611572266e+00
2.537732839584350586e+00,5.290381431579589844e+00,-1.140535831451416016e+00
3.287155151367187500e+00,6.852693080902099609e+00,-1.203769922256469727e+00
3.635684251785278320e+00,7.579267978668212891e+00,-1.032144904136657715e+00
3.637064933776855469e+00,7.582146167755126953e+00,-7.357217669486999512e-01
3.642841339111328125e+00,7.594188213348388672e+00,-4.414146840572357178e-01
3.649479389190673828e+00,7.608026504516601562e+00,-1.472865790128707886e-01
3.657884359359741211e+00,7.625548362731933594e+00,1.476257890462875366e-01
3.659635543823242188e+00,7.629198551177978516e+00,4.434496760368347168e-01
3.670434236526489258e+00,7.651710510253906250e+00,7.424718737602233887e-01
3.665298461914062500e+00,7.641004562377929688e+00,1.040552258491516113e+00
3.671020746231079102e+00,7.652933597564697266e+00,1.344343066215515137e+00
1.683758378028869629e+00,3.642912626266479492e+00,-1.075334668159484863e+00
2.001446008682250977e+00,4.330249309539794922e+00,-1.101335048675537109e+00
2.457989692687988281e+00,5.318008899688720703e+00,-1.138790369033813477e+00
3.168673753738403320e+00,6.855616569519042969e+00,-1.196193695068359375e+00
3.505678892135620117e+00,7.584747314453125000e+00,-1.025952696800231934e+00
3.513789653778076172e+00,7.602295875549316406e+00,-7.327216267585754395e-01
3.523443460464477539e+00,7.623182296752929688e+00,-4.401234686374664307e-01
3.534432172775268555e+00,7.646956920623779297e+00,-1.470457911491394043e-01
3.532180309295654297e+00,7.642085075378417969e+00,1.469521075487136841e-01
3.534477949142456055e+00,7.647056102752685547e+00,4.415018558502197266e-01
3.539232254028320312e+00,7.657342433929443359e+00,7.380271553993225098e-01
3.535554885864257812e+00,7.649385929107666016e+00,1.034696102142333984e+00
3.547259092330932617e+00,7.674708843231201172e+00,1.339111924171447754e+00
1.630979180335998535e+00,3.665582418441772461e+00,-1.075025320053100586e+00
1.942062258720397949e+00,4.364733695983886719e+00,-1.102922677993774414e+00
2.383213520050048828e+00,5.356209754943847656e+00,-1.139549255371093750e+00
3.080485582351684570e+00,6.923310279846191406e+00,-1.200188755989074707e+00
3.384481430053710938e+00,7.606532573699951172e+00,-1.022242069244384766e+00
3.399727344512939453e+00,7.640797615051269531e+00,-7.316674590110778809e-01
3.400377988815307617e+00,7.642259597778320312e+00,-4.383699893951416016e-01
3.397274732589721680e+00,7.635284900665283203e+00,-1.458713412284851074e-01
3.407897233963012695e+00,7.659158706665039062e+00,1.463274508714675903e-01
3.405370235443115234e+00,7.653479576110839844e+00,4.390136003494262695e-01
3.419902086257934570e+00,7.686139106750488281e+00,7.360092997550964355e-01
3.417743921279907227e+00,7.681289196014404297e+00,1.032288551330566406e+00
3.416964530944824219e+00,7.679537773132324219e+00,1.331284403800964355e+00
1.580143451690673828e+00,3.692740201950073242e+00,-1.076246619224548340e+00
1.880913376808166504e+00,4.395628929138183594e+00,-1.103813648223876953e+00
2.300304174423217773e+00,5.375730991363525391e+00,-1.136581063270568848e+00
2.981341838836669922e+00,6.967291831970214844e+00,-1.200292706489562988e+00
3.269659280776977539e+00,7.641079425811767578e+00,-1.020490884780883789e+00
3.269858837127685547e+00,7.641546249389648438e+00,-7.271829247474670410e-01
3.270863533020019531e+00,7.643894195556640625e+00,-4.357336163520812988e-01
3.274965047836303711e+00,7.653479576110839844e+00,-1.453085094690322876e-01
3.278749704360961914e+00,7.662323951721191406e+00,1.454764306545257568e-01
3.288316249847412109e+00,7.684680461883544922e+00,4.380585849285125732e-01
3.292351484298706055e+00,7.694110393524169922e+00,7.321850061416625977e-01
3.287338256835937500e+00,7.682394981384277344e+00,1.026008605957031250e+00
3.299639701843261719e+00,7.711143016815185547e+00,1.328439831733703613e+00
1.526500701904296875e+00,3.713443279266357422e+00,-1.075802326202392578e+00
1.810577511787414551e+00,4.404502868652343750e+00,-1.099421501159667969e+00
2.229456663131713867e+00,5.423489570617675781e+00,-1.139814972877502441e+00
2.889117002487182617e+00,7.028213024139404297e+00,-1.203540444374084473e+00
3.144228219985961914e+00,7.648809909820556641e+00,-1.015408754348754883e+00
3.148138046264648438e+00,7.658320903778076172e+00,-7.244169712066650391e-01
3.151412725448608398e+00,7.666286945343017578e+00,-4.343942701816558838e-01
3.155161142349243164e+00,7.675405502319335938e+00,-1.448525190353393555e-01
3.163433790206909180e+00,7.695529937744140625e+00,1.452323198318481445e-01
3.163141012191772461e+00,7.694818019866943359e+00,4.360109269618988037e-01
3.168003559112548828e+00,7.706646919250488281e+00,7.289882302284240723e-01
3.170683145523071289e+00,7.713165283203125000e+00,1.023952126502990723e+00
3.181649208068847656e+00,7.739841938018798828e+00,1.325402736663818359e+00
1.471400856971740723e+00,3.730355024337768555e+00,-1.074490308761596680e+00
1.749734044075012207e+00,4.435997009277343750e+00,-1.100918531417846680e+00
2.155896902084350586e+00,5.465716838836669922e+00,-1.142087221145629883e+00
2.783809185028076172e+00,7.057625770568847656e+00,-1.201630711555480957e+00
3.023226976394653320e+00,7.664608001708984375e+00,-1.011657714843750000e+00
3.023910999298095703e+00,7.666341781616210938e+00,-7.210076451301574707e-01
3.031841278076171875e+00,7.686446666717529297e+00,-4.330332875251770020e-01
3.034612178802490234e+00,7.693472385406494141e+00,-1.443589627742767334e-01
3.039935350418090820e+00,7.706967830657958984e+00,1.446121931076049805e-01
3.048591375350952148e+00,7.728912830352783203e+00,4.354256987571716309e-01
3.051541805267333984e+00,7.736392498016357422e+00,7.275957465171813965e-01
3.053767681121826172e+00,7.742035865783691406e+00,1.021877527236938477e+00
3.056594848632812500e+00,7.749203681945800781e+00,1.319378733634948730e+00
1.418941020965576172e+00,3.753888130187988281e+00,-1.075308442115783691e+00
1.686690330505371094e+00,4.462234020233154297e+00,-1.101325631141662598e+00
2.074942350387573242e+00,5.489376544952392578e+00,-1.140708327293395996e+00
2.684095621109008789e+00,7.100925922393798828e+00,-1.202338695526123047e+00
2.904824256896972656e+00,7.684875488281250000e+00,-1.008741617202758789e+00
2.905633926391601562e+00,7.687017440795898438e+00,-7.189670205116271973e-01
2.910561561584472656e+00,7.700054168701171875e+00,-4.314086735248565674e-01
2.913398265838623047e+00,7.707558631896972656e+00,-1.438260823488235474e-01
2.916313886642456055e+00,7.715272426605224609e+00,1.439700275659561157e-01
2.922615051269531250e+00,7.731942176818847656e+00,4.331952333450317383e-01
2.925217866897583008e+00,7.738828182220458984e+00,7.238128781318664551e-01
2.923204660415649414e+00,7.733501911163330078e+00,1.015124440193176270e+00
2.933447599411010742e+00,7.760600566864013672e+00,1.314035654067993164e+00
1.369016170501708984e+00,3.784720659255981445e+00,-1.078416943550109863e+00
1.623760342597961426e+00,4.488975048065185547e+00,-1.102076411247253418e+00
1.993262648582458496e+00,5.510484695434570312e+00,-1.139049291610717773e+00
2.588267564773559570e+00,7.155408382415771484e+00,-1.205167412757873535e+00
2.783672809600830078e+00,7.695617198944091797e+00,-1.004818558692932129e+00
2.791232347488403320e+00,7.716516017913818359e+00,-7.179157733917236328e-01
2.787219285964965820e+00,7.705421447753906250e+00,-4.294302165508270264e-01
2.798913240432739258e+00,7.737750053405761719e+00,-1.436271816492080688e-01
2.798415422439575195e+00,7.736374378204345703e+00,1.436016410589218140e-01
2.805222988128662109e+00,7.755193710327148438e+00,4.322040975093841553e-01
2.804928302764892578e+00,7.754379272460937500e+00,7.214384675025939941e-01
2.811858177185058594e+00,7.773537158966064453e+00,1.014992594718933105e+00
2.813112974166870117e+00,7.777006149291992188e+00,1.309861540794372559e+00
1.311895966529846191e+00,3.795787096023559570e+00,-1.076109528541564941e+00
1.554026842117309570e+00,4.496358871459960938e+00,-1.098315834999084473e+00
1.920793056488037109e+00,5.557545661926269531e+00,-1.142976999282836914e+00
2.482176065444946289e+00,7.181828975677490234e+00,-1.203510165214538574e+00
2.668875694274902344e+00,7.722017765045166016e+00,-1.003175020217895508e+00
2.667090177536010742e+00,7.716852188110351562e+00,-7.143222093582153320e-01
2.674369812011718750e+00,7.737914562225341797e+00,-4.290637969970703125e-01
2.675832271575927734e+00,7.742146015167236328e+00,-1.429831981658935547e-01
2.684717416763305664e+00,7.767853736877441406e+00,1.434579789638519287e-01
2.683750391006469727e+00,7.765056133270263672e+00,4.305687844753265381e-01
2.685449123382568359e+00,7.769970417022705078e+00,7.192391753196716309e-01
2.692215204238891602e+00,7.789547920227050781e+00,1.011947989463806152e+00
2.694359302520751953e+00,7.795751094818115234e+00,1.306389451026916504e+00
1.255783319473266602e+00,3.809160232543945312e+00,-1.074694871902465820e+00
1.490866184234619141e+00,4.522235870361328125e+00,-1.099311590194702148e+00
1.838808894157409668e+00,5.577648639678955078e+00,-1.141581416130065918e+00
2.365036725997924805e+00,7.173851966857910156e+00,-1.196377992630004883e+00
2.549116849899291992e+00,7.732221603393554688e+00,-9.996582269668579102e-01
2.553397655487060547e+00,7.745206356048583984e+00,-7.134906649589538574e-01
2.550601720809936523e+00,7.736725807189941406e+00,-4.269298017024993896e-01
2.557003974914550781e+00,7.756145477294921875e+00,-1.425512135028839111e-01
2.561290740966796875e+00,7.769148349761962891e+00,1.427901983261108398e-01
2.565734863281250000e+00,7.782628536224365234e+00,4.294628202915191650e-01
2.568456172943115234e+00,7.790883541107177734e+00,7.176984548568725586e-01
2.570631265640258789e+00,7.797481060028076172e+00,1.008095264434814453e+00
2.573589086532592773e+00,7.806452751159667969e+00,1.301876425743103027e+00
1.200451850891113281e+00,3.824556827545166016e+00,-1.074080944061279297e+00
1.434672832489013672e+00,4.570768833160400391e+00,-1.106004238128662109e+00
1.756739139556884766e+00,5.596849441528320312e+00,-1.140248060226440430e+00
2.265661478042602539e+00,7.218241214752197266e+00,-1.198249816894531250e+00
2.432463169097900391e+00,7.749660015106201172e+00,-9.973093271255493164e-01
2.432872533798217773e+00,7.750964164733886719e+00,-7.107403278350830078e-01
2.437792539596557617e+00,7.766638755798339844e+00,-4.266112744808197021e-01
2.442558765411376953e+00,7.781823635101318359e+00,-1.423660218715667725e-01
2.445107698440551758e+00,7.789944648742675781e+00,1.425145864486694336e-01
2.442457914352416992e+00,7.781502246856689453e+00,4.274277091026306152e-01
2.451436758041381836e+00,7.810108661651611328e+00,7.161637544631958008e-01
2.451460838317871094e+00,7.810185432434082031e+00,1.005098342895507812e+00
2.456005573272705078e+00,7.824664115905761719e+00,1.298917770385742188e+00
1.147715330123901367e+00,3.848466396331787109e+00,-1.076071858406066895e+00
1.363394021987915039e+00,4.571670055389404297e+00,-1.101387381553649902e+00
1.673044204711914062e+00,5.609974861145019531e+00,-1.137926816940307617e+00
2.172548770904541016e+00,7.284890174865722656e+00,-1.204028248786926270e+00
2.319308996200561523e+00,7.776999950408935547e+00,-9.964534640312194824e-01
2.320481777191162109e+00,7.780932426452636719e+00,-7.103699445724487305e-01
2.322573184967041016e+00,7.787945747375488281e+00,-4.259119629859924316e-01
2.324315786361694336e+00,7.793788909912109375e+00,-1.419617235660552979e-01
2.330461740493774414e+00,7.814396858215332031e+00,1.423370987176895142e-01
2.329057455062866211e+00,7.809688568115234375e+00,4.271010458469390869e-01
2.330820560455322266e+00,7.815599918365478516e+00,7.135350108146667480e-01
2.337876319885253906e+00,7.839259624481201172e+00,1.004430651664733887e+00
2.340192079544067383e+00,7.847024917602539062e+00,1.296936392784118652e+00
1.093275666236877441e+00,3.867176294326782227e+00,-1.076817631721496582e+00
1.303025007247924805e+00,4.609109401702880859e+00,-1.105800628662109375e+00
1.590952992439270020e+00,5.627579212188720703e+00,-1.136762261390686035e+00
2.052872896194458008e+00,7.261499881744384766e+00,-1.195183515548706055e+00
2.201478242874145508e+00,7.787152767181396484e+00,-9.936151504516601562e-01
2.203963041305541992e+00,7.795941829681396484e+00,-7.087876200675964355e-01
2.205261468887329102e+00,7.800534725189208984e+00,-4.248306751251220703e-01
2.212966203689575195e+00,7.827788352966308594e+00,-1.419895142316818237e-01
2.209418296813964844e+00,7.815238475799560547e+00,1.417618691921234131e-01
2.213573217391967773e+00,7.829935073852539062e+00,4.264318645000457764e-01
2.216343164443969727e+00,7.839733600616455078e+00,7.127690315246582031e-01
2.218074798583984375e+00,7.845858573913574219e+00,1.001105785369873047e+00
2.221753120422363281e+00,7.858869552612304688e+00,1.293505668640136719e+00
1.036405444145202637e+00,3.877147674560546875e+00,-1.075353264808654785e+00
1.231551051139831543e+00,4.607179164886474609e+00,-1.100995540618896484e+00
1.513167977333068848e+00,5.660696029663085938e+00,-1.138960003852844238e+00
1.959736108779907227e+00,7.331287860870361328e+00,-1.201929926872253418e+00
2.085737705230712891e+00,7.802653789520263672e+00,-9.916821718215942383e-01
2.083760976791381836e+00,7.795258998870849609e+00,-7.059414982795715332e-01
2.091811418533325195e+00,7.825376033782958984e+00,-4.245094358921051025e-01
2.093752861022949219e+00,7.832638263702392578e+00,-1.415193825960159302e-01
2.093538045883178711e+00,7.831834793090820312e+00,1.415048688650131226e-01
2.101998567581176758e+00,7.863484859466552734e+00,4.265767931938171387e-01
2.100242853164672852e+00,7.856917381286621094e+00,7.115253210067749023e-01
2.100319862365722656e+00,7.857205390930175781e+00,9.986153841018676758e-01
2.101734876632690430e+00,7.862499237060546875e+00,1.289019584655761719e+00
9.779431819915771484e-01,3.880210638046264648e+00,-1.072210550308227539e+00
1.163877010345458984e+00,4.617945194244384766e+00,-1.099474668502807617e+00
1.429845571517944336e+00,5.673235416412353516e+00,-1.137248635292053223e+00
1.848060131072998047e+00,7.332596302032470703e+00,-1.197685122489929199e+00
1.967865824699401855e+00,7.807952404022216797e+00,-9.886744022369384766e-01
1.969862103462219238e+00,7.815873146057128906e+00,-7.051827311515808105e-01
1.972294807434082031e+00,7.825525283813476562e+00,-4.229427874088287354e-01
1.974630594253540039e+00,7.834793090820312500e+00,-1.410332024097442627e-01
1.978510618209838867e+00,7.850188255310058594e+00,1.413103342056274414e-01
1.980637431144714355e+00,7.858626842498779297e+00,4.247318208217620850e-01
1.982353329658508301e+00,7.865435123443603516e+00,7.096543908119201660e-01
1.986798882484436035e+00,7.883073806762695312e+00,9.981865882873535156e-01
1.987160444259643555e+00,7.884508609771728516e+00,1.287832856178283691e+00
9.267501235008239746e-01,3.912557125091552734e+00,-1.077373027801513672e+00
1.095876932144165039e+00,4.626577377319335938e+00,-1.097682833671569824e+00
1.353111386299133301e+00,5.712570667266845703e+00,-1.141134381294250488e+00
1.753374099731445312e+00,7.402400970458984375e+00,-1.204864144325256348e+00
1.855152249336242676e+00,7.832088947296142578e+00,-9.882670640945434570e-01
1.857900738716125488e+00,7.843692302703857422e+00,-7.052210569381713867e-01
1.857516288757324219e+00,7.842069149017333984e+00,-4.223567247390747070e-01
1.859829425811767578e+00,7.851834774017333984e+00,-1.408463418483734131e-01
1.864423513412475586e+00,7.871230125427246094e+00,1.411942690610885620e-01
1.866247177124023438e+00,7.878929138183593750e+00,4.243418872356414795e-01
1.866053581237792969e+00,7.878111839294433594e+00,7.083157300949096680e-01
1.870262980461120605e+00,7.895883560180664062e+00,9.963167905807495117e-01
1.872824788093566895e+00,7.906698703765869141e+00,1.286947011947631836e+00
8.658995628356933594e-01,3.903963088989257812e+00,-1.071483850479125977e+00
1.035420298576354980e+00,4.668258190155029297e+00,-1.103942513465881348e+00
1.264911413192749023e+00,5.702932834625244141e+00,-1.135476231575012207e+00
1.640668034553527832e+00,7.397055625915527344e+00,-1.200048804283142090e+00
1.740473985671997070e+00,7.847037792205810547e+00,-9.869087934494018555e-01
1.742242217063903809e+00,7.855009555816650391e+00,-7.039244174957275391e-01
1.745379686355590820e+00,7.869154930114746094e+00,-4.224267303943634033e-01
1.746987938880920410e+00,7.876405715942382812e+00,-1.408241242170333862e-01
1.745841979980468750e+00,7.871239185333251953e+00,1.407317519187927246e-01
1.753087162971496582e+00,7.903904438018798828e+00,4.242921173572540283e-01
1.753586530685424805e+00,7.906155586242675781e+00,7.085078358650207520e-01
1.754168033599853516e+00,7.908777713775634766e+00,9.946737289428710938e-01
1.754118919372558594e+00,7.908556461334228516e+00,1.283031344413757324e+00
8.139957785606384277e-01,3.935577869415283203e+00,-1.076852798461914062e+00
9.688853025436401367e-01,4.684451103210449219e+00,-1.104379296302795410e+00
1.186740398406982422e+00,5.737756252288818359e+00,-1.138910889625549316e+00
1.528412699699401855e+00,7.389703273773193359e+00,-1.195184469223022461e+00
1.626286387443542480e+00,7.862911701202392578e+00,-9.858766794204711914e-01
1.627417922019958496e+00,7.868382453918457031e+00,-7.029633522033691406e-01
1.629468321800231934e+00,7.878295898437500000e+00,-4.216221868991851807e-01
1.631306290626525879e+00,7.887182235717773438e+00,-1.405849307775497437e-01
1.633486628532409668e+00,7.897723674774169922e+00,1.407728195190429688e-01
1.635332584381103516e+00,7.906648635864257812e+00,4.231395721435546875e-01
1.637505531311035156e+00,7.917154788970947266e+00,7.073206305503845215e-01
1.641586422920227051e+00,7.936885356903076172e+00,9.951516985893249512e-01
1.642991065979003906e+00,7.943676948547363281e+00,1.284782171249389648e+00
7.558935284614562988e-01,3.938004970550537109e+00,-1.074446439743041992e+00
8.970800042152404785e-01,4.673549175262451172e+00,-1.098669409751892090e+00
1.105669736862182617e+00,5.760246276855468750e+00,-1.140116930007934570e+00
1.422442555427551270e+00,7.410548686981201172e+00,-1.195140480995178223e+00
1.509691238403320312e+00,7.865091800689697266e+00,-9.833398461341857910e-01
1.511511683464050293e+00,7.874575614929199219e+00,-7.015118598937988281e-01
1.515718460083007812e+00,7.896492004394531250e+00,-4.213917851448059082e-01
1.517691016197204590e+00,7.906768321990966797e+00,-1.405324339866638184e-01
1.517017960548400879e+00,7.903262138366699219e+00,1.404701173305511475e-01
1.522310495376586914e+00,7.930834770202636719e+00,4.232244491577148438e-01
1.521997451782226562e+00,7.929203510284423828e+00,7.063784599304199219e-01
1.524823188781738281e+00,7.943924903869628906e+00,9.931960701942443848e-01
1.527526259422302246e+00,7.958007335662841797e+00,1.283432245254516602e+00
6.986322402954101562e-01,3.943773269653320312e+00,-1.073181986808776855e+00
8.280085921287536621e-01,4.674101829528808594e+00,-1.095900893211364746e+00
1.023386359214782715e+00,5.777008056640625000e+00,-1.140418529510498047e+00
1.327765941619873047e+00,7.495227813720703125e+00,-1.205608606338500977e+00
1.397305130958557129e+00,7.887776374816894531e+00,-9.835746884346008301e-01
1.398112058639526367e+00,7.892331123352050781e+00,-7.012390494346618652e-01
1.398572921752929688e+00,7.894932746887207031e+00,-4.201972484588623047e-01
1.398369550704956055e+00,7.893784523010253906e+00,-1.399315893650054932e-01
1.405420780181884766e+00,7.933588981628417969e+00,1.406371891498565674e-01
1.405096173286437988e+00,7.931756496429443359e+00,4.221571385860443115e-01
1.410819411277770996e+00,7.964064121246337891e+00,7.076125741004943848e-01
1.409956455230712891e+00,7.959192752838134766e+00,9.924800992012023926e-01
1.412041783332824707e+00,7.970964908599853516e+00,1.282131075859069824e+00
6.399924159049987793e-01,3.940285205841064453e+00,-1.069630503654479980e+00
7.606460452079772949e-01,4.683121204376220703e+00,-1.095350742340087891e+00
9.443489909172058105e-01,5.814137935638427734e+00,-1.144962549209594727e+00
1.217781305313110352e+00,7.497597694396972656e+00,-1.203062891960144043e+00
1.283906102180480957e+00,7.904712677001953125e+00,-9.832943081855773926e-01
1.286190390586853027e+00,7.918776512145996094e+00,-7.018811106681823730e-01
1.289896965026855469e+00,7.941596984863281250e+00,-4.216550290584564209e-01
1.286381125450134277e+00,7.919950485229492188e+00,-1.400546878576278687e-01
1.290957570075988770e+00,7.948126792907714844e+00,1.405529528856277466e-01
1.291666269302368164e+00,7.952490329742431641e+00,4.222334027290344238e-01
1.294074416160583496e+00,7.967316150665283203e+00,7.061834335327148438e-01
1.295055747032165527e+00,7.973358154296875000e+00,9.918333888053894043e-01
1.296622991561889648e+00,7.983007431030273438e+00,1.280951619148254395e+00
5.852092504501342773e-01,3.960381746292114258e+00,-1.072702169418334961e+00
6.993338465690612793e-01,4.732715129852294922e+00,-1.104496002197265625e+00
8.548371195793151855e-01,5.785077571868896484e+00,-1.136713862419128418e+00
1.110461831092834473e+00,7.515008449554443359e+00,-1.203182935714721680e+00
1.169497609138488770e+00,7.914531230926513672e+00,-9.823327660560607910e-01
1.175069689750671387e+00,7.952239513397216797e+00,-7.032843232154846191e-01
1.171870827674865723e+00,7.930591106414794922e+00,-4.201370775699615479e-01
1.176050305366516113e+00,7.958875656127929688e+00,-1.404309719800949097e-01
1.175301074981689453e+00,7.953805446624755859e+00,1.403415054082870483e-01
1.177213311195373535e+00,7.966746330261230469e+00,4.220524728298187256e-01
1.178797245025634766e+00,7.977465629577636719e+00,7.055152654647827148e-01
1.180761575698852539e+00,7.990759372711181641e+00,9.917940497398376465e-01
1.182120680809020996e+00,7.999957561492919922e+00,1.280825257301330566e+00
5.280012488365173340e-01,3.964843988418579102e+00,-1.071753978729248047e+00
6.285835504531860352e-01,4.720131874084472656e+00,-1.099347114562988281e+00
7.741598486900329590e-01,5.813287258148193359e+00,-1.139962673187255859e+00
1.000375986099243164e+00,7.511979579925537109e+00,-1.200282573699951172e+00
1.058748006820678711e+00,7.950304031372070312e+00,-9.847910404205322266e-01
1.058083295822143555e+00,7.945312023162841797e+00,-7.012604475021362305e-01
1.059821486473083496e+00,7.958364486694335938e+00,-4.207616746425628662e-01
1.061505794525146484e+00,7.971012115478515625e+00,-1.403626501560211182e-01
1.063780307769775391e+00,7.988091945648193359e+00,1.406634002923965454e-01
1.063158869743347168e+00,7.983425617218017578e+00,4.220866560935974121e-01
1.064885377883911133e+00,7.996390819549560547e+00,7.057687044143676758e-01
1.066409707069396973e+00,8.007837295532226562e+00,9.919175505638122559e-01
1.067442655563354492e+00,8.015593528747558594e+00,1.280751228332519531e+00
4.705981910228729248e-01,3.966901779174804688e+00,-1.070379853248596191e+00
5.627890229225158691e-01,4.744023323059082031e+00,-1.102922320365905762e+00
6.934547424316406250e-01,5.845468044281005859e+00,-1.144209623336791992e+00
8.933537602424621582e-01,7.530514717102050781e+00,-1.201077938079833984e+00
9.442488551139831543e-01,7.959534168243408203e+00,-9.841594099998474121e-01
9.452630877494812012e-01,7.968083381652832031e+00,-7.020041942596435547e-01
9.455364346504211426e-01,7.970387935638427734e+00,-4.206387400627136230e-01
9.470933675765991211e-01,7.983511924743652344e+00,-1.403296589851379395e-01
9.489383697509765625e-01,7.999064445495605469e+00,1.406030356884002686e-01
9.493256211280822754e-01,8.002328872680664062e+00,4.223244190216064453e-01
9.510335922241210938e-01,8.016725540161132812e+00,7.062896490097045898e-01
9.517443180084228516e-01,8.022717475891113281e+00,9.919716715812683105e-01
9.521272778511047363e-01,8.025945663452148438e+00,1.280096530914306641e+00
4.149056971073150635e-01,3.984081268310546875e+00,-1.073302865028381348e+00
4.916672408580780029e-01,4.721174240112304688e+00,-1.095861911773681641e+00
6.069691181182861328e-01,5.828346252441406250e+00,-1.139040827751159668e+00
7.860375642776489258e-01,7.547829627990722656e+00,-1.201922059059143066e+00
8.305011987686157227e-01,7.974785804748535156e+00,-9.844745397567749023e-01
8.311698436737060547e-01,7.981206417083740234e+00,-7.020402550697326660e-01
8.321098089218139648e-01,7.990232467651367188e+00,-4.210143387317657471e-01
8.343943953514099121e-01,8.012169837951660156e+00,-1.406090706586837769e-01
8.335787057876586914e-01,8.004337310791015625e+00,1.404716074466705322e-01
8.356412053108215332e-01,8.024142265319824219e+00,4.228010773658752441e-01
8.365697860717773438e-01,8.033059120178222656e+00,7.066013216972351074e-01
8.357826471328735352e-01,8.025500297546386719e+00,9.907351732254028320e-01
8.376815915107727051e-01,8.043734550476074219e+00,1.280890345573425293e+00
3.594110608100891113e-01,4.007092952728271484e+00,-1.078005909919738770e+00
4.261695742607116699e-01,4.751387119293212891e+00,-1.101346015930175781e+00
5.234070420265197754e-01,5.835492610931396484e+00,-1.138856649398803711e+00
6.793107986450195312e-01,7.573671817779541016e+00,-1.204365491867065430e+00
7.167777419090270996e-01,7.991393089294433594e+00,-9.851572513580322266e-01
7.164415717124938965e-01,7.987645149230957031e+00,-7.016327381134033203e-01
7.188924551010131836e-01,8.014969825744628906e+00,-4.217323958873748779e-01
7.197458744049072266e-01,8.024484634399414062e+00,-1.406299918889999390e-01
7.211050987243652344e-01,8.039639472961425781e+00,1.408955603837966919e-01
7.200874090194702148e-01,8.028292655944824219e+00,4.224334359169006348e-01
7.214899659156799316e-01,8.043930053710937500e+00,7.065767645835876465e-01
7.235047817230224609e-01,8.066392898559570312e+00,9.944030642509460449e-01
7.223072648048400879e-01,8.053042411804199219e+00,1.280594944953918457e+00
2.991935014724731445e-01,3.974218368530273438e+00,-1.067900419235229492e+00
3.572318851947784424e-01,4.745148658752441406e+00,-1.098602175712585449e+00
4.386969506740570068e-01,5.827257633209228516e+00,-1.135907769203186035e+00
5.717886090278625488e-01,7.595128059387207031e+00,-1.206352353096008301e+00
6.020274162292480469e-01,7.996793270111083984e+00,-9.846597909927368164e-01
6.023885011672973633e-01,8.001589775085449219e+00,-7.020283341407775879e-01
6.045809388160705566e-01,8.030711174011230469e+00,-4.220621287822723389e-01
6.050768494606018066e-01,8.037299156188964844e+00,-1.406883746385574341e-01
6.058917045593261719e-01,8.048123359680175781e+00,1.408778280019760132e-01
6.063637733459472656e-01,8.054392814636230469e+00,4.233067333698272705e-01
6.070623993873596191e-01,8.063673019409179688e+00,7.074753046035766602e-01
6.087339520454406738e-01,8.085876464843750000e+00,9.956288337707519531e-01
6.089395880699157715e-01,8.088607788085937500e+00,1.284733057022094727e+00
2.438023090362548828e-01,4.003025054931640625e+00,-1.074593186378479004e+00
2.907695770263671875e-01,4.774187088012695312e+00,-1.104248642921447754e+00
3.562880754470825195e-01,5.849945068359375000e+00,-1.139219403266906738e+00
4.585821926593780518e-01,7.529526710510253906e+00,-1.194767832756042480e+00
4.883349537849426270e-01,8.018041610717773438e+00,-9.863144159317016602e-01
4.881802499294281006e-01,8.015501022338867188e+00,-7.025638818740844727e-01
4.898509383201599121e-01,8.042932510375976562e+00,-4.222926795482635498e-01
4.900214672088623047e-01,8.045732498168945312e+00,-1.406988054513931274e-01
4.903611838817596436e-01,8.051310539245605469e+00,1.407963484525680542e-01
4.911310076713562012e-01,8.063950538635253906e+00,4.233961999416351318e-01
4.924135804176330566e-01,8.085008621215820312e+00,7.086562514305114746e-01
4.929606020450592041e-01,8.093991279602050781e+00,9.956571459770202637e-01
4.934719502925872803e-01,8.102386474609375000e+00,1.285668015480041504e+00
1.858853548765182495e-01,3.993199825286865234e+00,-1.071131587028503418e+00
2.214288562536239624e-01,4.756747245788574219e+00,-1.099369168281555176e+00
2.718528211116790771e-01,5.839958190917968750e+00,-1.136400341987609863e+00
3.512180149555206299e-01,7.544885635375976562e+00,-1.196284770965576172e+00
3.735640645027160645e-01,8.024924278259277344e+00,-9.864023327827453613e-01
3.740479946136474609e-01,8.035320281982421875e+00,-7.037596702575683594e-01
3.751415908336639404e-01,8.058813095092773438e+00,-4.228012263774871826e-01
3.753208220005035400e-01,8.062664031982421875e+00,-1.408865004777908325e-01
3.758479058742523193e-01,8.073986053466796875e+00,1.410843580961227417e-01
3.761378824710845947e-01,8.080215454101562500e+00,4.239240884780883789e-01
3.766249120235443115e-01,8.090678215026855469e+00,7.086080908775329590e-01
3.771103620529174805e-01,8.101105690002441406e+00,9.957664012908935547e-01
3.767197132110595703e-01,8.092714309692382812e+00,1.283146142959594727e+00
1.293222010135650635e-01,4.014278411865234375e+00,-1.076179027557373047e+00
1.536571234464645386e-01,4.769656658172607422e+00,-1.101731538772583008e+00
1.884334087371826172e-01,5.849144458770751953e+00,-1.137546658515930176e+00
2.438719719648361206e-01,7.570007324218750000e+00,-1.199591636657714844e+00
2.596961557865142822e-01,8.061204910278320312e+00,-9.903034567832946777e-01
2.600085139274597168e-01,8.070900917053222656e+00,-7.064775824546813965e-01
2.596082687377929688e-01,8.058476448059082031e+00,-4.225453436374664307e-01
2.604434490203857422e-01,8.084401130676269531e+00,-1.411867439746856689e-01
2.606551647186279297e-01,8.090973854064941406e+00,1.413015276193618774e-01
2.602918744087219238e-01,8.079695701599121094e+00,4.236579835414886475e-01
2.611451745033264160e-01,8.106184005737304688e+00,7.095660567283630371e-01
2.615915238857269287e-01,8.120038986206054688e+00,9.975311756134033203e-01
2.615624666213989258e-01,8.119136810302734375e+00,1.286610126495361328e+00
7.155663520097732544e-02,3.998953342437744141e+00,-1.071686267852783203e+00
8.492955565452575684e-02,4.746301174163818359e+00,-1.095943689346313477e+00
1.047473549842834473e-01,5.853821754455566406e+00,-1.138048171997070312e+00
1.358305215835571289e-01,7.590909957885742188e+00,-1.202472686767578125e+00
1.442968249320983887e-01,8.064050674438476562e+00,-9.902979135513305664e-01
1.445053666830062866e-01,8.075705528259277344e+00,-7.066447138786315918e-01
1.446547359228134155e-01,8.084052085876464844e+00,-4.237344264984130859e-01
1.448223739862442017e-01,8.093420982360839844e+00,-1.412935853004455566e-01
1.452055871486663818e-01,8.114836692810058594e+00,1.416674554347991943e-01
1.452920287847518921e-01,8.119668006896972656e+00,4.256012439727783203e-01
1.453831344842910767e-01,8.124758720397949219e+00,7.109370231628417969e-01
1.458748281002044678e-01,8.152236938476562500e+00,1.001127600669860840e+00
1.459497511386871338e-01,8.156424522399902344e+00,1.292055606842041016e+00
1.430751383304595947e-02,3.997111797332763672e+00,-1.071028113365173340e+00
1.704508252441883087e-02,4.761910438537597656e+00,-1.099379062652587891e+00
2.098966389894485474e-02,5.863914489746093750e+00,-1.139835000038146973e+00
2.694612741470336914e-02,7.527980804443359375e+00,-1.192320942878723145e+00
2.892684191465377808e-02,8.081336021423339844e+00,-9.922681450843811035e-01
2.894131839275360107e-02,8.085380554199218750e+00,-7.073826193809509277e-01
2.901254221796989441e-02,8.105278015136718750e+00,-4.247817099094390869e-01
2.903690561652183533e-02,8.112084388732910156e+00,-1.415976583957672119e-01
2.906620502471923828e-02,8.120269775390625000e+00,1.417405456304550171e-01
2.905127964913845062e-02,8.116100311279296875e+00,4.253489077091217041e-01
2.906943485140800476e-02,8.121172904968261719e+00,7.105140089988708496e-01
2.919409051537513733e-02,8.155998229980468750e+00,1.001435518264770508e+00
2.919496037065982819e-02,8.156240463256835938e+00,1.291827917098999023e+00
-4.303724691271781921e-02,4.009638786315917969e+00,-1.074439644813537598e+00
-5.142463371157646179e-02,4.791064262390136719e+00,-1.106166362762451172e+00
-6.285040080547332764e-02,5.855564594268798828e+00,-1.138270378112792969e+00
-8.112820237874984741e-02,7.558447360992431641e+00,-1.197207689285278320e+00
-8.703512698411941528e-02,8.108776092529296875e+00,-9.956883788108825684e-01
-8.703576028347015381e-02,8.108836174011230469e+00,-7.094709873199462891e-01
-8.718521893024444580e-02,8.122759819030761719e+00,-4.257196784019470215e-01
-8.722589910030364990e-02,8.126549720764160156e+00,-1.418574154376983643e-01
-8.729110658168792725e-02,8.132625579833984375e+00,1.419634670019149780e-01
-8.736892044544219971e-02,8.139875411987304688e+00,4.266167283058166504e-01
-8.745834976434707642e-02,8.148206710815429688e+00,7.129157185554504395e-01
-8.753820508718490601e-02,8.155646324157714844e+00,1.001443624496459961e+00
-8.779551833868026733e-02,8.179618835449218750e+00,1.295597076416015625e+00
-1.002205386757850647e-01,4.000699043273925781e+00,-1.072318792343139648e+00
-1.195334866642951965e-01,4.771651744842529297e+00,-1.101966500282287598e+00
-1.470381319522857666e-01,5.869608402252197266e+00,-1.141292572021484375e+00
-1.903897374868392944e-01,7.600159168243408203e+00,-1.204122781753540039e+00
-2.033261060714721680e-01,8.116565704345703125e+00,-9.969000816345214844e-01
-2.032484412193298340e-01,8.113465309143066406e+00,-7.100578546524047852e-01
-2.037268429994583130e-01,8.132562637329101562e+00,-4.263426065444946289e-01
-2.037435770034790039e-01,8.133230209350585938e+00,-1.420103907585144043e-01
-2.044959962368011475e-01,8.163266181945800781e+00,1.425348371267318726e-01
-2.043206989765167236e-01,8.156269073486328125e+00,4.275853931903839111e-01
-2.046399116516113281e-01,8.169011116027832031e+00,7.149190306663513184e-01
-2.054130733013153076e-01,8.199874877929687500e+00,1.007132411003112793e+00
-2.051203846931457520e-01,8.188191413879394531e+00,1.297286987304687500e+00
-1.579228937625885010e-01,4.010400295257568359e+00,-1.075414657592773438e+00
-1.876263171434402466e-01,4.764708995819091797e+00,-1.100870609283447266e+00
-2.313365787267684937e-01,5.874716758728027344e+00,-1.142812609672546387e+00
-2.961998283863067627e-01,7.521897792816162109e+00,-1.192273139953613281e+00
-3.200236558914184570e-01,8.126896858215332031e+00,-9.986293315887451172e-01
-3.208810985088348389e-01,8.148670196533203125e+00,-7.134677767753601074e-01
-3.211200237274169922e-01,8.154738426208496094e+00,-4.277023077011108398e-01
-3.216465413570404053e-01,8.168108940124511719e+00,-1.426851600408554077e-01
-3.221430480480194092e-01,8.180717468261718750e+00,1.429054141044616699e-01
-3.219657838344573975e-01,8.176216125488281250e+00,4.288287758827209473e-01
-3.228390216827392578e-01,8.198390960693359375e+00,7.178211212158203125e-01
-3.228085041046142578e-01,8.197616577148437500e+00,1.007319331169128418e+00
-3.235873579978942871e-01,8.217394828796386719e+00,1.302514195442199707e+00
-2.145334035158157349e-01,3.993393898010253906e+00,-1.071568012237548828e+00
-2.560537457466125488e-01,4.766266345977783203e+00,-1.101964354515075684e+00
-3.125867247581481934e-01,5.818589687347412109e+00,-1.132648468017578125e+00
-4.056908190250396729e-01,7.551659107208251953e+00,-1.197788238525390625e+00
-4.374847114086151123e-01,8.143481254577636719e+00,-1.001334071159362793e+00
-4.384364783763885498e-01,8.161197662353515625e+00,-7.150408029556274414e-01
-4.383904635906219482e-01,8.160341262817382812e+00,-4.282814264297485352e-01
-4.395302832126617432e-01,8.181557655334472656e+00,-1.430153399705886841e-01
-4.400655925273895264e-01,8.191522598266601562e+00,1.431895345449447632e-01
-4.402872025966644287e-01,8.195647239685058594e+00,4.301344156265258789e-01
-4.410988986492156982e-01,8.210757255554199219e+00,7.193829417228698730e-01
-4.412797093391418457e-01,8.214122772216796875e+00,1.010020256042480469e+00
-4.414580762386322021e-01,8.217442512512207031e+00,1.303389787673950195e+00
-2.714245915412902832e-01,3.986385345458984375e+00,-1.070620179176330566e+00
-3.231697082519531250e-01,4.746360778808593750e+00,-1.098319172859191895e+00
-3.968642055988311768e-01,5.828704357147216797e+00,-1.135606884956359863e+00
-5.163005590438842773e-01,7.582854270935058594e+00,-1.203784942626953125e+00
-5.559654235839843750e-01,8.165408134460449219e+00,-1.004905819892883301e+00
-5.564913153648376465e-01,8.173130989074707031e+00,-7.167108654975891113e-01
-5.580004453659057617e-01,8.195296287536621094e+00,-4.304910302162170410e-01
-5.581828951835632324e-01,8.197976112365722656e+00,-1.434272974729537964e-01
-5.571607947349548340e-01,8.182964324951171875e+00,1.431646645069122314e-01
-5.586066842079162598e-01,8.204199790954589844e+00,4.309587180614471436e-01
-5.602375268936157227e-01,8.228151321411132812e+00,7.215356230735778809e-01
-5.610846877098083496e-01,8.240593910217285156e+00,1.014158844947814941e+00
-5.611935853958129883e-01,8.242193222045898438e+00,1.308455705642700195e+00
-3.288480341434478760e-01,3.986919403076171875e+00,-1.071917891502380371e+00
-3.908935189247131348e-01,4.739152431488037109e+00,-1.097833275794982910e+00
-4.832289814949035645e-01,5.858617782592773438e+00,-1.142665386199951172e+00
-6.214484572410583496e-01,7.534376144409179688e+00,-1.197378516197204590e+00
-6.734592914581298828e-01,8.164950370788574219e+00,-1.005932807922363281e+00
-6.750727891921997070e-01,8.184512138366699219e+00,-7.184826135635375977e-01
-6.760039925575256348e-01,8.195802688598632812e+00,-4.309817552566528320e-01
-6.774255633354187012e-01,8.213036537170410156e+00,-1.438457071781158447e-01
-6.780676841735839844e-01,8.220822334289550781e+00,1.439820677042007446e-01
-6.788447499275207520e-01,8.230243682861328125e+00,4.327928721904754639e-01
-6.798585057258605957e-01,8.242533683776855469e+00,7.235760092735290527e-01
-6.807447075843811035e-01,8.253277778625488281e+00,1.016814827919006348e+00
-6.819759607315063477e-01,8.268205642700195312e+00,1.314000248908996582e+00
-3.867091834545135498e-01,3.990411281585693359e+00,-1.074234843254089355e+00
-4.597720503807067871e-01,4.744338989257812500e+00,-1.100446581840515137e+00
-5.676519870758056641e-01,5.857541084289550781e+00,-1.143922924995422363e+00
-7.331072092056274414e-01,7.564855575561523438e+00,-1.203766703605651855e+00
-7.943472862243652344e-01,8.196784973144531250e+00,-1.011152148246765137e+00
-7.963163852691650391e-01,8.217104911804199219e+00,-7.222703099250793457e-01
-7.957681417465209961e-01,8.211446762084960938e+00,-4.323591291904449463e-01
-7.975385189056396484e-01,8.229715347290039062e+00,-1.443229615688323975e-01
-8.001028299331665039e-01,8.256175994873046875e+00,1.447870135307312012e-01
-7.976711988449096680e-01,8.231084823608398438e+00,4.333930909633636475e-01
-8.000301718711853027e-01,8.255426406860351562e+00,7.256387472152709961e-01
-8.012139797210693359e-01,8.267642021179199219e+00,1.019892930984497070e+00
-8.027169704437255859e-01,8.283151626586914062e+00,1.318066358566284180e+00
-4.417672455310821533e-01,3.966393470764160156e+00,-1.069361925125122070e+00
-5.295351743698120117e-01,4.754415035247802734e+00,-1.104428648948669434e+00
-6.465908885002136230e-01,5.805396080017089844e+00,-1.135430574417114258e+00
-8.369740843772888184e-01,7.514745712280273438e+00,-1.197576522827148438e+00
-9.138925671577453613e-01,8.205356597900390625e+00,-1.013719201087951660e+00
-9.140598177909851074e-01,8.206857681274414062e+00,-7.224456667900085449e-01
-9.178792834281921387e-01,8.241150856018066406e+00,-4.345703721046447754e-01
-9.184502959251403809e-01,8.246277809143066406e+00,-1.448291242122650146e-01
-9.196016192436218262e-01,8.256614685058593750e+00,1.450106799602508545e-01
-9.213670492172241211e-01,8.272465705871582031e+00,4.362216293811798096e-01
-9.217761158943176270e-01,8.276138305664062500e+00,7.285443544387817383e-01
-9.241217374801635742e-01,8.297198295593261719e+00,1.025065779685974121e+00
-9.238622188568115234e-01,8.294868469238281250e+00,1.321899652481079102e+00
-5.005735158920288086e-01,3.976222753524780273e+00,-1.073833584785461426e+00
-5.936018228530883789e-01,4.715177536010742188e+00,-1.097175240516662598e+00
-7.313426136970520020e-01,5.809298992156982422e+00,-1.138124704360961914e+00
-9.497492909431457520e-01,7.544176101684570312e+00,-1.204309701919555664e+00
-1.035541415214538574e+00,8.225651741027832031e+00,-1.017953515052795410e+00
-1.037053227424621582e+00,8.237660408020019531e+00,-7.263895273208618164e-01
-1.038322567939758301e+00,8.247743606567382812e+00,-4.356570839881896973e-01
-1.038117527961730957e+00,8.246114730834960938e+00,-1.450723707675933838e-01
-1.041179895401000977e+00,8.270440101623535156e+00,1.455003321170806885e-01
-1.041918396949768066e+00,8.276306152343750000e+00,4.371657967567443848e-01
-1.042789816856384277e+00,8.283227920532226562e+00,7.304075360298156738e-01
-1.045118212699890137e+00,8.301722526550292969e+00,1.027367591857910156e+00
-1.045462131500244141e+00,8.304454803466796875e+00,1.325676441192626953e+00
-5.570667982101440430e-01,3.966065883636474609e+00,-1.073134064674377441e+00
-6.601263880729675293e-01,4.699803829193115234e+00,-1.095684409141540527e+00
-8.120910525321960449e-01,5.781724452972412109e+00,-1.134883522987365723e+00
-1.051672339439392090e+00,7.487435817718505859e+00,-1.197532415390014648e+00
-1.158614516258239746e+00,8.248816490173339844e+00,-1.022767782211303711e+00
-1.159346818923950195e+00,8.254029273986816406e+00,-7.292214632034301758e-01
-1.159638285636901855e+00,8.256105422973632812e+00,-4.369307458400726318e-01
-1.162061691284179688e+00,8.273358345031738281e+00,-1.458293497562408447e-01
-1.165037631988525391e+00,8.294545173645019531e+00,1.462028026580810547e-01
-1.165500521659851074e+00,8.297841072082519531e+00,4.391395151615142822e-01
-1.167899370193481445e+00,8.314920425415039062e+00,7.346009612083435059e-01
