-4.389045715332031250e+00,-1.089505791664123535e+00,1.044042110443115234e+00
-3.929103374481201172e+00,-1.035250306129455566e+00,-1.088729500770568848e+00
-4.193851947784423828e+00,-1.105006933212280273e+00,-1.001270174980163574e+00
-4.198174953460693359e+00,-1.106145858764648438e+00,-8.438920378684997559e-01
-4.208078384399414062e+00,-1.108755350112915039e+00,-6.892399787902832031e-01
-4.191818714141845703e+00,-1.104471206665039062e+00,-5.322557687759399414e-01
-4.230842113494873047e+00,-1.114753127098083496e+00,-3.827830553054809570e-01
-4.207837104797363281e+00,-1.108691692352294922e+00,-2.280493229627609253e-01
-4.208006858825683594e+00,-1.108736515045166016e+00,-7.595774531364440918e-02
-4.236618995666503906e+00,-1.116275191307067871e+00,7.647420465946197510e-02
-4.237926483154296875e+00,-1.116619825363159180e+00,2.296800762414932251e-01
-4.240861415863037109e+00,-1.117393016815185547e+00,3.836895525455474854e-01
-4.252113342285156250e+00,-1.120357751846313477e+00,5.399116277694702148e-01
-4.229672431945800781e+00,-1.114444971084594727e+00,6.927768588066101074e-01
-4.242457389831542969e+00,-1.117813587188720703e+00,8.527935147285461426e-01
-4.263192176818847656e+00,-1.123276829719543457e+00,1.017825007438659668e+00
-3.883075237274169922e+00,-1.082786440849304199e+00,-1.080159306526184082e+00
-4.139870166778564453e+00,-1.154393196105957031e+00,-9.922255277633666992e-01
-4.150712966918945312e+00,-1.157416701316833496e+00,-8.375959396362304688e-01
-4.154282093048095703e+00,-1.158411860466003418e+00,-6.830744743347167969e-01
-4.151317596435546875e+00,-1.157585263252258301e+00,-5.291627645492553711e-01
-4.170906543731689453e+00,-1.163047552108764648e+00,-3.788277804851531982e-01
-4.168290615081787109e+00,-1.162318110466003418e+00,-2.267844825983047485e-01
-4.178111553192138672e+00,-1.165056705474853516e+00,-7.571136951446533203e-02
-4.206698894500732422e+00,-1.173028230667114258e+00,7.622939348220825195e-02
-4.189939498901367188e+00,-1.168354868888854980e+00,2.279623299837112427e-01
-4.181527614593505859e+00,-1.166009306907653809e+00,3.797924816608428955e-01
-4.189032077789306641e+00,-1.168101787567138672e+00,5.339702367782592773e-01
-4.213824748992919922e+00,-1.175015211105346680e+00,6.928648948669433594e-01
-4.219429016113281250e+00,-1.176577925682067871e+00,8.514624834060668945e-01
-4.213160514831542969e+00,-1.174830079078674316e+00,1.009791374206542969e+00
-3.884498596191406250e+00,-1.143347382545471191e+00,-1.084996461868286133e+00
-4.179621219635009766e+00,-1.230212569236755371e+00,-1.005870103836059570e+00
-4.155758857727050781e+00,-1.223188996315002441e+00,-8.420609235763549805e-01
-4.175916671752929688e+00,-1.229122281074523926e+00,-6.894539594650268555e-01
-4.168911933898925781e+00,-1.227060556411743164e+00,-5.335896611213684082e-01
-4.181653976440429688e+00,-1.230810880661010742e+00,-3.813649713993072510e-01
-4.194764137268066406e+00,-1.234669685363769531e+00,-2.291628569364547729e-01
-4.196595191955566406e+00,-1.235208630561828613e+00,-7.635886967182159424e-02
-4.208371639251708984e+00,-1.238674879074096680e+00,7.657314091920852661e-02
-4.210804462432861328e+00,-1.239390969276428223e+00,2.300391644239425659e-01
-4.215787887573242188e+00,-1.240857839584350586e+00,3.844779729843139648e-01
-4.221622943878173828e+00,-1.242575168609619141e+00,5.403362512588500977e-01
-4.221424579620361328e+00,-1.242516756057739258e+00,6.969673633575439453e-01
-4.243556976318359375e+00,-1.249031186103820801e+00,8.598510026931762695e-01
-4.249889373779296875e+00,-1.250895023345947266e+00,1.022780895233154297e+00
-3.862080335617065430e+00,-1.197071909904479980e+00,-1.083409547805786133e+00
-4.179229259490966797e+00,-1.295373797416687012e+00,-1.010134458541870117e+00
-4.195125102996826172e+00,-1.300300717353820801e+00,-8.537212610244750977e-01
-4.179322242736816406e+00,-1.295402526855468750e+00,-6.930064558982849121e-01
-4.182338714599609375e+00,-1.296337604522705078e+00,-5.376280546188354492e-01
-4.204426765441894531e+00,-1.303184032440185547e+00,-3.851035535335540771e-01
-4.207017421722412109e+00,-1.303986787796020508e+00,-2.308282703161239624e-01
-4.217460632324218750e+00,-1.307223796844482422e+00,-7.707107812166213989e-02
-4.226683139801025391e+00,-1.310082316398620605e+00,7.723961025476455688e-02
-4.231981754302978516e+00,-1.311724662780761719e+00,2.321979999542236328e-01
-4.238757610321044922e+00,-1.313824892044067383e+00,3.882480561733245850e-01
-4.240110397338867188e+00,-1.314244270324707031e+00,5.450543761253356934e-01
-4.253693580627441406e+00,-1.318454384803771973e+00,7.053385972976684570e-01
-4.234697818756103516e+00,-1.312566637992858887e+00,8.617744445800781250e-01
-4.250280857086181641e+00,-1.317396640777587891e+00,1.027307868003845215e+00
-3.841973781585693359e+00,-1.251383543014526367e+00,-1.082682967185974121e+00
-4.203160762786865234e+00,-1.369027137756347656e+00,-1.020550727844238281e+00
-4.205647945404052734e+00,-1.369837164878845215e+00,-8.597647547721862793e-01
-4.189022541046142578e+00,-1.364421963691711426e+00,-6.977818012237548828e-01
-4.224512577056884766e+00,-1.375981569290161133e+00,-5.455252528190612793e-01
-4.223502635955810547e+00,-1.375652551651000977e+00,-3.886145055294036865e-01
-4.227418899536132812e+00,-1.376928329467773438e+00,-2.330051511526107788e-01
-4.237149238586425781e+00,-1.380097508430480957e+00,-7.778389751911163330e-02
-4.242890357971191406e+00,-1.381967425346374512e+00,7.788928598165512085e-02
-4.243989467620849609e+00,-1.382325530052185059e+00,2.339184880256652832e-01
-4.265429496765136719e+00,-1.389308810234069824e+00,3.924723267555236816e-01
-4.261874675750732422e+00,-1.388150930404663086e+00,5.503498911857604980e-01
-4.263631820678710938e+00,-1.388723254203796387e+00,7.102098464965820312e-01
-4.273519992828369141e+00,-1.391943931579589844e+00,8.736398816108703613e-01
-4.266928195953369141e+00,-1.389796972274780273e+00,1.036033749580383301e+00
-3.836429357528686523e+00,-1.310600280761718750e+00,-1.086295604705810547e+00
-4.216378688812255859e+00,-1.440398454666137695e+00,-1.028660535812377930e+00
-4.228101253509521484e+00,-1.444403171539306641e+00,-8.684924840927124023e-01
-4.229653835296630859e+00,-1.444933533668518066e+00,-7.079225182533264160e-01
-4.240589141845703125e+00,-1.448669195175170898e+00,-5.502225160598754883e-01
-4.227516174316406250e+00,-1.444203376770019531e+00,-3.908458352088928223e-01
-4.240360736846923828e+00,-1.448591351509094238e+00,-2.348372489213943481e-01
-4.261900901794433594e+00,-1.455949783325195312e+00,-7.861279696226119995e-02
-4.262544155120849609e+00,-1.456169605255126953e+00,7.862465828657150269e-02
-4.263600826263427734e+00,-1.456530570983886719e+00,2.361243218183517456e-01
-4.270289897918701172e+00,-1.458815574645996094e+00,3.948003649711608887e-01
-4.279217243194580078e+00,-1.461865425109863281e+00,5.552345514297485352e-01
-4.297350883483886719e+00,-1.468060135841369629e+00,7.192530632019042969e-01
-4.282821178436279297e+00,-1.463096618652343750e+00,8.797324299812316895e-01
-4.309989929199218750e+00,-1.472377896308898926e+00,1.051498651504516602e+00
-3.791258573532104492e+00,-1.356065988540649414e+00,-1.078890919685363770e+00
-4.234049797058105469e+00,-1.514444470405578613e+00,-1.038153886795043945e+00
-4.244442462921142578e+00,-1.518161654472351074e+00,-8.762228488922119141e-01
-4.248631477355957031e+00,-1.519660115242004395e+00,-7.146662473678588867e-01
-4.262219905853271484e+00,-1.524520397186279297e+00,-5.558035373687744141e-01
-4.250390052795410156e+00,-1.520289063453674316e+00,-3.949319422245025635e-01
-4.258609771728515625e+00,-1.523229122161865234e+00,-2.370310872793197632e-01
-4.269019126892089844e+00,-1.526952385902404785e+00,-7.913912832736968994e-02
-4.271541118621826172e+00,-1.527854442596435547e+00,7.918588072061538696e-02
-4.273893833160400391e+00,-1.528695940971374512e+00,2.378817796707153320e-01
-4.284357070922851562e+00,-1.532438516616821289e+00,3.980880379676818848e-01
-4.290570259094238281e+00,-1.534660816192626953e+00,5.595004558563232422e-01
-4.295562744140625000e+00,-1.536446571350097656e+00,7.225605845451354980e-01
-4.305253505706787109e+00,-1.539912700653076172e+00,8.887767195701599121e-01
-4.312477588653564453e+00,-1.542496681213378906e+00,1.057383775711059570e+00
-3.792810916900634766e+00,-1.418169975280761719e+00,-1.084998011589050293e+00
-4.257132053375244141e+00,-1.591784238815307617e+00,-1.049292445182800293e+00
-4.255793571472167969e+00,-1.591283798217773438e+00,-8.831778168678283691e-01
-4.257811069488525391e+00,-1.592038154602050781e+00,-7.199696898460388184e-01
-4.268030643463134766e+00,-1.595859289169311523e+00,-5.594826340675354004e-01
-4.284328937530517578e+00,-1.601953506469726562e+00,-4.001749753952026367e-01
-4.287053108215332031e+00,-1.602972149848937988e+00,-2.398667037487030029e-01
-4.281542778015136719e+00,-1.600911617279052734e+00,-7.978790998458862305e-02
-4.289740562438964844e+00,-1.603976845741271973e+00,7.994067668914794922e-02
-4.298113822937011719e+00,-1.607107877731323242e+00,2.404855638742446899e-01
-4.314300060272216797e+00,-1.613160014152526855e+00,4.029744267463684082e-01
-4.309127807617187500e+00,-1.611226081848144531e+00,5.648699402809143066e-01
-4.318042278289794922e+00,-1.614559292793273926e+00,7.301544547080993652e-01
-4.313756465911865234e+00,-1.612956762313842773e+00,8.952065110206604004e-01
-4.330482959747314453e+00,-1.619210958480834961e+00,1.067371845245361328e+00
-3.779054880142211914e+00,-1.475011944770812988e+00,-1.086991071701049805e+00
-4.265102386474609375e+00,-1.664722442626953125e+00,-1.057021737098693848e+00
-4.271652221679687500e+00,-1.667278885841369629e+00,-8.913300037384033203e-01
-4.284506320953369141e+00,-1.672295928001403809e+00,-7.284565567970275879e-01
-4.289284706115722656e+00,-1.674161076545715332e+00,-5.653521418571472168e-01
-4.301786899566650391e+00,-1.679040789604187012e+00,-4.040090143680572510e-01
-4.306532382965087891e+00,-1.680892944335937500e+00,-2.422779351472854614e-01
-4.303212165832519531e+00,-1.679597139358520508e+00,-8.063147962093353271e-02
-4.296720027923583984e+00,-1.677063226699829102e+00,8.050983399152755737e-02
-4.319486618041992188e+00,-1.685949206352233887e+00,2.430067062377929688e-01
-4.316840171813964844e+00,-1.684916257858276367e+00,4.054227769374847412e-01
-4.327783584594726562e+00,-1.689187765121459961e+00,5.704265236854553223e-01
-4.337382793426513672e+00,-1.692934274673461914e+00,7.374466657638549805e-01
-4.333890914916992188e+00,-1.691571474075317383e+00,9.043169021606445312e-01
-4.340335845947265625e+00,-1.694086909294128418e+00,1.075666904449462891e+00
-3.763228893280029297e+00,-1.531254410743713379e+00,-1.088631749153137207e+00
-4.291240692138671875e+00,-1.746102094650268555e+00,-1.069584012031555176e+00
-4.291846752166748047e+00,-1.746348619461059570e+00,-9.006673693656921387e-01
-4.308966159820556641e+00,-1.753314375877380371e+00,-7.368066310882568359e-01
-4.314438343048095703e+00,-1.755541086196899414e+00,-5.719208717346191406e-01
-4.298624038696289062e+00,-1.749106287956237793e+00,-4.060216844081878662e-01
-4.316937446594238281e+00,-1.756558060646057129e+00,-2.442527562379837036e-01
-4.324458122253417969e+00,-1.759618163108825684e+00,-8.149315416812896729e-02
-4.316995620727539062e+00,-1.756581664085388184e+00,8.135252445936203003e-02
-4.326617717742919922e+00,-1.760496735572814941e+00,2.448004484176635742e-01
-4.351107597351074219e+00,-1.770461797714233398e+00,4.109789431095123291e-01
-4.345338821411132812e+00,-1.768114447593688965e+00,5.760170817375183105e-01
-4.358195304870605469e+00,-1.773345708847045898e+00,7.452245354652404785e-01
-4.355480194091796875e+00,-1.772240996360778809e+00,9.140211939811706543e-01
-4.361263275146484375e+00,-1.774594068527221680e+00,1.087036967277526855e+00
-3.719381332397460938e+00,-1.575827956199645996e+00,-1.082361578941345215e+00
-4.311665534973144531e+00,-1.826766967773437500e+00,-1.081081271171569824e+00
-4.315024852752685547e+00,-1.828190445899963379e+00,-9.109295606613159180e-01
-4.328432083129882812e+00,-1.833870768547058105e+00,-7.445473670959472656e-01
-4.325215339660644531e+00,-1.832507848739624023e+00,-5.767674446105957031e-01
-4.332138061523437500e+00,-1.835440874099731445e+00,-4.116264879703521729e-01
-4.338695526123046875e+00,-1.838219165802001953e+00,-2.469472438097000122e-01
-4.337881565093994141e+00,-1.837874293327331543e+00,-8.223342895507812500e-02
-4.351206779479980469e+00,-1.843519806861877441e+00,8.248603343963623047e-02
-4.355255603790283203e+00,-1.845235109329223633e+00,2.478897720575332642e-01
-4.353822231292724609e+00,-1.844627976417541504e+00,4.136868417263031006e-01
-4.362103939056396484e+00,-1.848136782646179199e+00,5.816864967346191406e-01
-4.368109703063964844e+00,-1.850681304931640625e+00,7.513724565505981445e-01
-4.385775566101074219e+00,-1.858165860176086426e+00,9.258654117584228516e-01
-4.382526874542236328e+00,-1.856789469718933105e+00,1.098848581314086914e+00
-3.698649883270263672e+00,-1.629868984222412109e+00,-1.083006501197814941e+00
-4.338869571685791016e+00,-1.911991953849792480e+00,-1.094652056694030762e+00
-4.329898357391357422e+00,-1.908038735389709473e+00,-9.197406768798828125e-01
-4.342752456665039062e+00,-1.913702964782714844e+00,-7.516453862190246582e-01
-4.347453594207763672e+00,-1.915774703025817871e+00,-5.833297967910766602e-01
-4.331259250640869141e+00,-1.908638358116149902e+00,-4.140963256359100342e-01
-4.364269733428955078e+00,-1.923185110092163086e+00,-2.499440461397171021e-01
-4.366468429565429688e+00,-1.924153923988342285e+00,-8.328892290592193604e-02
-4.385107517242431641e+00,-1.932367563247680664e+00,8.364445716142654419e-02
-4.379405021667480469e+00,-1.929854750633239746e+00,2.508108615875244141e-01
-4.378813743591308594e+00,-1.929594039916992188e+00,4.186428487300872803e-01
-4.383786678314208984e+00,-1.931785464286804199e+00,5.882048606872558594e-01
-4.391586303710937500e+00,-1.935222506523132324e+00,7.600975632667541504e-01
-4.391968727111816406e+00,-1.935390949249267578e+00,9.329254031181335449e-01
-4.418958187103271484e+00,-1.947284340858459473e+00,1.114857673645019531e+00
-3.679963111877441406e+00,-1.684935092926025391e+00,-1.084485530853271484e+00
-4.344584465026855469e+00,-1.989243507385253906e+00,-1.103164315223693848e+00
-4.347212791442871094e+00,-1.990446805953979492e+00,-9.293750524520874023e-01
-4.357632637023925781e+00,-1.995217919349670410e+00,-7.590860724449157715e-01
-4.353436946868896484e+00,-1.993296623229980469e+00,-5.879005789756774902e-01
-4.370212078094482422e+00,-2.000977516174316406e+00,-4.205156564712524414e-01
-4.394609928131103516e+00,-2.012148618698120117e+00,-2.533051371574401855e-01
-4.369001865386962891e+00,-2.000423431396484375e+00,-8.387481421232223511e-02
-4.388125896453857422e+00,-2.009179592132568359e+00,8.424194902181625366e-02
-4.390963554382324219e+00,-2.010478973388671875e+00,2.530949413776397705e-01
-4.405908584594726562e+00,-2.017321825027465820e+00,4.239504933357238770e-01
-4.415422916412353516e+00,-2.021678209304809570e+00,5.962713360786437988e-01
-4.413256168365478516e+00,-2.020685911178588867e+00,7.687754631042480469e-01
-4.432334899902343750e+00,-2.029421567916870117e+00,9.475730657577514648e-01
-4.422171115875244141e+00,-2.024767875671386719e+00,1.122864961624145508e+00
-3.665582180023193359e+00,-1.742235660552978516e+00,-1.087485194206237793e+00
-4.371320724487304688e+00,-2.077670335769653320e+00,-1.117389798164367676e+00
-4.383815765380859375e+00,-2.083608865737915039e+00,-9.434795379638671875e-01
-4.388685703277587891e+00,-2.085923671722412109e+00,-7.696174979209899902e-01
-4.385934352874755859e+00,-2.084615945816040039e+00,-5.962575078010559082e-01
-4.399897575378417969e+00,-2.091252565383911133e+00,-4.262086749076843262e-01
-4.398598670959472656e+00,-2.090635299682617188e+00,-2.552337050437927246e-01
-4.407835960388183594e+00,-2.095025777816772461e+00,-8.518730103969573975e-02
-4.399976730346679688e+00,-2.091290235519409180e+00,8.503540605306625366e-02
-4.407152652740478516e+00,-2.094700813293457031e+00,2.557300627231597900e-01
-4.423619747161865234e+00,-2.102527618408203125e+00,4.285066127777099609e-01
-4.422305583953857422e+00,-2.101903200149536133e+00,6.012020707130432129e-01
-4.429264068603515625e+00,-2.105210542678833008e+00,7.767335176467895508e-01
-4.442562580108642578e+00,-2.111531019210815430e+00,9.561229348182678223e-01
-4.442696094512939453e+00,-2.111594676971435547e+00,1.135634660720825195e+00
-3.611138582229614258e+00,-1.780157446861267090e+00,-1.078781962394714355e+00
-4.313550472259521484e+00,-2.126420497894287109e+00,-1.110289096832275391e+00
-4.390797615051269531e+00,-2.164500236511230469e+00,-9.515525102615356445e-01
-4.411379814147949219e+00,-2.174646615982055664e+00,-7.789759635925292969e-01
-4.406949043273925781e+00,-2.172462463378906250e+00,-6.032799482345581055e-01
-4.408364295959472656e+00,-2.173160076141357422e+00,-4.299979209899902344e-01
-4.414132595062255859e+00,-2.176003694534301758e+00,-2.579159736633300781e-01
-4.404384136199951172e+00,-2.171198129653930664e+00,-8.571242541074752808e-02
-4.436139583587646484e+00,-2.186852216720581055e+00,8.633040636777877808e-02
-4.447770118713378906e+00,-2.192585706710815430e+00,2.598813772201538086e-01
-4.435113906860351562e+00,-2.186346769332885742e+00,4.326071143150329590e-01
-4.451036453247070312e+00,-2.194195747375488281e+00,6.093151569366455078e-01
-4.439399242401123047e+00,-2.188459157943725586e+00,7.839237451553344727e-01
-4.467160701751708984e+00,-2.202144622802734375e+00,9.681016206741333008e-01
-4.478425979614257812e+00,-2.207697868347167969e+00,1.152727246284484863e+00
-3.599856376647949219e+00,-1.839098811149597168e+00,-1.083164572715759277e+00
-4.286533832550048828e+00,-2.189909219741821289e+00,-1.111289381980895996e+00
-4.419621467590332031e+00,-2.257901191711425781e+00,-9.647040963172912598e-01
-4.428335666656494141e+00,-2.262353181838989258e+00,-7.876075506210327148e-01
-4.423704624176025391e+00,-2.259987115859985352e+00,-6.099393963813781738e-01
-4.429377555847167969e+00,-2.262885570526123047e+00,-4.351623654365539551e-01
-4.436094760894775391e+00,-2.266317129135131836e+00,-2.610678374767303467e-01
-4.454552173614501953e+00,-2.275746583938598633e+00,-8.731368929147720337e-02
-4.452036857604980469e+00,-2.274461746215820312e+00,8.726438879966735840e-02
-4.459157943725585938e+00,-2.278099536895751953e+00,2.624251246452331543e-01
-4.460508346557617188e+00,-2.278789520263671875e+00,4.382207393646240234e-01
-4.468617916107177734e+00,-2.282932758331298828e+00,6.161320805549621582e-01
-4.478978633880615234e+00,-2.288225889205932617e+00,7.966147065162658691e-01
-4.488256454467773438e+00,-2.292965650558471680e+00,9.796856045722961426e-01
-4.482422828674316406e+00,-2.289985418319702148e+00,1.162073850631713867e+00
-3.573129177093505859e+00,-1.890411853790283203e+00,-1.083153247833251953e+00
-4.267323493957519531e+00,-2.257684469223022461e+00,-1.114572644233703613e+00
-4.441760540008544922e+00,-2.349972963333129883e+00,-9.767786264419555664e-01
-4.450033664703369141e+00,-2.354349851608276367e+00,-7.973785400390625000e-01
-4.448593616485595703e+00,-2.353587865829467773e+00,-6.179526448249816895e-01
-4.447827339172363281e+00,-2.353182554244995117e+00,-4.402389228343963623e-01
-4.466023921966552734e+00,-2.362809658050537109e+00,-2.647924125194549561e-01
-4.477045536041259766e+00,-2.368640899658203125e+00,-8.841007202863693237e-02
-4.476549625396728516e+00,-2.368378400802612305e+00,8.840027451515197754e-02
-4.486514091491699219e+00,-2.373650312423706055e+00,2.660073041915893555e-01
-4.475382328033447266e+00,-2.367760896682739258e+00,4.429662525653839111e-01
-4.502622127532958984e+00,-2.382172584533691406e+00,6.254578232765197754e-01
-4.511163711547851562e+00,-2.386691570281982422e+00,8.083321452140808105e-01
-4.503145217895507812e+00,-2.382449388504028320e+00,9.902776479721069336e-01
-4.501089572906494141e+00,-2.381361722946166992e+00,1.175629496574401855e+00
-3.553698539733886719e+00,-1.945731997489929199e+00,-1.085594296455383301e+00
-4.230421066284179688e+00,-2.316253185272216797e+00,-1.113479495048522949e+00
-4.463975429534912109e+00,-2.444129467010498047e+00,-9.892557263374328613e-01
-4.463249206542968750e+00,-2.443732023239135742e+00,-8.059315681457519531e-01
-4.469904899597167969e+00,-2.447376012802124023e+00,-6.257150173187255859e-01
-4.486446857452392578e+00,-2.456433057785034180e+00,-4.474956393241882324e-01
-4.460129261016845703e+00,-2.442023754119873047e+00,-2.664880454540252686e-01
-4.506871223449707031e+00,-2.467615842819213867e+00,-8.968733996152877808e-02
-4.506737709045410156e+00,-2.467542886734008789e+00,8.968468010425567627e-02
-4.521520137786865234e+00,-2.475636720657348633e+00,2.701560854911804199e-01
-4.511387825012207031e+00,-2.470088958740234375e+00,4.499833881855010986e-01
-4.513434410095214844e+00,-2.471209287643432617e+00,6.318084001541137695e-01
-4.511287689208984375e+00,-2.470034122467041016e+00,8.146059513092041016e-01
-4.539480209350585938e+00,-2.485470294952392578e+00,1.005988240242004395e+00
-4.535017967224121094e+00,-2.483026981353759766e+00,1.193651795387268066e+00
-3.511848688125610352e+00,-1.988669991493225098e+00,-1.081394553184509277e+00
-4.193835258483886719e+00,-2.374861717224121094e+00,-1.112682938575744629e+00
-4.480591297149658203e+00,-2.537244319915771484e+00,-1.000883579254150391e+00
-4.500433444976806641e+00,-2.548480033874511719e+00,-8.191487789154052734e-01
-4.498873710632324219e+00,-2.547597169876098633e+00,-6.348096728324890137e-01
-4.502091884613037109e+00,-2.549419403076171875e+00,-4.526495635509490967e-01
-4.504023551940917969e+00,-2.550513267517089844e+00,-2.712641358375549316e-01
-4.507143974304199219e+00,-2.552280426025390625e+00,-9.041050076484680176e-02
-4.517515182495117188e+00,-2.558153152465820312e+00,9.061854332685470581e-02
-4.526183605194091797e+00,-2.563061952590942383e+00,2.725987732410430908e-01
-4.534187316894531250e+00,-2.567594051361083984e+00,4.558764994144439697e-01
-4.546286582946777344e+00,-2.574445724487304688e+00,6.414998173713684082e-01
-4.551520347595214844e+00,-2.577409505844116211e+00,8.284474611282348633e-01
-4.558100700378417969e+00,-2.581135749816894531e+00,1.018197774887084961e+00
-4.564035415649414062e+00,-2.584496498107910156e+00,1.210902094841003418e+00
-3.484339714050292969e+00,-2.039496183395385742e+00,-1.081802129745483398e+00
-4.153040409088134766e+00,-2.430908441543579102e+00,-1.110977292060852051e+00
-4.501377582550048828e+00,-2.634801149368286133e+00,-1.013847351074218750e+00
-4.518979549407958984e+00,-2.645104169845581055e+00,-8.293308019638061523e-01
-4.514911174774169922e+00,-2.642722845077514648e+00,-6.423442959785461426e-01
-4.540901184082031250e+00,-2.657935619354248047e+00,-4.603294432163238525e-01
-4.524265289306640625e+00,-2.648198127746582031e+00,-2.747380137443542480e-01
-4.537216663360595703e+00,-2.655778884887695312e+00,-9.176686406135559082e-02
-4.560039043426513672e+00,-2.669137716293334961e+00,9.222845733165740967e-02
-4.555532455444335938e+00,-2.666499853134155273e+00,2.766367197036743164e-01
-4.556777954101562500e+00,-2.667228698730468750e+00,4.619388878345489502e-01
-4.566463947296142578e+00,-2.672898292541503906e+00,6.496787667274475098e-01
-4.560959339141845703e+00,-2.669676303863525391e+00,8.370350003242492676e-01
-4.569010257720947266e+00,-2.674388647079467773e+00,1.029080390930175781e+00
-4.590771198272705078e+00,-2.687126159667968750e+00,1.228074193000793457e+00
-3.467010259628295898e+00,-2.096542596817016602e+00,-1.085627555847167969e+00
-4.104986667633056641e+00,-2.482334852218627930e+00,-1.107513785362243652e+00
-4.528465747833251953e+00,-2.738417625427246094e+00,-1.028671264648437500e+00
-4.543677806854248047e+00,-2.747616529464721680e+00,-8.409948348999023438e-01
-4.539563179016113281e+00,-2.745128393173217773e+00,-6.513750553131103516e-01
-4.550151824951171875e+00,-2.751531600952148438e+00,-4.652120769023895264e-01
-4.559077262878417969e+00,-2.756928682327270508e+00,-2.792196571826934814e-01
-4.565203189849853516e+00,-2.760633230209350586e+00,-9.312255680561065674e-02
-4.587960720062255859e+00,-2.774394989013671875e+00,9.358676522970199585e-02
-4.585695266723632812e+00,-2.773025035858154297e+00,2.808498740196228027e-01
-4.588823795318603516e+00,-2.774916648864746094e+00,4.691658914089202881e-01
-4.587658882141113281e+00,-2.774212360382080078e+00,6.582762002944946289e-01
-4.589010238647460938e+00,-2.775029420852661133e+00,8.493854403495788574e-01
-4.598940372467041016e+00,-2.781034231185913086e+00,1.044679999351501465e+00
-4.607642650604248047e+00,-2.786296844482421875e+00,1.243128895759582520e+00
-3.427964210510253906e+00,-2.140524387359619141e+00,-1.082883834838867188e+00
-4.082202434539794922e+00,-2.549050569534301758e+00,-1.111096501350402832e+00
-4.568979740142822266e+00,-2.853008985519409180e+00,-1.047043323516845703e+00
-4.574446201324462891e+00,-2.856422424316406250e+00,-8.541697859764099121e-01
-4.561611652374267578e+00,-2.848408222198486328e+00,-6.603211760520935059e-01
-4.581145286560058594e+00,-2.860605716705322266e+00,-4.725187420845031738e-01
-4.586780071258544922e+00,-2.864124298095703125e+00,-2.833980619907379150e-01
-4.593501567840576172e+00,-2.868321180343627930e+00,-9.452757984399795532e-02
-4.591225624084472656e+00,-2.866899967193603516e+00,9.448073804378509521e-02
-4.609123229980468750e+00,-2.878075838088989258e+00,2.847785353660583496e-01
-4.606623649597167969e+00,-2.876514911651611328e+00,4.751466512680053711e-01
-4.620511054992675781e+00,-2.885186910629272461e+00,6.688472628593444824e-01
-4.622849464416503906e+00,-2.886646986007690430e+00,8.632079958915710449e-01
-4.626760959625244141e+00,-2.889089345932006836e+00,1.060284614562988281e+00
-4.639514923095703125e+00,-2.897053241729736328e+00,1.262786149978637695e+00
-3.385822057723999023e+00,-2.182176351547241211e+00,-1.079327583312988281e+00
-4.043551445007324219e+00,-2.606085538864135742e+00,-1.110615730285644531e+00
-4.595484733581542969e+00,-2.961808919906616211e+00,-1.062723636627197266e+00
-4.607933998107910156e+00,-2.969832420349121094e+00,-8.682714104652404785e-01
-4.604782104492187500e+00,-2.967801094055175781e+00,-6.726506948471069336e-01
-4.598663806915283203e+00,-2.963857889175415039e+00,-4.786523282527923584e-01
-4.614046573638916016e+00,-2.973772048950195312e+00,-2.876831889152526855e-01
-4.610068798065185547e+00,-2.971208333969116211e+00,-9.573386609554290771e-02
-4.629106044769287109e+00,-2.983477830886840820e+00,9.612920135259628296e-02
-4.639970302581787109e+00,-2.990479946136474609e+00,2.892995178699493408e-01
-4.635324001312255859e+00,-2.987485408782958984e+00,4.824680984020233154e-01
-4.652193069458007812e+00,-2.998357534408569336e+00,6.795762777328491211e-01
-4.644488811492919922e+00,-2.993392229080200195e+00,8.751593828201293945e-01
-4.648490428924560547e+00,-2.995971202850341797e+00,1.074981331825256348e+00
-4.672957420349121094e+00,-3.011740207672119141e+00,1.283490419387817383e+00
-3.363850355148315430e+00,-2.236798286437988281e+00,-1.082418680191040039e+00
-4.001449108123779297e+00,-2.660770893096923828e+00,-1.109398603439331055e+00
-4.610751628875732422e+00,-3.065927505493164062e+00,-1.076292157173156738e+00
-4.623641967773437500e+00,-3.074499130249023438e+00,-8.794333338737487793e-01
-4.615822315216064453e+00,-3.069299459457397461e+00,-6.806111335754394531e-01
-4.621475219726562500e+00,-3.073058366775512695e+00,-4.855552315711975098e-01
-4.634900093078613281e+00,-3.081985235214233398e+00,-2.917039692401885986e-01
-4.644337654113769531e+00,-3.088260650634765625e+00,-9.735347330570220947e-02
-4.649998664855957031e+00,-3.092025041580200195e+00,9.747214615345001221e-02
-4.656753063201904297e+00,-3.096516370773315430e+00,2.930793166160583496e-01
-4.664854526519775391e+00,-3.101903438568115234e+00,4.901128709316253662e-01
-4.675937175750732422e+00,-3.109272956848144531e+00,6.894751787185668945e-01
-4.679459571838378906e+00,-3.111615180969238281e+00,8.900500535964965820e-01
-4.689804077148437500e+00,-3.118493795394897461e+00,1.094745516777038574e+00
-4.680446147918701172e+00,-3.112271070480346680e+00,1.297649860382080078e+00
-3.340882778167724609e+00,-2.291152238845825195e+00,-1.085469603538513184e+00
-3.970410823822021484e+00,-2.722877740859985352e+00,-1.111484766006469727e+00
-4.650572299957275391e+00,-3.189327239990234375e+00,-1.096131443977355957e+00
-4.652224540710449219e+00,-3.190460443496704102e+00,-8.934642076492309570e-01
-4.656924247741699219e+00,-3.193683624267578125e+00,-6.933411359786987305e-01
-4.649494647979736328e+00,-3.188588619232177734e+00,-4.932436943054199219e-01
-4.673445701599121094e+00,-3.205013751983642578e+00,-2.969866693019866943e-01
-4.671977996826171875e+00,-3.204007387161254883e+00,-9.888405352830886841e-02
-4.682293891906738281e+00,-3.211081981658935547e+00,9.910239279270172119e-02
-4.688202857971191406e+00,-3.215134143829345703e+00,2.979244589805603027e-01
-4.698082447052001953e+00,-3.221909523010253906e+00,4.983981549739837646e-01
-4.704859733581542969e+00,-3.226557493209838867e+00,7.004779577255249023e-01
-4.707230567932128906e+00,-3.228183269500732422e+00,9.040281772613525391e-01
-4.702889919281005859e+00,-3.225206613540649414e+00,1.108462691307067871e+00
-4.715029716491699219e+00,-3.233531951904296875e+00,1.319934964179992676e+00
-3.296829223632812500e+00,-2.331011056900024414e+00,-1.081885933876037598e+00
-3.936197996139526367e+00,-2.783074378967285156e+00,-1.112944722175598145e+00
-4.675444126129150391e+00,-3.305755615234375000e+00,-1.113032221794128418e+00
-4.675524234771728516e+00,-3.305812120437622070e+00,-9.069334268569946289e-01
-4.685760498046875000e+00,-3.313049793243408203e+00,-7.046223878860473633e-01
-4.689703464508056641e+00,-3.315837621688842773e+00,-5.024927258491516113e-01
-4.694938659667968750e+00,-3.319539070129394531e+00,-3.013410270214080811e-01
-4.687635898590087891e+00,-3.314375638961791992e+00,-1.002092808485031128e-01
-4.707138061523437500e+00,-3.328164577484130859e+00,1.006261855363845825e-01
-4.701301097869873047e+00,-3.324037790298461914e+00,3.017494082450866699e-01
-4.724010944366455078e+00,-3.340094804763793945e+00,5.061687231063842773e-01
-4.719696998596191406e+00,-3.337044715881347656e+00,7.097256183624267578e-01
-4.726198196411132812e+00,-3.341641187667846680e+00,9.167629480361938477e-01
-4.749076843261718750e+00,-3.357817649841308594e+00,1.130561232566833496e+00
-4.752873897552490234e+00,-3.360502243041992188e+00,1.343856811523437500e+00
-3.260848760604858398e+00,-2.376293897628784180e+00,-1.081129550933837891e+00
-3.901070117950439453e+00,-2.842845678329467773e+00,-1.114403605461120605e+00
-4.690959453582763672e+00,-3.418465375900268555e+00,-1.128258466720581055e+00
-4.700849533081054688e+00,-3.425672531127929688e+00,-9.212627410888671875e-01
-4.722009658813476562e+00,-3.441092729568481445e+00,-7.174064517021179199e-01
-4.722695350646972656e+00,-3.441592454910278320e+00,-5.112535953521728516e-01
-4.718915462493896484e+00,-3.438838005065917969e+00,-3.060078918933868408e-01
-4.732792854309082031e+00,-3.448951005935668945e+00,-1.022194772958755493e-01
-4.743923187255859375e+00,-3.457062005996704102e+00,1.024598702788352966e-01
-4.745147228240966797e+00,-3.457953929901123047e+00,3.077089488506317139e-01
-4.751097202301025391e+00,-3.462289810180664062e+00,5.143281817436218262e-01
-4.769533157348632812e+00,-3.475724697113037109e+00,7.246266603469848633e-01
-4.770655155181884766e+00,-3.476542472839355469e+00,9.349431395530700684e-01
-4.764454841613769531e+00,-3.472023963928222656e+00,1.145935416221618652e+00
-4.784090518951416016e+00,-3.486333131790161133e+00,1.366652607917785645e+00
-3.231260776519775391e+00,-2.426290512084960938e+00,-1.082723021507263184e+00
-3.831386566162109375e+00,-2.876913547515869141e+00,-1.106147408485412598e+00
-4.726099014282226562e+00,-3.548735618591308594e+00,-1.148809432983398438e+00
-4.735640048980712891e+00,-3.555899620056152344e+00,-9.379596114158630371e-01
-4.746762752532958984e+00,-3.564251661300659180e+00,-7.288434505462646484e-01
-4.754230976104736328e+00,-3.569859266281127930e+00,-5.201457142829895020e-01
-4.755059242248535156e+00,-3.570481061935424805e+00,-3.116338551044464111e-01
-4.766863822937011719e+00,-3.579344987869262695e+00,-1.040512174367904663e-01
-4.760619640350341797e+00,-3.574656486511230469e+00,1.039149239659309387e-01
-4.762159347534179688e+00,-3.575812578201293945e+00,3.120991885662078857e-01
-4.781959533691406250e+00,-3.590680122375488281e+00,5.231793522834777832e-01
-4.793894290924072266e+00,-3.599641561508178711e+00,7.360802292823791504e-01
-4.793531894683837891e+00,-3.599369764328002930e+00,9.494259357452392578e-01
-4.799132347106933594e+00,-3.603574991226196289e+00,1.166562318801879883e+00
-4.812590122222900391e+00,-3.613680124282836914e+00,1.389427542686462402e+00
-1.025349140167236328e+00,-7.931150794029235840e-01,-3.473397791385650635e-01
-1.018878340721130371e+00,-7.881098985671997070e-01,-2.973834276199340820e-01
-1.028792619705200195e+00,-7.957786917686462402e-01,-2.528194487094879150e-01
-1.026829004287719727e+00,-7.942597866058349609e-01,-2.056084722280502319e-01
-1.018065452575683594e+00,-7.874810695648193359e-01,-1.580337285995483398e-01
-1.023074626922607422e+00,-7.913557887077331543e-01,-1.131590977311134338e-01
-1.029947161674499512e+00,-7.966716885566711426e-01,-6.824032217264175415e-02
-1.028172969818115234e+00,-7.952993512153625488e-01,-2.268913760781288147e-02
-1.030468702316284180e+00,-7.970750927925109863e-01,2.273979783058166504e-02
-1.023073077201843262e+00,-7.913545966148376465e-01,6.778487563133239746e-02
-1.030560135841369629e+00,-7.971458435058593750e-01,1.139870360493659973e-01
-1.027531743049621582e+00,-7.948033809661865234e-01,1.595031917095184326e-01
-1.032221555709838867e+00,-7.984309792518615723e-01,2.066882401704788208e-01
-1.040886998176574707e+00,-8.051337599754333496e-01,2.557915449142456055e-01
-1.034877061843872070e+00,-8.004850745201110840e-01,3.020530343055725098e-01
-9.977148175239562988e-01,-7.948204278945922852e-01,-3.417974710464477539e-01
-9.976918697357177734e-01,-7.948021292686462402e-01,-2.944899499416351318e-01
-1.004792690277099609e+00,-8.004589080810546875e-01,-2.497115880250930786e-01
-9.972870945930480957e-01,-7.944796681404113770e-01,-2.019494473934173584e-01
-1.006337404251098633e+00,-8.016895651817321777e-01,-1.579782664775848389e-01
-1.006504416465759277e+00,-8.018225431442260742e-01,-1.125841960310935974e-01
-1.005706548690795898e+00,-8.011869192123413086e-01,-6.738713383674621582e-02
-1.014230608940124512e+00,-8.079776167869567871e-01,-2.263435721397399902e-02
-1.000610947608947754e+00,-7.971276044845581055e-01,2.233040891587734222e-02
-1.012169122695922852e+00,-8.063352704048156738e-01,6.782016158103942871e-02
-1.026305079460144043e+00,-8.175965547561645508e-01,1.147990301251411438e-01
-1.005767226219177246e+00,-8.012353181838989258e-01,1.578887701034545898e-01
-1.007516145706176758e+00,-8.026286363601684570e-01,2.040208429098129272e-01
-1.018742680549621582e+00,-8.115720748901367188e-01,2.531784474849700928e-01
-1.012854218482971191e+00,-8.068810701370239258e-01,2.989654541015625000e-01
-9.772508740425109863e-01,-8.016467690467834473e-01,-3.386830985546112061e-01
-9.715945124626159668e-01,-7.970068454742431641e-01,-2.901243567466735840e-01
-9.866666793823242188e-01,-8.093706965446472168e-01,-2.480605840682983398e-01
-9.776462316513061523e-01,-8.019711375236511230e-01,-2.002761811017990112e-01
-9.744324088096618652e-01,-7.993348240852355957e-01,-1.547499597072601318e-01
-9.881739020347595215e-01,-8.106070160865783691e-01,-1.118201836943626404e-01
-9.881077408790588379e-01,-8.105527758598327637e-01,-6.697844713926315308e-02
-9.852699041366577148e-01,-8.082248568534851074e-01,-2.224393934011459351e-02
-9.828254580497741699e-01,-8.062196373939514160e-01,2.218875288963317871e-02
-9.810300469398498535e-01,-8.047468662261962891e-01,6.649869680404663086e-02
-9.769815802574157715e-01,-8.014258742332458496e-01,1.105536743998527527e-01
-9.828877449035644531e-01,-8.062707185745239258e-01,1.560927480459213257e-01
-9.848995804786682129e-01,-8.079210519790649414e-01,2.017620503902435303e-01
-9.880671501159667969e-01,-8.105194568634033203e-01,2.484126836061477661e-01
-9.849576950073242188e-01,-8.079687356948852539e-01,2.941146790981292725e-01
-9.551525712013244629e-01,-8.066622614860534668e-01,-3.349917531013488770e-01
-9.592964053153991699e-01,-8.101619482040405273e-01,-2.898850739002227783e-01
-9.499101042747497559e-01,-8.022348284721374512e-01,-2.416816651821136475e-01
-9.610939621925354004e-01,-8.116800189018249512e-01,-1.992449313402175903e-01
-9.554948210716247559e-01,-8.069513440132141113e-01,-1.535610407590866089e-01
-9.677122831344604492e-01,-8.172694444656372070e-01,-1.108171492815017700e-01
-9.575292468070983887e-01,-8.086694478988647461e-01,-6.568356603384017944e-02
-9.471178650856018066e-01,-7.998766899108886719e-01,-2.163886278867721558e-02
-9.697630405426025391e-01,-8.190013766288757324e-01,2.215623855590820312e-02
-9.682354927062988281e-01,-8.177112936973571777e-01,6.641798466444015503e-02
-9.711609482765197754e-01,-8.201819658279418945e-01,1.112120673060417175e-01
-9.623734951019287109e-01,-8.127605915069580078e-01,1.546665281057357788e-01
-9.716249108314514160e-01,-8.205738067626953125e-01,2.014281153678894043e-01
-9.654255509376525879e-01,-8.153381943702697754e-01,2.456291913986206055e-01
-9.708598256111145020e-01,-8.199276328086853027e-01,2.933793663978576660e-01
-9.332066774368286133e-01,-8.112927079200744629e-01,-3.313336670398712158e-01
-9.375533461570739746e-01,-8.150715231895446777e-01,-2.868106961250305176e-01
-9.427608251571655273e-01,-8.195986747741699219e-01,-2.428225874900817871e-01
-9.304963946342468262e-01,-8.089364767074584961e-01,-1.952821165323257446e-01
-9.368869662284851074e-01,-8.144921660423278809e-01,-1.524285227060317993e-01
-9.468591213226318359e-01,-8.231615424156188965e-01,-1.097671538591384888e-01
-9.470660686492919922e-01,-8.233414888381958008e-01,-6.576749682426452637e-02
-9.351606369018554688e-01,-8.129913806915283203e-01,-2.162932418286800385e-02
-9.472028613090515137e-01,-8.234604001045227051e-01,2.190784923732280731e-02
-9.458285570144653320e-01,-8.222656846046447754e-01,6.568156182765960693e-02
-9.575417637825012207e-01,-8.324486017227172852e-01,1.110055744647979736e-01
-9.351301193237304688e-01,-8.129648566246032715e-01,1.521426886320114136e-01
-9.467967748641967773e-01,-8.231073617935180664e-01,1.987030655145645142e-01
-9.526587724685668945e-01,-8.282035589218139648e-01,2.453719377517700195e-01
-9.557591080665588379e-01,-8.308988809585571289e-01,2.923800945281982422e-01
-9.202309250831604004e-01,-8.234301805496215820e-01,-3.308773934841156006e-01
-9.121404290199279785e-01,-8.161907196044921875e-01,-2.825814187526702881e-01
-9.077281951904296875e-01,-8.122426271438598633e-01,-2.367695868015289307e-01
-9.144360423088073730e-01,-8.182448148727416992e-01,-1.943496018648147583e-01
-9.066260457038879395e-01,-8.112564086914062500e-01,-1.493790894746780396e-01
-9.158069491386413574e-01,-8.194715380668640137e-01,-1.075161099433898926e-01
-9.152421355247497559e-01,-8.189661502838134766e-01,-6.436497718095779419e-02
-9.259605407714843750e-01,-8.285570740699768066e-01,-2.168861217796802521e-02
-9.247382879257202148e-01,-8.274633884429931641e-01,2.165998518466949463e-02
-9.316511154174804688e-01,-8.336490392684936523e-01,6.551894545555114746e-02
-9.236585497856140137e-01,-8.264972567558288574e-01,1.084378957748413086e-01
-9.176295995712280273e-01,-8.211024403572082520e-01,1.511920690536499023e-01
-9.226884245872497559e-01,-8.256291151046752930e-01,1.961035281419754028e-01
-9.226856231689453125e-01,-8.256266713142395020e-01,2.406710535287857056e-01
-9.269561767578125000e-01,-8.294479846954345703e-01,2.871713638305664062e-01
-8.890150785446166992e-01,-8.187087178230285645e-01,-3.238337635993957520e-01
-8.913814425468444824e-01,-8.208879232406616211e-01,-2.797617018222808838e-01
-8.860056996345520020e-01,-8.159373402595520020e-01,-2.341258525848388672e-01
-8.983842134475708008e-01,-8.273369073867797852e-01,-1.934350728988647461e-01
-8.901877999305725098e-01,-8.197886943817138672e-01,-1.485887765884399414e-01
-8.994292020797729492e-01,-8.282992243766784668e-01,-1.069742739200592041e-01
-9.050001502037048340e-01,-8.334296345710754395e-01,-6.447702646255493164e-02
-8.975362181663513184e-01,-8.265559673309326172e-01,-2.129776589572429657e-02
-9.034956693649291992e-01,-8.320441246032714844e-01,2.143917791545391083e-02
-8.970472812652587891e-01,-8.261057138442993164e-01,6.391042470932006836e-02
-9.004619717597961426e-01,-8.292503356933593750e-01,1.070971116423606873e-01
-9.009993672370910645e-01,-8.297452330589294434e-01,1.503934115171432495e-01
-8.996318578720092773e-01,-8.284859061241149902e-01,1.937037110328674316e-01
-9.090560078620910645e-01,-8.371647596359252930e-01,2.402168661355972290e-01
-9.120886325836181641e-01,-8.399575352668762207e-01,2.862606942653656006e-01
-8.784677386283874512e-01,-8.325436115264892578e-01,-3.242993354797363281e-01
-8.704681396484375000e-01,-8.249621987342834473e-01,-2.768756449222564697e-01
-8.738219738006591797e-01,-8.281407356262207031e-01,-2.340146452188491821e-01
-8.796409964561462402e-01,-8.336554765701293945e-01,-1.919489651918411255e-01
-8.716197013854980469e-01,-8.260535001754760742e-01,-1.474478989839553833e-01
-8.797942996025085449e-01,-8.338007926940917969e-01,-1.060475707054138184e-01
-8.840055465698242188e-01,-8.377919197082519531e-01,-6.382907181978225708e-02
-8.893012404441833496e-01,-8.428107500076293945e-01,-2.138642407953739166e-02
-8.776385784149169922e-01,-8.317577838897705078e-01,2.110595442354679108e-02
-8.705120086669921875e-01,-8.250037431716918945e-01,6.285478174686431885e-02
-8.779373764991760254e-01,-8.320409059524536133e-01,1.058237403631210327e-01
-8.781607747077941895e-01,-8.322526812553405762e-01,1.485544294118881226e-01
-8.855335712432861328e-01,-8.392400145530700684e-01,1.932348012924194336e-01
-8.814724683761596680e-01,-8.353912234306335449e-01,2.360634803771972656e-01
-8.879606723785400391e-01,-8.415402770042419434e-01,2.824396193027496338e-01
-8.509224057197570801e-01,-8.298752903938293457e-01,-3.184830248355865479e-01
-8.545834422111511230e-01,-8.334457874298095703e-01,-2.755893468856811523e-01
-8.611140847206115723e-01,-8.398149013519287109e-01,-2.338066399097442627e-01
-8.483293056488037109e-01,-8.273463249206542969e-01,-1.876812428236007690e-01
-8.608124256134033203e-01,-8.395206928253173828e-01,-1.476373225450515747e-01
-8.596561551094055176e-01,-8.383930325508117676e-01,-1.050558984279632568e-01
-8.560172915458679199e-01,-8.348441720008850098e-01,-6.266459077596664429e-02
-8.708360791206359863e-01,-8.492964506149291992e-01,-2.123253233730792999e-02
-8.674969673156738281e-01,-8.460399508476257324e-01,2.115111798048019409e-02
-8.534833788871765137e-01,-8.323729038238525391e-01,6.247908994555473328e-02
-8.693749904632568359e-01,-8.478714823722839355e-01,1.062436029314994812e-01
-8.607017993927001953e-01,-8.394128084182739258e-01,1.476183533668518066e-01
-8.587071299552917480e-01,-8.374674320220947266e-01,1.899771839380264282e-01
-8.702180981636047363e-01,-8.486937284469604492e-01,2.362785190343856812e-01
-8.678398728370666504e-01,-8.463743329048156738e-01,2.798643410205841064e-01
-8.246915340423583984e-01,-8.276509642601013184e-01,-3.130671679973602295e-01
-8.295498490333557129e-01,-8.325267434120178223e-01,-2.713314592838287354e-01
-8.363342881202697754e-01,-8.393355011940002441e-01,-2.303168773651123047e-01
-8.410161137580871582e-01,-8.440341353416442871e-01,-1.887167245149612427e-01
-8.367577195167541504e-01,-8.397604227066040039e-01,-1.455583274364471436e-01
-8.365539312362670898e-01,-8.395559191703796387e-01,-1.036905869841575623e-01
-8.398144841194152832e-01,-8.428282141685485840e-01,-6.235520541667938232e-02
-8.521448373794555664e-01,-8.552027940750122070e-01,-2.107310295104980469e-02
-8.387678861618041992e-01,-8.417778611183166504e-01,2.074229717254638672e-02
-8.429561257362365723e-01,-8.459811210632324219e-01,6.258846819400787354e-02
-8.450329899787902832e-01,-8.480654358863830566e-01,1.047415584325790405e-01
-8.420608639717102051e-01,-8.450826406478881836e-01,1.464808434247970581e-01
-8.440605401992797852e-01,-8.470894694328308105e-01,1.893998831510543823e-01
-8.414843678474426270e-01,-8.445040583610534668e-01,2.317351400852203369e-01
-8.463076949119567871e-01,-8.493446707725524902e-01,2.768126726150512695e-01
-8.209260702133178711e-01,-8.478007912635803223e-01,-3.162119984626770020e-01
-8.171848058700561523e-01,-8.439370393753051758e-01,-2.712103426456451416e-01
-8.117396831512451172e-01,-8.383136391639709473e-01,-2.268249988555908203e-01
-8.232205510139465332e-01,-8.501703739166259766e-01,-1.874349564313888550e-01
-8.231678009033203125e-01,-8.501158952713012695e-01,-1.452961117029190063e-01
-8.166794180870056152e-01,-8.434151411056518555e-01,-1.027129665017127991e-01
-8.173437118530273438e-01,-8.441011905670166016e-01,-6.157754361629486084e-02
-8.243097662925720215e-01,-8.512952327728271484e-01,-2.068396471440792084e-02
-8.279737234115600586e-01,-8.550791740417480469e-01,2.077590301632881165e-02
-8.160871267318725586e-01,-8.428034186363220215e-01,6.148287281394004822e-02
-8.339837789535522461e-01,-8.612859249114990234e-01,1.048893183469772339e-01
-8.186753988265991211e-01,-8.454763889312744141e-01,1.445031613111495972e-01
-8.283029794692993164e-01,-8.554191589355468750e-01,1.885921359062194824e-01
-8.365865945816040039e-01,-8.639739751815795898e-01,2.337679713964462280e-01
-8.343911767005920410e-01,-8.617067337036132812e-01,2.769208550453186035e-01
-8.016053438186645508e-01,-8.519143462181091309e-01,-3.134347200393676758e-01
-7.964454889297485352e-01,-8.464306592941284180e-01,-2.683207094669342041e-01
-7.848526835441589355e-01,-8.341103196144104004e-01,-2.226252704858779907e-01
-7.922313809394836426e-01,-8.419520854949951172e-01,-1.831043213605880737e-01
-8.027025461196899414e-01,-8.530803918838500977e-01,-1.438243538141250610e-01
-7.938648462295532227e-01,-8.436880707740783691e-01,-1.013520136475563049e-01
-7.991172671318054199e-01,-8.492701649665832520e-01,-6.111394613981246948e-02
-7.934008836746215820e-01,-8.431949615478515625e-01,-2.020915783941745758e-02
-7.983461022377014160e-01,-8.484505414962768555e-01,2.033511921763420105e-02
-8.042670488357543945e-01,-8.547431230545043945e-01,6.150778383016586304e-02
-7.931167483329772949e-01,-8.428930044174194336e-01,1.012565046548843384e-01
-7.978146672248840332e-01,-8.478857278823852539e-01,1.429485678672790527e-01
-8.191704154014587402e-01,-8.705818057060241699e-01,1.893305927515029907e-01
-8.075649738311767578e-01,-8.582479953765869141e-01,2.290676534175872803e-01
-8.091909289360046387e-01,-8.599759936332702637e-01,2.726145982742309570e-01
-7.742511034011840820e-01,-8.468069434165954590e-01,-3.074467778205871582e-01
-7.777826189994812012e-01,-8.506694436073303223e-01,-2.661080360412597656e-01
-7.806801199913024902e-01,-8.538384437561035156e-01,-2.248852849006652832e-01
-7.800723314285278320e-01,-8.531737327575683594e-01,-1.830977648496627808e-01
-7.757002115249633789e-01,-8.483918905258178711e-01,-1.411475539207458496e-01
-7.852246165275573730e-01,-8.588088154792785645e-01,-1.018078699707984924e-01
-7.839940190315246582e-01,-8.574629426002502441e-01,-6.088975071907043457e-02
-7.899158596992492676e-01,-8.639397621154785156e-01,-2.043327502906322479e-02
-7.759172916412353516e-01,-8.486293554306030273e-01,2.007116563618183136e-02
-7.833512425422668457e-01,-8.567599058151245117e-01,6.083982437849044800e-02
-7.882152199745178223e-01,-8.620797395706176758e-01,1.021956205368041992e-01
-7.966935038566589355e-01,-8.713524937629699707e-01,1.449675112962722778e-01
-7.863992452621459961e-01,-8.600935935974121094e-01,1.845828294754028320e-01
-7.909678816795349121e-01,-8.650903105735778809e-01,2.278488129377365112e-01
-7.953591346740722656e-01,-8.698930740356445312e-01,2.721216082572937012e-01
-7.620332241058349609e-01,-8.577798604965209961e-01,-3.074390888214111328e-01
-7.505309581756591797e-01,-8.448323607444763184e-01,-2.608948051929473877e-01
-7.492703199386596680e-01,-8.434132933616638184e-01,-2.192923575639724731e-01
