-6.148561954498291016e+00,7.333518505096435547e+00,1.670450866222381592e-01
-6.157356262207031250e+00,7.344007968902587891e+00,5.022602081298828125e-01
-6.156816482543945312e+00,7.343363761901855469e+00,8.383911848068237305e-01
-6.167329788208007812e+00,7.355903148651123047e+00,1.178635835647583008e+00
-2.614206075668334961e+00,3.028890848159790039e+00,-1.072071552276611328e+00
-3.109880685806274414e+00,3.603192806243896484e+00,-1.098852276802062988e+00
-3.831002950668334961e+00,4.438704967498779297e+00,-1.139714956283569336e+00
-4.979391574859619141e+00,5.769259929656982422e+00,-1.207036256790161133e+00
-6.297972202301025391e+00,7.297003269195556641e+00,-1.183521151542663574e+00
-6.294675350189208984e+00,7.293183803558349609e+00,-8.428623080253601074e-01
-6.301167488098144531e+00,7.300705432891845703e+00,-5.054152011871337891e-01
-6.311151504516601562e+00,7.312273025512695312e+00,-1.686015576124191284e-01
-6.319220066070556641e+00,7.321621417999267578e+00,1.688171029090881348e-01
-6.330993175506591797e+00,7.335262298583984375e+00,5.078074932098388672e-01
-6.330600738525390625e+00,7.334807872772216797e+00,8.476727604866027832e-01
-6.344902038574218750e+00,7.351377487182617188e+00,1.192340135574340820e+00
-2.661522388458251953e+00,2.995932817459106445e+00,-1.073779940605163574e+00
-3.166642904281616211e+00,3.564519643783569336e+00,-1.100768208503723145e+00
-3.895788908004760742e+00,4.385280132293701172e+00,-1.140198349952697754e+00
-5.003083229064941406e+00,5.631701946258544922e+00,-1.193116784095764160e+00
-6.458917617797851562e+00,7.270456314086914062e+00,-1.194087743759155273e+00
-6.478142261505126953e+00,7.292096614837646484e+00,-8.533653020858764648e-01
-6.475401401519775391e+00,7.289011478424072266e+00,-5.109697580337524414e-01
-6.486308097839355469e+00,7.301288604736328125e+00,-1.704715043306350708e-01
-6.494823455810546875e+00,7.310873985290527344e+00,1.706952899694442749e-01
-6.509950637817382812e+00,7.327901840209960938e+00,5.136960148811340332e-01
-6.522560596466064453e+00,7.342096328735351562e+00,8.592165708541870117e-01
-6.520130634307861328e+00,7.339360713958740234e+00,1.205404400825500488e+00
-2.713711977005004883e+00,2.968016624450683594e+00,-1.077585816383361816e+00
-3.232228517532348633e+00,3.535124063491821289e+00,-1.105864286422729492e+00
-3.975898981094360352e+00,4.348484516143798828e+00,-1.145310521125793457e+00
-5.097632884979248047e+00,5.575337886810302734e+00,-1.196511149406433105e+00
-6.643207550048828125e+00,7.265749454498291016e+00,-1.208807826042175293e+00
-6.667646408081054688e+00,7.292478561401367188e+00,-8.644900918006896973e-01
-6.661738872528076172e+00,7.286017417907714844e+00,-5.173912048339843750e-01
-6.668392181396484375e+00,7.293293952941894531e+00,-1.724957078695297241e-01
-6.684954643249511719e+00,7.311408996582031250e+00,1.729241460561752319e-01
-6.682657241821289062e+00,7.308896064758300781e+00,5.190158486366271973e-01
-6.698014259338378906e+00,7.325692176818847656e+00,8.684274554252624512e-01
-6.708677291870117188e+00,7.337354660034179688e+00,1.220720767974853516e+00
-2.749365091323852539e+00,2.921916007995605469e+00,-1.075025796890258789e+00
-3.255586862564086914e+00,3.459908485412597656e+00,-1.096799969673156738e+00
-4.002077102661132812e+00,4.253248691558837891e+00,-1.135198354721069336e+00
-5.198919773101806641e+00,5.525205612182617188e+00,-1.201599240303039551e+00
-7.253479957580566406e+00,7.708710670471191406e+00,-1.299643516540527344e+00
-9.498561859130859375e+00,1.009469413757324219e+01,-1.212672948837280273e+00
-9.512179374694824219e+00,1.010916614532470703e+01,-7.274611592292785645e-01
-9.531658172607421875e+00,1.012986850738525391e+01,-2.427861988544464111e-01
-9.546600341796875000e+00,1.014574813842773438e+01,2.431667894124984741e-01
-9.544154167175292969e+00,1.014314842224121094e+01,7.299064993858337402e-01
-2.800073623657226562e+00,2.891739845275878906e+00,-1.078558683395385742e+00
-3.317059278488159180e+00,3.425650119781494141e+00,-1.100878000259399414e+00
-4.074002265930175781e+00,4.207373142242431641e+00,-1.138401389122009277e+00
-5.292901515960693359e+00,5.466176033020019531e+00,-1.205114245414733887e+00
-7.384490489959716797e+00,7.626237392425537109e+00,-1.303425431251525879e+00
-9.468794822692871094e+00,9.778775215148925781e+00,-1.190881013870239258e+00
-9.474472999572753906e+00,9.784639358520507812e+00,-7.137936949729919434e-01
-9.493371963500976562e+00,9.804157257080078125e+00,-2.382121235132217407e-01
-9.494113922119140625e+00,9.804924011230468750e+00,2.382307350635528564e-01
-9.523415565490722656e+00,9.835184097290039062e+00,7.174809575080871582e-01
-2.824028491973876953e+00,2.834162473678588867e+00,-1.072050094604492188e+00
-3.378650188446044922e+00,3.390774488449096680e+00,-1.105098247528076172e+00
-4.150825023651123047e+00,4.165719985961914062e+00,-1.143089532852172852e+00
-5.319291114807128906e+00,5.338379859924316406e+00,-1.193602919578552246e+00
-7.524765014648437500e+00,7.551767826080322266e+00,-1.308971762657165527e+00
-9.430541038513183594e+00,9.464382171630859375e+00,-1.168912410736083984e+00
-9.442543983459472656e+00,9.476428985595703125e+00,-7.010974287986755371e-01
-9.454439163208007812e+00,9.488367080688476562e+00,-2.338034063577651978e-01
-9.460632324218750000e+00,9.494582176208496094e+00,2.339565455913543701e-01
-9.472899436950683594e+00,9.506894111633300781e+00,7.033513188362121582e-01
-2.864624261856079102e+00,2.793769359588623047e+00,-1.072170853614807129e+00
-3.413425445556640625e+00,3.328996419906616211e+00,-1.100774645805358887e+00
-4.180357456207275391e+00,4.076958656311035156e+00,-1.135035872459411621e+00
-5.413261890411376953e+00,5.279367923736572266e+00,-1.197610020637512207e+00
-7.664591789245605469e+00,7.475012302398681641e+00,-1.314548730850219727e+00
-9.399799346923828125e+00,9.167300224304199219e+00,-1.148720145225524902e+00
-9.411965370178222656e+00,9.179165840148925781e+00,-6.890012025833129883e-01
-9.418846130371093750e+00,9.185875892639160156e+00,-2.296482175588607788e-01
-9.422063827514648438e+00,9.189014434814453125e+00,2.297266721725463867e-01
-9.438238143920898438e+00,9.204788208007812500e+00,6.909244656562805176e-01
-9.451934814453125000e+00,9.218146324157714844e+00,1.155091524124145508e+00
-2.911750316619873047e+00,2.759531021118164062e+00,-1.074915647506713867e+00
-3.475688695907592773e+00,3.293988227844238281e+00,-1.105535626411437988e+00
-4.278964996337890625e+00,4.055271148681640625e+00,-1.145931839942932129e+00
-5.520143985748291016e+00,5.231564044952392578e+00,-1.204566240310668945e+00
-7.791092872619628906e+00,7.383793830871582031e+00,-1.317983388900756836e+00
-9.354187011718750000e+00,8.865173339843750000e+00,-1.127523541450500488e+00
-9.363348960876464844e+00,8.873855590820312500e+00,-6.760748624801635742e-01
-9.390315055847167969e+00,8.899412155151367188e+00,-2.258236706256866455e-01
-9.379266738891601562e+00,8.888941764831542969e+00,2.255579680204391479e-01
-9.400732040405273438e+00,8.909284591674804688e+00,6.787740588188171387e-01
-9.415304183959960938e+00,8.923094749450683594e+00,1.134890437126159668e+00
-2.939994573593139648e+00,2.707489728927612305e+00,-1.070926308631896973e+00
-3.512305259704589844e+00,3.234539985656738281e+00,-1.102343440055847168e+00
-4.292294979095458984e+00,3.952845811843872070e+00,-1.134233355522155762e+00
-5.536587238311767578e+00,5.098734855651855469e+00,-1.192107081413269043e+00
-7.784086227416992188e+00,7.168493747711181641e+00,-1.299307584762573242e+00
-9.322192192077636719e+00,8.584960937500000000e+00,-1.108741760253906250e+00
-9.330380439758300781e+00,8.592501640319824219e+00,-6.647459268569946289e-01
-9.342473983764648438e+00,8.603639602661132812e+00,-2.216889113187789917e-01
-9.364364624023437500e+00,8.623798370361328125e+00,2.222083508968353271e-01
-9.376180648803710938e+00,8.634679794311523438e+00,6.680090427398681641e-01
-9.388204574584960938e+00,8.645752906799316406e+00,1.116593122482299805e+00
-2.997325658798217773e+00,2.682031631469726562e+00,-1.077715635299682617e+00
-3.538958549499511719e+00,3.166689157485961914e+00,-1.096370577812194824e+00
-4.375305175781250000e+00,3.915059089660644531e+00,-1.141243815422058105e+00
-5.645435810089111328e+00,5.051582336425781250e+00,-1.199852347373962402e+00
-7.917088508605957031e+00,7.084275245666503906e+00,-1.304448962211608887e+00
-9.280437469482421875e+00,8.304211616516113281e+00,-1.089527130126953125e+00
-9.292458534240722656e+00,8.314968109130859375e+00,-6.534979343414306641e-01
-9.307165145874023438e+00,8.328126907348632812e+00,-2.180001139640808105e-01
-9.315525054931640625e+00,8.335607528686523438e+00,2.181959152221679688e-01
-9.319766998291015625e+00,8.339404106140136719e+00,6.554184556007385254e-01
-9.337031364440917969e+00,8.354852676391601562e+00,1.096171379089355469e+00
-3.031610250473022461e+00,2.635560989379882812e+00,-1.076368689537048340e+00
-3.592774391174316406e+00,3.123414754867553711e+00,-1.099079966545104980e+00
-4.410830020904541016e+00,3.834599733352661133e+00,-1.136077165603637695e+00
-5.738919734954833984e+00,4.989188194274902344e+00,-1.204419970512390137e+00
-8.066158294677734375e+00,7.012396335601806641e+00,-1.312338113784790039e+00
-9.266998291015625000e+00,8.056358337402343750e+00,-1.074301362037658691e+00
-9.267743110656738281e+00,8.057005882263183594e+00,-6.435836553573608398e-01
-9.281416893005371094e+00,8.068893432617187500e+00,-2.146698385477066040e-01
-9.292085647583007812e+00,8.078168869018554688e+00,2.149166017770767212e-01
-9.300594329833984375e+00,8.085565567016601562e+00,6.458649635314941406e-01
-9.312005043029785156e+00,8.095485687255859375e+00,1.079518914222717285e+00
-3.062636137008666992e+00,2.586511373519897461e+00,-1.074129819869995117e+00
-3.626446485519409180e+00,3.062670469284057617e+00,-1.095858097076416016e+00
-4.484897136688232422e+00,3.787664413452148438e+00,-1.141073703765869141e+00
-5.774541854858398438e+00,4.876817703247070312e+00,-1.197123527526855469e+00
-8.058622360229492188e+00,6.805809497833251953e+00,-1.295130372047424316e+00
-9.219439506530761719e+00,7.786163330078125000e+00,-1.055760025978088379e+00
-9.224803924560546875e+00,7.790693759918212891e+00,-6.327932476997375488e-01
-9.236796379089355469e+00,7.800822257995605469e+00,-2.110336869955062866e-01
-9.256300926208496094e+00,7.817294597625732422e+00,2.114793211221694946e-01
-9.259511947631835938e+00,7.820006370544433594e+00,6.351740956306457520e-01
-9.270590782165527344e+00,7.829362869262695312e+00,1.061617732048034668e+00
-3.107695102691650391e+00,2.549267292022705078e+00,-1.077025175094604492e+00
-3.691359043121337891e+00,3.028051614761352539e+00,-1.102263450622558594e+00
-4.511104583740234375e+00,3.700495719909667969e+00,-1.134149193763732910e+00
-5.863338947296142578e+00,4.809744358062744141e+00,-1.201136946678161621e+00
-8.197394371032714844e+00,6.724388599395751953e+00,-1.301831007003784180e+00
-9.197675704956054688e+00,7.544927597045898438e+00,-1.040794253349304199e+00
-9.209741592407226562e+00,7.554825305938720703e+00,-6.242783069610595703e-01
-9.215289115905761719e+00,7.559375762939453125e+00,-2.080489248037338257e-01
-9.227905273437500000e+00,7.569725036621093750e+00,2.083337455987930298e-01
-9.240709304809570312e+00,7.580228328704833984e+00,6.263774037361145020e-01
-9.243403434753417969e+00,7.582438468933105469e+00,1.045968770980834961e+00
-3.144974470138549805e+00,2.505415439605712891e+00,-1.077406406402587891e+00
-3.742533445358276367e+00,2.981455326080322266e+00,-1.104688286781311035e+00
-4.586268901824951172e+00,3.653609275817871094e+00,-1.139781832695007324e+00
-5.884011745452880859e+00,4.687444686889648438e+00,-1.191505432128906250e+00
-8.334337234497070312e+00,6.639473915100097656e+00,-1.308352589607238770e+00
-9.155544281005859375e+00,7.293680667877197266e+00,-1.024108409881591797e+00
-9.173162460327148438e+00,7.307716369628906250e+00,-6.146456599235534668e-01
-9.184244155883789062e+00,7.316544532775878906e+00,-2.049627155065536499e-01
-9.185959815979003906e+00,7.317911148071289062e+00,2.050009965896606445e-01
-9.214139938354492188e+00,7.340361118316650391e+00,6.173914074897766113e-01
-9.226497650146484375e+00,7.350205421447753906e+00,1.032045006752014160e+00
-3.183125257492065430e+00,2.462170839309692383e+00,-1.078292250633239746e+00
-3.761578798294067383e+00,2.909608840942382812e+00,-1.097904562950134277e+00
-4.611871719360351562e+00,3.567316770553588867e+00,-1.133339047431945801e+00
-5.982507705688476562e+00,4.627513885498046875e+00,-1.197915434837341309e+00
-8.486321449279785156e+00,6.564231872558593750e+00,-1.317326903343200684e+00
-9.131148338317871094e+00,7.063010692596435547e+00,-1.009967803955078125e+00
-9.152500152587890625e+00,7.079525947570800781e+00,-6.064093112945556641e-01
-9.154897689819335938e+00,7.081380844116210938e+00,-2.020251005887985229e-01
-9.166155815124511719e+00,7.090088844299316406e+00,2.022735327482223511e-01
-9.167786598205566406e+00,7.091350555419921875e+00,6.074221730232238770e-01
-9.184986114501953125e+00,7.104654788970947266e+00,1.015922665596008301e+00
-3.199346780776977539e+00,2.402327060699462891e+00,-1.072029352188110352e+00
-3.796591758728027344e+00,2.850786685943603516e+00,-1.096101880073547363e+00
-4.699786663055419922e+00,3.528978109359741211e+00,-1.142413496971130371e+00
-6.090358734130859375e+00,4.573131561279296875e+00,-1.206280589103698730e+00
-8.478053092956542969e+00,6.366004943847656250e+00,-1.301765799522399902e+00
-9.243882179260253906e+00,6.941051006317138672e+00,-1.011344552040100098e+00
-9.245759963989257812e+00,6.942461013793945312e+00,-6.059423685073852539e-01
-9.255899429321289062e+00,6.950074195861816406e+00,-2.020379900932312012e-01
-9.261970520019531250e+00,6.954632759094238281e+00,2.021705061197280884e-01
-9.280881881713867188e+00,6.968833446502685547e+00,6.082441806793212891e-01
-9.296183586120605469e+00,6.980322837829589844e+00,1.017066597938537598e+00
-3.233135938644409180e+00,2.356098651885986328e+00,-1.071941375732421875e+00
-3.857556581497192383e+00,2.811135768890380859e+00,-1.101973176002502441e+00
-4.740680217742919922e+00,3.454698562622070312e+00,-1.140217185020446777e+00
-6.113505840301513672e+00,4.455124378204345703e+00,-1.198112249374389648e+00
-8.605559349060058594e+00,6.271170616149902344e+00,-1.307427167892456055e+00
-9.476539611816406250e+00,6.905884742736816406e+00,-1.025879263877868652e+00
-9.496413230895996094e+00,6.920366764068603516e+00,-6.158146262168884277e-01
-9.501612663269042969e+00,6.924156188964843750e+00,-2.052170634269714355e-01
-9.516285896301269531e+00,6.934848785400390625e+00,2.055339664220809937e-01
-9.526516914367675781e+00,6.942304611206054688e+00,6.177667975425720215e-01
-9.553215026855468750e+00,6.961760044097900391e+00,1.034179687500000000e+00
-3.263786077499389648e+00,2.307647943496704102e+00,-1.071042537689208984e+00
-3.898872137069702148e+00,2.756683349609375000e+00,-1.102391123771667480e+00
-4.763219833374023438e+00,3.367817163467407227e+00,-1.133928060531616211e+00
-6.208489418029785156e+00,4.389689922332763672e+00,-1.204289913177490234e+00
-8.745283126831054688e+00,6.183320522308349609e+00,-1.315074205398559570e+00
-9.719670295715332031e+00,6.872257232666015625e+00,-1.041443943977355957e+00
-9.734851837158203125e+00,6.882991790771484375e+00,-6.248240470886230469e-01
-9.759901046752929688e+00,6.900702476501464844e+00,-2.086409330368041992e-01
-9.765964508056640625e+00,6.904989242553710938e+00,2.087705433368682861e-01
-9.780126571655273438e+00,6.915003299713134766e+00,6.277299523353576660e-01
-9.784394264221191406e+00,6.918020248413085938e+00,1.048379063606262207e+00
-3.309521913528442383e+00,2.269645214080810547e+00,-1.075280308723449707e+00
-3.920462608337402344e+00,2.688623666763305664e+00,-1.097502231597900391e+00
-4.838883399963378906e+00,3.318470001220703125e+00,-1.140516161918640137e+00
-6.240908145904541016e+00,4.279967784881591797e+00,-1.198572516441345215e+00
-8.751051902770996094e+00,6.001405715942382812e+00,-1.302890777587890625e+00
-9.986901283264160156e+00,6.848942279815673828e+00,-1.059464812278747559e+00
-9.982799530029296875e+00,6.846128463745117188e+00,-6.343837976455688477e-01
-1.000862026214599609e+01,6.863836765289306641e+00,-2.118359655141830444e-01
-1.002874565124511719e+01,6.877638339996337891e+00,2.122619152069091797e-01
-1.003362178802490234e+01,6.880982398986816406e+00,6.376134753227233887e-01
-1.003693580627441406e+01,6.883255004882812500e+00,1.064772725105285645e+00
-3.337990760803222656e+00,2.219603061676025391e+00,-1.074097633361816406e+00
-3.958834171295166016e+00,2.632433891296386719e+00,-1.097583532333374023e+00
-4.893316268920898438e+00,3.253819704055786133e+00,-1.142251610755920410e+00
-6.270687103271484375e+00,4.169704914093017578e+00,-1.192707300186157227e+00
-8.898692131042480469e+00,5.917201042175292969e+00,-1.312127828598022461e+00
-1.026198196411132812e+01,6.823723316192626953e+00,-1.078174948692321777e+00
-1.027891159057617188e+01,6.834980964660644531e+00,-6.469178199768066406e-01
-1.028837108612060547e+01,6.841270923614501953e+00,-2.156623452901840210e-01
-1.029356193542480469e+01,6.844722747802734375e+00,2.157711535692214966e-01
-1.030163574218750000e+01,6.850091457366943359e+00,6.483479738235473633e-01
-1.032115173339843750e+01,6.863068580627441406e+00,1.084391593933105469e+00
-3.341184616088867188e+00,2.153407096862792969e+00,-1.065098166465759277e+00
-4.009548187255859375e+00,2.584170103073120117e+00,-1.101276159286499023e+00
-4.907113075256347656e+00,3.162654638290405273e+00,-1.134788870811462402e+00
-6.370171070098876953e+00,4.105601310729980469e+00,-1.200329065322875977e+00
-8.883443832397460938e+00,5.725416183471679688e+00,-1.297662734985351562e+00
-1.051413345336914062e+01,6.776401996612548828e+00,-1.094364523887634277e+00
-1.054100036621093750e+01,6.793717861175537109e+00,-6.572253704071044922e-01
-1.054298496246337891e+01,6.794997215270996094e+00,-2.189383357763290405e-01
-1.057387924194335938e+01,6.814908504486083984e+00,2.195798754692077637e-01
-1.058580875396728516e+01,6.822597503662109375e+00,6.600191593170166016e-01
-1.059390735626220703e+01,6.827816486358642578e+00,1.102667689323425293e+00
-3.401902198791503906e+00,2.124250411987304688e+00,-1.074650883674621582e+00
-4.040781021118164062e+00,2.523185729980468750e+00,-1.099822402000427246e+00
-4.947206020355224609e+00,3.089184999465942383e+00,-1.133719086647033691e+00
-6.397427558898925781e+00,3.994747161865234375e+00,-1.194568514823913574e+00
-9.030289649963378906e+00,5.638785839080810547e+00,-1.307189702987670898e+00
-1.082490253448486328e+01,6.759396076202392578e+00,-1.116526246070861816e+00
-1.083668899536132812e+01,6.766756534576416016e+00,-6.695539355278015137e-01
-1.085104846954345703e+01,6.775722980499267578e+00,-2.232987880706787109e-01
-1.084975337982177734e+01,6.774913787841796875e+00,2.232721298933029175e-01
-1.086666393280029297e+01,6.785473346710205078e+00,6.714059114456176758e-01
-1.090014457702636719e+01,6.806379795074462891e+00,1.124287009239196777e+00
-3.431575536727905273e+00,2.075114965438842773e+00,-1.074531793594360352e+00
-4.065295219421386719e+00,2.458332777023315430e+00,-1.096805095672607422e+00
-5.041245460510253906e+00,3.048501729965209961e+00,-1.145152688026428223e+00
-6.505618095397949219e+00,3.934025287628173828e+00,-1.204132676124572754e+00
-9.024058341979980469e+00,5.456956386566162109e+00,-1.294848442077636719e+00
-1.110834980010986328e+01,6.717352390289306641e+00,-1.135728716850280762e+00
-1.112933921813964844e+01,6.730044841766357422e+00,-6.816138625144958496e-01
-1.113223552703857422e+01,6.731796264648437500e+00,-2.270790785551071167e-01
-1.117212390899658203e+01,6.755917072296142578e+00,2.278927415609359741e-01
-1.116417503356933594e+01,6.751110553741455078e+00,6.837474107742309570e-01
-1.119830036163330078e+01,6.771746158599853516e+00,1.144925355911254883e+00
-3.455450534820556641e+00,2.022586345672607422e+00,-1.072832703590393066e+00
-4.091729164123535156e+00,2.395020723342895508e+00,-1.094575762748718262e+00
-5.071989059448242188e+00,2.968798398971557617e+00,-1.142366528511047363e+00
-6.527744770050048828e+00,3.820899009704589844e+00,-1.197982788085937500e+00
-9.154681205749511719e+00,5.358529567718505859e+00,-1.302452445030212402e+00
-1.142189311981201172e+01,6.685601234436035156e+00,-1.157883167266845703e+00
-1.145213794708251953e+01,6.703304767608642578e+00,-6.954361200332641602e-01
-1.145688819885253906e+01,6.706085205078125000e+00,-2.317197471857070923e-01
-1.146346378326416016e+01,6.709934711456298828e+00,2.318527549505233765e-01
-1.147617340087890625e+01,6.717373847961425781e+00,6.968956589698791504e-01
-1.148950576782226562e+01,6.725177764892578125e+00,1.164737462997436523e+00
-3.483245372772216797e+00,1.972472667694091797e+00,-1.072586894035339355e+00
-4.143963813781738281e+00,2.346620559692382812e+00,-1.099451303482055664e+00
-5.102857112884521484e+00,2.889617443084716797e+00,-1.139886617660522461e+00
-6.551648616790771484e+00,3.710031032562255859e+00,-1.192501902580261230e+00
-9.181923866271972656e+00,5.199488639831542969e+00,-1.295607328414916992e+00
-1.173872661590576172e+01,6.647340774536132812e+00,-1.180235743522644043e+00
-1.176224327087402344e+01,6.660657405853271484e+00,-7.084054350852966309e-01
-1.176154804229736328e+01,6.660263538360595703e+00,-2.359293252229690552e-01
-1.177716922760009766e+01,6.669109821319580078e+00,2.362426817417144775e-01
-1.180077171325683594e+01,6.682475090026855469e+00,7.107259035110473633e-01
-3.524014234542846680e+00,1.929479122161865234e+00,-1.076526284217834473e+00
-4.174277782440185547e+00,2.285513401031494141e+00,-1.098702073097229004e+00
-5.137665271759033203e+00,2.812990427017211914e+00,-1.138551354408264160e+00
-6.579967498779296875e+00,3.602684259414672852e+00,-1.188148736953735352e+00
-9.327327728271484375e+00,5.106927394866943359e+00,-1.305676341056823730e+00
-1.209185981750488281e+01,6.620572566986083984e+00,-1.206089138984680176e+00
-1.209842395782470703e+01,6.624166488647460938e+00,-7.228681445121765137e-01
-1.212784290313720703e+01,6.640274047851562500e+00,-2.413457036018371582e-01
-1.213189220428466797e+01,6.642490863800048828e+00,2.414262741804122925e-01
-1.215219306945800781e+01,6.653606414794921875e+00,7.260808348655700684e-01
-3.540971279144287109e+00,1.873398184776306152e+00,-1.073404908180236816e+00
-4.221206188201904297e+00,2.233285665512084961e+00,-1.102527379989624023e+00
-5.183787345886230469e+00,2.742552042007446289e+00,-1.139956235885620117e+00
-6.704393863677978516e+00,3.547049283981323242e+00,-1.201325654983520508e+00
-9.324128150939941406e+00,4.933054924011230469e+00,-1.295211672782897949e+00
-1.244827938079833984e+01,6.585928916931152344e+00,-1.232111096382141113e+00
-1.246249771118164062e+01,6.593451499938964844e+00,-7.389066815376281738e-01
-1.246777725219726562e+01,6.596244335174560547e+00,-2.462063580751419067e-01
-1.248174476623535156e+01,6.603633880615234375e+00,2.464821636676788330e-01
-1.250504207611083984e+01,6.615959644317626953e+00,7.414291501045227051e-01
-3.571167230606079102e+00,1.824442028999328613e+00,-1.074532151222229004e+00
-4.225629806518554688e+00,2.158794641494750977e+00,-1.095499873161315918e+00
-5.227424144744873047e+00,2.670592546463012695e+00,-1.141029357910156250e+00
-6.736719608306884766e+00,3.441663026809692383e+00,-1.198168277740478516e+00
-9.481116294860839844e+00,4.843723773956298828e+00,-1.307254195213317871e+00
-1.281167984008789062e+01,6.545246124267578125e+00,-1.258678197860717773e+00
-1.283223724365234375e+01,6.555748462677001953e+00,-7.551878094673156738e-01
-1.283762836456298828e+01,6.558502197265625000e+00,-2.516303956508636475e-01
-1.286117553710937500e+01,6.570532321929931641e+00,2.520919442176818848e-01
-1.288221740722656250e+01,6.581282138824462891e+00,7.581291794776916504e-01
-3.592613935470581055e+00,1.771025419235229492e+00,-1.073247909545898438e+00
-4.255469799041748047e+00,2.097788810729980469e+00,-1.095339298248291016e+00
-5.258452415466308594e+00,2.592221975326538086e+00,-1.139586448669433594e+00
-6.766123294830322266e+00,3.335447788238525391e+00,-1.194784283638000488e+00
-9.497156143188476562e+00,4.681745529174804688e+00,-1.300092935562133789e+00
-1.319197559356689453e+01,6.503154754638671875e+00,-1.286763429641723633e+00
-1.320113277435302734e+01,6.507668972015380859e+00,-7.713367938995361328e-01
-1.322808933258056641e+01,6.520957469940185547e+00,-2.574279308319091797e-01
-1.323266220092773438e+01,6.523211479187011719e+00,2.575169205665588379e-01
-1.326459217071533203e+01,6.538951873779296875e+00,7.750446796417236328e-01
-3.627647161483764648e+00,1.724205255508422852e+00,-1.076230764389038086e+00
-4.313392639160156250e+00,2.050137281417846680e+00,-1.102582335472106934e+00
-5.297703742980957031e+00,2.517976045608520508e+00,-1.140165448188781738e+00
-6.792483806610107422e+00,3.228438615798950195e+00,-1.191157102584838867e+00
-9.642618179321289062e+00,4.583095550537109375e+00,-1.310891270637512207e+00
-1.357683181762695312e+01,6.453010559082031250e+00,-1.315158724784851074e+00
-1.359263992309570312e+01,6.460524082183837891e+00,-7.887284755706787109e-01
-1.360564899444580078e+01,6.466707229614257812e+00,-2.629472911357879639e-01
-1.362050819396972656e+01,6.473769664764404297e+00,2.632344663143157959e-01
-1.364464092254638672e+01,6.485239982604980469e+00,7.917459011077880859e-01
-3.647329092025756836e+00,1.669993042945861816e+00,-1.074868321418762207e+00
-4.317086696624755859e+00,1.976653218269348145e+00,-1.096182227134704590e+00
-5.346851348876953125e+00,2.448148965835571289e+00,-1.143084287643432617e+00
-6.850304603576660156e+00,3.136530876159667969e+00,-1.193301677703857422e+00
-9.654389381408691406e+00,4.420429706573486328e+00,-1.303756356239318848e+00
-1.400735378265380859e+01,6.413509845733642578e+00,-1.347831964492797852e+00
-1.402241325378417969e+01,6.420405387878417969e+00,-8.082512617111206055e-01
-1.404043102264404297e+01,6.428655147552490234e+00,-2.695440649986267090e-01
-1.405907630920410156e+01,6.437191963195800781e+00,2.699020206928253174e-01
-1.408092498779296875e+01,6.447196006774902344e+00,8.116238713264465332e-01
-3.660363674163818359e+00,1.612997651100158691e+00,-1.071795940399169922e+00
-4.355720520019531250e+00,1.919417619705200195e+00,-1.098903417587280273e+00
-5.339603424072265625e+00,2.352981328964233398e+00,-1.134218335151672363e+00
-6.879243373870849609e+00,3.031448364257812500e+00,-1.190662384033203125e+00
-9.651420593261718750e+00,4.253052234649658203e+00,-1.295001983642578125e+00
-1.442149734497070312e+01,6.355062484741210938e+00,-1.378788232803344727e+00
-1.442707633972167969e+01,6.357521057128906250e+00,-8.262462615966796875e-01
-1.444253730773925781e+01,6.364334106445312500e+00,-2.754865586757659912e-01
-1.446899032592773438e+01,6.375991344451904297e+00,2.759911417961120605e-01
-1.448492813110351562e+01,6.383014202117919922e+00,8.295594453811645508e-01
-3.669779062271118164e+00,1.554812431335449219e+00,-1.067927002906799316e+00
-4.378827571868896484e+00,1.855222225189208984e+00,-1.097921133041381836e+00
-5.379043579101562500e+00,2.278993844985961914e+00,-1.135550737380981445e+00
-6.993695735931396484e+00,2.963089942932128906e+00,-1.203007817268371582e+00
-9.828496932983398438e+00,4.164138793945312500e+00,-1.310629963874816895e+00
-1.008330154418945312e+01,4.272094726562500000e+00,-9.580844044685363770e-01
-1.009825515747070312e+01,4.278429985046386719e+00,-5.747663378715515137e-01
-1.011331653594970703e+01,4.284811019897460938e+00,-1.917186230421066284e-01
-1.012781715393066406e+01,4.290955066680908203e+00,1.919935047626495361e-01
-1.011432552337646484e+01,4.285238742828369141e+00,5.756810307502746582e-01
-1.015602874755859375e+01,4.302907466888427734e+00,9.649946689605712891e-01
-3.714402437210083008e+00,1.511386990547180176e+00,-1.074507236480712891e+00
-4.407984256744384766e+00,1.793604731559753418e+00,-1.098682165145874023e+00
-5.425465583801269531e+00,2.207617044448852539e+00,-1.138563394546508789e+00
-7.032289981842041016e+00,2.861432552337646484e+00,-1.202478289604187012e+00
-9.835343360900878906e+00,4.001992225646972656e+00,-1.303770780563354492e+00
-1.005113697052001953e+01,4.089798450469970703e+00,-9.493687748908996582e-01
-1.005596160888671875e+01,4.091761589050292969e+00,-5.689672827720642090e-01
-1.006688499450683594e+01,4.096206188201904297e+00,-1.897075027227401733e-01
-1.010178661346435547e+01,4.110407829284667969e+00,1.903652250766754150e-01
-1.011385440826416016e+01,4.115318298339843750e+00,5.722429156303405762e-01
-1.011241817474365234e+01,4.114733695983886719e+00,9.551569819450378418e-01
-3.750029563903808594e+00,1.463683128356933594e+00,-1.078642487525939941e+00
-4.426422595977783203e+00,1.727687597274780273e+00,-1.097001791000366211e+00
-5.430226802825927734e+00,2.119484901428222656e+00,-1.133080124855041504e+00
-7.008533000946044922e+00,2.735517501831054688e+00,-1.191598653793334961e+00
-9.871427536010742188e+00,3.852940797805786133e+00,-1.301110267639160156e+00
-1.001401424407958984e+01,3.908594131469726562e+00,-9.404817819595336914e-01
-1.003017807006835938e+01,3.914902925491333008e+00,-5.642801523208618164e-01
-1.004389953613281250e+01,3.920258522033691406e+00,-1.881976574659347534e-01
-1.005784130096435547e+01,3.925700187683105469e+00,1.884588897228240967e-01
-1.006345748901367188e+01,3.927892208099365234e+00,5.661523938179016113e-01
-1.008880805969238281e+01,3.937786817550659180e+00,9.475061297416687012e-01
-3.749657154083251953e+00,1.402034282684326172e+00,-1.072653174400329590e+00
-4.434705257415771484e+00,1.658180713653564453e+00,-1.093060493469238281e+00
-5.465548038482666016e+00,2.043623208999633789e+00,-1.134230494499206543e+00
-7.059018135070800781e+00,2.639437675476074219e+00,-1.193636655807495117e+00
-9.871576309204101562e+00,3.691081285476684570e+00,-1.294033765792846680e+00
-1.000737476348876953e+01,3.741857767105102539e+00,-9.347323775291442871e-01
-1.000757789611816406e+01,3.741933822631835938e+00,-5.599381923675537109e-01
-1.000258159637451172e+01,3.740065574645996094e+00,-1.864012926816940308e-01
-1.002526283264160156e+01,3.748546123504638672e+00,1.868239492177963257e-01
-1.003283214569091797e+01,3.751376628875732422e+00,5.613511800765991211e-01
-1.005567455291748047e+01,3.759917497634887695e+00,9.392437934875488281e-01
-3.762552738189697266e+00,1.345798373222351074e+00,-1.070721983909606934e+00
-4.482006072998046875e+00,1.603134036064147949e+00,-1.098950743675231934e+00
-5.531854629516601562e+00,1.978646278381347656e+00,-1.141996264457702637e+00
-7.097095966339111328e+00,2.538505315780639648e+00,-1.193809032440185547e+00
-9.949586868286132812e+00,3.558790683746337891e+00,-1.297449588775634766e+00
-9.975382804870605469e+00,3.568017482757568359e+00,-9.268790483474731445e-01
-9.968492507934570312e+00,3.565552949905395508e+00,-5.548389554023742676e-01
-9.993330955505371094e+00,3.574437379837036133e+00,-1.852564960718154907e-01
-9.990461349487304688e+00,3.573410749435424805e+00,1.852032989263534546e-01
-1.000372028350830078e+01,3.578153371810913086e+00,5.567997097969055176e-01
-1.001425838470458984e+01,3.581922531127929688e+00,9.304912090301513672e-01
-3.779965639114379883e+00,1.291311144828796387e+00,-1.070307731628417969e+00
-4.514864921569824219e+00,1.542367458343505859e+00,-1.101481676101684570e+00
-5.528117179870605469e+00,1.888514399528503418e+00,-1.135528206825256348e+00
-7.143136501312255859e+00,2.440237045288085938e+00,-1.195555806159973145e+00
-9.920008659362792969e+00,3.388871669769287109e+00,-1.287135362625122070e+00
-9.939791679382324219e+00,3.395629882812500000e+00,-9.189618825912475586e-01
-9.947565078735351562e+00,3.398285388946533203e+00,-5.509103536605834961e-01
-9.955810546875000000e+00,3.401102304458618164e+00,-1.836396753787994385e-01
-9.968887329101562500e+00,3.405569553375244141e+00,1.838808804750442505e-01
-9.991588592529296875e+00,3.413324594497680664e+00,5.533484816551208496e-01
-9.994739532470703125e+00,3.414401292800903320e+00,9.240419268608093262e-01
-3.801898002624511719e+00,1.238330245018005371e+00,-1.071389436721801758e+00
-4.551548480987548828e+00,1.482501626014709473e+00,-1.105141043663024902e+00
-5.579704284667968750e+00,1.817386031150817871e+00,-1.140664458274841309e+00
-7.190586566925048828e+00,2.342072486877441406e+00,-1.197764039039611816e+00
-9.891769409179687500e+00,3.221884965896606445e+00,-1.277356863021850586e+00
-9.905291557312011719e+00,3.226289033889770508e+00,-9.114094376564025879e-01
-9.916057586669921875e+00,3.229795694351196289e+00,-5.465492010116577148e-01
-9.921523094177246094e+00,3.231575965881347656e+00,-1.821353733539581299e-01
-9.935890197753906250e+00,3.236255407333374023e+00,1.823991090059280396e-01
-9.957275390625000000e+00,3.243221044540405273e+00,5.488210320472717285e-01
-9.952575683593750000e+00,3.241690397262573242e+00,9.157601594924926758e-01
-3.814502477645874023e+00,1.182324886322021484e+00,-1.070062756538391113e+00
-4.564191341400146484e+00,1.414694905281066895e+00,-1.103181242942810059e+00
-5.578757286071777344e+00,1.729164838790893555e+00,-1.135294914245605469e+00
-7.268408298492431641e+00,2.252880811691284180e+00,-1.205232262611389160e+00
-9.850262641906738281e+00,3.053140163421630859e+00,-1.266223907470703125e+00
-9.860947608947753906e+00,3.056451797485351562e+00,-9.032112956047058105e-01
-9.879800796508789062e+00,3.062295436859130859e+00,-5.420793294906616211e-01
-9.897838592529296875e+00,3.067886590957641602e+00,-1.808759421110153198e-01
-9.910859107971191406e+00,3.071922302246093750e+00,1.811138689517974854e-01
-9.908596992492675781e+00,3.071221113204956055e+00,5.436593294143676758e-01
-9.916420936584472656e+00,3.073646068572998047e+00,9.082923531532287598e-01
-9.950236320495605469e+00,3.084127426147460938e+00,1.279075264930725098e+00
-3.841678380966186523e+00,1.130743861198425293e+00,-1.073036193847656250e+00
-4.560637474060058594e+00,1.342359423637390137e+00,-1.097565770149230957e+00
-5.598739624023437500e+00,1.647910118103027344e+00,-1.134444952011108398e+00
-7.231278896331787109e+00,2.128424882888793945e+00,-1.193901538848876953e+00
-9.838967323303222656e+00,2.895961523056030273e+00,-1.259314537048339844e+00
-9.846673965454101562e+00,2.898229598999023438e+00,-8.980122208595275879e-01
-9.864809036254882812e+00,2.903567552566528320e+00,-5.389213562011718750e-01
-9.874042510986328125e+00,2.906285285949707031e+00,-1.796624809503555298e-01
-9.884461402893066406e+00,2.909351825714111328e+00,1.798520535230636597e-01
-9.898574829101562500e+00,2.913506031036376953e+00,5.407660007476806641e-01
-9.902315139770507812e+00,2.914607048034667969e+00,9.030867218971252441e-01
-9.926399230957031250e+00,2.921695947647094727e+00,1.270505189895629883e+00
-3.852720737457275391e+00,1.074322223663330078e+00,-1.071715593338012695e+00
-4.606309413909912109e+00,1.284458637237548828e+00,-1.104019522666931152e+00
-5.629431247711181641e+00,1.569753766059875488e+00,-1.135994791984558105e+00
-7.290163516998291016e+00,2.032845020294189453e+00,-1.198696851730346680e+00
-9.809508323669433594e+00,2.735358476638793945e+00,-1.250404715538024902e+00
-9.805904388427734375e+00,2.734353542327880859e+00,-8.906334638595581055e-01
-9.824902534484863281e+00,2.739651203155517578e+00,-5.345441699028015137e-01
-9.841732025146484375e+00,2.744344234466552734e+00,-1.783415824174880981e-01
-9.842120170593261719e+00,2.744452476501464844e+00,1.783486157655715942e-01
-9.863027572631835938e+00,2.750282287597656250e+00,5.366184115409851074e-01
-9.874848365783691406e+00,2.753578662872314453e+00,8.968954682350158691e-01
-9.898397445678710938e+00,2.760144948959350586e+00,1.261735200881958008e+00
-3.880439996719360352e+00,1.022428393363952637e+00,-1.075245261192321777e+00
-4.579532623291015625e+00,1.206627011299133301e+00,-1.093350410461425781e+00
-5.630202293395996094e+00,1.483460307121276855e+00,-1.131749749183654785e+00
-7.277651786804199219e+00,1.917534470558166504e+00,-1.192004561424255371e+00
-9.780245780944824219e+00,2.576924324035644531e+00,-1.241845726966857910e+00
-9.774949073791503906e+00,2.575528860092163086e+00,-8.843830823898315430e-01
-9.802139282226562500e+00,2.582692861557006836e+00,-5.312399864196777344e-01
-9.809340476989746094e+00,2.584590196609497070e+00,-1.770660877227783203e-01
-9.833531379699707031e+00,2.590964317321777344e+00,1.775027662515640259e-01
-9.834499359130859375e+00,2.591219425201416016e+00,5.329937934875488281e-01
-9.843263626098632812e+00,2.593528509140014648e+00,8.905637860298156738e-01
-9.858311653137207031e+00,2.597493410110473633e+00,1.251758217811584473e+00
-3.906081199645996094e+00,9.696180224418640137e-01,-1.078394055366516113e+00
-4.619922637939453125e+00,1.146817088127136230e+00,-1.098961830139160156e+00
-5.661415100097656250e+00,1.405349731445312500e+00,-1.133864283561706543e+00
-7.333457469940185547e+00,1.820405840873718262e+00,-1.196754574775695801e+00
-9.743097305297851562e+00,2.418557882308959961e+00,-1.232607007026672363e+00
-9.771679878234863281e+00,2.425652742385864258e+00,-8.808557987213134766e-01
-9.769758224487304688e+00,2.425175905227661133e+00,-5.275496840476989746e-01
-9.794209480285644531e+00,2.431245565414428711e+00,-1.761467754840850830e-01
-9.793642997741699219e+00,2.431104898452758789e+00,1.761365681886672974e-01
-9.816106796264648438e+00,2.436681032180786133e+00,5.300524234771728516e-01
-9.822340965270996094e+00,2.438228607177734375e+00,8.854225873947143555e-01
-9.835179328918457031e+00,2.441415548324584961e+00,1.244256377220153809e+00
-3.919026136398315430e+00,9.134908914566040039e-01,-1.078247666358947754e+00
-4.625793933868408203e+00,1.078232288360595703e+00,-1.096575021743774414e+00
-5.683403491973876953e+00,1.324751973152160645e+00,-1.134354233741760254e+00
-7.335834026336669922e+00,1.709919095039367676e+00,-1.193026065826416016e+00
-9.724753379821777344e+00,2.266755342483520508e+00,-1.226055979728698730e+00
-9.719515800476074219e+00,2.265534400939941406e+00,-8.731409311294555664e-01
-9.741093635559082031e+00,2.270564079284667969e+00,-5.241932868957519531e-01
-9.745266914367675781e+00,2.271536827087402344e+00,-1.746639013290405273e-01
-9.766028404235839844e+00,2.276376247406005859e+00,1.750360131263732910e-01
-9.778173446655273438e+00,2.279206991195678711e+00,5.261886119842529297e-01
-9.807021141052246094e+00,2.285931348800659180e+00,8.810019493103027344e-01
-9.809523582458496094e+00,2.286514520645141602e+00,1.236743450164794922e+00
-3.920376062393188477e+00,8.548393845558166504e-01,-1.075142621994018555e+00
-4.656698226928710938e+00,1.015394687652587891e+00,-1.100342988967895508e+00
-5.686478137969970703e+00,1.239938497543334961e+00,-1.131309747695922852e+00
-7.400995731353759766e+00,1.613789677619934082e+00,-1.199743986129760742e+00
-9.697017669677734375e+00,2.114438056945800781e+00,-1.218618631362915039e+00
-9.711899757385253906e+00,2.117683172225952148e+00,-8.696447610855102539e-01
-9.724191665649414062e+00,2.120363235473632812e+00,-5.215970873832702637e-01
-9.725578308105468750e+00,2.120665550231933594e+00,-1.737491935491561890e-01
-9.745714187622070312e+00,2.125056266784667969e+00,1.741089373826980591e-01
-9.758623123168945312e+00,2.127871274948120117e+00,5.234439969062805176e-01
-9.761909484863281250e+00,2.128587722778320312e+00,8.741228580474853516e-01
-9.768196105957031250e+00,2.129958391189575195e+00,1.227563619613647461e+00
-3.920855045318603516e+00,7.963373661041259766e-01,-1.072038173675537109e+00
-4.662695884704589844e+00,9.470074772834777832e-01,-1.098444700241088867e+00
-5.739735126495361328e+00,1.165757298469543457e+00,-1.138468742370605469e+00
-7.413296699523925781e+00,1.505662679672241211e+00,-1.198121666908264160e+00
-9.653792381286621094e+00,1.960714101791381836e+00,-1.209535837173461914e+00
-9.675741195678710938e+00,1.965171933174133301e+00,-8.637996912002563477e-01
-9.672475814819335938e+00,1.964508652687072754e+00,-5.172618031501770020e-01
-9.695945739746093750e+00,1.969275593757629395e+00,-1.726985573768615723e-01
-9.706954956054687500e+00,1.971511602401733398e+00,1.728946417570114136e-01
-9.734867095947265625e+00,1.977180600166320801e+00,5.205984115600585938e-01
-9.726843833923339844e+00,1.975551128387451172e+00,8.683618903160095215e-01
-9.754764556884765625e+00,1.981221914291381836e+00,1.222186803817749023e+00
-3.930001974105834961e+00,7.397925257682800293e-01,-1.071534037590026855e+00
-4.678246021270751953e+00,8.806437253952026367e-01,-1.099025964736938477e+00
-5.755856513977050781e+00,1.083495616912841797e+00,-1.138473749160766602e+00
-7.411232948303222656e+00,1.395107507705688477e+00,-1.194438457489013672e+00
-9.649648666381835938e+00,1.816471934318542480e+00,-1.205635666847229004e+00
-9.651231765747070312e+00,1.816769838333129883e+00,-8.592020869255065918e-01
-9.666883468627929688e+00,1.819716215133666992e+00,-5.155170559883117676e-01
-9.680657386779785156e+00,1.822309017181396484e+00,-1.719440370798110962e-01
-9.678144454956054688e+00,1.821835994720458984e+00,1.718994081020355225e-01
-9.689545631408691406e+00,1.823982238769531250e+00,5.167255997657775879e-01
-9.729867935180664062e+00,1.831572651863098145e+00,8.662027120590209961e-01
-9.721483230590820312e+00,1.829994320869445801e+00,1.214610695838928223e+00
-3.929196834564208984e+00,6.815642118453979492e-01,-1.068545222282409668e+00
-4.688444614410400391e+00,8.132644295692443848e-01,-1.098574638366699219e+00
-5.770487785339355469e+00,1.000957250595092773e+00,-1.138417363166809082e+00
-7.424040317535400391e+00,1.287784814834594727e+00,-1.193409562110900879e+00
-9.621718406677246094e+00,1.668997287750244141e+00,-1.199038386344909668e+00
-9.620100021362304688e+00,1.668716549873352051e+00,-8.542167544364929199e-01
-9.637144088745117188e+00,1.671672940254211426e+00,-5.126026272773742676e-01
-9.652807235717773438e+00,1.674389958381652832e+00,-1.710061877965927124e-01
-9.648537635803222656e+00,1.673649430274963379e+00,1.709305495023727417e-01
-9.678535461425781250e+00,1.678852915763854980e+00,5.148042440414428711e-01
-9.685638427734375000e+00,1.680084824562072754e+00,8.600361943244934082e-01
-9.709562301635742188e+00,1.684234857559204102e+00,1.209985375404357910e+00
-3.958376407623291016e+00,6.284074187278747559e-01,-1.073924541473388672e+00
-4.700326919555664062e+00,7.461949586868286133e-01,-1.098743677139282227e+00
-5.780828475952148438e+00,9.177286624908447266e-01,-1.137749314308166504e+00
-7.438841342926025391e+00,1.180944561958312988e+00,-1.192949414253234863e+00
-9.588624954223632812e+00,1.522230982780456543e+00,-1.192077159881591797e+00
-9.620604515075683594e+00,1.527307868003845215e+00,-8.522331118583679199e-01
-9.623284339904785156e+00,1.527733325958251953e+00,-5.106499791145324707e-01
-9.633662223815917969e+00,1.529380798339843750e+00,-1.702617704868316650e-01
-9.639293670654296875e+00,1.530274868011474609e+00,1.703612953424453735e-01
-9.652973175048828125e+00,1.532446503639221191e+00,5.122253894805908203e-01
-9.661018371582031250e+00,1.533723711967468262e+00,8.558130860328674316e-01
-9.668728828430175781e+00,1.534947752952575684e+00,1.202035784721374512e+00
-3.956379652023315430e+00,5.701653361320495605e-01,-1.071058988571166992e+00
-4.721118927001953125e+00,6.803741455078125000e-01,-1.101214766502380371e+00
-5.793139934539794922e+00,8.348662257194519043e-01,-1.137703895568847656e+00
-7.461652755737304688e+00,1.075320482254028320e+00,-1.194017052650451660e+00
-9.568457603454589844e+00,1.378938198089599609e+00,-1.186994433403015137e+00
-9.560745239257812500e+00,1.377826809883117676e+00,-8.450969457626342773e-01
-9.591244697570800781e+00,1.382222056388854980e+00,-5.078479647636413574e-01
-9.594518661499023438e+00,1.382693886756896973e+00,-1.692028343677520752e-01
-9.617032051086425781e+00,1.385938405990600586e+00,1.695998758077621460e-01
-9.629888534545898438e+00,1.387791156768798828e+00,5.098941326141357422e-01
-9.636878013610839844e+00,1.388798356056213379e+00,8.518264293670654297e-01
-9.649617195129394531e+00,1.390634298324584961e+00,1.197062492370605469e+00
-3.971047163009643555e+00,5.143786668777465820e-01,-1.072926640510559082e+00
-4.712361812591552734e+00,6.104028224945068359e-01,-1.097021818161010742e+00
-5.795010566711425781e+00,7.506407499313354492e-01,-1.135844945907592773e+00
-7.489598274230957031e+00,9.701445102691650391e-01,-1.196144342422485352e+00
-9.550221443176269531e+00,1.237061619758605957e+00,-1.182414531707763672e+00
-9.560698509216308594e+00,1.238418698310852051e+00,-8.434395194053649902e-01
-9.563901901245117188e+00,1.238833785057067871e+00,-5.054095387458801270e-01
-9.571058273315429688e+00,1.239760637283325195e+00,-1.684589087963104248e-01
-9.574090957641601562e+00,1.240153551101684570e+00,1.685122996568679810e-01
-9.601334571838378906e+00,1.243682384490966797e+00,5.073876380920410156e-01
-9.613231658935546875e+00,1.245223522186279297e+00,8.480740189552307129e-01
-9.618443489074707031e+00,1.245898604393005371e+00,1.190861105918884277e+00
-3.973494291305541992e+00,4.569739401340484619e-01,-1.071710824966430664e+00
-4.727684974670410156e+00,5.437100529670715332e-01,-1.098664760589599609e+00
-5.794110774993896484e+00,6.663550138473510742e-01,-1.133682966232299805e+00
-7.526926517486572266e+00,8.656383752822875977e-01,-1.200004100799560547e+00
-9.512287139892578125e+00,1.093965888023376465e+00,-1.175658702850341797e+00
-9.520196914672851562e+00,1.094875693321228027e+00,-8.383981585502624512e-01
-9.528816223144531250e+00,1.095866918563842773e+00,-5.026749968528747559e-01
-9.556739807128906250e+00,1.099078297615051270e+00,-1.679127961397171021e-01
-9.569482803344726562e+00,1.100543737411499023e+00,1.681367009878158569e-01
-9.568408966064453125e+00,1.100420236587524414e+00,5.047636628150939941e-01
-9.583022117614746094e+00,1.102100849151611328e+00,8.439308404922485352e-01
-9.578905105590820312e+00,1.101627349853515625e+00,1.183892369270324707e+00
-3.982778072357177734e+00,4.003752470016479492e-01,-1.072559237480163574e+00
-4.734510421752929688e+00,4.759443402290344238e-01,-1.098555207252502441e+00
-5.802093505859375000e+00,5.832648277282714844e-01,-1.133495211601257324e+00
-7.490590095520019531e+00,7.530037760734558105e-01,-1.192370653152465820e+00
-9.502613067626953125e+00,9.552655816078186035e-01,-1.172653079032897949e+00
-9.509391784667968750e+00,9.559469819068908691e-01,-8.361558914184570312e-01
-9.505398750305175781e+00,9.555456638336181641e-01,-5.006668567657470703e-01
-9.522048950195312500e+00,9.572194218635559082e-01,-1.670454442501068115e-01
-9.536055564880371094e+00,9.586274623870849609e-01,1.672911643981933594e-01
-9.544934272766113281e+00,9.595200419425964355e-01,5.027492642402648926e-01
-9.559608459472656250e+00,9.609951376914978027e-01,8.405714035034179688e-01
-9.574071884155273438e+00,9.624491333961486816e-01,1.181471347808837891e+00
-3.980363130569458008e+00,3.426666259765625000e-01,-1.070478320121765137e+00
-4.751072883605957031e+00,4.090164899826049805e-01,-1.100927114486694336e+00
-5.821920394897460938e+00,5.012050271034240723e-01,-1.135850787162780762e+00
-7.523596286773681641e+00,6.477010846138000488e-01,-1.196026444435119629e+00
-9.462660789489746094e+00,8.146337270736694336e-01,-1.166164517402648926e+00
-9.472091674804687500e+00,8.154456019401550293e-01,-8.317645788192749023e-01
-9.485887527465820312e+00,8.166332840919494629e-01,-4.989723861217498779e-01
-9.508238792419433594e+00,8.185575604438781738e-01,-1.665805727243423462e-01
-9.502923965454101562e+00,8.180999755859375000e-01,1.664874553680419922e-01
-9.534576416015625000e+00,8.208249211311340332e-01,5.015335083007812500e-01
-9.535148620605468750e+00,8.208741545677185059e-01,8.373017907142639160e-01
-9.552304267883300781e+00,8.223510980606079102e-01,1.177211999893188477e+00
-4.004217624664306641e+00,2.870523035526275635e-01,-1.075678586959838867e+00
-4.741629600524902344e+00,3.399155437946319580e-01,-1.097499012947082520e+00
-5.810759067535400391e+00,4.165587425231933594e-01,-1.132393956184387207e+00
-7.517172813415527344e+00,5.388872623443603516e-01,-1.193656802177429199e+00
-9.440345764160156250e+00,6.767547726631164551e-01,-1.162101626396179199e+00
-9.448174476623535156e+00,6.773159503936767578e-01,-8.287281990051269531e-01
-9.451513290405273438e+00,6.775553226470947266e-01,-4.966032207012176514e-01
-9.471371650695800781e+00,6.789789199829101562e-01,-1.657474339008331299e-01
