1.077474689483642578e+01,7.710801064968109131e-02,-1.323004484176635742e+00
1.770478630065917969e+01,1.267018914222717285e-01,-1.549005508422851562e+00
5.466012191772460938e+01,3.911677002906799316e-01,-2.864684820175170898e+00
7.420896911621093750e+01,5.310663580894470215e-01,-1.295353651046752930e+00
4.010172843933105469e+00,8.610652387142181396e-02,-1.074768543243408203e+00
4.764246463775634766e+00,1.022980064153671265e-01,-1.100164771080017090e+00
5.895825862884521484e+00,1.265953183174133301e-01,-1.146294832229614258e+00
7.616783142089843750e+00,1.635477393865585327e-01,-1.206656098365783691e+00
1.076075267791748047e+01,2.310551255941390991e-01,-1.321556806564331055e+00
1.771581649780273438e+01,3.803944289684295654e-01,-1.550288081169128418e+00
5.462537765502929688e+01,1.172917366027832031e+00,-2.863450288772583008e+00
7.417020416259765625e+01,1.592584371566772461e+00,-1.294942259788513184e+00
4.027264118194580078e+00,1.441619098186492920e-01,-1.079791665077209473e+00
4.766134738922119141e+00,1.706108748912811279e-01,-1.101051926612854004e+00
5.893494606018066406e+00,2.109663933515548706e-01,-1.146311283111572266e+00
7.620951175689697266e+00,2.728032767772674561e-01,-1.207811355590820312e+00
1.076561737060546875e+01,3.853712677955627441e-01,-1.322696328163146973e+00
1.770981407165527344e+01,6.339491009712219238e-01,-1.550398111343383789e+00
5.462312698364257812e+01,1.955315947532653809e+00,-2.864506006240844727e+00
7.414205169677734375e+01,2.654024839401245117e+00,-1.294981360435485840e+00
4.012479305267333984e+00,2.011681795120239258e-01,-1.076489210128784180e+00
4.749421119689941406e+00,2.381152510643005371e-01,-1.097865819931030273e+00
5.902246475219726562e+00,2.959128618240356445e-01,-1.148719668388366699e+00
7.605680942535400391e+00,3.813156187534332275e-01,-1.206132650375366211e+00
1.074665164947509766e+01,5.387902259826660156e-01,-1.321178317070007324e+00
1.770152091979980469e+01,8.874769806861877441e-01,-1.550625205039978027e+00
5.459377670288085938e+01,2.737093687057495117e+00,-2.864727973937988281e+00
7.408612060546875000e+01,3.714354753494262695e+00,-1.294800400733947754e+00
4.017916202545166016e+00,2.591370344161987305e-01,-1.078832507133483887e+00
4.764268875122070312e+00,3.072732985019683838e-01,-1.102201700210571289e+00
5.894056320190429688e+00,3.801393806934356689e-01,-1.148067116737365723e+00
7.618415832519531250e+00,4.913526177406311035e-01,-1.209143757820129395e+00
1.075958442687988281e+01,6.939434409141540527e-01,-1.323853731155395508e+00
1.771309089660644531e+01,1.142412424087524414e+00,-1.552912116050720215e+00
4.121866607666015625e+01,2.658413410186767578e+00,-2.164663791656494141e+00
4.122860717773437500e+01,2.659054517745971680e+00,-7.211421132087707520e-01
4.028638362884521484e+00,3.177856802940368652e-01,-1.082821846008300781e+00
4.752017498016357422e+00,3.748470246791839600e-01,-1.100495934486389160e+00
5.888098716735839844e+00,4.644629955291748047e-01,-1.148084044456481934e+00
7.631566524505615234e+00,6.019905805587768555e-01,-1.212474226951599121e+00
1.074793243408203125e+01,8.478146791458129883e-01,-1.323777556419372559e+00
1.771094703674316406e+01,1.397068858146667480e+00,-1.554318070411682129e+00
2.648836517333984375e+01,2.089446067810058594e+00,-1.392506480216979980e+00
2.649422454833984375e+01,2.089908361434936523e+00,-4.638942778110504150e-01
2.652353096008300781e+01,2.092220067977905273e+00,4.644074141979217529e-01
3.985784292221069336e+00,3.718755245208740234e-01,-1.072624325752258301e+00
4.742892742156982422e+00,4.425140619277954102e-01,-1.099736928939819336e+00
5.817999362945556641e+00,5.428220629692077637e-01,-1.135814428329467773e+00
7.601302623748779297e+00,7.092050313949584961e-01,-1.209154963493347168e+00
1.076934719085693359e+01,1.004785060882568359e+00,-1.328050374984741211e+00
1.770541763305664062e+01,1.651923656463623047e+00,-1.555748581886291504e+00
1.887505531311035156e+01,1.761051297187805176e+00,-9.934943914413452148e-01
1.892068862915039062e+01,1.765308976173400879e+00,-3.316957056522369385e-01
1.892063713073730469e+01,1.765304088592529297e+00,3.316947817802429199e-01
3.997542858123779297e+00,4.307665228843688965e-01,-1.077337622642517090e+00
4.757352352142333984e+00,5.126419663429260254e-01,-1.104677915573120117e+00
5.833110332489013672e+00,6.285632848739624023e-01,-1.140403985977172852e+00
7.507004737854003906e+00,8.089385032653808594e-01,-1.195874094963073730e+00
1.055222606658935547e+01,1.137084960937500000e+00,-1.303149223327636719e+00
1.504278087615966797e+01,1.620977401733398438e+00,-1.323689699172973633e+00
1.503422355651855469e+01,1.620055317878723145e+00,-7.924703955650329590e-01
1.506495666503906250e+01,1.623366951942443848e+00,-2.644817233085632324e-01
1.507507419586181641e+01,1.624457120895385742e+00,2.646593153476715088e-01
1.509520626068115234e+01,1.626626610755920410e+00,7.956848740577697754e-01
3.991197586059570312e+00,4.879632294178009033e-01,-1.077399492263793945e+00
4.755406379699707031e+00,5.813953280448913574e-01,-1.106045126914978027e+00
5.818366527557373047e+00,7.113526463508605957e-01,-1.139395356178283691e+00
7.513901233673095703e+00,9.186484813690185547e-01,-1.198944687843322754e+00
1.054689121246337891e+01,1.289461493492126465e+00,-1.304636001586914062e+00
1.223972415924072266e+01,1.496426939964294434e+00,-1.078809022903442383e+00
1.225288486480712891e+01,1.498035907745361328e+00,-6.469269394874572754e-01
1.225361347198486328e+01,1.498125076293945312e+00,-2.154799103736877441e-01
1.227456855773925781e+01,1.500687003135681152e+00,2.158484011888504028e-01
1.229017448425292969e+01,1.502594947814941406e+00,6.488958001136779785e-01
1.230748367309570312e+01,1.504711151123046875e+00,1.084781289100646973e+00
3.987109661102294922e+00,5.454874038696289062e-01,-1.078293323516845703e+00
4.727073669433593750e+00,6.467238664627075195e-01,-1.101495504379272461e+00
5.823578357696533203e+00,7.967396974563598633e-01,-1.142532229423522949e+00
7.502085208892822266e+00,1.026380777359008789e+00,-1.199280500411987305e+00
1.054007053375244141e+01,1.442015886306762695e+00,-1.306211709976196289e+00
1.073439979553222656e+01,1.468602657318115234e+00,-9.478853940963745117e-01
1.075173282623291016e+01,1.470973968505859375e+00,-5.687226653099060059e-01
1.074584865570068359e+01,1.470168948173522949e+00,-1.893164962530136108e-01
1.077714347839355469e+01,1.474450469017028809e+00,1.898678541183471680e-01
1.080411815643310547e+01,1.478140950202941895e+00,5.714936256408691406e-01
1.082176780700683594e+01,1.480555653572082520e+00,9.556003212928771973e-01
3.957095146179199219e+00,5.991941094398498535e-01,-1.072385668754577637e+00
4.713913440704345703e+00,7.137935757637023926e-01,-1.100696921348571777e+00
5.823312759399414062e+00,8.817818760871887207e-01,-1.144839048385620117e+00
7.506152629852294922e+00,1.136602044105529785e+00,-1.202408313751220703e+00
1.054404735565185547e+01,1.596608281135559082e+00,-1.309402465820312500e+00
1.072873210906982422e+01,1.624573826789855957e+00,-9.493410587310791016e-01
1.074373340606689453e+01,1.626845240592956543e+00,-5.694728493690490723e-01
1.074928760528564453e+01,1.627686381340026855e+00,-1.897681057453155518e-01
1.076515483856201172e+01,1.630089044570922852e+00,1.900482177734375000e-01
1.078378486633300781e+01,1.632910013198852539e+00,5.715957880020141602e-01
1.078462409973144531e+01,1.633037209510803223e+00,9.542866945266723633e-01
3.956996679306030273e+00,6.572420001029968262e-01,-1.074798226356506348e+00
4.723906040191650391e+00,7.846227288246154785e-01,-1.105539321899414062e+00
5.821816444396972656e+00,9.669814109802246094e-01,-1.147148370742797852e+00
7.513255596160888672e+00,1.247923016548156738e+00,-1.206283926963806152e+00
1.053823947906494141e+01,1.750361204147338867e+00,-1.311658143997192383e+00
1.072311210632324219e+01,1.781067967414855957e+00,-9.510021209716796875e-01
1.071935939788818359e+01,1.780444622039794922e+00,-5.694733858108520508e-01
1.075127887725830078e+01,1.785746216773986816e+00,-1.902350038290023804e-01
1.075200176239013672e+01,1.785866379737854004e+00,1.902478039264678955e-01
1.076654624938964844e+01,1.788282155990600586e+00,5.719802379608154297e-01
1.077113533020019531e+01,1.789044380187988281e+00,9.552611708641052246e-01
3.955842018127441406e+00,7.153727412223815918e-01,-1.077155590057373047e+00
4.720371246337890625e+00,8.536299467086791992e-01,-1.107458114624023438e+00
5.755037784576416016e+00,1.040738463401794434e+00,-1.136808991432189941e+00
7.513833999633789062e+00,1.358798503875732422e+00,-1.209375500679016113e+00
1.055888271331787109e+01,1.909463882446289062e+00,-1.317494511604309082e+00
1.069529342651367188e+01,1.934132218360900879e+00,-9.508928060531616211e-01
1.071705722808837891e+01,1.938067913055419922e+00,-5.707663297653198242e-01
1.072324180603027344e+01,1.939186334609985352e+00,-1.902105510234832764e-01
1.074136638641357422e+01,1.942463994026184082e+00,1.905320584774017334e-01
1.074144840240478516e+01,1.942478895187377930e+00,5.720654129981994629e-01
1.075226783752441406e+01,1.944435477256774902e+00,9.559582471847534180e-01
3.926674604415893555e+00,7.682911157608032227e-01,-1.072098016738891602e+00
4.667134761810302734e+00,9.131692051887512207e-01,-1.097922205924987793e+00
5.772048950195312500e+00,1.129356145858764648e+00,-1.143245220184326172e+00
7.403617858886718750e+00,1.448588013648986816e+00,-1.194850683212280273e+00
1.054825592041015625e+01,2.063866138458251953e+00,-1.319719195365905762e+00
1.068132877349853516e+01,2.089903116226196289e+00,-9.522132277488708496e-01
1.070157337188720703e+01,2.093864202499389648e+00,-5.714793801307678223e-01
1.071682071685791016e+01,2.096847534179687500e+00,-1.906095296144485474e-01
1.073558712005615234e+01,2.100519418716430664e+00,1.909433007240295410e-01
1.075199890136718750e+01,2.103730440139770508e+00,5.741721391677856445e-01
1.076589202880859375e+01,2.106448888778686523e+00,9.597518444061279297e-01
3.933533668518066406e+00,8.282551765441894531e-01,-1.077097177505493164e+00
4.681191921234130859e+00,9.856840968132019043e-01,-1.104434967041015625e+00
5.775845050811767578e+00,1.216177105903625488e+00,-1.147327423095703125e+00
7.397024154663085938e+00,1.557536840438842773e+00,-1.197261810302734375e+00
1.055333614349365234e+01,2.222138166427612305e+00,-1.324198603630065918e+00
1.067701721191406250e+01,2.248180866241455078e+00,-9.545997977256774902e-01
1.069417762756347656e+01,2.251794099807739258e+00,-5.727468729019165039e-01
1.070250606536865234e+01,2.253547906875610352e+00,-1.909090727567672729e-01
1.071203804016113281e+01,2.255554914474487305e+00,1.910791099071502686e-01
1.072983741760253906e+01,2.259302854537963867e+00,5.746567249298095703e-01
1.074066448211669922e+01,2.261582612991333008e+00,9.602903127670288086e-01
3.931715250015258789e+00,8.868215084075927734e-01,-1.079964399337768555e+00
4.670145511627197266e+00,1.053378820419311523e+00,-1.105272769927978516e+00
5.708465576171875000e+00,1.287577986717224121e+00,-1.137487411499023438e+00
7.406760215759277344e+00,1.670638442039489746e+00,-1.202584981918334961e+00
1.034400367736816406e+01,2.333151102066040039e+00,-1.301989316940307617e+00
1.066032028198242188e+01,2.404498100280761719e+00,-9.560861587524414062e-01
1.066782665252685547e+01,2.406191110610961914e+00,-5.731214880943298340e-01
1.068616008758544922e+01,2.410326242446899414e+00,-1.912133097648620605e-01
1.072783946990966797e+01,2.419727563858032227e+00,1.919591128826141357e-01
1.072354698181152344e+01,2.418759107589721680e+00,5.761150121688842773e-01
1.073031425476074219e+01,2.420285701751708984e+00,9.623636603355407715e-01
3.908237695693969727e+00,9.405028820037841797e-01,-1.077103018760681152e+00
4.660055160522460938e+00,1.121425032615661621e+00,-1.106570243835449219e+00
5.696038722991943359e+00,1.370730519294738770e+00,-1.138804078102111816e+00
7.400217533111572266e+00,1.780834794044494629e+00,-1.205537796020507812e+00
1.035209751129150391e+01,2.491193771362304688e+00,-1.307362318038940430e+00
1.065947055816650391e+01,2.565161705017089844e+00,-9.592045545578002930e-01
1.067053604125976562e+01,2.567824840545654297e+00,-5.751827359199523926e-01
1.067881298065185547e+01,2.569816589355468750e+00,-1.917203962802886963e-01
1.068802165985107422e+01,2.572032690048217773e+00,1.918857246637344360e-01
1.069970512390136719e+01,2.574844121932983398e+00,5.767550468444824219e-01
1.072795963287353516e+01,2.581643581390380859e+00,9.653676748275756836e-01
3.915643453598022461e+00,1.001782059669494629e+00,-1.082984924316406250e+00
4.637751579284667969e+00,1.186526894569396973e+00,-1.105193614959716797e+00
5.690505504608154297e+00,1.455864429473876953e+00,-1.141747117042541504e+00
7.415966987609863281e+00,1.897308230400085449e+00,-1.212403416633605957e+00
1.034413051605224609e+01,2.646452426910400391e+00,-1.311005711555480957e+00
1.063465404510498047e+01,2.720780134201049805e+00,-9.603775143623352051e-01
1.066568565368652344e+01,2.728719472885131836e+00,-5.769675374031066895e-01
1.065680980682373047e+01,2.726448774337768555e+00,-1.920063197612762451e-01
1.066975498199462891e+01,2.729760408401489258e+00,1.922395527362823486e-01
1.068368339538574219e+01,2.733324050903320312e+00,5.779411196708679199e-01
1.070122909545898438e+01,2.737812995910644531e+00,9.663897156715393066e-01
3.884111881256103516e+00,1.053166627883911133e+00,-1.078322649002075195e+00
4.601070404052734375e+00,1.247568130493164062e+00,-1.100595116615295410e+00
5.648287296295166016e+00,1.531518220901489258e+00,-1.137558221817016602e+00
7.314990043640136719e+00,1.983440279960632324e+00,-1.200413465499877930e+00
1.033251953125000000e+01,2.801635265350341797e+00,-1.314481854438781738e+00
1.063659191131591797e+01,2.884083747863769531e+00,-9.641816616058349609e-01
1.064041900634765625e+01,2.885121583938598633e+00,-5.777754783630371094e-01
1.066548252105712891e+01,2.891917467117309570e+00,-1.928886175155639648e-01
1.067974758148193359e+01,2.895785331726074219e+00,1.931465864181518555e-01
1.068100357055664062e+01,2.896126031875610352e+00,5.799792408943176270e-01
1.068597984313964844e+01,2.897475242614746094e+00,9.686585664749145508e-01
3.850365877151489258e+00,1.103411078453063965e+00,-1.073228836059570312e+00
4.598783969879150391e+00,1.317887425422668457e+00,-1.104447245597839355e+00
5.638707160949707031e+00,1.615901470184326172e+00,-1.140170216560363770e+00
7.299826622009277344e+00,2.091933488845825195e+00,-1.202715635299682617e+00
1.034102630615234375e+01,2.963459253311157227e+00,-1.320824980735778809e+00
1.062032413482666016e+01,3.043498516082763672e+00,-9.665569663047790527e-01
1.064265346527099609e+01,3.049897432327270508e+00,-5.802078247070312500e-01
1.062832450866699219e+01,3.045791149139404297e+00,-1.929852664470672607e-01
1.063926887512207031e+01,3.048927545547485352e+00,1.931839883327484131e-01
1.065640449523925781e+01,3.053838253021240234e+00,5.809574723243713379e-01
1.068899154663085938e+01,3.063176870346069336e+00,9.728063941001892090e-01
3.842871189117431641e+00,1.161030411720275879e+00,-1.075661659240722656e+00
4.556965827941894531e+00,1.376776814460754395e+00,-1.099024295806884766e+00
5.648305416107177734e+00,1.706498742103576660e+00,-1.146932601928710938e+00
7.312061309814453125e+00,2.209162235260009766e+00,-1.209817290306091309e+00
1.014854621887207031e+01,3.066137313842773438e+00,-1.301712393760681152e+00
1.059772491455078125e+01,3.201845645904541016e+00,-9.685719013214111328e-01
1.062119388580322266e+01,3.208936452865600586e+00,-5.814823508262634277e-01
1.063049125671386719e+01,3.211745262145996094e+00,-1.938394904136657715e-01
1.063735389709472656e+01,3.213818788528442383e+00,1.939646303653717041e-01
1.066261768341064453e+01,3.221451520919799805e+00,5.837501883506774902e-01
1.065652275085449219e+01,3.219610214233398438e+00,9.739457368850708008e-01
3.820487022399902344e+00,1.214202761650085449e+00,-1.074150800704956055e+00
4.558435440063476562e+00,1.448732733726501465e+00,-1.104266643524169922e+00
5.597555160522460938e+00,1.778979182243347168e+00,-1.141680836677551270e+00
7.203593730926513672e+00,2.289400100708007812e+00,-1.197170019149780273e+00
1.014881515502929688e+01,3.225431442260742188e+00,-1.307534575462341309e+00
1.059132480621337891e+01,3.366067171096801758e+00,-9.722907543182373047e-01
1.060268211364746094e+01,3.369676589965820312e+00,-5.830497145652770996e-01
1.061271572113037109e+01,3.372865438461303711e+00,-1.943757534027099609e-01
1.062331008911132812e+01,3.376232624053955078e+00,1.945697963237762451e-01
1.064508914947509766e+01,3.383154153823852539e+00,5.853817462921142578e-01
1.065521907806396484e+01,3.386373519897460938e+00,9.781562685966491699e-01
3.818555355072021484e+00,1.274041175842285156e+00,-1.078624367713928223e+00
4.500423431396484375e+00,1.501542925834655762e+00,-1.095307707786560059e+00
5.583343505859375000e+00,1.862853646278381348e+00,-1.144103527069091797e+00
7.206575870513916016e+00,2.404436826705932617e+00,-1.203261852264404297e+00
1.014426136016845703e+01,3.384580135345458984e+00,-1.313054919242858887e+00
1.056834793090820312e+01,3.526074647903442383e+00,-9.747148752212524414e-01
1.058541107177734375e+01,3.531767606735229492e+00,-5.848199725151062012e-01
1.060701084136962891e+01,3.538974285125732422e+00,-1.951790452003479004e-01
1.061340236663818359e+01,3.541106700897216797e+00,1.952966451644897461e-01
1.062384605407714844e+01,3.544591188430786133e+00,5.869433879852294922e-01
1.065084838867187500e+01,3.553600311279296875e+00,9.823238253593444824e-01
3.783039331436157227e+00,1.322656273841857910e+00,-1.073829770088195801e+00
4.529750347137451172e+00,1.583727359771728516e+00,-1.107848882675170898e+00
5.526811122894287109e+00,1.932327747344970703e+00,-1.138070225715637207e+00
7.206891059875488281e+00,2.519730567932128906e+00,-1.209212541580200195e+00
1.015272140502929688e+01,3.549675226211547852e+00,-1.320591211318969727e+00
1.055031681060791016e+01,3.688685894012451172e+00,-9.778212308883666992e-01
1.057248783111572266e+01,3.696437597274780273e+00,-5.869689583778381348e-01
1.058705997467041016e+01,3.701532125473022461e+00,-1.957667917013168335e-01
1.059505653381347656e+01,3.704328060150146484e+00,1.959146559238433838e-01
1.059989166259765625e+01,3.706018447875976562e+00,5.884903669357299805e-01
1.062315845489501953e+01,3.714153289794921875e+00,9.845722913742065430e-01
3.772022962570190430e+00,1.379700064659118652e+00,-1.076198220252990723e+00
4.486913204193115234e+00,1.641186833381652832e+00,-1.103004455566406250e+00
5.537024497985839844e+00,2.025287866592407227e+00,-1.146025300025939941e+00
7.128697872161865234e+00,2.607477426528930664e+00,-1.202231764793395996e+00
9.961577415466308594e+00,3.643665075302124023e+00,-1.302378892898559570e+00
1.055836963653564453e+01,3.861954927444458008e+00,-9.835900664329528809e-01
1.055746459960937500e+01,3.861623764038085938e+00,-5.891432166099548340e-01
1.056885910034179688e+01,3.865791559219360352e+00,-1.964332759380340576e-01
1.060061836242675781e+01,3.877408266067504883e+00,1.970235556364059448e-01
1.059299468994140625e+01,3.874619722366333008e+00,5.911259055137634277e-01
1.061616039276123047e+01,3.883093118667602539e+00,9.889736771583557129e-01
3.738074302673339844e+00,1.428264856338500977e+00,-1.072235107421875000e+00
4.439715385437011719e+00,1.696351885795593262e+00,-1.097258329391479492e+00
5.465016365051269531e+00,2.088104963302612305e+00,-1.137190937995910645e+00
7.109743118286132812e+00,2.716531515121459961e+00,-1.205469131469726562e+00
9.964592933654785156e+00,3.807328939437866211e+00,-1.309763908386230469e+00
1.053618621826171875e+01,4.025726318359375000e+00,-9.867903590202331543e-01
1.055194377899169922e+01,4.031747341156005859e+00,-5.919948220252990723e-01
1.057074928283691406e+01,4.038932323455810547e+00,-1.975226551294326782e-01
1.058193302154541016e+01,4.043205738067626953e+00,1.977316290140151978e-01
1.057392597198486328e+01,4.040146350860595703e+00,5.932281017303466797e-01
1.059572219848632812e+01,4.048474311828613281e+00,9.923663139343261719e-01
3.720915794372558594e+00,1.483078956604003906e+00,-1.073292493820190430e+00
4.458853721618652344e+00,1.777205586433410645e+00,-1.108161687850952148e+00
5.448544502258300781e+00,2.171675443649291992e+00,-1.140114784240722656e+00
7.014004230499267578e+00,2.795634984970092773e+00,-1.195898532867431641e+00
9.950054168701171875e+00,3.965882778167724609e+00,-1.315179467201232910e+00
1.052165794372558594e+01,4.193711757659912109e+00,-9.909500479698181152e-01
1.053943157196044922e+01,4.200796127319335938e+00,-5.946052670478820801e-01
1.054569625854492188e+01,4.203293323516845703e+00,-1.981584280729293823e-01
1.056716156005859375e+01,4.211848735809326172e+00,1.985617727041244507e-01
1.057923316955566406e+01,4.216660499572753906e+00,5.968507528305053711e-01
1.057970809936523438e+01,4.216849803924560547e+00,9.964173436164855957e-01
3.715205430984497070e+00,1.542782068252563477e+00,-1.077904582023620605e+00
4.422279357910156250e+00,1.836402773857116699e+00,-1.105491280555725098e+00
5.410109996795654297e+00,2.246610641479492188e+00,-1.138684511184692383e+00
7.018805980682373047e+00,2.914640426635742188e+00,-1.203707098960876465e+00
9.782055854797363281e+00,4.062111854553222656e+00,-1.300525784492492676e+00
1.050318813323974609e+01,4.361570358276367188e+00,-9.949883818626403809e-01
1.051144981384277344e+01,4.365001201629638672e+00,-5.964903831481933594e-01
1.053383827209472656e+01,4.374298095703125000e+00,-1.990917176008224487e-01
1.055245685577392578e+01,4.382029533386230469e+00,1.994436085224151611e-01
1.056977462768554688e+01,4.389221191406250000e+00,5.998001098632812500e-01
1.058690071105957031e+01,4.396332740783691406e+00,1.002918601036071777e+00
3.678175449371337891e+00,1.589500069618225098e+00,-1.073651909828186035e+00
4.371063232421875000e+00,1.888927102088928223e+00,-1.099334359169006348e+00
5.371596813201904297e+00,2.321301221847534180e+00,-1.137455105781555176e+00
6.924969673156738281e+00,2.992581367492675781e+00,-1.194837927818298340e+00
9.771286964416503906e+00,4.222599029541015625e+00,-1.306995630264282227e+00
1.049352073669433594e+01,4.534708023071289062e+00,-1.000118851661682129e+00
1.050874614715576172e+01,4.541287422180175781e+00,-5.999641418457031250e-01
1.053272247314453125e+01,4.551649093627929688e+00,-2.002814561128616333e-01
1.053120136260986328e+01,4.550991535186767578e+00,2.002525329589843750e-01
1.053443241119384766e+01,4.552387714385986328e+00,6.014306545257568359e-01
1.055708694458007812e+01,4.562177658081054688e+00,1.006177306175231934e+00
3.660418510437011719e+00,1.644391059875488281e+00,-1.075228929519653320e+00
4.330947875976562500e+00,1.945616841316223145e+00,-1.096136808395385742e+00
5.365736484527587891e+00,2.410480976104736328e+00,-1.143403053283691406e+00
6.937027931213378906e+00,3.116361379623413086e+00,-1.204491496086120605e+00
9.774523735046386719e+00,4.391066074371337891e+00,-1.315700888633728027e+00
1.047329425811767578e+01,4.704978942871093750e+00,-1.004506826400756836e+00
1.049446773529052734e+01,4.714490413665771484e+00,-6.029397845268249512e-01
1.051084613800048828e+01,4.721848487854003906e+00,-2.011300176382064819e-01
1.051596260070800781e+01,4.724146842956542969e+00,2.012279331684112549e-01
1.054152870178222656e+01,4.735632419586181641e+00,6.056436300277709961e-01
1.056446361541748047e+01,4.745935440063476562e+00,1.013250946998596191e+00
3.641764402389526367e+00,1.699062466621398926e+00,-1.076782822608947754e+00
4.339867591857910156e+00,2.024761915206909180e+00,-1.105616211891174316e+00
5.318175315856933594e+00,2.481190681457519531e+00,-1.140719175338745117e+00
6.838410377502441406e+00,3.190455198287963867e+00,-1.195174932479858398e+00
9.613077163696289062e+00,4.484973907470703125e+00,-1.302476882934570312e+00
1.349975585937500000e+01,6.298301219940185547e+00,-1.303291440010070801e+00
1.354130935668945312e+01,6.317687511444091797e+00,-7.831054329872131348e-01
1.354747486114501953e+01,6.320564270019531250e+00,-2.609418034553527832e-01
1.356570434570312500e+01,6.329068660736083984e+00,2.612929046154022217e-01
1.358036136627197266e+01,6.335906982421875000e+00,7.853638529777526855e-01
3.624058485031127930e+00,1.754390239715576172e+00,-1.078861832618713379e+00
4.301560878753662109e+00,2.082365989685058594e+00,-1.103337526321411133e+00
5.262845516204833984e+00,2.547719717025756836e+00,-1.136556744575500488e+00
6.844902992248535156e+00,3.313586473464965820e+00,-1.204475760459899902e+00
9.598340988159179688e+00,4.646513462066650391e+00,-1.309357285499572754e+00
1.349525165557861328e+01,6.532990455627441406e+00,-1.311749815940856934e+00
1.352894496917724609e+01,6.549300670623779297e+00,-7.877309918403625488e-01
1.353575229644775391e+01,6.552596092224121094e+00,-2.624956369400024414e-01
1.354571533203125000e+01,6.557419300079345703e+00,2.626888453960418701e-01
1.357358264923095703e+01,6.570909976959228516e+00,7.903300523757934570e-01
3.601833343505859375e+00,1.807711720466613770e+00,-1.079837799072265625e+00
4.260361671447753906e+00,2.138218164443969727e+00,-1.100507497787475586e+00
5.275252819061279297e+00,2.647578239440917969e+00,-1.147302627563476562e+00
6.768079757690429688e+00,3.396808147430419922e+00,-1.199390053749084473e+00
9.606889724731445312e+00,4.821568965911865234e+00,-1.319802761077880859e+00
1.349230861663818359e+01,6.771608352661132812e+00,-1.320749640464782715e+00
1.351122951507568359e+01,6.781104564666748047e+00,-7.922697663307189941e-01
1.352157783508300781e+01,6.786297798156738281e+00,-2.640774250030517578e-01
1.355001068115234375e+01,6.800567626953125000e+00,2.646327316761016846e-01
1.356234073638916016e+01,6.806756019592285156e+00,7.952668070793151855e-01
3.575036764144897461e+00,1.858786940574645996e+00,-1.079669833183288574e+00
4.228857517242431641e+00,2.198731422424316406e+00,-1.100386381149291992e+00
5.226017475128173828e+00,2.717189550399780273e+00,-1.144935846328735352e+00
6.758846759796142578e+00,3.514161348342895508e+00,-1.206544041633605957e+00
9.448945045471191406e+00,4.912837982177734375e+00,-1.307630777359008789e+00
1.348784732818603516e+01,7.012804508209228516e+00,-1.330002546310424805e+00
1.352040004730224609e+01,7.029730319976806641e+00,-7.986258268356323242e-01
1.352676200866699219e+01,7.033038139343261719e+00,-2.661174535751342773e-01
1.353799152374267578e+01,7.038876533508300781e+00,2.663383781909942627e-01
1.355247879028320312e+01,7.046409130096435547e+00,8.005206584930419922e-01
3.522526741027832031e+00,1.896014928817749023e+00,-1.071897864341735840e+00
4.205693244934082031e+00,2.263732194900512695e+00,-1.102677106857299805e+00
5.156181812286376953e+00,2.775336980819702148e+00,-1.138222455978393555e+00
6.692316532135009766e+00,3.602167844772338867e+00,-1.203748226165771484e+00
9.444501876831054688e+00,5.083542823791503906e+00,-1.316950559616088867e+00
1.347613811492919922e+01,7.253588676452636719e+00,-1.338948607444763184e+00
1.349641227722167969e+01,7.264501094818115234e+00,-8.032685518264770508e-01
1.351356601715087891e+01,7.273734569549560547e+00,-2.678786516189575195e-01
1.354166603088378906e+01,7.288859367370605469e+00,2.684356868267059326e-01
1.354028892517089844e+01,7.288117885589599609e+00,8.058799505233764648e-01
3.512133598327636719e+00,1.955759406089782715e+00,-1.077143311500549316e+00
4.180674552917480469e+00,2.328041553497314453e+00,-1.104740977287292480e+00
5.122507572174072266e+00,2.852509021759033203e+00,-1.139685273170471191e+00
6.607222557067871094e+00,3.679284095764160156e+00,-1.197792172431945801e+00
9.275888442993164062e+00,5.165351867675781250e+00,-1.303614974021911621e+00
1.346719455718994141e+01,7.499313831329345703e+00,-1.348586916923522949e+00
1.348763179779052734e+01,7.510694026947021484e+00,-8.090614080429077148e-01
1.350261878967285156e+01,7.519040107727050781e+00,-2.697674334049224854e-01
1.352367591857910156e+01,7.530766010284423828e+00,2.701881229877471924e-01
1.354670143127441406e+01,7.543587684631347656e+00,8.126047253608703613e-01
3.480140209197998047e+00,2.003727197647094727e+00,-1.076017022132873535e+00
4.137444496154785156e+00,2.382177114486694336e+00,-1.102214694023132324e+00
5.058120727539062500e+00,2.912266254425048828e+00,-1.134518146514892578e+00
6.591563701629638672e+00,3.795161962509155273e+00,-1.204677820205688477e+00
9.285356521606445312e+00,5.346141338348388672e+00,-1.315564870834350586e+00
1.344668197631835938e+01,7.742068290710449219e+00,-1.357490777969360352e+00
1.347374153137207031e+01,7.757648468017578125e+00,-8.148055076599121094e-01
1.348763561248779297e+01,7.765647888183593750e+00,-2.716609835624694824e-01
1.351349925994873047e+01,7.780539035797119141e+00,2.721818983554840088e-01
1.352564430236816406e+01,7.787531375885009766e+00,8.179441690444946289e-01
3.457650184631347656e+00,2.057223081588745117e+00,-1.078057289123535156e+00
4.116343975067138672e+00,2.449131011962890625e+00,-1.105819106101989746e+00
5.011898040771484375e+00,2.981965303421020508e+00,-1.133607864379882812e+00
6.506352424621582031e+00,3.871131420135498047e+00,-1.199108362197875977e+00
9.107272148132324219e+00,5.418619632720947266e+00,-1.301189184188842773e+00
1.307440853118896484e+01,7.778975009918212891e+00,-1.331012606620788574e+00
1.308876514434814453e+01,7.787517070770263672e+00,-7.981835603713989258e-01
1.310403633117675781e+01,7.796603202819824219e+00,-2.661551833152770996e-01
1.311669731140136719e+01,7.804136276245117188e+00,2.664123177528381348e-01
1.313456344604492188e+01,7.814766407012939453e+00,8.009764552116394043e-01
3.423017978668212891e+00,2.103527069091796875e+00,-1.076536655426025391e+00
4.071153640747070312e+00,2.501821994781494141e+00,-1.103186130523681641e+00
5.022851467132568359e+00,3.086663246154785156e+00,-1.145960927009582520e+00
6.436351299285888672e+00,3.955292940139770508e+00,-1.196518540382385254e+00
9.122694015502929688e+00,5.606115341186523438e+00,-1.314722418785095215e+00
1.266062641143798828e+01,7.780260086059570312e+00,-1.300092339515686035e+00
1.267834854125976562e+01,7.791150569915771484e+00,-7.798761725425720215e-01
1.267930603027343750e+01,7.791738986968994141e+00,-2.597671151161193848e-01
1.269940185546875000e+01,7.804088592529296875e+00,2.601788341999053955e-01
1.271768474578857422e+01,7.815323829650878906e+00,7.822958827018737793e-01
3.392998456954956055e+00,2.152578830718994141e+00,-1.076675295829772949e+00
4.017520904541015625e+00,2.548787117004394531e+00,-1.098426103591918945e+00
4.987267971038818359e+00,3.164011955261230469e+00,-1.148057341575622559e+00
6.362955570220947266e+00,4.036772727966308594e+00,-1.193493485450744629e+00
8.967129707336425781e+00,5.688907146453857422e+00,-1.303904533386230469e+00
1.226593303680419922e+01,7.781727313995361328e+00,-1.270869612693786621e+00
1.229172515869140625e+01,7.798089981079101562e+00,-7.628817558288574219e-01
1.230289745330810547e+01,7.805178165435791016e+00,-2.543182373046875000e-01
1.231886196136474609e+01,7.815306663513183594e+00,2.546482682228088379e-01
1.234726428985595703e+01,7.833325386047363281e+00,7.663288116455078125e-01
3.350697517395019531e+00,2.193622112274169922e+00,-1.073105692863464355e+00
3.982083559036254883e+00,2.606975555419921875e+00,-1.098826885223388672e+00
4.928432941436767578e+00,3.226527929306030273e+00,-1.145027518272399902e+00
6.362530708312988281e+00,4.165397644042968750e+00,-1.204473376274108887e+00
8.969161033630371094e+00,5.871896743774414062e+00,-1.316286444664001465e+00
1.189836788177490234e+01,7.789579391479492188e+00,-1.244210958480834961e+00
1.192195510864257812e+01,7.805020809173583984e+00,-7.467892169952392578e-01
1.194996643066406250e+01,7.823359489440917969e+00,-2.493118792772293091e-01
1.195920085906982422e+01,7.829404830932617188e+00,2.495045363903045654e-01
1.196776390075683594e+01,7.835011005401611328e+00,7.496587634086608887e-01
3.334290981292724609e+00,2.251706361770629883e+00,-1.078062772750854492e+00
3.950878381729125977e+00,2.668098926544189453e+00,-1.100641489028930664e+00
4.843284606933593750e+00,3.270756959915161133e+00,-1.136005401611328125e+00
6.278527259826660156e+00,4.240002155303955078e+00,-1.199936985969543457e+00
8.828834533691406250e+00,5.962269783020019531e+00,-1.308082818984985352e+00
1.157339000701904297e+01,7.815718173980712891e+00,-1.221801161766052246e+00
1.157468700408935547e+01,7.816593647003173828e+00,-7.319697737693786621e-01
1.158491325378417969e+01,7.823499679565429688e+00,-2.440070658922195435e-01
1.161103725433349609e+01,7.841141700744628906e+00,2.445573061704635620e-01
1.161981391906738281e+01,7.847068786621093750e+00,7.348235845565795898e-01
3.294646978378295898e+00,2.294268608093261719e+00,-1.075752377510070801e+00
3.892750740051269531e+00,2.710765838623046875e+00,-1.095145106315612793e+00
4.791115760803222656e+00,3.336353540420532227e+00,-1.134853839874267578e+00
6.224262237548828125e+00,4.334342956542968750e+00,-1.201299667358398438e+00
8.689082145690917969e+00,6.050750732421875000e+00,-1.300075650215148926e+00
1.123531913757324219e+01,7.823854923248291016e+00,-1.197810649871826172e+00
1.126667690277099609e+01,7.845691204071044922e+00,-7.195194959640502930e-01
1.126521492004394531e+01,7.844673633575439453e+00,-2.396138757467269897e-01
1.128694248199462891e+01,7.859804153442382812e+00,2.400760203599929810e-01
1.129294490814208984e+01,7.863983154296875000e+00,7.211970686912536621e-01
3.251438856124877930e+00,2.333983182907104492e+00,-1.072442412376403809e+00
3.874300956726074219e+00,2.781092643737792969e+00,-1.101040720939636230e+00
4.748388767242431641e+00,3.408540010452270508e+00,-1.136173129081726074e+00
6.155612468719482422e+00,4.418688297271728516e+00,-1.200134038925170898e+00
8.682733535766601562e+00,6.232734203338623047e+00,-1.312339544296264648e+00
1.091133499145507812e+01,7.832492828369140625e+00,-1.175102114677429199e+00
1.092503356933593750e+01,7.842326641082763672e+00,-7.047977447509765625e-01
1.093696498870849609e+01,7.850891113281250000e+00,-2.349980473518371582e-01
1.094072437286376953e+01,7.853589534759521484e+00,2.350788265466690063e-01
1.096248340606689453e+01,7.869208812713623047e+00,7.072136998176574707e-01
3.225857973098754883e+00,2.386312007904052734e+00,-1.075160741806030273e+00
3.811436176300048828e+00,2.819490432739257812e+00,-1.094532012939453125e+00
4.721436500549316406e+00,3.492658615112304688e+00,-1.141569018363952637e+00
6.089697837829589844e+00,4.504823207855224609e+00,-1.199731349945068359e+00
8.548162460327148438e+00,6.323460102081298828e+00,-1.305546283721923828e+00
1.060611057281494141e+01,7.845816612243652344e+00,-1.154206991195678711e+00
1.060670280456542969e+01,7.846254825592041016e+00,-6.914358735084533691e-01
1.062433052062988281e+01,7.859294414520263672e+00,-2.306740731000900269e-01
1.063967800140380859e+01,7.870647907257080078e+00,2.310072928667068481e-01
1.064838600158691406e+01,7.877089500427246094e+00,6.941531300544738770e-01
1.065107631683349609e+01,7.879079341888427734e+00,1.159100294113159180e+00
3.185325145721435547e+00,2.427625417709350586e+00,-1.073122739791870117e+00
3.795271158218383789e+00,2.892482519149780273e+00,-1.101666331291198730e+00
4.665913581848144531e+00,3.556023597717285156e+00,-1.140334248542785645e+00
6.016939640045166016e+00,4.585678577423095703e+00,-1.198205709457397461e+00
8.422109603881835938e+00,6.418725967407226562e+00,-1.300193071365356445e+00
1.029575634002685547e+01,7.846684455871582031e+00,-1.132539153099060059e+00
1.030838775634765625e+01,7.856311798095703125e+00,-6.792501211166381836e-01
1.033275318145751953e+01,7.874880790710449219e+00,-2.267674505710601807e-01
1.033018970489501953e+01,7.872927188873291016e+00,2.267111837863922119e-01
1.034534358978271484e+01,7.884476184844970703e+00,6.816852092742919922e-01
1.036760330200195312e+01,7.901441097259521484e+00,1.140442371368408203e+00
3.159409999847412109e+00,2.480152130126953125e+00,-1.076241374015808105e+00
3.743468523025512695e+00,2.938641071319580078e+00,-1.098726391792297363e+00
4.601205348968505859e+00,3.611968755722045898e+00,-1.137038469314575195e+00
5.952824115753173828e+00,4.672996044158935547e+00,-1.198634743690490723e+00
8.414529800415039062e+00,6.605446815490722656e+00,-1.313484311103820801e+00
1.000826454162597656e+01,7.856536388397216797e+00,-1.113170981407165527e+00
1.001771831512451172e+01,7.863957881927490234e+00,-6.674456000328063965e-01
1.003190612792968750e+01,7.875095367431640625e+00,-2.226159274578094482e-01
1.004167270660400391e+01,7.882761955261230469e+00,2.228326499462127686e-01
1.004656410217285156e+01,7.886601448059082031e+00,6.693674921989440918e-01
1.007471179962158203e+01,7.908697605133056641e+00,1.120561480522155762e+00
3.124555349349975586e+00,2.525895595550537109e+00,-1.076573848724365234e+00
3.703578948974609375e+00,2.993979454040527344e+00,-1.099483966827392578e+00
4.555518627166748047e+00,3.682688713073730469e+00,-1.138657927513122559e+00
5.878845214843750000e+00,4.752468109130859375e+00,-1.197313070297241211e+00
8.285124778747558594e+00,6.697708606719970703e+00,-1.308115243911743164e+00
9.741453170776367188e+00,7.875006675720214844e+00,-1.095919609069824219e+00
9.753777503967285156e+00,7.884969711303710938e+00,-6.573123335838317871e-01
9.758960723876953125e+00,7.889160156250000000e+00,-2.190424352884292603e-01
9.773725509643554688e+00,7.901095867156982422e+00,2.193738222122192383e-01
9.775264739990234375e+00,7.902339935302734375e+00,6.587603688240051270e-01
9.806104660034179688e+00,7.927271366119384766e+00,1.103193044662475586e+00
3.077575445175170898e+00,2.561608314514160156e+00,-1.072910070419311523e+00
3.671716451644897461e+00,3.056139230728149414e+00,-1.102898120880126953e+00
4.514529705047607422e+00,3.757651567459106445e+00,-1.141739368438720703e+00
5.818665981292724609e+00,4.843144416809082031e+00,-1.199052333831787109e+00
8.170733451843261719e+00,6.800878524780273438e+00,-1.305289864540100098e+00
9.452870368957519531e+00,7.868061065673828125e+00,-1.076013445854187012e+00
9.457118034362792969e+00,7.871595859527587891e+00,-6.448470950126647949e-01
9.478798866271972656e+00,7.889642238616943359e+00,-2.152667641639709473e-01
9.477011680603027344e+00,7.888154506683349609e+00,2.152261734008789062e-01
9.489490509033203125e+00,7.898541450500488281e+00,6.470544934272766113e-01
9.503768920898437500e+00,7.910426139831542969e+00,1.081807136535644531e+00
3.057215452194213867e+00,2.619630575180053711e+00,-1.078773617744445801e+00
3.613334894180297852e+00,3.096151828765869141e+00,-1.098560929298400879e+00
4.450726032257080078e+00,3.813685655593872070e+00,-1.139291763305664062e+00
5.760806083679199219e+00,4.936251163482666016e+00,-1.201565861701965332e+00
8.036067962646484375e+00,6.885850906372070312e+00,-1.299389004707336426e+00
9.193891525268554688e+00,7.877952575683593750e+00,-1.059260964393615723e+00
9.213194847106933594e+00,7.894493579864501953e+00,-6.358546614646911621e-01
9.211504936218261719e+00,7.893045425415039062e+00,-2.117404788732528687e-01
9.238767623901367188e+00,7.916405677795410156e+00,2.123671472072601318e-01
9.240585327148437500e+00,7.917963504791259766e+00,6.377450227737426758e-01
9.248830795288085938e+00,7.925028800964355469e+00,1.065590739250183105e+00
3.008499860763549805e+00,2.653494358062744141e+00,-1.074875593185424805e+00
3.571747779846191406e+00,3.150278568267822266e+00,-1.099513649940490723e+00
4.414143562316894531e+00,3.893270969390869141e+00,-1.144075036048889160e+00
5.696525573730468750e+00,5.024330615997314453e+00,-1.203035235404968262e+00
7.936379909515380859e+00,6.999880313873291016e+00,-1.299337506294250488e+00
8.946310043334960938e+00,7.890637874603271484e+00,-1.043641924858093262e+00
8.958289146423339844e+00,7.901203632354736328e+00,-6.260032653808593750e-01
8.956274986267089844e+00,7.899426460266113281e+00,-2.084513157606124878e-01
8.968787193298339844e+00,7.910461902618408203e+00,2.087425291538238525e-01
8.986405372619628906e+00,7.926001548767089844e+00,6.279680132865905762e-01
8.994772911071777344e+00,7.933382034301757812e+00,1.049295306205749512e+00
2.968169212341308594e+00,2.694423198699951172e+00,-1.074135303497314453e+00
3.539537668228149414e+00,3.213095903396606445e+00,-1.103642702102661133e+00
4.332095623016357422e+00,3.932558298110961914e+00,-1.137282013893127441e+00
5.582901000976562500e+00,5.068005084991455078e+00,-1.194236397743225098e+00
7.925067901611328125e+00,7.194160461425781250e+00,-1.314209580421447754e+00
8.699666976928710938e+00,7.897320270538330078e+00,-1.027950644493103027e+00
8.703563690185546875e+00,7.900857925415039062e+00,-6.160426139831542969e-01
8.722292900085449219e+00,7.917859554290771484e+00,-2.056222110986709595e-01
8.741429328918457031e+00,7.935230731964111328e+00,2.060733288526535034e-01
8.739651679992675781e+00,7.933618068695068359e+00,6.185969710350036621e-01
8.746971130371093750e+00,7.940261840820312500e+00,1.033540129661560059e+00
2.936506271362304688e+00,2.743357419967651367e+00,-1.076776742935180664e+00
3.479249238967895508e+00,3.250401496887207031e+00,-1.099238514900207520e+00
4.276681900024414062e+00,3.995382785797119141e+00,-1.137631177902221680e+00
5.532918930053710938e+00,5.168990612030029297e+00,-1.199248313903808594e+00
7.815714359283447266e+00,7.301635265350341797e+00,-1.313272118568420410e+00
8.463331222534179688e+00,7.906655311584472656e+00,-1.013293862342834473e+00
8.454867362976074219e+00,7.898747444152832031e+00,-6.063799858093261719e-01
8.478502273559570312e+00,7.920827865600585938e+00,-2.025269716978073120e-01
8.490036010742187500e+00,7.931603431701660156e+00,2.028025090694427490e-01
8.500746726989746094e+00,7.941609859466552734e+00,6.096704602241516113e-01
8.523711204528808594e+00,7.963063240051269531e+00,1.020522952079772949e+00
2.885648965835571289e+00,2.774245977401733398e+00,-1.072578907012939453e+00
3.433234214782714844e+00,3.300691127777099609e+00,-1.099514245986938477e+00
4.236596584320068359e+00,4.073039054870605469e+00,-1.142359256744384766e+00
5.466786861419677734e+00,5.255736827850341797e+00,-1.201096653938293457e+00
7.706349849700927734e+00,7.408839702606201172e+00,-1.312580108642578125e+00
8.218815803527832031e+00,7.901521205902099609e+00,-9.974574446678161621e-01
8.236989021301269531e+00,7.918992996215820312e+00,-5.988217592239379883e-01
8.251280784606933594e+00,7.932733058929443359e+00,-1.997911185026168823e-01
8.248808860778808594e+00,7.930356502532958984e+00,1.997312605381011963e-01
8.252345085144042969e+00,7.933755874633789062e+00,5.999381542205810547e-01
8.279221534729003906e+00,7.959594726562500000e+00,1.004788398742675781e+00
2.841713190078735352e+00,2.811367988586425781e+00,-1.071095705032348633e+00
3.393390417098999023e+00,3.357154369354248047e+00,-1.102030277252197266e+00
4.169930458068847656e+00,4.125401973724365234e+00,-1.140188455581665039e+00
5.357955932617187500e+00,5.300741195678710938e+00,-1.193733096122741699e+00
7.590845108032226562e+00,7.509786605834960938e+00,-1.311080932617187500e+00
7.996098041534423828e+00,7.910711765289306641e+00,-9.840688705444335938e-01
8.021136283874511719e+00,7.935482978820800781e+00,-5.913263559341430664e-01
8.010941505432128906e+00,7.925396442413330078e+00,-1.966982930898666382e-01
8.029930114746093750e+00,7.944182395935058594e+00,1.971645355224609375e-01
8.037116050720214844e+00,7.951292037963867188e+00,5.925043821334838867e-01
8.052607536315917969e+00,7.966618537902832031e+00,9.910234212875366211e-01
2.816594362258911133e+00,2.867437362670898438e+00,-1.076987504959106445e+00
3.331881523132324219e+00,3.392026185989379883e+00,-1.097709774971008301e+00
4.114769935607910156e+00,4.189046382904052734e+00,-1.141383767127990723e+00
5.308662891387939453e+00,5.404490947723388672e+00,-1.199862718582153320e+00
7.482511997222900391e+00,7.617580413818359375e+00,-1.311067581176757812e+00
7.792730331420898438e+00,7.933398723602294922e+00,-9.729160070419311523e-01
7.797350883483886719e+00,7.938102245330810547e+00,-5.831452608108520508e-01
7.802861690521240234e+00,7.943713188171386719e+00,-1.943610757589340210e-01
7.809859275817871094e+00,7.950836658477783203e+00,1.945353746414184570e-01
7.825801372528076172e+00,7.967066764831542969e+00,5.852730274200439453e-01
7.829535007476806641e+00,7.970867633819580078e+00,9.775109887123107910e-01
2.771856546401977539e+00,2.903881549835205078e+00,-1.075663924217224121e+00
3.300201654434204102e+00,3.457392215728759766e+00,-1.103463530540466309e+00
4.038836956024169922e+00,4.231209278106689453e+00,-1.137004137039184570e+00
5.206417560577392578e+00,5.454401969909667969e+00,-1.194276571273803711e+00
7.397097587585449219e+00,7.749425888061523438e+00,-1.315402150154113770e+00
7.569213390350341797e+00,7.929739475250244141e+00,-9.590824842453002930e-01
7.572572708129882812e+00,7.933259010314941406e+00,-5.747680664062500000e-01
7.586293220520019531e+00,7.947632789611816406e+00,-1.917805373668670654e-01
7.604913711547851562e+00,7.967140197753906250e+00,1.922512650489807129e-01
7.598955154418945312e+00,7.960897922515869141e+00,5.767705440521240234e-01
7.612447738647460938e+00,7.975032806396484375e+00,9.645606279373168945e-01
2.723329067230224609e+00,2.936049699783325195e+00,-1.073030591011047363e+00
3.234880447387695312e+00,3.487558841705322266e+00,-1.098201155662536621e+00
3.992164373397827148e+00,4.303994655609130859e+00,-1.141090869903564453e+00
5.156507015228271484e+00,5.559284687042236328e+00,-1.200957655906677246e+00
7.192861080169677734e+00,7.754699230194091797e+00,-1.298688530921936035e+00
7.363676548004150391e+00,7.938857078552246094e+00,-9.473403692245483398e-01
7.362278938293457031e+00,7.937350273132324219e+00,-5.673716068267822266e-01
7.380181312561035156e+00,7.956651687622070312e+00,-1.894297003746032715e-01
7.383355617523193359e+00,7.960073471069335938e+00,1.895111799240112305e-01
7.405799388885498047e+00,7.984270572662353516e+00,5.707255005836486816e-01
7.401391029357910156e+00,7.979517459869384766e+00,9.521923661231994629e-01
2.683658361434936523e+00,2.977642297744750977e+00,-1.074082851409912109e+00
3.191715002059936523e+00,3.541354656219482422e+00,-1.100642561912536621e+00
3.934930801391601562e+00,4.365986347198486328e+00,-1.142477035522460938e+00
5.058358669281005859e+00,5.612481117248535156e+00,-1.196686029434204102e+00
7.097949981689453125e+00,7.875501632690429688e+00,-1.301771640777587891e+00
7.150381565093994141e+00,7.933677196502685547e+00,-9.344135522842407227e-01
7.168533802032470703e+00,7.953817844390869141e+00,-5.611568093299865723e-01
7.171540737152099609e+00,7.957153797149658203e+00,-1.869786679744720459e-01
7.181867599487304688e+00,7.968612194061279297e+00,1.872479170560836792e-01
7.192364692687988281e+00,7.980259418487548828e+00,5.630223155021667480e-01
7.198537349700927734e+00,7.987107753753662109e+00,9.407064914703369141e-01
2.635195016860961914e+00,3.009382009506225586e+00,-1.071816325187683105e+00
3.139053106307983398e+00,3.584785938262939453e+00,-1.100063920021057129e+00
3.855809688568115234e+00,4.403318881988525391e+00,-1.137687563896179199e+00
4.976159572601318359e+00,5.682754039764404297e+00,-1.196360349655151367e+00
6.950018882751464844e+00,7.936893463134765625e+00,-1.295343399047851562e+00
6.951943397521972656e+00,7.939091205596923828e+00,-9.232369661331176758e-01
6.969408035278320312e+00,7.959035873413085938e+00,-5.544301271438598633e-01
6.975759029388427734e+00,7.966288566589355469e+00,-1.848281472921371460e-01
6.976478576660156250e+00,7.967110157012939453e+00,1.848472058773040771e-01
6.992665290832519531e+00,7.985595226287841797e+00,5.562803149223327637e-01
6.988679409027099609e+00,7.981043815612792969e+00,9.281156659126281738e-01
2.603766918182373047e+00,3.060791492462158203e+00,-1.076742291450500488e+00
3.088711738586425781e+00,3.630856037139892578e+00,-1.100521922111511230e+00
3.794270277023315430e+00,4.460257530212402344e+00,-1.138250350952148438e+00
4.872339725494384766e+00,5.727554321289062500e+00,-1.190987825393676758e+00
6.750347614288330078e+00,7.935198783874511719e+00,-1.279166817665100098e+00
6.766494274139404297e+00,7.954179763793945312e+00,-9.136350750923156738e-01
6.774281024932861328e+00,7.963332653045654297e+00,-5.479187965393066406e-01
6.781264305114746094e+00,7.971541881561279297e+00,-1.826793253421783447e-01
6.783866405487060547e+00,7.974600791931152344e+00,1.827494204044342041e-01
6.800208568572998047e+00,7.993811130523681641e+00,5.500158667564392090e-01
6.807665348052978516e+00,8.002576828002929688e+00,9.191941618919372559e-01
