1.186379790306091309e+00,9.313139319419860840e-01,1.851905435323715210e-01
1.174703598022460938e+00,9.221480488777160645e-01,2.365331947803497314e-01
1.187114953994750977e+00,9.318910241127014160e-01,2.933569252490997314e-01
1.181344151496887207e+00,9.273609519004821777e-01,3.467303216457366943e-01
1.132536053657531738e+00,9.155439734458923340e-01,-3.902182877063751221e-01
1.136110186576843262e+00,9.184333682060241699e-01,-3.372777700424194336e-01
1.128198623657226562e+00,9.120376706123352051e-01,-2.819947600364685059e-01
1.131023168563842773e+00,9.143210053443908691e-01,-2.303494662046432495e-01
1.134979486465454102e+00,9.175192117691040039e-01,-1.791987419128417969e-01
1.135938167572021484e+00,9.182942509651184082e-01,-1.277937591075897217e-01
1.132539749145507812e+00,9.155469536781311035e-01,-7.632246613502502441e-02
1.135605216026306152e+00,9.180250763893127441e-01,-2.548895403742790222e-02
1.144177794456481934e+00,9.249551892280578613e-01,2.568136900663375854e-02
1.139452576637268066e+00,9.211353063583374023e-01,7.678832113742828369e-02
1.135306239128112793e+00,9.177834391593933105e-01,1.277226805686950684e-01
1.136783242225646973e+00,9.189774394035339355e-01,1.794835329055786133e-01
1.141666769981384277e+00,9.229253530502319336e-01,2.325171977281570435e-01
1.163903355598449707e+00,9.409013986587524414e-01,2.909191846847534180e-01
1.149328947067260742e+00,9.291194081306457520e-01,3.412020504474639893e-01
1.091058492660522461e+00,9.081383943557739258e-01,-3.803668618202209473e-01
1.098903894424438477e+00,9.146684408187866211e-01,-3.300851285457611084e-01
1.097183823585510254e+00,9.132367968559265137e-01,-2.774813771247863770e-01
1.095295310020446777e+00,9.116648435592651367e-01,-2.257074713706970215e-01
1.109804749488830566e+00,9.237418174743652344e-01,-1.772933900356292725e-01
1.117742657661437988e+00,9.303488731384277344e-01,-1.272318363189697266e-01
1.091776490211486816e+00,9.087359905242919922e-01,-7.444434612989425659e-02
1.107472300529479980e+00,9.218003153800964355e-01,-2.515107393264770508e-02
1.093694329261779785e+00,9.103323221206665039e-01,2.483817189931869507e-02
1.098209857940673828e+00,9.140908122062683105e-01,7.488301396369934082e-02
1.094426751136779785e+00,9.109418988227844238e-01,1.245778053998947144e-01
1.105191230773925781e+00,9.199016690254211426e-01,1.765563637018203735e-01
1.111617803573608398e+00,9.252508878707885742e-01,2.290710508823394775e-01
1.118231415748596191e+00,9.307556748390197754e-01,2.828043997287750244e-01
1.121552586555480957e+00,9.335200786590576172e-01,3.368883132934570312e-01
1.056639671325683594e+00,9.054009318351745605e-01,-3.728474378585815430e-01
1.055377840995788574e+00,9.043196439743041992e-01,-3.208661377429962158e-01
1.055369138717651367e+00,9.043121933937072754e-01,-2.701521813869476318e-01
1.064545512199401855e+00,9.121751785278320312e-01,-2.220386564731597900e-01
1.060166716575622559e+00,9.084231853485107422e-01,-1.714232712984085083e-01
1.065442085266113281e+00,9.129434227943420410e-01,-1.227533817291259766e-01
1.070842385292053223e+00,9.175707697868347168e-01,-7.390488684177398682e-02
1.067595958709716797e+00,9.147890210151672363e-01,-2.454032190144062042e-02
1.065675139427185059e+00,9.131431579589843750e-01,2.449616789817810059e-02
1.066299557685852051e+00,9.136781096458435059e-01,7.359135895967483521e-02
1.071564674377441406e+00,9.181897044181823730e-01,1.234587877988815308e-01
1.073055267333984375e+00,9.194669127464294434e-01,1.735072731971740723e-01
1.082763910293579102e+00,9.277858734130859375e-01,2.258385568857192993e-01
1.078557491302490234e+00,9.241815805435180664e-01,2.760879099369049072e-01
1.084702968597412109e+00,9.294474720954895020e-01,3.297818601131439209e-01
1.029819965362548828e+00,9.083002805709838867e-01,-3.679336309432983398e-01
1.023813366889953613e+00,9.030024409294128418e-01,-3.151669204235076904e-01
1.032553911209106445e+00,9.107116460800170898e-01,-2.676213383674621582e-01
1.032904744148254395e+00,9.110210537910461426e-01,-2.181365936994552612e-01
1.033737301826477051e+00,9.117553830146789551e-01,-1.692426055669784546e-01
1.028788566589355469e+00,9.073905944824218750e-01,-1.200144812464714050e-01
1.028982877731323242e+00,9.075620174407958984e-01,-7.190509140491485596e-02
1.036742329597473145e+00,9.144058823585510254e-01,-2.412948571145534515e-02
1.041386485099792480e+00,9.185019731521606445e-01,2.423757500946521759e-02
1.034273386001586914e+00,9.122282266616821289e-01,7.227479666471481323e-02
1.040898561477661133e+00,9.180716276168823242e-01,1.214271932840347290e-01
1.031306266784667969e+00,9.096112251281738281e-01,1.688445955514907837e-01
1.047184228897094727e+00,9.236155748367309570e-01,2.211522459983825684e-01
1.048864245414733887e+00,9.250974059104919434e-01,2.718487381935119629e-01
1.046409845352172852e+00,9.229326248168945312e-01,3.221229612827301025e-01
9.937298893928527832e-01,9.020808935165405273e-01,-3.596157133579254150e-01
9.953112006187438965e-01,9.035163521766662598e-01,-3.103422224521636963e-01
1.000186920166015625e+00,9.079424142837524414e-01,-2.625737488269805908e-01
1.002449870109558105e+00,9.099966883659362793e-01,-2.144337147474288940e-01
9.997162222862243652e-01,9.075151085853576660e-01,-1.657823771238327026e-01
1.003275513648986816e+00,9.107461571693420410e-01,-1.185468062758445740e-01
9.986002445220947266e-01,9.065021276473999023e-01,-7.068143039941787720e-02
9.919515252113342285e-01,9.004665613174438477e-01,-2.338459342718124390e-02
1.007437229156494141e+00,9.145240783691406250e-01,2.374965697526931763e-02
9.982996582984924316e-01,9.062291979789733887e-01,7.066015154123306274e-02
1.010509729385375977e+00,9.173131585121154785e-01,1.194016039371490479e-01
1.014653325080871582e+00,9.210746288299560547e-01,1.682593971490859985e-01
1.002446889877319336e+00,9.099938869476318359e-01,2.144330590963363647e-01
1.003696084022521973e+00,9.111279249191284180e-01,2.634949982166290283e-01
1.008242726325988770e+00,9.152553081512451172e-01,3.143743276596069336e-01
9.618570804595947266e-01,8.985908627510070801e-01,-3.526998460292816162e-01
9.631307125091552734e-01,8.997807502746582031e-01,-3.042927682399749756e-01
9.768301248550415039e-01,9.125790596008300781e-01,-2.598445415496826172e-01
9.584683179855346680e-01,8.954250216484069824e-01,-2.077459543943405151e-01
9.736323952674865723e-01,9.095916152000427246e-01,-1.635991632938385010e-01
9.720349907875061035e-01,9.080992937088012695e-01,-1.163793653249740601e-01
9.691516757011413574e-01,9.054056406021118164e-01,-6.950720399618148804e-02
9.755839705467224121e-01,9.114148616790771484e-01,-2.330389060080051422e-02
9.812866449356079102e-01,9.167423844337463379e-01,2.344010956585407257e-02
9.720423817634582520e-01,9.081062078475952148e-01,6.971452385187149048e-02
9.808535575866699219e-01,9.163378477096557617e-01,1.174351871013641357e-01
9.852678775787353516e-01,9.204618334770202637e-01,1.655542701482772827e-01
9.668870568275451660e-01,9.032899737358093262e-01,2.095706909894943237e-01
9.745548367500305176e-01,9.104534387588500977e-01,2.592392861843109131e-01
9.724469780921936035e-01,9.084842205047607422e-01,3.072361648082733154e-01
9.328544735908508301e-01,8.968408107757568359e-01,-3.467365801334381104e-01
9.461315274238586426e-01,9.096052646636962891e-01,-3.030043840408325195e-01
9.365324378013610840e-01,9.003767967224121094e-01,-2.525273561477661133e-01
9.400755763053894043e-01,9.037831425666809082e-01,-2.065421193838119507e-01
9.421457648277282715e-01,9.057734012603759766e-01,-1.604705005884170532e-01
9.337955713272094727e-01,8.977456092834472656e-01,-1.133279278874397278e-01
9.447820782661437988e-01,9.083079695701599121e-01,-6.868481636047363281e-02
9.503360390663146973e-01,9.136474728584289551e-01,-2.301081642508506775e-02
9.394224882125854492e-01,9.031552672386169434e-01,2.274656295776367188e-02
9.473524689674377441e-01,9.107791185379028320e-01,6.887167692184448242e-02
9.448395967483520508e-01,9.083632230758666992e-01,1.146682575345039368e-01
9.488806724548339844e-01,9.122483134269714355e-01,1.616176068782806396e-01
9.443708658218383789e-01,9.079126119613647461e-01,2.074858248233795166e-01
9.479576945304870605e-01,9.113609790802001953e-01,2.556080520153045654e-01
9.512715935707092285e-01,9.145469665527343750e-01,3.046505451202392578e-01
9.067342281341552734e-01,8.970516920089721680e-01,-3.417653441429138184e-01
9.064350724220275879e-01,8.967556953430175781e-01,-2.943719029426574707e-01
9.107687473297119141e-01,9.010431170463562012e-01,-2.490324676036834717e-01
9.084573984146118164e-01,8.987564444541931152e-01,-2.024009972810745239e-01
9.144033193588256836e-01,9.046388864517211914e-01,-1.579345464706420898e-01
9.059696793556213379e-01,8.962953090667724609e-01,-1.114964485168457031e-01
9.132435917854309082e-01,9.034915566444396973e-01,-6.732524931430816650e-02
9.118310809135437012e-01,9.020941257476806641e-01,-2.238883264362812042e-02
9.202914834022521973e-01,9.104641675949096680e-01,2.259656786918640137e-02
9.098884463310241699e-01,9.001722335815429688e-01,6.707790493965148926e-02
9.246638417243957520e-01,9.147898554801940918e-01,1.137971132993698120e-01
9.112428426742553711e-01,9.015121459960937500e-01,1.573886722326278687e-01
9.306073784828186035e-01,9.206699132919311523e-01,2.073359340429306030e-01
9.217627644538879395e-01,9.119197130203247070e-01,2.520385682582855225e-01
9.165151715278625488e-01,9.067281484603881836e-01,2.976455092430114746e-01
8.839840292930603027e-01,8.999410271644592285e-01,-3.380109369754791260e-01
8.836700916290283203e-01,8.996214270591735840e-01,-2.911308109760284424e-01
8.841454982757568359e-01,9.001054167747497559e-01,-2.452505081892013550e-01
8.812424540519714355e-01,8.971499204635620117e-01,-1.991782039403915405e-01
8.829589486122131348e-01,8.988974094390869141e-01,-1.547099202871322632e-01
8.841750025749206543e-01,9.001354575157165527e-01,-1.103885248303413391e-01
8.894218802452087402e-01,9.054770469665527344e-01,-6.651774048805236816e-02
8.694519400596618652e-01,8.851466178894042969e-01,-2.165713347494602203e-02
8.846858739852905273e-01,9.006555676460266113e-01,2.203659527003765106e-02
8.857837319374084473e-01,9.017732143402099609e-01,6.624565273523330688e-02
8.831986188888549805e-01,8.991414308547973633e-01,1.102666258811950684e-01
8.906638026237487793e-01,9.067413806915283203e-01,1.560599505901336670e-01
8.851999044418334961e-01,9.011788368225097656e-01,2.000726759433746338e-01
8.953437805175781250e-01,9.115058183670043945e-01,2.483567595481872559e-01
8.962603211402893066e-01,9.124388694763183594e-01,2.952787280082702637e-01
8.573069572448730469e-01,8.981409668922424316e-01,-3.326918780803680420e-01
8.602234125137329102e-01,9.011963605880737305e-01,-2.876264154911041260e-01
8.563797473907470703e-01,8.971695899963378906e-01,-2.410860508680343628e-01
8.551067113876342773e-01,8.958359360694885254e-01,-1.961490660905838013e-01
8.528775572776794434e-01,8.935006260871887207e-01,-1.516644805669784546e-01
8.529154658317565918e-01,8.935403227806091309e-01,-1.080715060234069824e-01
8.593115806579589844e-01,9.002410769462585449e-01,-6.522285938262939453e-02
8.651357889175415039e-01,9.063427448272705078e-01,-2.187052369117736816e-02
8.687815666198730469e-01,9.101621508598327637e-01,2.196268737316131592e-02
8.579269647598266602e-01,8.987905383110046387e-01,6.511776894330978394e-02
8.658174872398376465e-01,9.070568680763244629e-01,1.097062975168228149e-01
8.613879084587097168e-01,9.024162888526916504e-01,1.531778424978256226e-01
8.616251349449157715e-01,9.026648402214050293e-01,1.976443082094192505e-01
8.634192347526550293e-01,9.045444130897521973e-01,2.430677860975265503e-01
8.587762713432312012e-01,8.996803164482116699e-01,2.871425449848175049e-01
8.250867724418640137e-01,8.895347714424133301e-01,-3.250960111618041992e-01
8.325691223144531250e-01,8.976015448570251465e-01,-2.826467156410217285e-01
8.264001607894897461e-01,8.909506797790527344e-01,-2.362121343612670898e-01
8.271090984344482422e-01,8.917150497436523438e-01,-1.926348656415939331e-01
8.237483501434326172e-01,8.880918025970458984e-01,-1.487297713756561279e-01
8.294373154640197754e-01,8.942251205444335938e-01,-1.067074984312057495e-01
8.325117230415344238e-01,8.975396752357482910e-01,-6.415724009275436401e-02
8.310629725456237793e-01,8.959777355194091797e-01,-2.133118361234664917e-02
8.236832618713378906e-01,8.880215883255004883e-01,2.114176750183105469e-02
8.279052376747131348e-01,8.925733566284179688e-01,6.380224972963333130e-02
8.486896157264709473e-01,9.149811863899230957e-01,1.091843098402023315e-01
8.335824608802795410e-01,8.986940383911132812e-01,1.505053341388702393e-01
8.422772288322448730e-01,9.080679416656494141e-01,1.961675286293029785e-01
8.398930430412292480e-01,9.054975509643554688e-01,2.400688529014587402e-01
8.440311551094055176e-01,9.099588990211486816e-01,2.865379452705383301e-01
7.979393005371093750e-01,8.853503465652465820e-01,-3.193599283695220947e-01
8.065673708915710449e-01,8.949235677719116211e-01,-2.781396210193634033e-01
8.008760213851928711e-01,8.886087536811828613e-01,-2.325282096862792969e-01
8.077425360679626465e-01,8.962274789810180664e-01,-1.910924762487411499e-01
8.027589321136474609e-01,8.906979560852050781e-01,-1.472268551588058472e-01
8.067177534103393555e-01,8.950904607772827148e-01,-1.054220646619796753e-01
8.074864745140075684e-01,8.959433436393737793e-01,-6.321048736572265625e-02
8.133111596107482910e-01,9.024061560630798340e-01,-2.120490558445453644e-02
7.970845103263854980e-01,8.844018578529357910e-01,2.078183740377426147e-02
8.054195642471313477e-01,8.936500549316406250e-01,6.304869055747985840e-02
8.042092919349670410e-01,8.923071622848510742e-01,1.050942540168762207e-01
8.040188550949096680e-01,8.920958638191223145e-01,1.474579274654388428e-01
8.088543415069580078e-01,8.974610567092895508e-01,1.913554966449737549e-01
8.116101622581481934e-01,9.005187749862670898e-01,2.356447875499725342e-01
8.127642869949340820e-01,9.017993211746215820e-01,2.802765667438507080e-01
7.679967880249023438e-01,8.770492076873779297e-01,-3.123683333396911621e-01
7.797095179557800293e-01,8.904251456260681152e-01,-2.732449173927307129e-01
7.840461134910583496e-01,8.953775167465209961e-01,-2.313390970230102539e-01
7.822974324226379395e-01,8.933805227279663086e-01,-1.880786865949630737e-01
7.894341945648193359e-01,9.015306830406188965e-01,-1.471346169710159302e-01
7.886368632316589355e-01,9.006201028823852539e-01,-1.047331169247627258e-01
7.898002862930297852e-01,9.019486904144287109e-01,-6.283016502857208252e-02
7.803226709365844727e-01,8.911253213882446289e-01,-2.067525498569011688e-02
7.840389013290405273e-01,8.953692913055419922e-01,2.077371999621391296e-02
7.884182333946228027e-01,9.003704786300659180e-01,6.272022426128387451e-02
7.942147850990295410e-01,9.069901108741760254e-01,1.054738834500312805e-01
7.812598347663879395e-01,8.921955823898315430e-01,1.456110924482345581e-01
7.894373536109924316e-01,9.015342593193054199e-01,1.897952556610107422e-01
7.803416848182678223e-01,8.911470174789428711e-01,2.302460670471191406e-01
7.928062677383422852e-01,9.053815603256225586e-01,2.778345942497253418e-01
7.527440190315246582e-01,8.848689794540405273e-01,-3.112841546535491943e-01
7.466919422149658203e-01,8.777546286582946777e-01,-2.660497128963470459e-01
7.545726895332336426e-01,8.870186209678649902e-01,-2.263656854629516602e-01
7.561110854148864746e-01,8.888270854949951172e-01,-1.848227232694625854e-01
7.509176731109619141e-01,8.827220797538757324e-01,-1.422962248325347900e-01
7.591691613197326660e-01,8.924219012260437012e-01,-1.025056019425392151e-01
7.634444832801818848e-01,8.974476456642150879e-01,-6.174907833337783813e-02
7.605929374694824219e-01,8.940955996513366699e-01,-2.048948407173156738e-02
7.618694305419921875e-01,8.955961465835571289e-01,2.052387222647666931e-02
7.622237801551818848e-01,8.960127234458923340e-01,6.165034696459770203e-02
7.761890888214111328e-01,9.124292731285095215e-01,1.048036888241767883e-01
7.616393566131591797e-01,8.953257203102111816e-01,1.443279385566711426e-01
7.592063546180725098e-01,8.924655914306640625e-01,1.855793297290802002e-01
7.610576748847961426e-01,8.946418762207031250e-01,2.283111214637756348e-01
7.660318017005920410e-01,9.004890918731689453e-01,2.729406058788299561e-01
7.261151671409606934e-01,8.787449002265930176e-01,-3.054423034191131592e-01
7.194424271583557129e-01,8.706696033477783203e-01,-2.607542574405670166e-01
7.233580946922302246e-01,8.754083514213562012e-01,-2.207378894090652466e-01
7.254858016967773438e-01,8.779832720756530762e-01,-1.803901046514511108e-01
7.394667863845825195e-01,8.949030637741088867e-01,-1.425389945507049561e-01
7.344456315040588379e-01,8.888264894485473633e-01,-1.008748114109039307e-01
7.319350838661193848e-01,8.857882022857666016e-01,-6.021983921527862549e-02
7.315683364868164062e-01,8.853443861007690430e-01,-2.004691958427429199e-02
7.413674592971801758e-01,8.972032666206359863e-01,2.031544037163257599e-02
7.315489649772644043e-01,8.853209614753723145e-01,6.018807366490364075e-02
7.368437051773071289e-01,8.917286396026611328e-01,1.012041792273521423e-01
7.437959909439086914e-01,9.001423120498657227e-01,1.433734893798828125e-01
7.530122995376586914e-01,9.112958908081054688e-01,1.872344911098480225e-01
7.420660853385925293e-01,8.980486989021301270e-01,2.264467626810073853e-01
7.373214364051818848e-01,8.923068046569824219e-01,2.672343254089355469e-01
7.189502120018005371e-01,8.958832025527954102e-01,-3.077909350395202637e-01
7.180401086807250977e-01,8.947491645812988281e-01,-2.648606300354003906e-01
7.105302214622497559e-01,8.853910565376281738e-01,-2.206680327653884888e-01
7.139760851860046387e-01,8.896849751472473145e-01,-1.806761324405670166e-01
7.152330875396728516e-01,8.912513256072998047e-01,-1.403123736381530762e-01
7.096468806266784668e-01,8.842903971672058105e-01,-9.919703751802444458e-02
7.058954834938049316e-01,8.796156644821166992e-01,-5.910724774003028870e-02
7.013561129570007324e-01,8.739591836929321289e-01,-1.955980993807315826e-02
7.078101634979248047e-01,8.820015788078308105e-01,1.973980478942394257e-02
7.146387696266174316e-01,8.905107378959655762e-01,5.983936041593551636e-02
7.074550986289978027e-01,8.815591335296630859e-01,9.889065474271774292e-02
7.135975956916809082e-01,8.892133235931396484e-01,1.399915218353271484e-01
7.178171873092651367e-01,8.944713473320007324e-01,1.816481351852416992e-01
7.226946353912353516e-01,9.005491137504577637e-01,2.244458943605422974e-01
7.155799865722656250e-01,8.916835784912109375e-01,2.639531493186950684e-01
6.915889382362365723e-01,8.875171542167663574e-01,-3.014848828315734863e-01
6.783235073089599609e-01,8.704935908317565918e-01,-2.547803819179534912e-01
6.879371404647827148e-01,8.828307390213012695e-01,-2.175534963607788086e-01
6.873204708099365234e-01,8.820394277572631836e-01,-1.771074533462524414e-01
6.852738261222839355e-01,8.794129490852355957e-01,-1.368903964757919312e-01
6.860503554344177246e-01,8.804094791412353516e-01,-9.765013307332992554e-02
7.030561566352844238e-01,9.022330045700073242e-01,-5.994470417499542236e-02
7.006355524063110352e-01,8.991266489028930664e-01,-1.989659294486045837e-02
6.884788274765014648e-01,8.835259079933166504e-01,1.955136656761169434e-02
6.945125460624694824e-01,8.912690281867980957e-01,5.921625345945358276e-02
6.969690322875976562e-01,8.944213986396789551e-01,9.920425713062286377e-02
6.933996677398681641e-01,8.898408412933349609e-01,1.385136097669601440e-01
6.951110363006591797e-01,8.920370340347290039e-01,1.791149228811264038e-01
6.978174448013305664e-01,8.955101966857910156e-01,2.206780612468719482e-01
6.909643411636352539e-01,8.867155909538269043e-01,2.595283389091491699e-01
6.615030765533447266e-01,8.744383454322814941e-01,-2.937956452369689941e-01
6.645764112472534180e-01,8.785009980201721191e-01,-2.543138563632965088e-01
6.634697318077087402e-01,8.770381212234497070e-01,-2.137639224529266357e-01
6.721713542938232422e-01,8.885407447814941406e-01,-1.764629483222961426e-01
6.706231832504272461e-01,8.864942193031311035e-01,-1.364845037460327148e-01
6.719892621040344238e-01,8.883000612258911133e-01,-9.744850546121597290e-02
6.657220125198364258e-01,8.800154328346252441e-01,-5.782954022288322449e-02
6.732504367828369141e-01,8.899672031402587891e-01,-1.947866380214691162e-02
6.688129901885986328e-01,8.841013908386230469e-01,1.935027912259101868e-02
6.767692565917968750e-01,8.946186900138854980e-01,5.878918617963790894e-02
6.719659566879272461e-01,8.882692456245422363e-01,9.744512289762496948e-02
6.727833151817321777e-01,8.893496990203857422e-01,1.369241476058959961e-01
6.700006723403930664e-01,8.856713771820068359e-01,1.758931130170822144e-01
6.755628585815429688e-01,8.930240273475646973e-01,2.176602333784103394e-01
6.772459149360656738e-01,8.952488303184509277e-01,2.591621279716491699e-01
6.450216174125671387e-01,8.785063028335571289e-01,-2.920305132865905762e-01
6.420423984527587891e-01,8.744486570358276367e-01,-2.504547834396362305e-01
6.470441818237304688e-01,8.812609910964965820e-01,-2.125140875577926636e-01
6.386938095092773438e-01,8.698878884315490723e-01,-1.709254533052444458e-01
6.347070932388305664e-01,8.644580841064453125e-01,-1.316796392202377319e-01
6.434637308120727539e-01,8.763844370841979980e-01,-9.512121230363845825e-02
6.484720706939697266e-01,8.832057118415832520e-01,-5.742335319519042969e-02
6.510404944419860840e-01,8.867038488388061523e-01,-1.920131593942642212e-02
6.477710604667663574e-01,8.822509646415710449e-01,1.910489052534103394e-02
6.513339877128601074e-01,8.871036171913146973e-01,5.767678469419479370e-02
6.457003355026245117e-01,8.794307112693786621e-01,9.545184671878814697e-02
6.484231352806091309e-01,8.831390738487243652e-01,1.345252394676208496e-01
6.592448949813842773e-01,8.978780508041381836e-01,1.764252632856369019e-01
6.564823985099792480e-01,8.941155672073364258e-01,2.156139463186264038e-01
6.482424139976501465e-01,8.828929066658020020e-01,2.528733313083648682e-01
6.283373832702636719e-01,8.819700479507446289e-01,-2.901625633239746094e-01
6.266872882843017578e-01,8.796539306640625000e-01,-2.493509352207183838e-01
6.201242208480834961e-01,8.704415559768676758e-01,-2.077432721853256226e-01
6.229910254478454590e-01,8.744655847549438477e-01,-1.700553596019744873e-01
6.264674663543701172e-01,8.793453574180603027e-01,-1.325678825378417969e-01
6.199210286140441895e-01,8.701563477516174316e-01,-9.347256273031234741e-02
6.322242021560668945e-01,8.874257802963256836e-01,-5.710352212190628052e-02
6.250996589660644531e-01,8.774253726005554199e-01,-1.880471594631671906e-02
6.295356154441833496e-01,8.836519122123718262e-01,1.893816143274307251e-02
6.281487941741943359e-01,8.817053437232971191e-01,5.673542618751525879e-02
6.318372488021850586e-01,8.868826627731323242e-01,9.526931494474411011e-02
6.290388703346252441e-01,8.829546570777893066e-01,1.331120133399963379e-01
6.375820636749267578e-01,8.949463963508605957e-01,1.740382164716720581e-01
6.310478448867797852e-01,8.857746124267578125e-01,2.114027291536331177e-01
6.461549997329711914e-01,9.069798588752746582e-01,2.570968866348266602e-01
6.023716330528259277e-01,8.716577291488647461e-01,-2.839041948318481445e-01
5.960281491279602051e-01,8.624784350395202637e-01,-2.420392036437988281e-01
6.019726395606994629e-01,8.710803389549255371e-01,-2.058182507753372192e-01
6.055555343627929688e-01,8.762649297714233398e-01,-1.687024235725402832e-01
6.095513701438903809e-01,8.820471167564392090e-01,-1.316463798284530640e-01
6.066076755523681641e-01,8.777874708175659180e-01,-9.335004538297653198e-02
6.032943725585937500e-01,8.729929327964782715e-01,-5.561345443129539490e-02
6.139197945594787598e-01,8.883684277534484863e-01,-1.884898543357849121e-02
6.040290594100952148e-01,8.740561008453369141e-01,1.854531280696392059e-02
6.121676564216613770e-01,8.858329653739929199e-01,5.643142387270927429e-02
6.095843315124511719e-01,8.820948004722595215e-01,9.380812197923660278e-02
6.113487482070922852e-01,8.846480250358581543e-01,1.320345699787139893e-01
6.045678853988647461e-01,8.748357892036437988e-01,1.684272885322570801e-01
6.153362989425659180e-01,8.904181122779846191e-01,2.103873491287231445e-01
6.121500730514526367e-01,8.858075737953186035e-01,2.485861033201217651e-01
5.832483172416687012e-01,8.703608512878417969e-01,-2.807339429855346680e-01
5.868085622787475586e-01,8.756736516952514648e-01,-2.433601766824722290e-01
5.834012627601623535e-01,8.705890178680419922e-01,-2.037082463502883911e-01
5.915467143058776855e-01,8.827441930770874023e-01,-1.683024913072586060e-01
5.948555469512939453e-01,8.876818418502807617e-01,-1.312031447887420654e-01
5.904539227485656738e-01,8.811135292053222656e-01,-9.279547631740570068e-02
5.927008986473083496e-01,8.844665884971618652e-01,-5.579821765422821045e-02
5.936678647994995117e-01,8.859095573425292969e-01,-1.861461251974105835e-02
5.878435373306274414e-01,8.772180676460266113e-01,1.843198761343955994e-02
5.932540297508239746e-01,8.852919936180114746e-01,5.585029348731040955e-02
5.965692996978759766e-01,8.902392983436584473e-01,9.375656396150588989e-02
5.871697664260864258e-01,8.762126564979553223e-01,1.295079439878463745e-01
5.904390215873718262e-01,8.810912370681762695e-01,1.679873317480087280e-01
6.040755510330200195e-01,9.014405608177185059e-01,2.109271585941314697e-01
5.998108983039855957e-01,8.950766324996948242e-01,2.487524896860122681e-01
5.662479400634765625e-01,8.717160820960998535e-01,-2.785283029079437256e-01
5.655737519264221191e-01,8.706782460212707520e-01,-2.396975606679916382e-01
5.674948096275329590e-01,8.736356496810913086e-01,-2.024997174739837646e-01
5.637419223785400391e-01,8.678581714630126953e-01,-1.639091074466705322e-01
5.657956004142761230e-01,8.710197806358337402e-01,-1.275303661823272705e-01
5.658220648765563965e-01,8.710604906082153320e-01,-9.087447822093963623e-02
5.726966261863708496e-01,8.816436529159545898e-01,-5.509734526276588440e-02
5.715780258178710938e-01,8.799216151237487793e-01,-1.831501536071300507e-02
5.731199979782104492e-01,8.822954297065734863e-01,1.836442574858665466e-02
5.732318162918090820e-01,8.824675083160400391e-01,5.514883249998092651e-02
5.691047906875610352e-01,8.761141300201416016e-01,9.140170365571975708e-02
5.771280527114868164e-01,8.884655833244323730e-01,1.300846934318542480e-01
5.735004544258117676e-01,8.828811049461364746e-01,1.667464375495910645e-01
5.772493481636047363e-01,8.886523842811584473e-01,2.059804350137710571e-01
5.743565559387207031e-01,8.841990232467651367e-01,2.434198260307312012e-01
5.476412773132324219e-01,8.700827956199645996e-01,-2.754736244678497314e-01
5.445402860641479492e-01,8.651560544967651367e-01,-2.360073626041412354e-01
5.439031720161437988e-01,8.641437888145446777e-01,-1.984747648239135742e-01
5.548543930053710938e-01,8.815428614616394043e-01,-1.649768352508544922e-01
5.527866482734680176e-01,8.782577514648437500e-01,-1.274185776710510254e-01
5.471913814544677734e-01,8.693680763244628906e-01,-8.987160027027130127e-02
5.530574321746826172e-01,8.786879181861877441e-01,-5.441234633326530457e-02
5.482528209686279297e-01,8.710544705390930176e-01,-1.796527206897735596e-02
5.504004955291748047e-01,8.744665980339050293e-01,1.803564652800559998e-02
5.545972585678100586e-01,8.811343312263488770e-01,5.456383898854255676e-02
5.558956265449523926e-01,8.831971883773803711e-01,9.130120277404785156e-02
5.511245727539062500e-01,8.756170272827148438e-01,1.270354688167572021e-01
5.506258010864257812e-01,8.748245835304260254e-01,1.637195348739624023e-01
5.582080483436584473e-01,8.868711590766906738e-01,2.036947309970855713e-01
5.601339936256408691e-01,8.899310827255249023e-01,2.427657842636108398e-01
5.256336331367492676e-01,8.622494935989379883e-01,-2.705838084220886230e-01
5.401815772056579590e-01,8.861139416694641113e-01,-2.395907640457153320e-01
5.241460800170898438e-01,8.598093390464782715e-01,-1.957360506057739258e-01
5.285962224006652832e-01,8.671092987060546875e-01,-1.608432382345199585e-01
5.335814356803894043e-01,8.752870559692382812e-01,-1.258666664361953735e-01
5.349457263946533203e-01,8.775250911712646484e-01,-8.991409093141555786e-02
5.305535793304443359e-01,8.703202009201049805e-01,-5.341844633221626282e-02
5.415049791336059570e-01,8.882849216461181641e-01,-1.815892755985260010e-02
5.295302271842956543e-01,8.686414361000061035e-01,1.775736175477504730e-02
5.374723076820373535e-01,8.816697001457214355e-01,5.411505699157714844e-02
5.331350564956665039e-01,8.745548129081726074e-01,8.960974961519241333e-02
5.364526510238647461e-01,8.799970149993896484e-01,1.265439540147781372e-01
5.325347185134887695e-01,8.735700249671936035e-01,1.620416641235351562e-01
5.354765653610229492e-01,8.783957958221435547e-01,1.999672800302505493e-01
5.342019200325012207e-01,8.763049244880676270e-01,2.369385659694671631e-01
5.165444016456604004e-01,8.752846121788024902e-01,-2.723263204097747803e-01
5.044766664505004883e-01,8.548358082771301270e-01,-2.291578054428100586e-01
5.075969696044921875e-01,8.601231575012207031e-01,-1.941336244344711304e-01
5.124873518943786621e-01,8.684098720550537109e-01,-1.597074419260025024e-01
5.139370560646057129e-01,8.708664178848266602e-01,-1.241604238748550415e-01
5.166354179382324219e-01,8.754388093948364258e-01,-8.893351256847381592e-02
5.210080742835998535e-01,8.828482031822204590e-01,-5.372416600584983826e-02
5.139588713645935059e-01,8.709033727645874023e-01,-1.765140704810619354e-02
5.171353220939636230e-01,8.762858510017395020e-01,1.776049844920635223e-02
5.206047892570495605e-01,8.821649551391601562e-01,5.368258804082870483e-02
5.166047811508178711e-01,8.753868937492370605e-01,8.892823755741119385e-02
5.153028964996337891e-01,8.731808066368103027e-01,1.244903951883316040e-01
5.225238204002380371e-01,8.854166865348815918e-01,1.628351360559463501e-01
5.188179016113281250e-01,8.791369795799255371e-01,1.984251439571380615e-01
5.148273110389709473e-01,8.723749518394470215e-01,2.338595688343048096e-01
4.940001070499420166e-01,8.651372790336608887e-01,-2.669419050216674805e-01
4.987347722053527832e-01,8.734290599822998047e-01,-2.322046905755996704e-01
4.900329113006591797e-01,8.581895828247070312e-01,-1.920944303274154663e-01
5.018762946128845215e-01,8.789307475090026855e-01,-1.603047698736190796e-01
4.953190684318542480e-01,8.674471974372863770e-01,-1.226495802402496338e-01
4.984193742275238037e-01,8.728767037391662598e-01,-8.793949335813522339e-02
4.897095561027526855e-01,8.576232790946960449e-01,-5.175729840993881226e-02
4.954273700714111328e-01,8.676368594169616699e-01,-1.743968948721885681e-02
4.969187080860137939e-01,8.702485561370849609e-01,1.749218627810478210e-02
4.946247935295104980e-01,8.662312626838684082e-01,5.227679014205932617e-02
5.046287775039672852e-01,8.837512135505676270e-01,8.903506398200988770e-02
5.018090009689331055e-01,8.788129687309265137e-01,1.242566034197807312e-01
4.978381097316741943e-01,8.718587160110473633e-01,1.590149402618408203e-01
4.928646981716156006e-01,8.631488680839538574e-01,1.932045072317123413e-01
5.005266070365905762e-01,8.765671253204345703e-01,2.330389618873596191e-01
4.765803813934326172e-01,8.630868196487426758e-01,-2.641773521900177002e-01
4.706394374370574951e-01,8.523277640342712402e-01,-2.247808873653411865e-01
4.763537049293518066e-01,8.626763224601745605e-01,-1.915529221296310425e-01
4.847902655601501465e-01,8.779549598693847656e-01,-1.588449478149414062e-01
4.744696915149688721e-01,8.592643737792968750e-01,-1.205200329422950745e-01
4.776148200035095215e-01,8.649601936340332031e-01,-8.644434064626693726e-02
4.797934591770172119e-01,8.689056634902954102e-01,-5.201840773224830627e-02
4.869925081729888916e-01,8.819431662559509277e-01,-1.758533902466297150e-02
4.835173785686492920e-01,8.756497502326965332e-01,1.745985262095928192e-02
4.833366274833679199e-01,8.753223419189453125e-01,5.240255221724510193e-02
4.860820174217224121e-01,8.802943229675292969e-01,8.797683566808700562e-02
4.771786928176879883e-01,8.641703724861145020e-01,1.212081387639045715e-01
4.822090864181518555e-01,8.732804059982299805e-01,1.579992026090621948e-01
4.854309856891632080e-01,8.791152834892272949e-01,1.952031105756759644e-01
4.860579967498779297e-01,8.802507519721984863e-01,2.321449071168899536e-01
4.627120196819305420e-01,8.670701384544372559e-01,-2.633424103260040283e-01
4.604684412479400635e-01,8.628659844398498535e-01,-2.257987558841705322e-01
4.649147093296051025e-01,8.711977005004882812e-01,-1.919477880001068115e-01
4.660926461219787598e-01,8.734050393104553223e-01,-1.567986607551574707e-01
4.611168801784515381e-01,8.640810251235961914e-01,-1.202575564384460449e-01
4.688262045383453369e-01,8.785274028778076172e-01,-8.712067455053329468e-02
4.564380943775177002e-01,8.553135395050048828e-01,-5.080836638808250427e-02
4.603987634181976318e-01,8.627353906631469727e-01,-1.706920191645622253e-02
4.666020572185516357e-01,8.743596673011779785e-01,1.729918830096721649e-02
4.680337309837341309e-01,8.770424127578735352e-01,5.209913477301597595e-02
4.679519832134246826e-01,8.768892288208007812e-01,8.695822209119796753e-02
4.646494388580322266e-01,8.707006573677062988e-01,1.211788356304168701e-01
4.693084359169006348e-01,8.794310688972473145e-01,1.578804850578308105e-01
4.674232900142669678e-01,8.758984804153442383e-01,1.929834932088851929e-01
4.587325155735015869e-01,8.596130013465881348e-01,2.249475121498107910e-01
4.506363570690155029e-01,8.743433356285095215e-01,-2.635653614997863770e-01
4.574232101440429688e-01,8.875114321708679199e-01,-2.305111736059188843e-01
4.530675411224365234e-01,8.790604472160339355e-01,-1.922316551208496094e-01
4.545805454254150391e-01,8.819960355758666992e-01,-1.571567654609680176e-01
4.585978984832763672e-01,8.897906541824340820e-01,-1.229095160961151123e-01
4.551679491996765137e-01,8.831357359886169434e-01,-8.692269027233123779e-02
4.595189392566680908e-01,8.915777206420898438e-01,-5.256647616624832153e-02
4.585313498973846436e-01,8.896615505218505859e-01,-1.747029460966587067e-02
4.558046460151672363e-01,8.843710422515869141e-01,1.736640557646751404e-02
4.624729156494140625e-01,8.973091244697570801e-01,5.290439724922180176e-02
4.633246660232543945e-01,8.989617824554443359e-01,8.848036825656890869e-02
4.689651429653167725e-01,9.099056124687194824e-01,1.256880611181259155e-01
4.629028737545013428e-01,8.981433510780334473e-01,1.600339412689208984e-01
4.616369903087615967e-01,8.956872224807739258e-01,1.958675831556320190e-01
4.647817015647888184e-01,9.017887711524963379e-01,2.342193722724914551e-01
4.567247331142425537e-01,9.181932210922241211e-01,-2.747848629951477051e-01
4.547795057296752930e-01,9.142826199531555176e-01,-2.357495427131652832e-01
4.524388015270233154e-01,9.095768928527832031e-01,-1.974685639142990112e-01
4.564861059188842773e-01,9.177135229110717773e-01,-1.623401492834091187e-01
4.499799013137817383e-01,9.046335220336914062e-01,-1.240574195981025696e-01
4.572586417198181152e-01,9.192666411399841309e-01,-8.982548862695693970e-02
4.518414139747619629e-01,9.083759188652038574e-01,-5.317012220621109009e-02
4.548962116241455078e-01,9.145172238349914551e-01,-1.782869920134544373e-02
4.539407193660736084e-01,9.125963449478149414e-01,1.779125072062015533e-02
4.628641009330749512e-01,9.305357933044433594e-01,5.446721240878105164e-02
4.586437046527862549e-01,9.220511317253112793e-01,9.009756892919540405e-02
4.572991430759429932e-01,9.193480610847473145e-01,1.260752975940704346e-01
4.523813426494598389e-01,9.094613790512084961e-01,1.608803719282150269e-01
4.663926362991333008e-01,9.376294612884521484e-01,2.035587728023529053e-01
4.546514749526977539e-01,9.140251874923706055e-01,2.356831580400466919e-01
4.463875591754913330e-01,9.305788278579711914e-01,-2.765510380268096924e-01
4.476308822631835938e-01,9.331707358360290527e-01,-2.389433085918426514e-01
4.449985921382904053e-01,9.276832342147827148e-01,-1.999961584806442261e-01
4.421632587909698486e-01,9.217725396156311035e-01,-1.619220227003097534e-01
4.501973986625671387e-01,9.385211467742919922e-01,-1.278078407049179077e-01
4.525698423385620117e-01,9.434669613838195801e-01,-9.154784679412841797e-02
4.459959566593170166e-01,9.297624826431274414e-01,-5.404274910688400269e-02
4.517367780208587646e-01,9.417302608489990234e-01,-1.823130249977111816e-02
4.487852156162261963e-01,9.355772137641906738e-01,1.811218261718750000e-02
4.534483253955841064e-01,9.452983140945434570e-01,5.494577810168266296e-02
4.556552469730377197e-01,9.498990774154663086e-01,9.217198193073272705e-02
4.498924016952514648e-01,9.378853440284729004e-01,1.277212500572204590e-01
4.488019943237304688e-01,9.356122016906738281e-01,1.643531620502471924e-01
4.560742676258087158e-01,9.507725834846496582e-01,2.049739062786102295e-01
4.594521224498748779e-01,9.578143358230590820e-01,2.452534288167953491e-01
4.427992105484008789e-01,9.580228328704833984e-01,-2.827943563461303711e-01
4.409602880477905273e-01,9.540441632270812988e-01,-2.426470667123794556e-01
4.447742998600006104e-01,9.622959494590759277e-01,-2.060646116733551025e-01
4.486587047576904297e-01,9.707001447677612305e-01,-1.693713963031768799e-01
4.412035644054412842e-01,9.545705318450927734e-01,-1.291202157735824585e-01
4.550355076789855957e-01,9.844967722892761230e-01,-9.488739818334579468e-02
4.469085931777954102e-01,9.669136404991149902e-01,-5.582464113831520081e-02
4.469370245933532715e-01,9.669752120971679688e-01,-1.859427802264690399e-02
4.481559097766876221e-01,9.696123003959655762e-01,1.864498667418956757e-02
4.508281052112579346e-01,9.753937721252441406e-01,5.631424114108085632e-02
4.510325491428375244e-01,9.758360981941223145e-01,9.405267238616943359e-02
4.448940455913543701e-01,9.625551104545593262e-01,1.302002519369125366e-01
4.537554383277893066e-01,9.817272424697875977e-01,1.712954491376876831e-01
4.512180984020233154e-01,9.762375354766845703e-01,2.090500444173812866e-01
4.480654597282409668e-01,9.694166183471679688e-01,2.465568333864212036e-01
4.436761438846588135e-01,9.971504211425781250e-01,-2.924397289752960205e-01
4.425693452358245850e-01,9.946628808975219727e-01,-2.513409554958343506e-01
4.415726959705352783e-01,9.924229383468627930e-01,-2.111408859491348267e-01
4.428530335426330566e-01,9.953005313873291016e-01,-1.725400835275650024e-01
4.443975985050201416e-01,9.987718462944030762e-01,-1.342249661684036255e-01
4.395779073238372803e-01,9.879397749900817871e-01,-9.460312873125076294e-02
4.473737180233001709e-01,1.005460619926452637e+00,-5.767453461885452271e-02
4.458063542842864990e-01,1.001937985420227051e+00,-1.914192363619804382e-02
4.412193000316619873e-01,9.916287064552307129e-01,1.894496567547321320e-02
4.479328393936157227e-01,1.006717205047607422e+00,5.774661526083946228e-02
4.484874010086059570e-01,1.007963657379150391e+00,9.652057290077209473e-02
4.449117183685302734e-01,9.999272823333740234e-01,1.343802511692047119e-01
4.504535794258117676e-01,1.012382507324218750e+00,1.755013316869735718e-01
4.498496055603027344e-01,1.011025071144104004e+00,2.150985449552536011e-01
4.528130888938903809e-01,1.017685413360595703e+00,2.571585178375244141e-01
4.394069612026214600e-01,1.026878714561462402e+00,-2.992831170558929443e-01
4.364030659198760986e-01,1.019858717918395996e+00,-2.561030387878417969e-01
4.403457045555114746e-01,1.029072642326354980e+00,-2.175749540328979492e-01
4.353581666946411133e-01,1.017416834831237793e+00,-1.752758473157882690e-01
4.424527585506439209e-01,1.033996701240539551e+00,-1.380935907363891602e-01
4.454710781574249268e-01,1.041050314903259277e+00,-9.906817227602005005e-02
4.450454115867614746e-01,1.040055632591247559e+00,-5.928747355937957764e-02
4.412661194801330566e-01,1.031223535537719727e+00,-1.957874931395053864e-02
4.410820603370666504e-01,1.030793428421020508e+00,1.957058161497116089e-02
4.448721706867218018e-01,1.039650797843933105e+00,5.926439911127090454e-02
4.389508962631225586e-01,1.025812983512878418e+00,9.761815518140792847e-02
4.425721466541290283e-01,1.034275770187377930e+00,1.381308585405349731e-01
4.498547017574310303e-01,1.051294803619384766e+00,1.811121702194213867e-01
4.492669403553009033e-01,1.049921154975891113e+00,2.219829261302947998e-01
4.419423043727874756e-01,1.032803773880004883e+00,2.593537569046020508e-01
4.416280090808868408e-01,1.074326753616333008e+00,-3.112376332283020020e-01
4.338299632072448730e-01,1.055356860160827637e+00,-2.634308636188507080e-01
4.342910051345825195e-01,1.056478381156921387e+00,-2.220322936773300171e-01
4.410739839076995850e-01,1.072979092597961426e+00,-1.837414056062698364e-01
4.366998672485351562e-01,1.062338352203369141e+00,-1.410294622182846069e-01
4.378059208393096924e-01,1.065028905868530273e+00,-1.007433682680130005e-01
4.354107975959777832e-01,1.059202432632446289e+00,-6.001751497387886047e-02
4.375686347484588623e-01,1.064451813697814941e+00,-2.008864842355251312e-02
4.400441348552703857e-01,1.070473790168762207e+00,2.020229771733283997e-02
4.380669593811035156e-01,1.065664052963256836e+00,6.038364395499229431e-02
4.397504329681396484e-01,1.069759249687194824e+00,1.011908203363418579e-01
4.410479366779327393e-01,1.072915673255920410e+00,1.424336582422256470e-01
4.431162476539611816e-01,1.077947139739990234e+00,1.845921576023101807e-01
4.466274380683898926e-01,1.086488604545593262e+00,2.283393293619155884e-01
4.409983456134796143e-01,1.072795033454895020e+00,2.677836716175079346e-01
4.332415461540222168e-01,1.098371505737304688e+00,-3.163745999336242676e-01
4.340513944625854492e-01,1.100424647331237793e+00,-2.731016278266906738e-01
4.352979660034179688e-01,1.103585124015808105e+00,-2.305992841720581055e-01
4.285288751125335693e-01,1.086423754692077637e+00,-1.849744170904159546e-01
4.357705414295196533e-01,1.104783177375793457e+00,-1.458211988210678101e-01
4.373258352279663086e-01,1.108726143836975098e+00,-1.042739897966384888e-01
4.388978481292724609e-01,1.112711668014526367e+00,-6.268711388111114502e-02
4.365430772304534912e-01,1.106741666793823242e+00,-2.076670713722705841e-02
4.354481101036071777e-01,1.103965759277343750e+00,2.071462012827396393e-02
4.310971200466156006e-01,1.092934846878051758e+00,6.157294660806655884e-02
4.336344003677368164e-01,1.099367499351501465e+00,1.033938154578208923e-01
4.354689419269561768e-01,1.104018449783325195e+00,1.457202881574630737e-01
4.341373145580291748e-01,1.100642561912536621e+00,1.873953044414520264e-01
4.383138120174407959e-01,1.111230969429016113e+00,2.321969419717788696e-01
4.363436400890350342e-01,1.106236100196838379e+00,2.745439112186431885e-01
4.289899170398712158e-01,1.134916901588439941e+00,-3.250991404056549072e-01
4.257304072380065918e-01,1.126293659210205078e+00,-2.779809832572937012e-01
4.310389161109924316e-01,1.140337705612182617e+00,-2.369654625654220581e-01
4.263919591903686523e-01,1.128043889999389648e+00,-1.910019665956497192e-01
4.322659075260162354e-01,1.143583774566650391e+00,-1.501104980707168579e-01
4.269333481788635254e-01,1.129476189613342285e+00,-1.056399494409561157e-01
4.357571601867675781e-01,1.152819991111755371e+00,-6.458871066570281982e-02
4.267309308052062988e-01,1.128940582275390625e+00,-2.106647752225399017e-02
4.356307685375213623e-01,1.152485609054565430e+00,2.150583639740943909e-02
4.296301901340484619e-01,1.136610865592956543e+00,6.368055939674377441e-02
4.289383292198181152e-01,1.134780406951904297e+00,1.061360612511634827e-01
4.305496513843536377e-01,1.139043211936950684e+00,1.495144963264465332e-01
4.276337325572967529e-01,1.131329059600830078e+00,1.915582120418548584e-01
4.335820972919464111e-01,1.147065758705139160e+00,2.383635789155960083e-01
4.291149377822875977e-01,1.135247707366943359e+00,2.801909148693084717e-01
4.186994135379791260e-01,1.157517671585083008e+00,-3.298226594924926758e-01
4.241301119327545166e-01,1.172531127929687500e+00,-2.878650426864624023e-01
4.262275397777557373e-01,1.178329586982727051e+00,-2.435675859451293945e-01
4.304469227790832520e-01,1.189994215965270996e+00,-2.004277408123016357e-01
4.218784868717193604e-01,1.166306376457214355e+00,-1.522849053144454956e-01
4.244497120380401611e-01,1.173414707183837891e+00,-1.091701090335845947e-01
4.262525737285614014e-01,1.178398728370666504e+00,-6.567324697971343994e-02
4.217959046363830566e-01,1.166078090667724609e+00,-2.164459787309169769e-02
4.250936210155487061e-01,1.175194859504699707e+00,2.181382291018962860e-02
4.252671003341674805e-01,1.175674438476562500e+00,6.552141904830932617e-02
4.287064075469970703e-01,1.185182571411132812e+00,1.102649495005607605e-01
4.261895120143890381e-01,1.178224444389343262e+00,1.538410484790802002e-01
4.310659468173980713e-01,1.191705584526062012e+00,2.007159739732742310e-01
4.283420145511627197e-01,1.184175133705139160e+00,2.447759062051773071e-01
4.301263391971588135e-01,1.189108014106750488e+00,2.919347882270812988e-01
4.148246049880981445e-01,1.200236916542053223e+00,-3.402683734893798828e-01
4.171963632106781006e-01,1.207099318504333496e+00,-2.948555052280426025e-01
4.203198254108428955e-01,1.216136455535888672e+00,-2.501132786273956299e-01
4.161087870597839355e-01,1.203952550888061523e+00,-2.017548829317092896e-01
4.207528829574584961e-01,1.217389583587646484e+00,-1.581522971391677856e-01
4.200916588306427002e-01,1.215476393699645996e+00,-1.125124245882034302e-01
4.207542836666107178e-01,1.217393636703491211e+00,-6.750391423702239990e-02
4.191573858261108398e-01,1.212773203849792480e+00,-2.239768952131271362e-02
4.196053147315979004e-01,1.214069247245788574e+00,2.242162637412548065e-02
4.212713241577148438e-01,1.218889594078063965e+00,6.758686900138854980e-02
4.201926290988922119e-01,1.215768575668334961e+00,1.125394701957702637e-01
4.214371144771575928e-01,1.219369292259216309e+00,1.584094911813735962e-01
4.187408387660980225e-01,1.211567997932434082e+00,2.030310481786727905e-01
4.273865818977355957e-01,1.236583232879638672e+00,2.543183863162994385e-01
4.247403144836425781e-01,1.228926658630371094e+00,3.001872301101684570e-01
4.157145917415618896e-01,1.260984659194946289e+00,-3.557670414447784424e-01
4.148517251014709473e-01,1.258367419242858887e+00,-3.058968782424926758e-01
4.147887229919433594e-01,1.258176207542419434e+00,-2.575118541717529297e-01
4.126044213771820068e-01,1.251550555229187012e+00,-2.087201625108718872e-01
4.121227860450744629e-01,1.250089645385742188e+00,-1.616175174713134766e-01
4.127366542816162109e-01,1.251951694488525391e+00,-1.153301447629928589e-01
4.153379201889038086e-01,1.259842157363891602e+00,-6.952089816331863403e-02
4.184607267379760742e-01,1.269314527511596680e+00,-2.332889661192893982e-02
4.155429005622863770e-01,1.260463953018188477e+00,2.316623181104660034e-02
4.180414974689483643e-01,1.268042802810668945e+00,6.997343152761459351e-02
4.180116951465606689e-01,1.267952442169189453e+00,1.168041452765464783e-01
4.178333282470703125e-01,1.267411470413208008e+00,1.638569533824920654e-01
4.193463027477264404e-01,1.272000670433044434e+00,2.121306210756301880e-01
4.237083792686462402e-01,1.285232186317443848e+00,2.630494236946105957e-01
4.203727245330810547e-01,1.275114178657531738e+00,3.099678456783294678e-01
4.097968339920043945e-01,1.305584430694580078e+00,-3.666577637195587158e-01
4.096032977104187012e-01,1.304967880249023438e+00,-3.157674372196197510e-01
4.139841198921203613e-01,1.318924903869628906e+00,-2.687050104141235352e-01
4.091226756572723389e-01,1.303436636924743652e+00,-2.163744121789932251e-01
4.067319631576538086e-01,1.295819997787475586e+00,-1.667599976062774658e-01
4.099277257919311523e-01,1.306001424789428711e+00,-1.197564452886581421e-01
4.112886786460876465e-01,1.310337424278259277e+00,-7.197511196136474609e-02
4.119170904159545898e-01,1.312339425086975098e+00,-2.400883659720420837e-02
4.147459864616394043e-01,1.321352124214172363e+00,2.417371980845928192e-02
4.066298604011535645e-01,1.295494675636291504e+00,7.115982472896575928e-02
4.183953106403350830e-01,1.332978606224060059e+00,1.222301721572875977e-01
4.127532839775085449e-01,1.315003514289855957e+00,1.692287474870681763e-01
4.138750731945037842e-01,1.318577408790588379e+00,2.188878357410430908e-01
4.162029027938842773e-01,1.325993776321411133e+00,2.701451778411865234e-01
4.106290936470031738e-01,1.308236002922058105e+00,3.165582418441772461e-01
3.966635167598724365e-01,1.330073833465576172e+00,-3.719027042388916016e-01
