8.061780929565429688e+00,2.689771413803100586e+00,-1.483443975448608398e-01
8.050221443176269531e+00,2.685914516448974609e+00,1.481316834688186646e-01
8.062500000000000000e+00,2.690011262893676758e+00,4.454348087310791016e-01
8.083715438842773438e+00,2.697089910507202148e+00,7.455581426620483398e-01
8.096621513366699219e+00,2.701395750045776367e+00,1.048012018203735352e+00
3.794828414916992188e+00,1.326778173446655273e+00,-1.077176213264465332e+00
4.511505603790283203e+00,1.577348470687866211e+00,-1.103386640548706055e+00
5.527525901794433594e+00,1.932577729225158691e+00,-1.138217449188232422e+00
7.192490100860595703e+00,2.514695644378662109e+00,-1.206796288490295410e+00
8.033931732177734375e+00,2.808887243270874023e+00,-1.044994592666625977e+00
8.041326522827148438e+00,2.811472654342651367e+00,-7.452837824821472168e-01
8.061830520629882812e+00,2.818641424179077148e+00,-4.475809633731842041e-01
8.056565284729003906e+00,2.816800594329833984e+00,-1.489750593900680542e-01
8.077238082885742188e+00,2.824028491973876953e+00,1.493573337793350220e-01
8.077123641967773438e+00,2.823988437652587891e+00,4.484300017356872559e-01
8.091883659362792969e+00,2.829148769378662109e+00,7.499694228172302246e-01
8.098276138305664062e+00,2.831383943557739258e+00,1.053364157676696777e+00
3.761929750442504883e+00,1.376008152961730957e+00,-1.073318481445312500e+00
4.483460426330566406e+00,1.639923810958862305e+00,-1.102155685424804688e+00
5.520142078399658203e+00,2.019112825393676758e+00,-1.142531037330627441e+00
7.113258838653564453e+00,2.601830244064331055e+00,-1.199628114700317383e+00
8.058882713317871094e+00,2.947712659835815430e+00,-1.053620100021362305e+00
8.062766075134277344e+00,2.949133396148681641e+00,-7.511062026023864746e-01
8.071495056152343750e+00,2.952325820922851562e+00,-4.504174590110778809e-01
8.075263023376464844e+00,2.953704118728637695e+00,-1.500871926546096802e-01
8.088714599609375000e+00,2.958624601364135742e+00,1.503372043371200562e-01
8.098626136779785156e+00,2.962249755859375000e+00,4.519314765930175781e-01
8.108592033386230469e+00,2.965895175933837891e+00,7.553752064704895020e-01
8.120398521423339844e+00,2.970213413238525391e+00,1.061662793159484863e+00
3.736538648605346680e+00,1.427678108215332031e+00,-1.071794629096984863e+00
4.449846744537353516e+00,1.700223088264465332e+00,-1.099762320518493652e+00
5.461770534515380859e+00,2.086864709854125977e+00,-1.136515617370605469e+00
7.110172748565673828e+00,2.716695785522460938e+00,-1.205541968345642090e+00
8.072115898132324219e+00,3.084240436553955078e+00,-1.061013340950012207e+00
8.062990188598632812e+00,3.080753803253173828e+00,-7.551575899124145508e-01
8.077801704406738281e+00,3.086412906646728516e+00,-4.531882107257843018e-01
8.088507652282714844e+00,3.090503454208374023e+00,-1.511400341987609863e-01
8.086965560913085938e+00,3.089914083480834961e+00,1.511112302541732788e-01
8.105362892150878906e+00,3.096943855285644531e+00,4.547345340251922607e-01
8.107649803161621094e+00,3.097817420959472656e+00,7.593402862548828125e-01
8.125904083251953125e+00,3.104792118072509766e+00,1.068083286285400391e+00
3.717772722244262695e+00,1.481826186180114746e+00,-1.072385787963867188e+00
4.437338352203369141e+00,1.768630027770996094e+00,-1.102814435958862305e+00
5.472750186920166016e+00,2.181323528289794922e+00,-1.145179867744445801e+00
7.025849819183349609e+00,2.800356388092041016e+00,-1.197918295860290527e+00
8.070211410522460938e+00,3.216616868972778320e+00,-1.066705346107482910e+00
8.088693618774414062e+00,3.223983526229858398e+00,-7.618088126182556152e-01
8.095898628234863281e+00,3.226855278015136719e+00,-4.567479491233825684e-01
8.109189033508300781e+00,3.232152462005615234e+00,-1.523753404617309570e-01
8.116463661193847656e+00,3.235052108764648438e+00,1.525120437145233154e-01
8.128869056701660156e+00,3.239996671676635742e+00,4.586080908775329590e-01
8.133640289306640625e+00,3.241898536682128906e+00,7.660419940948486328e-01
8.146818161010742188e+00,3.247150897979736328e+00,1.076831221580505371e+00
3.716513156890869141e+00,1.543325066566467285e+00,-1.078284025192260742e+00
4.400872230529785156e+00,1.827513217926025391e+00,-1.100139975547790527e+00
5.416173934936523438e+00,2.249128818511962891e+00,-1.139960885047912598e+00
7.021348953247070312e+00,2.915696382522583008e+00,-1.204143166542053223e+00
8.092564582824707031e+00,3.360531091690063477e+00,-1.075907707214355469e+00
8.114386558532714844e+00,3.369592666625976562e+00,-7.686923146247863770e-01
8.115738868713378906e+00,3.370154619216918945e+00,-4.605416357517242432e-01
8.122762680053710938e+00,3.373071193695068359e+00,-1.535218954086303711e-01
8.141533851623535156e+00,3.380866050720214844e+00,1.538766622543334961e-01
8.145733833312988281e+00,3.382610082626342773e+00,4.622437357902526855e-01
8.160681724548339844e+00,3.388817310333251953e+00,7.730779051780700684e-01
8.161594390869140625e+00,3.389196634292602539e+00,1.085085272789001465e+00
3.696714639663696289e+00,1.597511649131774902e+00,-1.079063415527343750e+00
4.376498222351074219e+00,1.891275882720947266e+00,-1.100701332092285156e+00
5.364996910095214844e+00,2.318449258804321289e+00,-1.136057615280151367e+00
6.939979553222656250e+00,2.999068021774291992e+00,-1.197427749633789062e+00
8.124850273132324219e+00,3.511101961135864258e+00,-1.086770176887512207e+00
8.114109039306640625e+00,3.506460666656494141e+00,-7.733414173126220703e-01
8.123694419860839844e+00,3.510602474212646484e+00,-4.637970030307769775e-01
8.127759933471679688e+00,3.512359380722045898e+00,-1.545506864786148071e-01
8.145559310913085938e+00,3.520051717758178711e+00,1.548891663551330566e-01
8.159210205078125000e+00,3.525950908660888672e+00,4.658247232437133789e-01
8.159465789794921875e+00,3.526061058044433594e+00,7.776642441749572754e-01
8.174619674682617188e+00,3.532609939575195312e+00,1.093427419662475586e+00
3.669845342636108398e+00,1.648625969886779785e+00,-1.077998042106628418e+00
4.347323894500732422e+00,1.952973484992980957e+00,-1.100281596183776855e+00
5.370031356811523438e+00,2.412410497665405273e+00,-1.144318342208862305e+00
6.940537929534912109e+00,3.117938280105590820e+00,-1.205100893974304199e+00
8.127873420715332031e+00,3.651331663131713867e+00,-1.094053149223327637e+00
8.139060974121093750e+00,3.656357765197753906e+00,-7.806274890899658203e-01
8.133164405822753906e+00,3.653708696365356445e+00,-4.672755897045135498e-01
8.160653114318847656e+00,3.666057825088500977e+00,-1.561579853296279907e-01
8.162767410278320312e+00,3.667007446289062500e+00,1.561984270811080933e-01
8.183447837829589844e+00,3.676298141479492188e+00,4.701645374298095703e-01
8.182383537292480469e+00,3.675819635391235352e+00,7.847825884819030762e-01
8.200324058532714844e+00,3.683879137039184570e+00,1.103805422782897949e+00
3.640742063522338867e+00,1.698585391044616699e+00,-1.076480507850646973e+00
4.339394569396972656e+00,2.024541378021240234e+00,-1.105495691299438477e+00
5.310970783233642578e+00,2.477829456329345703e+00,-1.139173865318298340e+00
6.841663360595703125e+00,3.191972970962524414e+00,-1.195743560791015625e+00
8.139270782470703125e+00,3.797370672225952148e+00,-1.102790713310241699e+00
8.148344993591308594e+00,3.801604032516479492e+00,-7.866562604904174805e-01
8.159613609313964844e+00,3.806861400604248047e+00,-4.718773961067199707e-01
8.160982131958007812e+00,3.807500123977661133e+00,-1.571910232305526733e-01
8.182693481445312500e+00,3.817629575729370117e+00,1.576092094182968140e-01
8.186282157897949219e+00,3.819303989410400391e+00,4.734196960926055908e-01
8.198197364807128906e+00,3.824862480163574219e+00,7.914690971374511719e-01
8.216627120971679688e+00,3.833461046218872070e+00,1.113271713256835938e+00
3.611097812652587891e+00,1.748116016387939453e+00,-1.075003504753112793e+00
4.305289745330810547e+00,2.084171056747436523e+00,-1.104293942451477051e+00
5.250852108001708984e+00,2.541913509368896484e+00,-1.133966565132141113e+00
6.850773334503173828e+00,3.316428422927856445e+00,-1.205508708953857422e+00
8.158012390136718750e+00,3.949256896972656250e+00,-1.112874984741210938e+00
8.168572425842285156e+00,3.954368591308593750e+00,-7.939920425415039062e-01
8.195740699768066406e+00,3.967520952224731445e+00,-4.772019386291503906e-01
8.170835494995117188e+00,3.955464363098144531e+00,-1.584550887346267700e-01
8.195184707641601562e+00,3.967251777648925781e+00,1.589272916316986084e-01
8.210994720458984375e+00,3.974905490875244141e+00,4.780901372432708740e-01
8.224144935607910156e+00,3.981271028518676758e+00,7.993937730789184570e-01
8.225190162658691406e+00,3.981777191162109375e+00,1.122038960456848145e+00
3.589825391769409180e+00,1.801684975624084473e+00,-1.076237678527832031e+00
4.281568527221679688e+00,2.148861408233642578e+00,-1.105985522270202637e+00
5.270580291748046875e+00,2.645233154296875000e+00,-1.146286368370056152e+00
6.754003047943115234e+00,3.389743089675903320e+00,-1.196895480155944824e+00
8.183943748474121094e+00,4.107410907745361328e+00,-1.124317169189453125e+00
8.175192832946777344e+00,4.103019237518310547e+00,-8.002620339393615723e-01
8.189289093017578125e+00,4.110094070434570312e+00,-4.802024960517883301e-01
8.202098846435546875e+00,4.116523265838623047e+00,-1.601876169443130493e-01
8.217244148254394531e+00,4.124124050140380859e+00,1.604833900928497314e-01
8.240507125854492188e+00,4.135799407958984375e+00,4.832057952880859375e-01
8.246305465698242188e+00,4.138709545135498047e+00,8.072232604026794434e-01
8.243611335754394531e+00,4.137357234954833984e+00,1.132514357566833496e+00
3.562899112701416016e+00,1.852476239204406738e+00,-1.076004266738891602e+00
4.232181549072265625e+00,2.200459480285644531e+00,-1.101251244544982910e+00
5.208029270172119141e+00,2.707837104797363281e+00,-1.140994906425476074e+00
6.764558315277099609e+00,3.517131090164184570e+00,-1.207563638687133789e+00
8.182435035705566406e+00,4.254334926605224609e+00,-1.132359623908996582e+00
8.195649147033691406e+00,4.261205196380615234e+00,-8.081522583961486816e-01
8.212498664855957031e+00,4.269966125488281250e+00,-4.850975871086120605e-01
8.238201141357421875e+00,4.283329486846923828e+00,-1.620734632015228271e-01
8.232872962951660156e+00,4.280559539794921875e+00,1.619686484336853027e-01
8.253708839416503906e+00,4.291392803192138672e+00,4.875318109989166260e-01
8.253027915954589844e+00,4.291038513183593750e+00,8.138102293014526367e-01
8.270343780517578125e+00,4.300041675567626953e+00,1.144525289535522461e+00
3.520469665527343750e+00,1.894907832145690918e+00,-1.071271896362304688e+00
4.211618900299072266e+00,2.266921758651733398e+00,-1.104230761528015137e+00
5.158388137817382812e+00,2.776524543762207031e+00,-1.138709545135498047e+00
6.684076309204101562e+00,3.597732543945312500e+00,-1.202265977859497070e+00
8.216770172119140625e+00,4.422711372375488281e+00,-1.145754456520080566e+00
8.225423812866210938e+00,4.427369594573974609e+00,-8.172534108161926270e-01
8.245663642883300781e+00,4.438263416290283203e+00,-4.907587468624114990e-01
8.243821144104003906e+00,4.437272071838378906e+00,-1.634168028831481934e-01
8.259014129638671875e+00,4.445449352264404297e+00,1.637179702520370483e-01
8.266994476318359375e+00,4.449745178222656250e+00,4.920283257961273193e-01
8.282236099243164062e+00,4.457948684692382812e+00,8.228980898857116699e-01
8.299473762512207031e+00,4.467226982116699219e+00,1.157286763191223145e+00
3.511301517486572266e+00,1.955295920372009277e+00,-1.076888084411621094e+00
4.175127983093261719e+00,2.324953079223632812e+00,-1.103275418281555176e+00
5.110538959503173828e+00,2.845844030380249023e+00,-1.137022376060485840e+00
6.612499713897705078e+00,3.682222843170166016e+00,-1.198748826980590820e+00
8.237733840942382812e+00,4.587247371673583984e+00,-1.157714724540710449e+00
8.229600906372070312e+00,4.582718372344970703e+00,-8.241012692451477051e-01
8.253044128417968750e+00,4.595772743225097656e+00,-4.950624406337738037e-01
8.260159492492675781e+00,4.599735260009765625e+00,-1.650288701057434082e-01
8.269909858703613281e+00,4.605164527893066406e+00,1.652236729860305786e-01
8.298271179199218750e+00,4.620957851409912109e+00,4.977754056453704834e-01
8.305302619934082031e+00,4.624873638153076172e+00,8.316819667816162109e-01
8.313857078552246094e+00,4.629636764526367188e+00,1.168412923812866211e+00
3.472987174987792969e+00,1.999608755111694336e+00,-1.073805332183837891e+00
4.149799823760986328e+00,2.389291048049926758e+00,-1.105506300926208496e+00
5.065892696380615234e+00,2.916740894317626953e+00,-1.136261343955993652e+00
6.598599433898925781e+00,3.799212932586669922e+00,-1.205963730812072754e+00
8.250926971435546875e+00,4.750557422637939453e+00,-1.169005155563354492e+00
8.260829925537109375e+00,4.756259918212890625e+00,-8.339604139328002930e-01
8.261134147644042969e+00,4.756434917449951172e+00,-4.995804429054260254e-01
8.287397384643554688e+00,4.771556377410888672e+00,-1.669204831123352051e-01
8.299309730529785156e+00,4.778414726257324219e+00,1.671604067087173462e-01
8.310850143432617188e+00,4.785058975219726562e+00,5.025869011878967285e-01
8.314703941345214844e+00,4.787278175354003906e+00,8.393992185592651367e-01
8.323420524597167969e+00,4.792296409606933594e+00,1.179276227951049805e+00
3.451136112213134766e+00,2.053347587585449219e+00,-1.076026320457458496e+00
4.118511676788330078e+00,2.450420618057250977e+00,-1.106401443481445312e+00
5.028802394866943359e+00,2.992022991180419922e+00,-1.137431263923645020e+00
6.523265838623046875e+00,3.881194829940795898e+00,-1.202225446701049805e+00
8.271210670471191406e+00,4.921182155609130859e+00,-1.181738018989562988e+00
8.273880004882812500e+00,4.922770023345947266e+00,-8.423049449920654297e-01
8.283310890197753906e+00,4.928381443023681641e+00,-5.051357150077819824e-01
8.304029464721679688e+00,4.940708637237548828e+00,-1.686625629663467407e-01
8.317000389099121094e+00,4.948425769805908203e+00,1.689260154962539673e-01
8.320775985717773438e+00,4.950672149658203125e+00,5.074204206466674805e-01
8.326926231384277344e+00,4.954331398010253906e+00,8.477051854133605957e-01
8.338171958923339844e+00,4.961022853851318359e+00,1.191305041313171387e+00
3.419106006622314453e+00,2.101123094558715820e+00,-1.075306296348571777e+00
4.090396404266357422e+00,2.513647079467773438e+00,-1.108400344848632812e+00
5.010065078735351562e+00,3.078805685043334961e+00,-1.143043756484985352e+00
6.439700603485107422e+00,3.957351207733154297e+00,-1.197141289710998535e+00
8.279030799865722656e+00,5.087664127349853516e+00,-1.193137407302856445e+00
8.300435066223144531e+00,5.100817203521728516e+00,-8.523536920547485352e-01
8.318281173706054688e+00,5.111784458160400391e+00,-5.116778016090393066e-01
8.326212882995605469e+00,5.116658687591552734e+00,-1.705831736326217651e-01
8.345923423767089844e+00,5.128770828247070312e+00,1.709869951009750366e-01
8.339191436767578125e+00,5.124634265899658203e+00,5.129640698432922363e-01
8.355094909667968750e+00,5.134407043457031250e+00,8.579666018486022949e-01
8.359568595886230469e+00,5.137156486511230469e+00,1.204744219779968262e+00
3.402251482009887695e+00,2.158449172973632812e+00,-1.079611420631408691e+00
4.024378299713134766e+00,2.553137779235839844e+00,-1.100301027297973633e+00
4.981443881988525391e+00,3.160316944122314453e+00,-1.146716713905334473e+00
6.371782779693603516e+00,4.042372703552246094e+00,-1.195149064064025879e+00
8.314749717712402344e+00,5.275025367736816406e+00,-1.209042429924011230e+00
8.330600738525390625e+00,5.285082340240478516e+00,-8.631310462951660156e-01
8.341006278991699219e+00,5.291683673858642578e+00,-5.176817178726196289e-01
8.339741706848144531e+00,5.290881156921386719e+00,-1.723942309617996216e-01
8.346831321716308594e+00,5.295379161834716797e+00,1.725407689809799194e-01
8.378437042236328125e+00,5.315430164337158203e+00,5.200048685073852539e-01
8.373076438903808594e+00,5.312029361724853516e+00,8.675318956375122070e-01
8.374667167663574219e+00,5.313038349151611328e+00,1.217755079269409180e+00
3.354053735733032227e+00,2.195819377899169922e+00,-1.074180483818054199e+00
3.990183591842651367e+00,2.612278461456298828e+00,-1.101062059402465820e+00
4.914451599121093750e+00,3.217375040054321289e+00,-1.141779303550720215e+00
6.367842197418212891e+00,4.168875217437744141e+00,-1.205478906631469727e+00
8.338425636291503906e+00,5.458969116210937500e+00,-1.223721623420715332e+00
8.350438117980957031e+00,5.466834068298339844e+00,-8.732043504714965820e-01
8.373962402343750000e+00,5.482234477996826172e+00,-5.245436429977416992e-01
8.369472503662109375e+00,5.479295253753662109e+00,-1.746121197938919067e-01
8.374073982238769531e+00,5.482307434082031250e+00,1.747081130743026733e-01
8.386895179748535156e+00,5.490701198577880859e+00,5.253537297248840332e-01
8.392148017883300781e+00,5.494140148162841797e+00,8.775659203529357910e-01
8.410491943359375000e+00,5.506149291992187500e+00,1.234297871589660645e+00
3.345115900039672852e+00,2.259016752243041992e+00,-1.081562757492065430e+00
3.959847688674926758e+00,2.674156188964843750e+00,-1.103140115737915039e+00
4.851336479187011719e+00,3.276194334030151367e+00,-1.137893915176391602e+00
6.293569564819335938e+00,4.250160217285156250e+00,-1.202811837196350098e+00
8.359865188598632812e+00,5.645566940307617188e+00,-1.238600254058837891e+00
8.366154670715332031e+00,5.649814128875732422e+00,-8.832136988639831543e-01
8.372493743896484375e+00,5.654095172882080078e+00,-5.294668078422546387e-01
8.386940002441406250e+00,5.663850784301757812e+00,-1.766497939825057983e-01
8.398812294006347656e+00,5.671868801116943359e+00,1.768998652696609497e-01
8.398033142089843750e+00,5.671342372894287109e+00,5.310819149017333984e-01
8.416808128356933594e+00,5.684020996093750000e+00,8.885611891746520996e-01
8.429399490356445312e+00,5.692524909973144531e+00,1.248902559280395508e+00
3.288058519363403320e+00,2.289680719375610352e+00,-1.073601126670837402e+00
3.899833202362060547e+00,2.715697765350341797e+00,-1.097137689590454102e+00
4.806034088134765625e+00,3.346742153167724609e+00,-1.138387441635131836e+00
6.225253105163574219e+00,4.335032939910888672e+00,-1.201490998268127441e+00
8.377936363220214844e+00,5.834080696105957031e+00,-1.253521561622619629e+00
8.378051757812500000e+00,5.834161281585693359e+00,-8.931940197944641113e-01
8.393474578857421875e+00,5.844901084899902344e+00,-5.360292792320251465e-01
8.404519081115722656e+00,5.852591991424560547e+00,-1.787661612033843994e-01
8.410247802734375000e+00,5.856581687927246094e+00,1.788880228996276855e-01
8.427420616149902344e+00,5.868539333343505859e+00,5.381971597671508789e-01
8.433895111083984375e+00,5.873048305511474609e+00,8.991475105285644531e-01
8.450213432312011719e+00,5.884411811828613281e+00,1.264335751533508301e+00
3.256818771362304688e+00,2.337845087051391602e+00,-1.074216961860656738e+00
3.871537685394287109e+00,2.779109001159667969e+00,-1.100255370140075684e+00
4.765649318695068359e+00,3.420929908752441406e+00,-1.140303015708923340e+00
6.166518688201904297e+00,4.426517486572265625e+00,-1.202260375022888184e+00
8.402638435363769531e+00,6.031672954559326172e+00,-1.270004868507385254e+00
8.402745246887207031e+00,6.031749725341796875e+00,-9.049382805824279785e-01
8.417642593383789062e+00,6.042443752288818359e+00,-5.430404543876647949e-01
8.430436134338378906e+00,6.051627159118652344e+00,-1.811413019895553589e-01
8.439391136169433594e+00,6.058055400848388672e+00,1.813337206840515137e-01
8.439605712890625000e+00,6.058209419250488281e+00,5.444573760032653809e-01
8.463345527648925781e+00,6.075250625610351562e+00,9.114646315574645996e-01
3.222454071044921875e+00,2.383794069290161133e+00,-1.074026226997375488e+00
3.825402975082397461e+00,2.829822540283203125e+00,-1.098542928695678711e+00
4.724044322967529297e+00,3.494587898254394531e+00,-1.142199516296386719e+00
6.088757038116455078e+00,4.504127025604248047e+00,-1.199545979499816895e+00
8.424916267395019531e+00,6.232289314270019531e+00,-1.286723136901855469e+00
8.438654899597167969e+00,6.242452144622802734e+00,-9.183341860771179199e-01
8.447525978088378906e+00,6.249014377593994141e+00,-5.506821870803833008e-01
8.452365875244140625e+00,6.252594947814941406e+00,-1.835166662931442261e-01
8.462595939636230469e+00,6.260162353515625000e+00,1.837387681007385254e-01
8.469127655029296875e+00,6.264994144439697266e+00,5.520903468132019043e-01
8.482171058654785156e+00,6.274642944335937500e+00,9.230698347091674805e-01
3.196382522583007812e+00,2.436052799224853516e+00,-1.076847910881042480e+00
3.793092727661132812e+00,2.890822410583496094e+00,-1.101034045219421387e+00
4.674882888793945312e+00,3.562859535217285156e+00,-1.142526268959045410e+00
6.016324996948242188e+00,4.585209846496582031e+00,-1.198083162307739258e+00
8.429912567138671875e+00,6.424673080444335938e+00,-1.301397681236267090e+00
8.449934005737304688e+00,6.439931869506835938e+00,-9.294976592063903809e-01
8.460014343261718750e+00,6.447614192962646484e+00,-5.574553012847900391e-01
8.475593566894531250e+00,6.459487915039062500e+00,-1.860093623399734497e-01
8.480493545532226562e+00,6.463221549987792969e+00,1.861168891191482544e-01
8.501529693603515625e+00,6.479253768920898438e+00,5.601908564567565918e-01
8.501109123229980469e+00,6.478933334350585938e+00,9.351269006729125977e-01
3.158683776855468750e+00,2.479582071304321289e+00,-1.075994014739990234e+00
3.757813930511474609e+00,2.949902296066284180e+00,-1.102936863899230957e+00
4.602440834045410156e+00,3.612938404083251953e+00,-1.137343764305114746e+00
5.948491096496582031e+00,4.669594287872314453e+00,-1.197762250900268555e+00
8.420915603637695312e+00,6.610459804534912109e+00,-1.314481139183044434e+00
8.486607551574707031e+00,6.662028312683105469e+00,-9.439243674278259277e-01
8.495170593261718750e+00,6.668750286102294922e+00,-5.660035610198974609e-01
8.498431205749511719e+00,6.671309471130371094e+00,-1.885868906974792480e-01
8.506487846374511719e+00,6.677634716033935547e+00,1.887656897306442261e-01
8.521288871765136719e+00,6.689253330230712891e+00,5.677437186241149902e-01
8.516878128051757812e+00,6.685790538787841797e+00,9.472911953926086426e-01
3.119474411010742188e+00,2.521788120269775391e+00,-1.074823141098022461e+00
3.717842102050781250e+00,3.005509614944458008e+00,-1.103718280792236328e+00
4.564905643463134766e+00,3.690277338027954102e+00,-1.141004204750061035e+00
5.887128353118896484e+00,4.759164333343505859e+00,-1.199000000953674316e+00
8.286624908447265625e+00,6.698921203613281250e+00,-1.308352112770080566e+00
8.491212844848632812e+00,6.864310264587402344e+00,-9.552668333053588867e-01
8.507675170898437500e+00,6.877618312835693359e+00,-5.733368396759033203e-01
8.524507522583007812e+00,6.891225814819335938e+00,-1.913347989320755005e-01
8.530044555664062500e+00,6.895701885223388672e+00,1.914590746164321899e-01
8.536078453063964844e+00,6.900579452514648438e+00,5.752509236335754395e-01
8.547260284423828125e+00,6.909619331359863281e+00,9.615722298622131348e-01
3.087999105453491211e+00,2.570284366607666016e+00,-1.076544046401977539e+00
3.681447744369506836e+00,3.064239025115966797e+00,-1.105821251869201660e+00
4.523600101470947266e+00,3.765201330184936523e+00,-1.144033312797546387e+00
5.825462341308593750e+00,4.848801612854003906e+00,-1.200452804565429688e+00
8.168576240539550781e+00,6.799083232879638672e+00,-1.304945349693298340e+00
8.531553268432617188e+00,7.101206302642822266e+00,-9.711405634880065918e-01
8.532402038574218750e+00,7.101912498474121094e+00,-5.817940831184387207e-01
8.549132347106933594e+00,7.115837574005126953e+00,-1.941537111997604370e-01
8.574625015258789062e+00,7.137056350708007812e+00,1.947326660156250000e-01
8.563884735107421875e+00,7.128117084503173828e+00,5.839407444000244141e-01
8.588053703308105469e+00,7.148234367370605469e+00,9.775720238685607910e-01
3.049557685852050781e+00,2.613069057464599609e+00,-1.076071500778198242e+00
3.621707439422607422e+00,3.103325843811035156e+00,-1.101106405258178711e+00
4.443441390991210938e+00,3.807443618774414062e+00,-1.137427091598510742e+00
5.774298191070556641e+00,4.947812557220458984e+00,-1.204380035400390625e+00
8.065953254699707031e+00,6.911458969116210938e+00,-1.304221391677856445e+00
8.562239646911621094e+00,7.336710929870605469e+00,-9.864861965179443359e-01
8.576225280761718750e+00,7.348694324493408203e+00,-5.918937921524047852e-01
8.572109222412109375e+00,7.345167160034179688e+00,-1.970429867506027222e-01
8.592409133911132812e+00,7.362561702728271484e+00,1.975096166133880615e-01
8.599780082702636719e+00,7.368877887725830078e+00,5.935194492340087891e-01
8.613097190856933594e+00,7.380289077758789062e+00,9.923456311225891113e-01
3.005321741104125977e+00,2.650691032409667969e+00,-1.073740005493164062e+00
3.570275545120239258e+00,3.148979902267456055e+00,-1.099060416221618652e+00
4.412777900695800781e+00,3.892066001892089844e+00,-1.143720865249633789e+00
5.703361034393310547e+00,5.030359268188476562e+00,-1.204478740692138672e+00
7.941406250000000000e+00,7.004313468933105469e+00,-1.300160408020019531e+00
8.569329261779785156e+00,7.558141231536865234e+00,-9.996647834777832031e-01
8.588856697082519531e+00,7.575364112854003906e+00,-6.001874208450317383e-01
8.603946685791015625e+00,7.588673114776611328e+00,-2.002511024475097656e-01
8.619562149047851562e+00,7.602446079254150391e+00,2.006145417690277100e-01
8.620872497558593750e+00,7.603602409362792969e+00,6.024246811866760254e-01
8.632375717163085938e+00,7.613748073577880859e+00,1.007019519805908203e+00
2.975132226943969727e+00,2.700743913650512695e+00,-1.076655030250549316e+00
3.538597106933593750e+00,3.212241888046264648e+00,-1.103349447250366211e+00
4.357556343078613281e+00,3.955670833587646484e+00,-1.143966078758239746e+00
5.587998867034912109e+00,5.072632789611816406e+00,-1.195326924324035645e+00
7.937382221221923828e+00,7.205339431762695312e+00,-1.316251754760742188e+00
8.606821060180664062e+00,7.813037872314453125e+00,-1.016980051994323730e+00
8.626734733581542969e+00,7.831114768981933594e+00,-6.106046438217163086e-01
8.622600555419921875e+00,7.827361583709716797e+00,-2.032720297574996948e-01
8.643262863159179688e+00,7.846118450164794922e+00,2.037591338157653809e-01
8.643136024475097656e+00,7.846003055572509766e+00,6.117655038833618164e-01
8.662410736083984375e+00,7.863500595092773438e+00,1.023548603057861328e+00
2.936727523803710938e+00,2.743564128875732422e+00,-1.076857924461364746e+00
3.483228683471679688e+00,3.254118919372558594e+00,-1.100495696067810059e+00
4.282041072845458984e+00,4.000389575958251953e+00,-1.139056801795959473e+00
5.536459922790527344e+00,5.172298908233642578e+00,-1.200015783309936523e+00
7.827389240264892578e+00,7.312541961669921875e+00,-1.315233826637268066e+00
8.662661552429199219e+00,8.092874526977539062e+00,-1.037159204483032227e+00
8.663846969604492188e+00,8.093981742858886719e+00,-6.213679313659667969e-01
8.663639068603515625e+00,8.093787193298339844e+00,-2.069493681192398071e-01
8.677859306335449219e+00,8.107072830200195312e+00,2.072890549898147583e-01
8.684067726135253906e+00,8.112872123718261719e+00,6.228181123733520508e-01
8.689996719360351562e+00,8.118412017822265625e+00,1.040431976318359375e+00
2.893103361129760742e+00,2.781412601470947266e+00,-1.075349688529968262e+00
3.439511299133300781e+00,3.306725978851318359e+00,-1.101524472236633301e+00
4.249026775360107422e+00,4.084989547729492188e+00,-1.145710945129394531e+00
5.480069637298583984e+00,5.268506526947021484e+00,-1.204015016555786133e+00
7.717467308044433594e+00,7.419527530670166016e+00,-1.314473628997802734e+00
8.671295166015625000e+00,8.336531639099121094e+00,-1.052371501922607422e+00
8.691324234008789062e+00,8.355788230895996094e+00,-6.318515539169311523e-01
8.699782371520996094e+00,8.363920211791992188e+00,-2.106508463621139526e-01
8.705816268920898438e+00,8.369721412658691406e+00,2.107969522476196289e-01
8.716738700866699219e+00,8.380221366882324219e+00,6.336991786956787109e-01
8.729210853576660156e+00,8.392211914062500000e+00,1.059400320053100586e+00
2.847855329513549805e+00,2.817444562911987305e+00,-1.073410749435424805e+00
3.387799978256225586e+00,3.351623296737670898e+00,-1.100214600563049316e+00
4.188793182373046875e+00,4.144062995910644531e+00,-1.145346164703369141e+00
5.362651824951171875e+00,5.305387020111083984e+00,-1.194779396057128906e+00
7.609817981719970703e+00,7.528556823730468750e+00,-1.314357876777648926e+00
8.695000648498535156e+00,8.602151870727539062e+00,-1.070081949234008789e+00
8.715464591979980469e+00,8.622397422790527344e+00,-6.425129771232604980e-01
8.716513633728027344e+00,8.623435020446777344e+00,-2.140227258205413818e-01
8.731168746948242188e+00,8.637932777404785156e+00,2.143825441598892212e-01
8.738882064819335938e+00,8.645564079284667969e+00,6.442393064498901367e-01
8.750664710998535156e+00,8.657220840454101562e+00,1.076932311058044434e+00
2.814740180969238281e+00,2.865549802780151367e+00,-1.076278448104858398e+00
3.344077825546264648e+00,3.404442548751831055e+00,-1.101727962493896484e+00
4.114025115966796875e+00,4.188288211822509766e+00,-1.141177177429199219e+00
5.320379257202148438e+00,5.416418552398681641e+00,-1.202510833740234375e+00
7.495084762573242188e+00,7.630380630493164062e+00,-1.313270688056945801e+00
8.720198631286621094e+00,8.877608299255371094e+00,-1.088709592819213867e+00
8.741213798522949219e+00,8.899003028869628906e+00,-6.537345051765441895e-01
8.746562957763671875e+00,8.904449462890625000e+00,-2.178676873445510864e-01
8.765067100524902344e+00,8.923287391662597656e+00,2.183286100625991821e-01
8.771967887878417969e+00,8.930312156677246094e+00,6.560345292091369629e-01
8.790529251098632812e+00,8.949209213256835938e+00,1.097490310668945312e+00
2.774094343185424805e+00,2.906226158142089844e+00,-1.076532363891601562e+00
3.293771982192993164e+00,3.450656175613403320e+00,-1.101313710212707520e+00
4.052797794342041016e+00,4.245834827423095703e+00,-1.140934228897094727e+00
5.217965602874755859e+00,5.466500282287597656e+00,-1.196925520896911621e+00
7.402529716491699219e+00,7.755116462707519531e+00,-1.316368103027343750e+00
8.768879890441894531e+00,9.186546325683593750e+00,-1.111090183258056641e+00
8.782100677490234375e+00,9.200397491455078125e+00,-6.665728688240051270e-01
8.781941413879394531e+00,9.200230598449707031e+00,-2.220063656568527222e-01
8.801610946655273438e+00,9.220836639404296875e+00,2.225036025047302246e-01
8.824773788452148438e+00,9.245102882385253906e+00,6.698117852210998535e-01
8.823078155517578125e+00,9.243326187133789062e+00,1.117957592010498047e+00
2.740556955337524414e+00,2.954623222351074219e+00,-1.079818606376647949e+00
3.239291906356811523e+00,3.492314815521240234e+00,-1.099698781967163086e+00
3.985389232635498047e+00,4.296689987182617188e+00,-1.139154314994812012e+00
5.161154270172119141e+00,5.564294815063476562e+00,-1.202039957046508789e+00
7.209603786468505859e+00,7.772749423980712891e+00,-1.301711440086364746e+00
8.811045646667480469e+00,9.499281883239746094e+00,-1.133545160293579102e+00
8.820660591125488281e+00,9.509647369384765625e+00,-6.797612905502319336e-01
8.820368766784667969e+00,9.509332656860351562e+00,-2.263954877853393555e-01
8.830007553100585938e+00,9.519724845886230469e+00,2.266429066658020020e-01
8.841557502746582031e+00,9.532176971435546875e+00,6.813717484474182129e-01
8.863795280456542969e+00,9.556150436401367188e+00,1.140331268310546875e+00
2.690870523452758789e+00,2.985644578933715820e+00,-1.076969385147094727e+00
3.200852632522583008e+00,3.551493167877197266e+00,-1.103793621063232422e+00
3.931641817092895508e+00,4.362337112426757812e+00,-1.141522049903869629e+00
5.079203128814697266e+00,5.635609149932861328e+00,-1.201617360115051270e+00
7.108402252197265625e+00,7.887098789215087891e+00,-1.303688526153564453e+00
8.832596778869628906e+00,9.800171852111816406e+00,-1.154245734214782715e+00
8.848140716552734375e+00,9.817419052124023438e+00,-6.926373243331909180e-01
8.864354133605957031e+00,9.835408210754394531e+00,-2.311142385005950928e-01
8.866564750671386719e+00,9.837861061096191406e+00,2.311718612909317017e-01
8.880368232727050781e+00,9.853177070617675781e+00,6.951601505279541016e-01
8.892207145690917969e+00,9.866312980651855469e+00,1.162035703659057617e+00
2.637088537216186523e+00,3.011544466018676758e+00,-1.072586417198181152e+00
3.138948917388916016e+00,3.584666967391967773e+00,-1.100027322769165039e+00
3.860470056533813477e+00,4.408641338348388672e+00,-1.139062643051147461e+00
4.983761310577392578e+00,5.691434860229492188e+00,-1.198187828063964844e+00
7.026007175445556641e+00,8.023671150207519531e+00,-1.309506058692932129e+00
8.875816345214843750e+00,1.013614654541015625e+01,-1.178732514381408691e+00
8.881650924682617188e+00,1.014280891418457031e+01,-7.065528035163879395e-01
8.888824462890625000e+00,1.015100193023681641e+01,-2.355162948369979858e-01
8.917777061462402344e+00,1.018406486511230469e+01,2.362834215164184570e-01
8.921914100646972656e+00,1.018879032135009766e+01,7.097558379173278809e-01
2.596770763397216797e+00,3.052567481994628906e+00,-1.073849201202392578e+00
3.087177515029907227e+00,3.629052639007568359e+00,-1.099975347518920898e+00
3.803648948669433594e+00,4.471282482147216797e+00,-1.141063809394836426e+00
4.883205890655517578e+00,5.740327835083007812e+00,-1.193643927574157715e+00
6.935481071472167969e+00,8.152827262878417969e+00,-1.314248800277709961e+00
8.914185523986816406e+00,1.047884368896484375e+01,-1.203623652458190918e+00
8.927026748657226562e+00,1.049393749237060547e+01,-7.220376133918762207e-01
8.933986663818359375e+00,1.050212001800537109e+01,-2.406711429357528687e-01
8.940881729125976562e+00,1.051022529602050781e+01,2.408569008111953735e-01
8.960185050964355469e+00,1.053291702270507812e+01,7.247196435928344727e-01
2.556330680847167969e+00,3.093672752380371094e+00,-1.075327396392822266e+00
3.042767524719238281e+00,3.682358980178833008e+00,-1.102818727493286133e+00
3.719894647598266602e+00,4.501818656921386719e+00,-1.135152459144592285e+00
4.813562870025634766e+00,5.825376510620117188e+00,-1.196879506111145020e+00
6.763025283813476562e+00,8.184617042541503906e+00,-1.303635120391845703e+00
8.961176872253417969e+00,1.084482097625732422e+01,-1.230801820755004883e+00
8.968195915222167969e+00,1.085331535339355469e+01,-7.378568649291992188e-01
8.973119735717773438e+00,1.085927391052246094e+01,-2.458873689174652100e-01
8.990479469299316406e+00,1.088028335571289062e+01,2.463630735874176025e-01
9.011581420898437500e+00,1.090582084655761719e+01,7.414264082908630371e-01
2.498917818069458008e+00,3.113899230957031250e+00,-1.069815754890441895e+00
2.987840890884399414e+00,3.723145723342895508e+00,-1.102113008499145508e+00
3.673615932464599609e+00,4.577689647674560547e+00,-1.140908002853393555e+00
4.720373153686523438e+00,5.882052421569824219e+00,-1.194519996643066406e+00
6.681050300598144531e+00,8.325250625610351562e+00,-1.310669183731079102e+00
8.997916221618652344e+00,1.121229553222656250e+01,-1.257761597633361816e+00
9.005998611450195312e+00,1.122236633300781250e+01,-7.541056871414184570e-01
9.023484230041503906e+00,1.124415493011474609e+01,-2.516519725322723389e-01
9.038553237915039062e+00,1.126293277740478516e+01,2.520722150802612305e-01
9.040655136108398438e+00,1.126555252075195312e+01,7.570076584815979004e-01
2.456243991851806641e+00,3.152101516723632812e+00,-1.070752263069152832e+00
2.930617809295654297e+00,3.760866403579711914e+00,-1.100749135017395020e+00
3.610082387924194336e+00,4.632824420928955078e+00,-1.141653776168823242e+00
4.644602298736572266e+00,5.960425376892089844e+00,-1.196812510490417480e+00
6.520987510681152344e+00,8.368392944335937500e+00,-1.302633404731750488e+00
9.038491249084472656e+00,1.159910869598388672e+01,-1.286508798599243164e+00
9.049621582031250000e+00,1.161339378356933594e+01,-7.715982794761657715e-01
9.071058273315429688e+00,1.164090347290039062e+01,-2.575992047786712646e-01
9.086576461791992188e+00,1.166081714630126953e+01,2.580398619174957275e-01
9.086037635803222656e+00,1.166012573242187500e+01,7.747032046318054199e-01
2.412270069122314453e+00,3.188770532608032227e+00,-1.071369767189025879e+00
2.869303226470947266e+00,3.792921066284179688e+00,-1.097998142242431641e+00
3.529586791992187500e+00,4.665747642517089844e+00,-1.137200832366943359e+00
4.560558795928955078e+00,6.028585433959960938e+00,-1.197268724441528320e+00
6.441392421722412109e+00,8.514851570129394531e+00,-1.310945272445678711e+00
9.094729423522949219e+00,1.202228832244873047e+01,-1.318871855735778809e+00
9.099218368530273438e+00,1.202822208404541016e+01,-7.904254198074340820e-01
9.113777160644531250e+00,1.204746723175048828e+01,-2.636822760105133057e-01
9.118444442749023438e+00,1.205363750457763672e+01,2.638173103332519531e-01
9.128261566162109375e+00,1.206661415100097656e+01,7.929483056068420410e-01
2.369451999664306641e+00,3.227145195007324219e+00,-1.072758197784423828e+00
2.818486690521240234e+00,3.838721275329589844e+00,-1.099465489387512207e+00
3.468855619430541992e+00,4.724510669708251953e+00,-1.139304995536804199e+00
4.494225025177001953e+00,6.121042728424072266e+00,-1.202731966972351074e+00
6.298989772796630859e+00,8.579094886779785156e+00,-1.306821227073669434e+00
9.151814460754394531e+00,1.246458435058593750e+01,-1.352883815765380859e+00
9.157451629638671875e+00,1.247226238250732422e+01,-8.109086155891418457e-01
9.163089752197265625e+00,1.247994136810302734e+01,-2.702495157718658447e-01
9.176922798156738281e+00,1.249878120422363281e+01,2.706574797630310059e-01
9.180047035217285156e+00,1.250303649902343750e+01,8.129094839096069336e-01
2.324516057968139648e+00,3.262822866439819336e+00,-1.073447942733764648e+00
2.761082410812377930e+00,3.875612258911132812e+00,-1.098599791526794434e+00
3.401595592498779297e+00,4.774672508239746094e+00,-1.139543652534484863e+00
4.381499290466308594e+00,6.150121212005615234e+00,-1.196000337600708008e+00
6.157150745391845703e+00,8.642526626586914062e+00,-1.302925467491149902e+00
9.189848899841308594e+00,1.289939403533935547e+01,-1.385658502578735352e+00
9.197722434997558594e+00,1.291044616699218750e+01,-8.307533860206604004e-01
9.206348419189453125e+00,1.292255306243896484e+01,-2.769522368907928467e-01
9.226559638977050781e+00,1.295092391967773438e+01,2.775602936744689941e-01
9.226095199584960938e+00,1.295027160644531250e+01,8.333160281181335449e-01
2.276141881942749023e+00,3.293675184249877930e+00,-1.072769880294799805e+00
2.712761640548706055e+00,3.925482749938964844e+00,-1.101616859436035156e+00
3.343004941940307617e+00,4.837471961975097656e+00,-1.142994403839111328e+00
4.313660144805908203e+00,6.242052078247070312e+00,-1.201747655868530273e+00
6.028656959533691406e+00,8.723726272583007812e+00,-1.302024602890014648e+00
9.248110771179199219e+00,1.338241481781005859e+01,-1.423179388046264648e+00
9.263526916503906250e+00,1.340472316741943359e+01,-8.539392948150634766e-01
9.270941734313964844e+00,1.341545200347900391e+01,-2.846427857875823975e-01
9.275739669799804688e+00,1.342239475250244141e+01,2.847900986671447754e-01
9.295578956604003906e+00,1.345110321044921875e+01,8.568939566612243652e-01
2.232077836990356445e+00,3.330850839614868164e+00,-1.074362277984619141e+00
2.653754949569702148e+00,3.960104703903198242e+00,-1.100560426712036133e+00
3.258409738540649414e+00,4.862409591674804688e+00,-1.137750267982482910e+00
4.213109016418457031e+00,6.287073612213134766e+00,-1.198682665824890137e+00
5.962121486663818359e+00,8.897062301635742188e+00,-1.315023660659790039e+00
9.305285453796386719e+00,1.388594722747802734e+01,-1.462414383888244629e+00
9.310723304748535156e+00,1.389406394958496094e+01,-8.765328526496887207e-01
9.332065582275390625e+00,1.392591094970703125e+01,-2.926093637943267822e-01
9.344290733337402344e+00,1.394415473937988281e+01,2.929927110671997070e-01
9.358476638793945312e+00,1.396532344818115234e+01,8.810283541679382324e-01
2.189573049545288086e+00,3.370760440826416016e+00,-1.077015995979309082e+00
2.592993259429931641e+00,3.991809844970703125e+00,-1.098944425582885742e+00
3.203558683395385742e+00,4.931750774383544922e+00,-1.143128991127014160e+00
4.125125885009765625e+00,6.350466728210449219e+00,-1.199388742446899414e+00
5.772139549255371094e+00,8.885978698730468750e+00,-1.301040649414062500e+00
9.365355491638183594e+00,1.441759109497070312e+01,-1.504133224487304688e+00
9.366124153137207031e+00,1.441877460479736328e+01,-9.010853767395019531e-01
9.392975807189941406e+00,1.446011161804199219e+01,-3.009781241416931152e-01
9.401552200317382812e+00,1.447331523895263672e+01,3.012529611587524414e-01
9.409280776977539062e+00,1.448521232604980469e+01,9.052373170852661133e-01
2.132334947586059570e+00,3.387816190719604492e+00,-1.072603702545166016e+00
2.548283576965332031e+00,4.048667907714843750e+00,-1.104442954063415527e+00
3.130833387374877930e+00,4.974213123321533203e+00,-1.142467021942138672e+00
4.028085708618164062e+00,6.399752140045166016e+00,-1.197685122489929199e+00
5.651961803436279297e+00,8.979737281799316406e+00,-1.302790045738220215e+00
9.435637474060058594e+00,1.499117469787597656e+01,-1.549724340438842773e+00
9.440496444702148438e+00,1.499889469146728516e+01,-9.287996292114257812e-01
9.448752403259277344e+00,1.501201248168945312e+01,-3.096188604831695557e-01
9.472495079040527344e+00,1.504973411560058594e+01,3.103968799114227295e-01
9.472639083862304688e+00,1.504996204376220703e+01,9.319619536399841309e-01
2.086092472076416016e+00,3.422026395797729492e+00,-1.073871254920959473e+00
2.485499620437622070e+00,4.077214241027832031e+00,-1.102412223815917969e+00
3.056236982345581055e+00,5.013452053070068359e+00,-1.141314983367919922e+00
3.942359924316406250e+00,6.467048168182373047e+00,-1.199596047401428223e+00
5.540689945220947266e+00,9.088949203491210938e+00,-1.306994795799255371e+00
9.281294822692871094e+00,1.522503757476806641e+01,-1.560007095336914062e+00
9.507334709167480469e+00,1.559583377838134766e+01,-9.572399258613586426e-01
9.509600639343261719e+00,1.559955024719238281e+01,-3.188966810703277588e-01
9.532168388366699219e+00,1.563657093048095703e+01,3.196534812450408936e-01
9.539640426635742188e+00,1.564882755279541016e+01,9.604925513267517090e-01
2.046285152435302734e+00,3.467430353164672852e+00,-1.078817725181579590e+00
2.422289609909057617e+00,4.104569911956787109e+00,-1.100321531295776367e+00
2.978704452514648438e+00,5.047415256500244141e+00,-1.139224171638488770e+00
3.852848291397094727e+00,6.528652191162109375e+00,-1.200670719146728516e+00
5.434552192687988281e+00,9.208848953247070312e+00,-1.312916159629821777e+00
9.119068145751953125e+00,1.545226192474365234e+01,-1.569754481315612793e+00
9.585069656372070312e+00,1.624190139770507812e+01,-9.883722066879272461e-01
9.594982147216796875e+00,1.625869750976562500e+01,-3.295301198959350586e-01
9.605661392211914062e+00,1.627679443359375000e+01,3.298968970775604248e-01
1.991546273231506348e+00,3.487774372100830078e+00,-1.076168060302734375e+00
2.367679357528686523e+00,4.146492481231689453e+00,-1.102362036705017090e+00
2.908586740493774414e+00,5.093777656555175781e+00,-1.140175104141235352e+00
3.742853164672851562e+00,6.554820060729980469e+00,-1.195508241653442383e+00
5.283141136169433594e+00,9.252309799194335938e+00,-1.308197259902954102e+00
8.824284553527832031e+00,1.545387840270996094e+01,-1.556928038597106934e+00
9.662390708923339844e+00,1.692164611816406250e+01,-1.021216034889221191e+00
9.674466133117675781e+00,1.694279289245605469e+01,-3.405538201332092285e-01
9.682444572448730469e+00,1.695676422119140625e+01,3.408346772193908691e-01
1.945787429809570312e+00,3.523820161819458008e+00,-1.078586101531982422e+00
2.307809591293334961e+00,4.179441928863525391e+00,-1.102226972579956055e+00
2.844816684722900391e+00,5.151961326599121094e+00,-1.143967032432556152e+00
3.664478778839111328e+00,6.636369228363037109e+00,-1.200692176818847656e+00
5.129489898681640625e+00,9.289503097534179688e+00,-1.302941560745239258e+00
8.530082702636718750e+00,1.544797515869140625e+01,-1.543874502182006836e+00
9.743942260742187500e+00,1.764627456665039062e+01,-1.056421995162963867e+00
9.745981216430664062e+00,1.764996719360351562e+01,-3.519281744956970215e-01
9.764969825744628906e+00,1.768435668945312500e+01,3.526138663291931152e-01
1.887759208679199219e+00,3.537447929382324219e+00,-1.074376821517944336e+00
2.246550559997558594e+00,4.209782600402832031e+00,-1.101635456085205078e+00
2.753422498703002930e+00,5.159603595733642578e+00,-1.136796474456787109e+00
3.560004949569702148e+00,6.671047687530517578e+00,-1.197624564170837402e+00
5.033075332641601562e+00,9.431415557861328125e+00,-1.312607169151306152e+00
8.402989387512207031e+00,1.574625396728515625e+01,-1.561504244804382324e+00
9.822049140930175781e+00,1.840541267395019531e+01,-1.093340516090393066e+00
9.842193603515625000e+00,1.844316101074218750e+01,-3.648975491523742676e-01
9.854388236999511719e+00,1.846601295471191406e+01,3.653496801853179932e-01
1.830949902534484863e+00,3.552484989166259766e+00,-1.070874571800231934e+00
2.185663461685180664e+00,4.240714550018310547e+00,-1.101430416107177734e+00
2.678027629852294922e+00,5.196020126342773438e+00,-1.136258125305175781e+00
3.464278221130371094e+00,6.721536636352539062e+00,-1.197664022445678711e+00
4.885530948638916016e+00,9.479109764099121094e+00,-1.309378623962402344e+00
8.124024391174316406e+00,1.576256847381591797e+01,-1.551431775093078613e+00
9.926280021667480469e+00,1.925938034057617188e+01,-1.135512709617614746e+00
9.941018104553222656e+00,1.928797531127929688e+01,-3.787581920623779297e-01
9.951299667358398438e+00,1.930792427062988281e+01,3.791499137878417969e-01
1.782261490821838379e+00,3.583034515380859375e+00,-1.072283744812011719e+00
2.118461132049560547e+00,4.258925437927246094e+00,-1.098172187805175781e+00
2.606065750122070312e+00,5.239199161529541016e+00,-1.137426853179931641e+00
3.369921922683715820e+00,6.774845600128173828e+00,-1.198445320129394531e+00
4.741178035736083984e+00,9.531600952148437500e+00,-1.307121276855468750e+00
7.861613750457763672e+00,1.580488204956054688e+01,-1.544362902641296387e+00
1.002713489532470703e+01,2.015841674804687500e+01,-1.179936051368713379e+00
1.004231643676757812e+01,2.018893623352050781e+01,-3.935874402523040771e-01
1.005712318420410156e+01,2.021870613098144531e+01,3.941677808761596680e-01
1.735695719718933105e+00,3.618384361267089844e+00,-1.075317740440368652e+00
2.070534706115722656e+00,4.316419124603271484e+00,-1.105242013931274414e+00
2.539732694625854492e+00,5.294550895690917969e+00,-1.141434669494628906e+00
3.279541969299316406e+00,6.836822032928466797e+00,-1.200981855392456055e+00
4.604761123657226562e+00,9.599491119384765625e+00,-1.307258963584899902e+00
6.015072822570800781e+00,1.253955078125000000e+01,-1.216755747795104980e+00
6.019594669342041016e+00,1.254897785186767578e+01,-7.294135093688964844e-01
6.027263164520263672e+00,1.256496429443359375e+01,-2.432497590780258179e-01
6.029678821563720703e+00,1.256999969482421875e+01,2.433472275733947754e-01
6.044858932495117188e+00,1.260164546966552734e+01,7.324748039245605469e-01
1.680202484130859375e+00,3.635219335556030273e+00,-1.073063731193542480e+00
2.002101659774780273e+00,4.331667423248291016e+00,-1.101695775985717773e+00
2.452370405197143555e+00,5.305850982666015625e+00,-1.136186957359313965e+00
3.162448167800903320e+00,6.842147350311279297e+00,-1.193843483924865723e+00
4.480289936065673828e+00,9.693376541137695312e+00,-1.311177015304565430e+00
5.795552730560302734e+00,1.253902816772460938e+01,-1.208531975746154785e+00
5.801928520202636719e+00,1.255282211303710938e+01,-7.247356176376342773e-01
5.812626361846923828e+00,1.257596778869628906e+01,-2.418273240327835083e-01
5.823976993560791016e+00,1.260052490234375000e+01,2.422995418310165405e-01
5.823777198791503906e+00,1.260009288787841797e+01,7.274648547172546387e-01
1.624890446662902832e+00,3.651898384094238281e+00,-1.071012139320373535e+00
1.938858628273010254e+00,4.357533454895019531e+00,-1.101103305816650391e+00
2.376856327056884766e+00,5.341921806335449219e+00,-1.136509418487548828e+00
3.082759141921997070e+00,6.928419589996337891e+00,-1.201074481010437012e+00
4.298693180084228516e+00,9.661199569702148438e+00,-1.298368811607360840e+00
5.597424507141113281e+00,1.258006286621093750e+01,-1.204641699790954590e+00
5.596061706542968750e+00,1.257700061798095703e+01,-7.214331626892089844e-01
5.609285354614257812e+00,1.260671997070312500e+01,-2.408501207828521729e-01
