2.010804653167724609e+00,-9.381394386291503906e-01,-3.873068839311599731e-02
2.034007549285888672e+00,-9.489647150039672852e-01,3.917760401964187622e-02
2.023783683776855469e+00,-9.441947340965270996e-01,1.170371323823928833e-01
2.026126384735107422e+00,-9.452877044677734375e-01,1.956059783697128296e-01
2.029877901077270508e+00,-9.470379948616027832e-01,2.750283777713775635e-01
2.026208162307739258e+00,-9.453258514404296875e-01,3.541280925273895264e-01
2.028789758682250977e+00,-9.465303421020507812e-01,4.351641833782196045e-01
2.033455848693847656e+00,-9.487072825431823730e-01,5.180392265319824219e-01
2.043080568313598633e+00,-9.178249835968017578e-01,-6.001443266868591309e-01
2.057057142257690430e+00,-9.241037368774414062e-01,-5.206288099288940430e-01
2.045266866683959961e+00,-9.188071489334106445e-01,-4.358329176902770996e-01
2.049378395080566406e+00,-9.206541776657104492e-01,-3.558380901813507080e-01
2.058908462524414062e+00,-9.249354004859924316e-01,-2.771395742893218994e-01
2.057089805603027344e+00,-9.241184592247009277e-01,-1.972980648279190063e-01
2.078980922698974609e+00,-9.339526295661926270e-01,-1.194439083337783813e-01
2.063369989395141602e+00,-9.269396662712097168e-01,-3.948356211185455322e-02
2.072750329971313477e+00,-9.311537146568298340e-01,3.966306149959564209e-02
2.070197820663452148e+00,-9.300070405006408691e-01,1.189393028616905212e-01
2.068810224533081055e+00,-9.293835759162902832e-01,1.984221637248992920e-01
2.085055351257324219e+00,-9.366815090179443359e-01,2.806590795516967773e-01
2.064933538436889648e+00,-9.276420474052429199e-01,3.585389554500579834e-01
2.091354131698608398e+00,-9.395111799240112305e-01,4.456537961959838867e-01
2.084704875946044922e+00,-9.365240335464477539e-01,5.276262760162353516e-01
2.093167066574096680e+00,-9.045487642288208008e-01,-6.109911799430847168e-01
2.107357025146484375e+00,-9.106809496879577637e-01,-5.300060510635375977e-01
2.105006217956542969e+00,-9.096650481224060059e-01,-4.457427561283111572e-01
2.110618829727172852e+00,-9.120904803276062012e-01,-3.641673028469085693e-01
2.116658210754394531e+00,-9.147003889083862305e-01,-2.831217050552368164e-01
2.118979930877685547e+00,-9.157036542892456055e-01,-2.019562274217605591e-01
2.107831478118896484e+00,-9.108859300613403320e-01,-1.203400716185569763e-01
2.108040809631347656e+00,-9.109764099121093750e-01,-4.008474573493003845e-02
2.120958566665649414e+00,-9.165586829185485840e-01,4.033037647604942322e-02
2.122748374938964844e+00,-9.173322319984436035e-01,1.211917176842689514e-01
2.108956575393676758e+00,-9.113721847534179688e-01,2.010009288787841797e-01
2.116961479187011719e+00,-9.148313403129577637e-01,2.831622362136840820e-01
2.127099037170410156e+00,-9.192122817039489746e-01,3.670108020305633545e-01
2.130596399307250977e+00,-9.207236170768737793e-01,4.511615335941314697e-01
2.137115240097045898e+00,-9.235407114028930664e-01,5.374903082847595215e-01
2.151393651962280273e+00,-8.933910727500915527e-01,-6.241908073425292969e-01
2.156506776809692383e+00,-8.955144286155700684e-01,-5.390883684158325195e-01
2.150701284408569336e+00,-8.931035995483398438e-01,-4.526655375957489014e-01
2.152183055877685547e+00,-8.937189579010009766e-01,-3.690938353538513184e-01
2.164998531341552734e+00,-8.990406394004821777e-01,-2.878368794918060303e-01
2.166302680969238281e+00,-8.995822668075561523e-01,-2.052182555198669434e-01
2.165708065032958984e+00,-8.993353247642517090e-01,-1.228968501091003418e-01
2.162306070327758789e+00,-8.979225754737854004e-01,-4.086802899837493896e-02
2.171496152877807617e+00,-9.017389416694641113e-01,4.104172810912132263e-02
2.162473678588867188e+00,-8.979922533035278320e-01,1.227133125066757202e-01
2.169075965881347656e+00,-9.007339477539062500e-01,2.054809778928756714e-01
2.169743537902832031e+00,-9.010111093521118164e-01,2.884677350521087646e-01
2.180629968643188477e+00,-9.055318236351013184e-01,3.739723861217498779e-01
2.184107065200805664e+00,-9.069756865501403809e-01,4.596965312957763672e-01
2.187362909317016602e+00,-9.083278179168701172e-01,5.468019247055053711e-01
2.195328712463378906e+00,-8.750119805335998535e-01,-6.332392096519470215e-01
2.196392059326171875e+00,-8.754357695579528809e-01,-5.458706617355346680e-01
2.207496881484985352e+00,-8.798619508743286133e-01,-4.619215130805969238e-01
2.207093238830566406e+00,-8.797011375427246094e-01,-3.763128221035003662e-01
2.210204124450683594e+00,-8.809409737586975098e-01,-2.921406328678131104e-01
2.223162412643432617e+00,-8.861058950424194336e-01,-2.093817442655563354e-01
2.202089548110961914e+00,-8.777066469192504883e-01,-1.242357343435287476e-01
2.211371660232543945e+00,-8.814063072204589844e-01,-4.155267775058746338e-02
2.223730087280273438e+00,-8.863321542739868164e-01,4.178490117192268372e-02
2.235731363296508789e+00,-8.911156654357910156e-01,1.261337250471115112e-01
2.223703622817993164e+00,-8.863216042518615723e-01,2.094327062368392944e-01
2.241055965423583984e+00,-8.932378292083740234e-01,2.962185442447662354e-01
2.246716022491455078e+00,-8.954939246177673340e-01,3.830685615539550781e-01
2.232530593872070312e+00,-8.898398280143737793e-01,4.671598076820373535e-01
2.235247611999511719e+00,-8.909228444099426270e-01,5.555275082588195801e-01
2.250998973846435547e+00,-8.600746393203735352e-01,-6.456801295280456543e-01
2.260884284973144531e+00,-8.638516664505004883e-01,-5.587687492370605469e-01
2.259725809097290039e+00,-8.634089827537536621e-01,-4.702162742614746094e-01
2.257606744766235352e+00,-8.625993728637695312e-01,-3.827810883522033691e-01
2.267619371414184570e+00,-8.664250373840332031e-01,-2.980599403381347656e-01
2.272749662399291992e+00,-8.683852553367614746e-01,-2.128595113754272461e-01
2.277124643325805664e+00,-8.700568079948425293e-01,-1.277533322572708130e-01
2.281292200088500977e+00,-8.716492056846618652e-01,-4.262771457433700562e-02
2.271226406097412109e+00,-8.678032159805297852e-01,4.243962839245796204e-02
2.283725500106811523e+00,-8.725789189338684082e-01,1.281236559152603149e-01
2.289481878280639648e+00,-8.747783899307250977e-01,2.144266068935394287e-01
2.279681205749511719e+00,-8.710336685180664062e-01,2.996453344821929932e-01
2.285003185272216797e+00,-8.730671405792236328e-01,3.874261975288391113e-01
2.297878980636596680e+00,-8.779867887496948242e-01,4.781554341316223145e-01
2.292196989059448242e+00,-8.758157491683959961e-01,5.665075182914733887e-01
2.303449392318725586e+00,-8.425370454788208008e-01,-6.571985483169555664e-01
2.303601264953613281e+00,-8.425925970077514648e-01,-5.662873983383178711e-01
2.322737455368041992e+00,-8.495920896530151367e-01,-4.807484447956085205e-01
2.302223443984985352e+00,-8.420885801315307617e-01,-3.882625102996826172e-01
2.320707798004150391e+00,-8.488496541976928711e-01,-3.034098744392395020e-01
2.323150634765625000e+00,-8.497432470321655273e-01,-2.164186388254165649e-01
2.329642772674560547e+00,-8.521178960800170898e-01,-1.300021708011627197e-01
2.326945304870605469e+00,-8.511312007904052734e-01,-4.324870929121971130e-02
2.332669258117675781e+00,-8.532248735427856445e-01,4.335509613156318665e-02
2.332396507263183594e+00,-8.531250953674316406e-01,1.301558315753936768e-01
2.351081132888793945e+00,-8.599593639373779297e-01,2.190205603837966919e-01
2.341372251510620117e+00,-8.564081788063049316e-01,3.061115443706512451e-01
2.349810123443603516e+00,-8.594944477081298828e-01,3.962878584861755371e-01
2.340135097503662109e+00,-8.559556007385253906e-01,4.843492805957794189e-01
2.338256835937500000e+00,-8.552685976028442383e-01,5.748066306114196777e-01
2.373269557952880859e+00,-8.297613859176635742e-01,-6.736613512039184570e-01
2.373027801513671875e+00,-8.296768665313720703e-01,-5.803754925727844238e-01
2.371768236160278320e+00,-8.292365670204162598e-01,-4.883899092674255371e-01
2.372390270233154297e+00,-8.294540047645568848e-01,-3.980529010295867920e-01
2.383770704269409180e+00,-8.334329724311828613e-01,-3.100633323192596436e-01
2.381298542022705078e+00,-8.325685262680053711e-01,-2.207027673721313477e-01
2.391263484954833984e+00,-8.360525965690612793e-01,-1.327594220638275146e-01
2.393140792846679688e+00,-8.367089629173278809e-01,-4.425189644098281860e-02
2.398504734039306641e+00,-8.385843634605407715e-01,4.435108229517936707e-02
2.418342351913452148e+00,-8.455200791358947754e-01,1.342628002166748047e-01
2.410068511962890625e+00,-8.426273465156555176e-01,2.233692258596420288e-01
2.406929492950439453e+00,-8.415299057960510254e-01,3.130756616592407227e-01
2.418015718460083008e+00,-8.454058766365051270e-01,4.057081937789916992e-01
2.420073509216308594e+00,-8.461253643035888672e-01,4.983368217945098877e-01
2.407277345657348633e+00,-8.416514992713928223e-01,5.887520313262939453e-01
2.422533512115478516e+00,-8.082657456398010254e-01,-6.842911243438720703e-01
2.438393115997314453e+00,-8.135572075843811035e-01,-5.934532284736633301e-01
2.434663295745849609e+00,-8.123128414154052734e-01,-4.988958239555358887e-01
2.433876991271972656e+00,-8.120504617691040039e-01,-4.063776731491088867e-01
2.440493583679199219e+00,-8.142580389976501465e-01,-3.158930838108062744e-01
2.453062295913696289e+00,-8.184515237808227539e-01,-2.262450307607650757e-01
2.445027589797973633e+00,-8.157708048820495605e-01,-1.350822299718856812e-01
2.451597452163696289e+00,-8.179627656936645508e-01,-4.511171206831932068e-02
2.455854654312133789e+00,-8.193832039833068848e-01,4.519005119800567627e-02
2.447094440460205078e+00,-8.164604306221008301e-01,1.351964175701141357e-01
2.449253320693969727e+00,-8.171806335449218750e-01,2.258937209844589233e-01
2.454737186431884766e+00,-8.190103173255920410e-01,3.177367448806762695e-01
2.467696428298950195e+00,-8.233341574668884277e-01,4.120244085788726807e-01
2.479831695556640625e+00,-8.273829817771911621e-01,5.081514120101928711e-01
2.480204582214355469e+00,-8.275073766708374023e-01,6.036292314529418945e-01
2.509436607360839844e+00,-7.975330352783203125e-01,-7.055417895317077637e-01
2.494086027145385742e+00,-7.926545143127441406e-01,-6.041845679283142090e-01
2.491090059280395508e+00,-7.917023301124572754e-01,-5.080842971801757812e-01
2.502387523651123047e+00,-7.952927947044372559e-01,-4.158734381198883057e-01
2.515182495117187500e+00,-7.993592023849487305e-01,-3.240464925765991211e-01
2.501613378524780273e+00,-7.950467467308044434e-01,-2.296497970819473267e-01
2.518393754959106445e+00,-8.003797531127929688e-01,-1.384884268045425415e-01
2.537039756774902344e+00,-8.063057661056518555e-01,-4.646680876612663269e-02
2.513547897338867188e+00,-7.988396883010864258e-01,4.603654518723487854e-02
2.514746189117431641e+00,-7.992205023765563965e-01,1.382878422737121582e-01
2.525422573089599609e+00,-8.026136159896850586e-01,2.318354994058609009e-01
2.533638238906860352e+00,-8.052247166633605957e-01,3.264243006706237793e-01
2.535504102706909180e+00,-8.058176636695861816e-01,4.213770627975463867e-01
2.539285659790039062e+00,-8.070195317268371582e-01,5.179142951965332031e-01
2.539063453674316406e+00,-8.069489598274230957e-01,6.150801777839660645e-01
2.576272726058959961e+00,-7.783583998680114746e-01,-7.211269140243530273e-01
2.572196245193481445e+00,-7.771267890930175781e-01,-6.203483343124389648e-01
2.570482492446899414e+00,-7.766090035438537598e-01,-5.219565629959106445e-01
2.563037395477294922e+00,-7.743596434593200684e-01,-4.240674376487731934e-01
2.580180883407592773e+00,-7.795391678810119629e-01,-3.309492170810699463e-01
2.576302766799926758e+00,-7.783674597740173340e-01,-2.354594618082046509e-01
2.578361988067626953e+00,-7.789896130561828613e-01,-1.411585211753845215e-01
2.589799642562866211e+00,-7.824451923370361328e-01,-4.722316190600395203e-02
2.600316286087036133e+00,-7.856225371360778809e-01,4.741492494940757751e-02
2.583690166473388672e+00,-7.805994153022766113e-01,1.414502263069152832e-01
2.605027198791503906e+00,-7.870458364486694336e-01,2.380847036838531494e-01
2.584372758865356445e+00,-7.808056473731994629e-01,3.314869105815887451e-01
2.615061759948730469e+00,-7.900775671005249023e-01,4.326750934123992920e-01
2.602145433425903320e+00,-7.861751914024353027e-01,5.283859372138977051e-01
2.613118648529052734e+00,-7.894905209541320801e-01,6.302177906036376953e-01
2.633224010467529297e+00,-7.546109557151794434e-01,-7.339696884155273438e-01
2.632615089416503906e+00,-7.544364929199218750e-01,-6.322507262229919434e-01
2.636795759201049805e+00,-7.556345462799072266e-01,-5.331711173057556152e-01
2.650425195693969727e+00,-7.595403790473937988e-01,-4.366826415061950684e-01
2.645879745483398438e+00,-7.582377791404724121e-01,-3.379494547843933105e-01
2.648549079895019531e+00,-7.590027451515197754e-01,-2.410447597503662109e-01
2.655189275741577148e+00,-7.609056830406188965e-01,-1.447535306215286255e-01
2.662435293197631836e+00,-7.629821896553039551e-01,-4.834353923797607422e-02
2.666524887084960938e+00,-7.641541361808776855e-01,4.841779544949531555e-02
2.672047853469848633e+00,-7.657368779182434082e-01,1.456726044416427612e-01
2.661944866180419922e+00,-7.628416419029235840e-01,2.422639131546020508e-01
2.671004772186279297e+00,-7.654379606246948242e-01,3.411585986614227295e-01
2.677319526672363281e+00,-7.672476172447204590e-01,4.411137700080871582e-01
2.679417371749877930e+00,-7.678487300872802734e-01,5.417894124984741211e-01
2.681784391403198242e+00,-7.685270905494689941e-01,6.440592408180236816e-01
2.705264329910278320e+00,-7.335252761840820312e-01,-7.510463595390319824e-01
2.711656093597412109e+00,-7.352584004402160645e-01,-6.486393213272094727e-01
2.712310552597045898e+00,-7.354359030723571777e-01,-5.462560653686523438e-01
2.719784736633300781e+00,-7.374624609947204590e-01,-4.463254213333129883e-01
2.732624530792236328e+00,-7.409439682960510254e-01,-3.476388752460479736e-01
2.723114728927612305e+00,-7.383654117584228516e-01,-2.468438595533370972e-01
2.722045421600341797e+00,-7.380754351615905762e-01,-1.478072553873062134e-01
2.746282339096069336e+00,-7.446472048759460449e-01,-4.966738075017929077e-02
2.727927684783935547e+00,-7.396704554557800293e-01,4.933543503284454346e-02
2.716614484786987305e+00,-7.366029024124145508e-01,1.475123465061187744e-01
2.739684104919433594e+00,-7.428581714630126953e-01,2.483458369970321655e-01
2.731535196304321289e+00,-7.406485676765441895e-01,3.475002646446228027e-01
2.750463008880615234e+00,-7.457808256149291992e-01,4.513598382472991943e-01
2.746584415435791016e+00,-7.447291612625122070e-01,5.531587600708007812e-01
2.761598348617553711e+00,-7.488000988960266113e-01,6.605857610702514648e-01
2.778621673583984375e+00,-7.108852863311767578e-01,-7.685085535049438477e-01
2.779513597488403320e+00,-7.111134529113769531e-01,-6.623685359954833984e-01
2.776412963867187500e+00,-7.103201746940612793e-01,-5.570614933967590332e-01
2.793508768081665039e+00,-7.146940231323242188e-01,-4.566982984542846680e-01
2.802004337310791016e+00,-7.168675065040588379e-01,-3.551234900951385498e-01
2.797188997268676758e+00,-7.156355977058410645e-01,-2.526041269302368164e-01
2.795028209686279297e+00,-7.150827050209045410e-01,-1.511989533901214600e-01
2.785974502563476562e+00,-7.127664089202880859e-01,-5.019557476043701172e-02
2.801755189895629883e+00,-7.168037891387939453e-01,5.047990009188652039e-02
2.803355216979980469e+00,-7.172131538391113281e-01,1.516494154930114746e-01
2.816274642944335938e+00,-7.205184698104858398e-01,2.543276846408843994e-01
2.834853649139404297e+00,-7.252717018127441406e-01,3.592867553234100342e-01
2.812668323516845703e+00,-7.195957899093627930e-01,4.598306119441986084e-01
2.822174072265625000e+00,-7.220277786254882812e-01,5.662430524826049805e-01
2.832033872604370117e+00,-7.245503067970275879e-01,6.748843193054199219e-01
2.860296010971069336e+00,-6.883195638656616211e-01,-7.882922291755676270e-01
2.852721691131591797e+00,-6.864968538284301758e-01,-6.774033308029174805e-01
2.884125709533691406e+00,-6.940541267395019531e-01,-5.766207575798034668e-01
2.877943992614746094e+00,-6.925665140151977539e-01,-4.688335359096527100e-01
2.876505136489868164e+00,-6.922202706336975098e-01,-3.632726967334747314e-01
2.882335424423217773e+00,-6.936232447624206543e-01,-2.593702375888824463e-01
2.878181695938110352e+00,-6.926236748695373535e-01,-1.551450043916702271e-01
2.874906063079833984e+00,-6.918354630470275879e-01,-5.161417648196220398e-02
2.889578104019165039e+00,-6.953662037849426270e-01,5.187758430838584900e-02
2.901889562606811523e+00,-6.983289122581481934e-01,1.564229428768157959e-01
2.901515960693359375e+00,-6.982390284538269043e-01,2.610962390899658203e-01
2.911374092102050781e+00,-7.006112933158874512e-01,3.676762580871582031e-01
2.905736207962036133e+00,-6.992546319961547852e-01,4.733610749244689941e-01
2.915384054183959961e+00,-7.015762925148010254e-01,5.828702449798583984e-01
2.905263185501098633e+00,-6.991407275199890137e-01,6.898797750473022461e-01
2.954177618026733398e+00,-6.663321852684020996e-01,-8.114542365074157715e-01
2.964151144027709961e+00,-6.685817241668701172e-01,-7.015189528465270996e-01
2.965094089508056641e+00,-6.687944531440734863e-01,-5.908343195915222168e-01
2.943491697311401367e+00,-6.639218926429748535e-01,-4.779146015644073486e-01
2.945350885391235352e+00,-6.643412709236145020e-01,-3.707283437252044678e-01
2.985795736312866211e+00,-6.734638214111328125e-01,-2.677853703498840332e-01
2.956526041030883789e+00,-6.668618321418762207e-01,-1.588372737169265747e-01
2.981350183486938477e+00,-6.724610924720764160e-01,-5.334693193435668945e-02
2.980088472366333008e+00,-6.721764802932739258e-01,5.332435294985771179e-02
2.985373497009277344e+00,-6.733685731887817383e-01,1.603870838880538940e-01
2.976057529449462891e+00,-6.712673306465148926e-01,2.669119834899902344e-01
2.997782468795776367e+00,-6.761675477027893066e-01,3.773278594017028809e-01
2.985189437866210938e+00,-6.733270883560180664e-01,4.846847951412200928e-01
3.006976604461669922e+00,-6.782413125038146973e-01,5.991799831390380859e-01
3.006353378295898438e+00,-6.781007051467895508e-01,7.115068435668945312e-01
3.034296035766601562e+00,-6.389093399047851562e-01,-8.308640718460083008e-01
3.044429540634155273e+00,-6.410430669784545898e-01,-7.182731032371520996e-01
3.040229320526123047e+00,-6.401587128639221191e-01,-6.039183139801025391e-01
3.052054882049560547e+00,-6.426486968994140625e-01,-4.939971566200256348e-01
3.058840513229370117e+00,-6.440774798393249512e-01,-3.838134706020355225e-01
3.066840171813964844e+00,-6.457619667053222656e-01,-2.741968929767608643e-01
3.068742513656616211e+00,-6.461625099182128906e-01,-1.643523126840591431e-01
3.072099924087524414e+00,-6.468694806098937988e-01,-5.479947850108146667e-02
3.057875871658325195e+00,-6.438743472099304199e-01,5.454574897885322571e-02
3.071328401565551758e+00,-6.467069983482360840e-01,1.644908040761947632e-01
3.079189300537109375e+00,-6.483622193336486816e-01,2.753010094165802002e-01
3.079712390899658203e+00,-6.484723687171936035e-01,3.864323794841766357e-01
3.080560922622680664e+00,-6.486510038375854492e-01,4.986110627651214600e-01
3.103035926818847656e+00,-6.533834338188171387e-01,6.163944005966186523e-01
3.095108032226562500e+00,-6.517140865325927734e-01,7.302297353744506836e-01
3.142618179321289062e+00,-6.148830652236938477e-01,-8.580274581909179688e-01
3.153462886810302734e+00,-6.170049309730529785e-01,-7.418377995491027832e-01
3.139636993408203125e+00,-6.142997145652770996e-01,-6.218546032905578613e-01
3.145861625671386719e+00,-6.155176162719726562e-01,-5.077024698257446289e-01
3.159910678863525391e+00,-6.182664632797241211e-01,-3.953444957733154297e-01
3.144729375839233398e+00,-6.152960658073425293e-01,-2.803446054458618164e-01
3.182152748107910156e+00,-6.226183772087097168e-01,-1.699315160512924194e-01
3.157192945480346680e+00,-6.177347302436828613e-01,-5.615387856960296631e-02
3.155232667922973633e+00,-6.173511743545532227e-01,5.611901357769966125e-02
3.171195030212402344e+00,-6.204743981361389160e-01,1.693463623523712158e-01
3.195231676101684570e+00,-6.251773834228515625e-01,2.848467528820037842e-01
3.185017347335815430e+00,-6.231788396835327148e-01,3.984856903553009033e-01
3.192971229553222656e+00,-6.247351169586181641e-01,5.153053998947143555e-01
3.195459842681884766e+00,-6.252219676971435547e-01,6.329111456871032715e-01
3.209306001663208008e+00,-6.279311180114746094e-01,7.549746036529541016e-01
3.250890731811523438e+00,-5.878896713256835938e-01,-8.852009177207946777e-01
3.251977920532226562e+00,-5.880862474441528320e-01,-7.629546523094177246e-01
3.248697280883789062e+00,-5.874930024147033691e-01,-6.417244076728820801e-01
3.264004945755004883e+00,-5.902612209320068359e-01,-5.253520011901855469e-01
3.262251377105712891e+00,-5.899441242218017578e-01,-4.070504605770111084e-01
3.276614665985107422e+00,-5.925415754318237305e-01,-2.913159132003784180e-01
3.268201589584350586e+00,-5.910201668739318848e-01,-1.740570664405822754e-01
3.273587465286254883e+00,-5.919941067695617676e-01,-5.806741118431091309e-02
3.281387090682983398e+00,-5.934046506881713867e-01,5.820576474070549011e-02
3.271748304367065430e+00,-5.916615724563598633e-01,1.742459535598754883e-01
3.279884099960327148e+00,-5.931328535079956055e-01,2.916066050529479980e-01
3.296448945999145508e+00,-5.961284041404724121e-01,4.113174974918365479e-01
3.290728330612182617e+00,-5.950939059257507324e-01,5.296531915664672852e-01
3.293414592742919922e+00,-5.955796837806701660e-01,6.505575776100158691e-01
3.316127300262451172e+00,-5.996870398521423340e-01,7.780048847198486328e-01
3.342506408691406250e+00,-5.551775693893432617e-01,-9.078906178474426270e-01
3.346460342407226562e+00,-5.558342337608337402e-01,-7.831746339797973633e-01
3.355411529541015625e+00,-5.573210120201110840e-01,-6.611604690551757812e-01
3.359659671783447266e+00,-5.580266118049621582e-01,-5.394070744514465332e-01
3.359155178070068359e+00,-5.579428076744079590e-01,-4.181024134159088135e-01
3.364631891250610352e+00,-5.588524937629699707e-01,-2.983995676040649414e-01
3.356153249740600586e+00,-5.574442148208618164e-01,-1.782979667186737061e-01
3.368906974792480469e+00,-5.595625638961791992e-01,-5.961003154516220093e-02
3.380260705947875977e+00,-5.614483356475830078e-01,5.981092527508735657e-02
3.386460781097412109e+00,-5.624781847000122070e-01,1.799080818891525269e-01
3.389965295791625977e+00,-5.630602836608886719e-01,3.006463050842285156e-01
3.386487722396850586e+00,-5.624826550483703613e-01,4.215044081211090088e-01
3.385164499282836914e+00,-5.622628331184387207e-01,5.435019731521606445e-01
3.404963731765747070e+00,-5.655514597892761230e-01,6.709244251251220703e-01
3.399880170822143555e+00,-5.647071003913879395e-01,7.956765294075012207e-01
3.462026357650756836e+00,-5.242294073104858398e-01,-9.382203221321105957e-01
3.473845958709716797e+00,-5.260192155838012695e-01,-8.111416101455688477e-01
3.475710153579711914e+00,-5.263015031814575195e-01,-6.833101511001586914e-01
3.478395700454711914e+00,-5.267081260681152344e-01,-5.572031736373901367e-01
3.478700399398803711e+00,-5.267542600631713867e-01,-4.319990873336791992e-01
3.480377912521362305e+00,-5.270082950592041016e-01,-3.079642057418823242e-01
3.484927415847778320e+00,-5.276972055435180664e-01,-1.847189962863922119e-01
3.478961467742919922e+00,-5.267938375473022461e-01,-6.141764670610427856e-02
3.497732400894165039e+00,-5.296361446380615234e-01,6.174902990460395813e-02
3.498572826385498047e+00,-5.297634005546569824e-01,1.854422688484191895e-01
3.497067451477050781e+00,-5.295354723930358887e-01,3.094410002231597900e-01
3.513829469680786133e+00,-5.320736169815063477e-01,4.363615810871124268e-01
3.506535530090332031e+00,-5.309691429138183594e-01,5.617108345031738281e-01
3.520749092102050781e+00,-5.331214070320129395e-01,6.921646595001220703e-01
3.523554325103759766e+00,-5.335461497306823730e-01,8.227485418319702148e-01
3.584101676940917969e+00,-4.903507530689239502e-01,-9.693018198013305664e-01
3.586519956588745117e+00,-4.906815886497497559e-01,-8.357254266738891602e-01
3.586748123168945312e+00,-4.907128214836120605e-01,-7.036868333816528320e-01
3.607586145401000977e+00,-4.935637414455413818e-01,-5.767073631286621094e-01
3.604171514511108398e+00,-4.930965602397918701e-01,-4.466584026813507080e-01
3.606665372848510742e+00,-4.934377670288085938e-01,-3.184812963008880615e-01
3.614324569702148438e+00,-4.944856166839599609e-01,-1.911829710006713867e-01
3.616752624511718750e+00,-4.948178231716156006e-01,-6.371864676475524902e-02
3.632293224334716797e+00,-4.969439804553985596e-01,6.399244070053100586e-02
3.639307260513305664e+00,-4.979035854339599609e-01,1.925044506788253784e-01
3.635862588882446289e+00,-4.974323213100433350e-01,3.210594952106475830e-01
3.628373384475708008e+00,-4.964076876640319824e-01,4.496576786041259766e-01
3.646312713623046875e+00,-4.988619983196258545e-01,5.828981995582580566e-01
3.625780344009399414e+00,-4.960529208183288574e-01,7.113445997238159180e-01
3.647283315658569336e+00,-4.989947974681854248e-01,8.498844504356384277e-01
3.715931177139282227e+00,-4.543092250823974609e-01,-1.003093004226684570e+00
3.717187881469726562e+00,-4.544628560543060303e-01,-8.645691275596618652e-01
3.727988719940185547e+00,-4.557833671569824219e-01,-7.300422191619873047e-01
3.719044208526611328e+00,-4.546898305416107178e-01,-5.934238433837890625e-01
3.731735944747924805e+00,-4.562415182590484619e-01,-4.616106450557708740e-01
3.732529878616333008e+00,-4.563385844230651855e-01,-3.289850950241088867e-01
3.744946479797363281e+00,-4.578566253185272217e-01,-1.977254301309585571e-01
3.721436977386474609e+00,-4.549823701381683350e-01,-6.544150412082672119e-02
3.738513946533203125e+00,-4.570701718330383301e-01,6.574180722236633301e-02
3.745344161987304688e+00,-4.579052329063415527e-01,1.977464109659194946e-01
3.765078067779541016e+00,-4.603179097175598145e-01,3.318538963794708252e-01
3.750771999359130859e+00,-4.585688412189483643e-01,4.639653563499450684e-01
3.757413864135742188e+00,-4.593808948993682861e-01,5.995462536811828613e-01
3.772328376770019531e+00,-4.612043201923370361e-01,7.387251257896423340e-01
3.778727293014526367e+00,-4.619866609573364258e-01,8.788824081420898438e-01
3.840117454528808594e+00,-4.138027131557464600e-01,-1.034911513328552246e+00
3.875236034393310547e+00,-4.175870120525360107e-01,-8.998466730117797852e-01
3.857320785522460938e+00,-4.156565070152282715e-01,-7.541266679763793945e-01
3.885982275009155273e+00,-4.187450110912322998e-01,-6.190412640571594238e-01
3.872391939163208008e+00,-4.172805249691009521e-01,-4.782217741012573242e-01
3.882903099060058594e+00,-4.184131920337677002e-01,-3.416761159896850586e-01
3.884876489639282227e+00,-4.186258316040039062e-01,-2.047760933637619019e-01
3.885424613952636719e+00,-4.186848998069763184e-01,-6.821285933256149292e-02
3.892966032028198242e+00,-4.194975495338439941e-01,6.834525614976882935e-02
3.891000032424926758e+00,-4.192856848239898682e-01,2.050988674163818359e-01
3.908182621002197266e+00,-4.211372435092926025e-01,3.439005911350250244e-01
3.911357402801513672e+00,-4.214793741703033447e-01,4.830338060855865479e-01
3.898720741271972656e+00,-4.201176762580871582e-01,6.210705637931823730e-01
3.908909797668457031e+00,-4.212156236171722412e-01,7.642126083374023438e-01
3.923567533493041992e+00,-4.227951169013977051e-01,9.110695123672485352e-01
3.979633808135986328e+00,-3.713016510009765625e-01,-1.070969223976135254e+00
4.001105785369873047e+00,-3.733050227165222168e-01,-9.277384281158447266e-01
4.003494262695312500e+00,-3.735278248786926270e-01,-7.815790176391601562e-01
3.992272377014160156e+00,-3.724808394908905029e-01,-6.350590586662292480e-01
4.014167785644531250e+00,-3.745236992835998535e-01,-4.950176775455474854e-01
4.012343883514404297e+00,-3.743535280227661133e-01,-3.525586426258087158e-01
4.031661987304687500e+00,-3.761559128761291504e-01,-2.122077792882919312e-01
4.029231548309326172e+00,-3.759291470050811768e-01,-7.063584029674530029e-02
4.023386001586914062e+00,-3.753837645053863525e-01,7.053336501121520996e-02
4.042270660400390625e+00,-3.771457076072692871e-01,2.127661705017089844e-01
4.056716442108154297e+00,-3.784935176372528076e-01,3.564576208591461182e-01
4.059754848480224609e+00,-3.787769973278045654e-01,5.006393790245056152e-01
4.037391185760498047e+00,-3.766904473304748535e-01,6.422361731529235840e-01
4.055309772491455078e+00,-3.783622384071350098e-01,7.916946411132812500e-01
4.061234951019287109e+00,-3.789150714874267578e-01,9.416805505752563477e-01
4.007987499237060547e+00,-3.161567151546478271e-01,-1.077271342277526855e+00
4.166096687316894531e+00,-3.286286294460296631e-01,-9.648054838180541992e-01
4.163301944732666016e+00,-3.284081518650054932e-01,-8.117765188217163086e-01
4.169195652008056641e+00,-3.288730680942535400e-01,-6.623859405517578125e-01
4.188194274902343750e+00,-3.303716778755187988e-01,-5.158421993255615234e-01
4.192292213439941406e+00,-3.306949734687805176e-01,-3.679168522357940674e-01
4.200272560119628906e+00,-3.313244581222534180e-01,-2.208104282617568970e-01
4.187028408050537109e+00,-3.302797377109527588e-01,-7.331177592277526855e-02
4.190086841583251953e+00,-3.305209875106811523e-01,7.336532324552536011e-02
4.205632209777832031e+00,-3.317472338676452637e-01,2.210921645164489746e-01
4.220211029052734375e+00,-3.328972160816192627e-01,3.703669905662536621e-01
4.218740940093994141e+00,-3.327812552452087402e-01,5.196045041084289551e-01
4.221986770629882812e+00,-3.330373167991638184e-01,6.707732081413269043e-01
4.231144428253173828e+00,-3.337596654891967773e-01,8.250046968460083008e-01
4.244439601898193359e+00,-3.348084390163421631e-01,9.829485416412353516e-01
4.016502380371093750e+00,-2.590458095073699951e-01,-1.078452825546264648e+00
4.337394714355468750e+00,-2.797419130802154541e-01,-1.003445386886596680e+00
4.340693473815917969e+00,-2.799546718597412109e-01,-8.454970717430114746e-01
4.349365711212158203e+00,-2.805139720439910889e-01,-6.903020739555358887e-01
4.343469142913818359e+00,-2.801336646080017090e-01,-5.344181656837463379e-01
4.339833259582519531e+00,-2.798991799354553223e-01,-3.804745078086853027e-01
4.365696430206298828e+00,-2.815672457218170166e-01,-2.292714864015579224e-01
4.355212211608886719e+00,-2.808910608291625977e-01,-7.617834955453872681e-02
4.371959686279296875e+00,-2.819711863994598389e-01,7.647127658128738403e-02
4.385276317596435547e+00,-2.828300595283508301e-01,2.302997559309005737e-01
4.380163192749023438e+00,-2.825002968311309814e-01,3.840102553367614746e-01
4.399207115173339844e+00,-2.837285101413726807e-01,5.412761569023132324e-01
4.399104118347167969e+00,-2.837218642234802246e-01,6.981961727142333984e-01
4.391872406005859375e+00,-2.832554578781127930e-01,8.554658889770507812e-01
4.413354873657226562e+00,-2.846409678459167480e-01,1.021018624305725098e+00
4.018363475799560547e+00,-2.014631927013397217e-01,-1.078067898750305176e+00
4.526741027832031250e+00,-2.269510328769683838e-01,-1.046391487121582031e+00
4.519931793212890625e+00,-2.266096323728561401e-01,-8.796879053115844727e-01
4.536139011383056641e+00,-2.274222075939178467e-01,-7.193551659584045410e-01
4.542103290557861328e+00,-2.277212142944335938e-01,-5.583997964859008789e-01
4.554352760314941406e+00,-2.283353656530380249e-01,-3.989540934562683105e-01
4.560705661773681641e+00,-2.286538779735565186e-01,-2.393163144588470459e-01
4.558225631713867188e+00,-2.285295277833938599e-01,-7.966393977403640747e-02
4.580390930175781250e+00,-2.296407967805862427e-01,8.005131781101226807e-02
4.561235904693603516e+00,-2.286804467439651489e-01,2.393441200256347656e-01
4.569935798645019531e+00,-2.291166335344314575e-01,4.003191590309143066e-01
4.586604118347167969e+00,-2.299522906541824341e-01,5.638706684112548828e-01
4.594150543212890625e+00,-2.303306460380554199e-01,7.285547852516174316e-01
4.592235088348388672e+00,-2.302346080541610718e-01,8.937598466873168945e-01
4.595056533813476562e+00,-2.303760647773742676e-01,1.062183141708374023e+00
4.018442630767822266e+00,-1.438461244106292725e-01,-1.077426433563232422e+00
4.727749824523925781e+00,-1.692368239164352417e-01,-1.092184424400329590e+00
4.730964183807373047e+00,-1.693518906831741333e-01,-9.201939105987548828e-01
4.735533237457275391e+00,-1.695154458284378052e-01,-7.505140900611877441e-01
4.750224113464355469e+00,-1.700413227081298828e-01,-5.836268663406372070e-01
4.744624137878417969e+00,-1.698408722877502441e-01,-4.153660833835601807e-01
4.749837875366210938e+00,-1.700275093317031860e-01,-2.490875273942947388e-01
4.751099109649658203e+00,-1.700726598501205444e-01,-8.298373967409133911e-02
4.768689155578613281e+00,-1.707023084163665771e-01,8.329096436500549316e-02
4.778261661529541016e+00,-1.710449755191802979e-01,2.505781054496765137e-01
4.768316268920898438e+00,-1.706889569759368896e-01,4.174401760101318359e-01
4.778610706329345703e+00,-1.710574626922607422e-01,5.871145129203796387e-01
4.786012649536132812e+00,-1.713224351406097412e-01,7.585143446922302246e-01
4.801265716552734375e+00,-1.718684285879135132e-01,9.338678121566772461e-01
4.804702758789062500e+00,-1.719914674758911133e-01,1.109961748123168945e+00
4.019757270812988281e+00,-8.631232380867004395e-02,-1.077337384223937988e+00
4.735614299774169922e+00,-1.016832217574119568e-01,-1.093553066253662109e+00
4.964390754699707031e+00,-1.065955087542533875e-01,-9.652007818222045898e-01
4.986382007598876953e+00,-1.070677116513252258e-01,-7.899461984634399414e-01
4.979386329650878906e+00,-1.069175004959106445e-01,-6.115317940711975098e-01
4.987504005432128906e+00,-1.070918068289756775e-01,-4.364500045776367188e-01
5.003414154052734375e+00,-1.074334233999252319e-01,-2.622778713703155518e-01
4.999919891357421875e+00,-1.073583960533142090e-01,-8.729391545057296753e-02
5.015742778778076172e+00,-1.076981425285339355e-01,8.757016062736511230e-02
5.019391536712646484e+00,-1.077764928340911865e-01,2.631154060363769531e-01
5.038773059844970703e+00,-1.081926450133323669e-01,4.409364461898803711e-01
5.026427268981933594e+00,-1.079275682568550110e-01,6.173090338706970215e-01
5.025564670562744141e+00,-1.079090386629104614e-01,7.961534857749938965e-01
5.050760746002197266e+00,-1.084500551223754883e-01,9.819932579994201660e-01
5.051888465881347656e+00,-1.084742620587348938e-01,1.166587352752685547e+00
4.013507366180419922e+00,-2.872211672365665436e-02,-1.075441837310791016e+00
4.811693191528320312e+00,-3.443422541022300720e-02,-1.110893607139587402e+00
5.201208591461181641e+00,-3.722174093127250671e-02,-1.011036872863769531e+00
5.215220451354980469e+00,-3.732201457023620605e-02,-8.260296583175659180e-01
5.202958106994628906e+00,-3.723426163196563721e-02,-6.388583779335021973e-01
5.227598667144775391e+00,-3.741059824824333191e-02,-4.573666453361511230e-01
5.223560333251953125e+00,-3.738169744610786438e-02,-2.737618088722229004e-01
5.245373725891113281e+00,-3.753780201077461243e-02,-9.156055003404617310e-02
5.231937885284423828e+00,-3.744165226817131042e-02,9.132602065801620483e-02
5.262826442718505859e+00,-3.766269981861114502e-02,2.758196890354156494e-01
5.261521816253662109e+00,-3.765336424112319946e-02,4.603346288204193115e-01
5.277663230895996094e+00,-3.776887804269790649e-02,6.480311751365661621e-01
5.267463207244873047e+00,-3.769588097929954529e-02,8.343042731285095215e-01
5.282092571258544922e+00,-3.780057653784751892e-02,1.026759505271911621e+00
5.286553382873535156e+00,-3.783249855041503906e-02,1.220526456832885742e+00
4.010113239288330078e+00,2.869782969355583191e-02,-1.074532508850097656e+00
4.802867412567138672e+00,3.437106311321258545e-02,-1.108855962753295898e+00
5.501246452331542969e+00,3.936892002820968628e-02,-1.069359660148620605e+00
5.499657630920410156e+00,3.935755044221878052e-02,-8.710812330245971680e-01
5.503772735595703125e+00,3.938699886202812195e-02,-6.757946014404296875e-01
5.513179302215576172e+00,3.945431485772132874e-02,-4.823523163795471191e-01
5.527558803558349609e+00,3.955721855163574219e-02,-2.896940708160400391e-01
5.534622669219970703e+00,3.960777074098587036e-02,-9.660952538251876831e-02
5.520308971405029297e+00,3.950534015893936157e-02,9.635967761278152466e-02
5.542308807373046875e+00,3.966277837753295898e-02,2.904671132564544678e-01
5.546641349792480469e+00,3.969378024339675903e-02,4.852799177169799805e-01
5.548369884490966797e+00,3.970615193247795105e-02,6.812705993652343750e-01
5.560105800628662109e+00,3.979013860225677490e-02,8.806555271148681641e-01
5.575259208679199219e+00,3.989858180284500122e-02,1.083746790885925293e+00
5.578509330749511719e+00,3.992184251546859741e-02,1.287931323051452637e+00
3.999617338180541992e+00,8.587987720966339111e-02,-1.071939587593078613e+00
4.749866008758544922e+00,1.019892320036888123e-01,-1.096844077110290527e+00
5.773799419403076172e+00,1.239751577377319336e-01,-1.122569918632507324e+00
5.798374176025390625e+00,1.245028227567672729e-01,-9.185824990272521973e-01
5.794417858123779297e+00,1.244178712368011475e-01,-7.116279602050781250e-01
5.800041198730468750e+00,1.245386153459548950e-01,-5.075540542602539062e-01
5.809200763702392578e+00,1.247352957725524902e-01,-3.045170307159423828e-01
5.811528205871582031e+00,1.247852742671966553e-01,-1.014638394117355347e-01
5.831849098205566406e+00,1.252215951681137085e-01,1.018186211585998535e-01
5.821610450744628906e+00,1.250017583370208740e-01,3.051675558090209961e-01
5.821733951568603516e+00,1.250043958425521851e-01,5.094523429870605469e-01
5.828319549560546875e+00,1.251458078622817993e-01,7.157915234565734863e-01
5.856528759002685547e+00,1.257515251636505127e-01,9.277954697608947754e-01
5.856390476226806641e+00,1.257485449314117432e-01,1.138627648353576660e+00
5.870354175567626953e+00,1.260483860969543457e-01,1.355588316917419434e+00
4.017923831939697266e+00,1.438275575637817383e-01,-1.077287316322326660e+00
4.755018234252929688e+00,1.702129393815994263e-01,-1.098483920097351074e+00
5.884378433227539062e+00,2.106400579214096069e-01,-1.144538164138793945e+00
6.160949230194091797e+00,2.205403298139572144e-01,-9.764220118522644043e-01
6.159896850585937500e+00,2.205026447772979736e-01,-7.568234801292419434e-01
6.157670497894287109e+00,2.204229533672332764e-01,-5.390706062316894531e-01
6.175273418426513672e+00,2.210530936717987061e-01,-3.238391876220703125e-01
6.177964210510253906e+00,2.211494147777557373e-01,-1.079056784510612488e-01
6.198411941528320312e+00,2.218813598155975342e-01,1.082628220319747925e-01
6.185022354125976562e+00,2.214020639657974243e-01,3.243504166603088379e-01
6.191431522369384766e+00,2.216314822435379028e-01,5.420262217521667480e-01
6.201099395751953125e+00,2.219775617122650146e-01,7.618858218193054199e-01
6.218289852142333984e+00,2.225929200649261475e-01,9.855096936225891113e-01
6.213567733764648438e+00,2.224238961935043335e-01,1.208567023277282715e+00
4.016036033630371094e+00,2.013465166091918945e-01,-1.077443599700927734e+00
4.755410671234130859e+00,2.384155243635177612e-01,-1.099250316619873047e+00
5.874065399169921875e+00,2.944999933242797852e-01,-1.143234968185424805e+00
6.508550643920898438e+00,3.263103067874908447e-01,-1.032146334648132324e+00
6.529691696166992188e+00,3.273702263832092285e-01,-8.027511239051818848e-01
6.521910190582275391e+00,3.269801139831542969e-01,-5.713090300559997559e-01
6.546544551849365234e+00,3.282151520252227783e-01,-3.435202836990356445e-01
6.551306724548339844e+00,3.284538984298706055e-01,-1.144969388842582703e-01
6.556648254394531250e+00,3.287217020988464355e-01,1.145902946591377258e-01
6.561764240264892578e+00,3.289782106876373291e-01,3.443188965320587158e-01
6.576847553253173828e+00,3.297344148159027100e-01,5.761214494705200195e-01
6.570838451385498047e+00,3.294331431388854980e-01,8.078096508979797363e-01
6.588241100311279297e+00,3.303056359291076660e-01,1.044783949851989746e+00
6.586637973785400391e+00,3.302252590656280518e-01,1.281918883323669434e+00
4.024658203125000000e+00,2.595718204975128174e-01,-1.080642700195312500e+00
4.766181945800781250e+00,3.073966801166534424e-01,-1.102644324302673340e+00
5.880723953247070312e+00,3.792795240879058838e-01,-1.145470142364501953e+00
6.976276874542236328e+00,4.499376118183135986e-01,-1.107227683067321777e+00
6.966837406158447266e+00,4.493288099765777588e-01,-8.571960926055908203e-01
6.986316680908203125e+00,4.505851268768310547e-01,-6.124925613403320312e-01
6.993143081665039062e+00,4.510253965854644775e-01,-3.672559857368469238e-01
7.013357162475585938e+00,4.523291289806365967e-01,-1.226727664470672607e-01
7.007384777069091797e+00,4.519439339637756348e-01,1.225683093070983887e-01
7.027075290679931641e+00,4.532138705253601074e-01,3.690380156040191650e-01
7.032409667968750000e+00,4.535579085350036621e-01,6.165335178375244141e-01
7.032059669494628906e+00,4.535353481769561768e-01,8.652210235595703125e-01
7.055882453918457031e+00,4.550718069076538086e-01,1.119862198829650879e+00
7.036818027496337891e+00,4.538422226905822754e-01,1.370658636093139648e+00
4.013954162597656250e+00,3.166273534297943115e-01,-1.078875064849853516e+00
4.766701221466064453e+00,3.760052621364593506e-01,-1.103896379470825195e+00
5.884688854217529297e+00,4.641939997673034668e-01,-1.147419095039367676e+00
7.439718723297119141e+00,5.868573784828186035e-01,-1.181994199752807617e+00
7.453366756439208984e+00,5.879339575767517090e-01,-9.179998040199279785e-01
7.468281745910644531e+00,5.891104340553283691e-01,-6.554186344146728516e-01
7.462520599365234375e+00,5.886560082435607910e-01,-3.923084139823913574e-01
7.486557960510253906e+00,5.905520915985107422e-01,-1.310840845108032227e-01
7.490220546722412109e+00,5.908409953117370605e-01,1.311482191085815430e-01
7.501679420471191406e+00,5.917448997497558594e-01,3.943670094013214111e-01
7.508851051330566406e+00,5.923106074333190918e-01,6.589789986610412598e-01
7.510682582855224609e+00,5.924550890922546387e-01,9.250591397285461426e-01
7.523307323455810547e+00,5.934509634971618652e-01,1.195274472236633301e+00
3.976838350296020508e+00,3.710408508777618408e-01,-1.070216894149780273e+00
4.744873523712158203e+00,4.426988959312438965e-01,-1.100196242332458496e+00
5.821753978729248047e+00,5.431722998619079590e-01,-1.136547327041625977e+00
7.612815380096435547e+00,7.102791666984558105e-01,-1.210986375808715820e+00
8.060192108154296875e+00,7.520195841789245605e-01,-9.939638376235961914e-01
8.076866149902343750e+00,7.535752654075622559e-01,-7.097020745277404785e-01
8.094443321228027344e+00,7.552152276039123535e-01,-4.260535240173339844e-01
8.096880912780761719e+00,7.554427385330200195e-01,-1.419451832771301270e-01
8.116165161132812500e+00,7.572419643402099609e-01,1.422832608222961426e-01
8.104487419128417969e+00,7.561524510383605957e-01,4.265822470188140869e-01
8.135816574096679688e+00,7.590754628181457520e-01,7.148820161819458008e-01
8.141446113586425781e+00,7.596006393432617188e-01,1.003983855247497559e+00
8.132950782775878906e+00,7.588080763816833496e-01,1.293725371360778809e+00
3.988305091857910156e+00,4.297710955142974854e-01,-1.074848055839538574e+00
4.752515792846679688e+00,5.121207833290100098e-01,-1.103554964065551758e+00
5.815062046051025391e+00,6.266184449195861816e-01,-1.136875510215759277e+00
7.491697311401367188e+00,8.072890043258666992e-01,-1.193435668945312500e+00
8.674946784973144531e+00,9.347934126853942871e-01,-1.071314215660095215e+00
8.708732604980468750e+00,9.384341239929199219e-01,-7.663250565528869629e-01
8.705046653747558594e+00,9.380369186401367188e-01,-4.588525593280792236e-01
8.720906257629394531e+00,9.397459030151367188e-01,-1.531050056219100952e-01
8.745032310485839844e+00,9.423456788063049316e-01,1.535285711288452148e-01
8.755932807922363281e+00,9.435203075408935547e-01,4.615348279476165771e-01
8.737010002136230469e+00,9.414811730384826660e-01,7.688133120536804199e-01
8.764196395874023438e+00,9.444108009338378906e-01,1.082336187362670898e+00
3.988694190979003906e+00,4.876571893692016602e-01,-1.076723814010620117e+00
4.747235298156738281e+00,5.803963541984558105e-01,-1.104144692420959473e+00
5.804277420043945312e+00,7.096301317214965820e-01,-1.136636376380920410e+00
7.503420829772949219e+00,9.173671603202819824e-01,-1.197272300720214844e+00
9.534342765808105469e+00,1.165667414665222168e+00,-1.179385185241699219e+00
9.561549186706542969e+00,1.168993592262268066e+00,-8.427547216415405273e-01
9.559065818786621094e+00,1.168690085411071777e+00,-5.046989321708679199e-01
9.564577102661132812e+00,1.169363737106323242e+00,-1.681931763887405396e-01
9.571475982666015625e+00,1.170207381248474121e+00,1.683145016431808472e-01
9.595762252807617188e+00,1.173176527023315430e+00,5.066363811492919922e-01
9.602662086486816406e+00,1.174020171165466309e+00,8.463784456253051758e-01
9.623845100402832031e+00,1.176609992980957031e+00,1.190456509590148926e+00
3.987837553024291992e+00,5.455869436264038086e-01,-1.078490138053894043e+00
4.700075626373291016e+00,6.430302262306213379e-01,-1.095204472541809082e+00
5.820745468139648438e+00,7.963520884513854980e-01,-1.141976475715637207e+00
7.490848541259765625e+00,1.024843454360961914e+00,-1.197484254837036133e+00
1.043108654022216797e+01,1.427105545997619629e+00,-1.292705535888671875e+00
1.043234539031982422e+01,1.427277803421020508e+00,-9.212129712104797363e-01
1.045162487030029297e+01,1.429915428161621094e+00,-5.528481602668762207e-01
1.046637725830078125e+01,1.431933641433715820e+00,-1.843928843736648560e-01
1.047208595275878906e+01,1.432714819908142090e+00,1.844934523105621338e-01
1.049676036834716797e+01,1.436090469360351562e+00,5.552356243133544922e-01
1.051595020294189453e+01,1.438715934753417969e+00,9.285955429077148438e-01
3.948429107666015625e+00,5.978818535804748535e-01,-1.070037126541137695e+00
4.716487884521484375e+00,7.141833901405334473e-01,-1.101297974586486816e+00
5.807296752929687500e+00,8.793566823005676270e-01,-1.141690373420715332e+00
7.492178440093994141e+00,1.134486079216003418e+00,-1.200169801712036133e+00
1.052423858642578125e+01,1.593608856201171875e+00,-1.306942582130432129e+00
1.168167304992675781e+01,1.768870711326599121e+00,-1.033662796020507812e+00
1.170295047760009766e+01,1.772092580795288086e+00,-6.203162670135498047e-01
1.170756340026855469e+01,1.772791147232055664e+00,-2.066855281591415405e-01
1.171884346008300781e+01,1.774499177932739258e+00,2.068846523761749268e-01
1.173920249938964844e+01,1.777582049369812012e+00,6.222378611564636230e-01
1.175075149536132812e+01,1.779330730438232422e+00,1.039775252342224121e+00
3.949525117874145508e+00,6.560010313987731934e-01,-1.072768926620483398e+00
4.709668636322021484e+00,7.822579145431518555e-01,-1.102207303047180176e+00
5.819630622863769531e+00,9.666183590888977051e-01,-1.146717667579650879e+00
7.493128299713134766e+00,1.244579911231994629e+00,-1.203052401542663574e+00
1.051477241516113281e+01,1.746463418006896973e+00,-1.308737277984619141e+00
1.325295925140380859e+01,2.201265811920166016e+00,-1.175366997718811035e+00
1.326424598693847656e+01,2.203140497207641602e+00,-7.046722769737243652e-01
1.329419994354248047e+01,2.208115577697753906e+00,-2.352298945188522339e-01
1.331645679473876953e+01,2.211812496185302734e+00,2.356237173080444336e-01
1.331272315979003906e+01,2.211192369461059570e+00,7.072476148605346680e-01
3.950408220291137695e+00,7.143900990486145020e-01,-1.075675964355468750e+00
4.702636718750000000e+00,8.504227995872497559e-01,-1.103297352790832520e+00
5.760655403137207031e+00,1.041754364967346191e+00,-1.137918591499328613e+00
7.490804195404052734e+00,1.354633808135986328e+00,-1.205668807029724121e+00
1.052009773254394531e+01,1.902449965476989746e+00,-1.312654972076416016e+00
1.506368827819824219e+01,2.724110841751098633e+00,-1.339276194572448730e+00
1.506278324127197266e+01,2.723947286605834961e+00,-8.022099733352661133e-01
1.508402919769287109e+01,2.727789402008056641e+00,-2.675628960132598877e-01
1.509997940063476562e+01,2.730673551559448242e+00,2.678458094596862793e-01
1.512728500366210938e+01,2.735611677169799805e+00,8.056451678276062012e-01
3.927398204803466797e+00,7.684326767921447754e-01,-1.072295546531677246e+00
4.667809486389160156e+00,9.133011698722839355e-01,-1.098080873489379883e+00
5.759870052337646484e+00,1.126973152160644531e+00,-1.140833020210266113e+00
7.392632007598876953e+00,1.446438550949096680e+00,-1.193077802658081055e+00
1.051473999023437500e+01,2.057308673858642578e+00,-1.315526008605957031e+00
1.759582519531250000e+01,3.442790031433105469e+00,-1.568622946739196777e+00
1.777842140197753906e+01,3.478516578674316406e+00,-9.493931531906127930e-01
