-2.062071561813354492e+00,-1.691534042358398438e+00,-1.397766321897506714e-01
-2.063381433486938477e+00,-1.692608475685119629e+00,-4.658392071723937988e-02
-2.063730955123901367e+00,-1.692895174026489258e+00,4.659181088209152222e-02
-2.068800449371337891e+00,-1.697053670883178711e+00,1.402327269315719604e-01
-2.080502033233642578e+00,-1.706652522087097168e+00,2.354262769222259521e-01
-2.079679250717163086e+00,-1.705977559089660645e+00,3.302745521068572998e-01
-2.067855834960937500e+00,-1.696278810501098633e+00,4.236115515232086182e-01
-2.066492080688476562e+00,-1.695160031318664551e+00,5.195423960685729980e-01
-2.076567173004150391e+00,-1.703424811363220215e+00,6.200762391090393066e-01
-1.982026815414428711e+00,-1.673896193504333496e+00,-6.951377391815185547e-01
-1.975683927536010742e+00,-1.668539404869079590e+00,-5.970221757888793945e-01
-1.997519254684448242e+00,-1.686980128288269043e+00,-5.082204937934875488e-01
-1.982781171798706055e+00,-1.674533367156982422e+00,-4.110514819622039795e-01
-1.993398785591125488e+00,-1.683500289916992188e+00,-3.203663229942321777e-01
-1.991548180580139160e+00,-1.681937336921691895e+00,-2.280612587928771973e-01
-1.992087364196777344e+00,-1.682392716407775879e+00,-1.366510838270187378e-01
-1.996271252632141113e+00,-1.685926198959350586e+00,-4.560893774032592773e-02
-1.999382615089416504e+00,-1.688553810119628906e+00,4.568002372980117798e-02
-2.010058641433715820e+00,-1.697570204734802246e+00,1.378838568925857544e-01
-2.007312774658203125e+00,-1.695251226425170898e+00,2.298665493726730347e-01
-1.996912598609924316e+00,-1.686467766761779785e+00,3.209310472011566162e-01
-2.006843566894531250e+00,-1.694854855537414551e+00,4.160398542881011963e-01
-2.024373769760131836e+00,-1.709659934043884277e+00,5.150529742240905762e-01
-2.017349958419799805e+00,-1.703727960586547852e+00,6.096130609512329102e-01
-1.925717949867248535e+00,-1.674142479896545410e+00,-6.837233304977416992e-01
-1.916610836982727051e+00,-1.666225075721740723e+00,-5.863180756568908691e-01
-1.920563340187072754e+00,-1.669661164283752441e+00,-4.946706891059875488e-01
-1.918842077255249023e+00,-1.668164849281311035e+00,-4.027050137519836426e-01
-1.931494235992431641e+00,-1.679164171218872070e+00,-3.142479658126831055e-01
-1.932783365249633789e+00,-1.680284857749938965e+00,-2.240630537271499634e-01
-1.923634767532348633e+00,-1.672331452369689941e+00,-1.335837543010711670e-01
-1.938727140426635742e+00,-1.685452103614807129e+00,-4.484080895781517029e-02
-1.940826654434204102e+00,-1.687277317047119141e+00,4.488936811685562134e-02
-1.930877327919006348e+00,-1.678627729415893555e+00,1.340866982936859131e-01
-1.941250085830688477e+00,-1.687645435333251953e+00,2.250445783138275146e-01
-1.955604076385498047e+00,-1.700124263763427734e+00,3.181705474853515625e-01
-1.948125839233398438e+00,-1.693622946739196777e+00,4.088507294654846191e-01
-1.955593943595886230e+00,-1.700115442276000977e+00,5.036933422088623047e-01
-1.947361588478088379e+00,-1.692958593368530273e+00,5.957251787185668945e-01
-1.861813426017761230e+00,-1.665965914726257324e+00,-6.694319248199462891e-01
-1.857641816139221191e+00,-1.662233114242553711e+00,-5.754981040954589844e-01
-1.857402443885803223e+00,-1.662019014358520508e+00,-4.844802916049957275e-01
-1.866584539413452148e+00,-1.670235157012939453e+00,-3.967144191265106201e-01
-1.873831391334533691e+00,-1.676719665527343750e+00,-3.087394237518310547e-01
-1.876576185226440430e+00,-1.679175734519958496e+00,-2.203108072280883789e-01
-1.874611020088195801e+00,-1.677417278289794922e+00,-1.318331956863403320e-01
-1.868012666702270508e+00,-1.671513080596923828e+00,-4.375413805246353149e-02
-1.879269719123840332e+00,-1.681586027145385742e+00,4.401781037449836731e-02
-1.879620552062988281e+00,-1.681899905204772949e+00,1.321854889392852783e-01
-1.879957437515258789e+00,-1.682201266288757324e+00,2.207077741622924805e-01
-1.883481979370117188e+00,-1.685355067253112793e+00,3.103294968605041504e-01
-1.890021443367004395e+00,-1.691206693649291992e+00,4.016955792903900146e-01
-1.886966943740844727e+00,-1.688473463058471680e+00,4.921918213367462158e-01
-1.888194918632507324e+00,-1.689572334289550781e+00,5.849634408950805664e-01
-1.793915152549743652e+00,-1.652046203613281250e+00,-6.534538865089416504e-01
-1.795377016067504883e+00,-1.653392434120178223e+00,-5.634824037551879883e-01
-1.820659995079040527e+00,-1.676675915718078613e+00,-4.811070263385772705e-01
-1.806846261024475098e+00,-1.663954734802246094e+00,-3.890400528907775879e-01
-1.809891819953918457e+00,-1.666759371757507324e+00,-3.021043539047241211e-01
-1.809923887252807617e+00,-1.666788816452026367e+00,-2.152646332979202271e-01
-1.807132601737976074e+00,-1.664218425750732422e+00,-1.287497431039810181e-01
-1.810225129127502441e+00,-1.667066335678100586e+00,-4.295509308576583862e-02
-1.813416481018066406e+00,-1.670005202293395996e+00,4.303082078695297241e-02
-1.819686532020568848e+00,-1.675779461860656738e+00,1.296441555023193359e-01
-1.812685608863830566e+00,-1.669332265853881836e+00,2.155930995941162109e-01
-1.818111062049865723e+00,-1.674328565597534180e+00,3.034762740135192871e-01
-1.823554158210754395e+00,-1.679341316223144531e+00,3.926374912261962891e-01
-1.824407577514648438e+00,-1.680127143859863281e+00,4.820973277091979980e-01
-1.837010383605957031e+00,-1.691733360290527344e+00,5.765491127967834473e-01
-1.732005596160888672e+00,-1.641460537910461426e+00,-6.393954157829284668e-01
-1.741146087646484375e+00,-1.650123238563537598e+00,-5.538180470466613770e-01
-1.747624993324279785e+00,-1.656263470649719238e+00,-4.680241942405700684e-01
-1.756918072700500488e+00,-1.665070772171020508e+00,-3.833821117877960205e-01
-1.754303336143493652e+00,-1.662592649459838867e+00,-2.967674434185028076e-01
-1.765150904655456543e+00,-1.672873139381408691e+00,-2.127656042575836182e-01
-1.750872492790222168e+00,-1.659341096878051758e+00,-1.264206618070602417e-01
-1.749628186225891113e+00,-1.658161878585815430e+00,-4.207605496048927307e-02
-1.772554159164428711e+00,-1.679889321327209473e+00,4.262739419937133789e-02
-1.775651812553405762e+00,-1.682824969291687012e+00,1.282098442316055298e-01
-1.755074381828308105e+00,-1.663323402404785156e+00,2.115510106086730957e-01
-1.764314174652099609e+00,-1.672080159187316895e+00,2.984609305858612061e-01
-1.766435503959655762e+00,-1.674090623855590820e+00,3.854589164257049561e-01
-1.778798580169677734e+00,-1.685807347297668457e+00,4.763726592063903809e-01
-1.779197573661804199e+00,-1.686185479164123535e+00,5.659213662147521973e-01
-1.690012216567993164e+00,-1.648210644721984863e+00,-6.325373053550720215e-01
-1.688992261886596680e+00,-1.647215962409973145e+00,-5.446727275848388672e-01
-1.693465471267700195e+00,-1.651578545570373535e+00,-4.598037302494049072e-01
-1.689088463783264160e+00,-1.647309780120849609e+00,-3.736876845359802246e-01
-1.706439137458801270e+00,-1.664231300354003906e+00,-2.926701605319976807e-01
-1.695351839065551758e+00,-1.653418302536010742e+00,-2.071836739778518677e-01
-1.703448176383972168e+00,-1.661314368247985840e+00,-1.247006133198738098e-01
-1.704621315002441406e+00,-1.662458419799804688e+00,-4.156169667840003967e-02
-1.713484168052673340e+00,-1.671102046966552734e+00,4.177778959274291992e-02
-1.701416015625000000e+00,-1.659332394599914551e+00,1.245518475770950317e-01
-1.709925293922424316e+00,-1.667631268501281738e+00,2.089646458625793457e-01
-1.699536919593811035e+00,-1.657499909400939941e+00,2.914863824844360352e-01
-1.721962690353393555e+00,-1.679370880126953125e+00,3.809606730937957764e-01
-1.709547162055969238e+00,-1.667262554168701172e+00,4.641701877117156982e-01
-1.716558337211608887e+00,-1.674100160598754883e+00,5.535623431205749512e-01
-1.643348813056945801e+00,-1.649245977401733398e+00,-6.238436698913574219e-01
-1.643812775611877441e+00,-1.649711608886718750e+00,-5.376628637313842773e-01
-1.643751978874206543e+00,-1.649650573730468750e+00,-4.526704251766204834e-01
-1.650642991065979004e+00,-1.656566381454467773e+00,-3.703899979591369629e-01
-1.643398046493530273e+00,-1.649295449256896973e+00,-2.858775854110717773e-01
-1.649935722351074219e+00,-1.655856490135192871e+00,-2.045089751482009888e-01
-1.659857034683227539e+00,-1.665813446044921875e+00,-1.232423633337020874e-01
-1.655018806457519531e+00,-1.660957813262939453e+00,-4.092776030302047729e-02
-1.646083593368530273e+00,-1.651990652084350586e+00,4.070679843425750732e-02
-1.642329216003417969e+00,-1.648222684860229492e+00,1.219409406185150146e-01
-1.659213066101074219e+00,-1.665167212486267090e+00,2.056589126586914062e-01
-1.674019813537597656e+00,-1.680027127265930176e+00,2.912043929100036621e-01
-1.661479473114013672e+00,-1.667441725730895996e+00,3.728215992450714111e-01
-1.662573695182800293e+00,-1.668539881706237793e+00,4.578537344932556152e-01
-1.667534828186035156e+00,-1.673518776893615723e+00,5.454218983650207520e-01
-1.571100234985351562e+00,-1.622533440589904785e+00,-6.051711440086364746e-01
-1.592756867408752441e+00,-1.644899129867553711e+00,-5.286101102828979492e-01
-1.594429969787597656e+00,-1.646626949310302734e+00,-4.455327093601226807e-01
-1.592995762825012207e+00,-1.645145773887634277e+00,-3.627012073993682861e-01
-1.601844429969787598e+00,-1.654284119606018066e+00,-2.827391624450683594e-01
-1.605438351631164551e+00,-1.657995700836181641e+00,-2.019143998622894287e-01
-1.595806121826171875e+00,-1.648048162460327148e+00,-1.202258244156837463e-01
-1.599955201148986816e+00,-1.652333021163940430e+00,-4.014682024717330933e-02
-1.607355356216430664e+00,-1.659975409507751465e+00,4.033251106739044189e-02
-1.605207800865173340e+00,-1.657757639884948730e+00,1.209341362118721008e-01
-1.612616777420043945e+00,-1.665409088134765625e+00,2.028172165155410767e-01
-1.607038378715515137e+00,-1.659648180007934570e+00,2.836559414863586426e-01
-1.615406274795532227e+00,-1.668290019035339355e+00,3.678037524223327637e-01
-1.615076661109924316e+00,-1.667949557304382324e+00,4.513020217418670654e-01
-1.617401123046875000e+00,-1.670350074768066406e+00,5.367891192436218262e-01
-1.541094303131103516e+00,-1.637813925743103027e+00,-6.025813817977905273e-01
-1.535048007965087891e+00,-1.631388068199157715e+00,-5.171542167663574219e-01
-1.540428161621093750e+00,-1.637105822563171387e+00,-4.369459748268127441e-01
-1.545791864395141602e+00,-1.642806291580200195e+00,-3.572708368301391602e-01
-1.543814063072204590e+00,-1.640704274177551270e+00,-2.766131162643432617e-01
-1.550657987594604492e+00,-1.647977709770202637e+00,-1.979711204767227173e-01
-1.549962997436523438e+00,-1.647239208221435547e+00,-1.185362413525581360e-01
-1.547031760215759277e+00,-1.644123911857604980e+00,-3.940530866384506226e-02
-1.562942266464233398e+00,-1.661033034324645996e+00,3.981057554483413696e-02
-1.556348085403442383e+00,-1.654024958610534668e+00,1.190245449542999268e-01
-1.555130481719970703e+00,-1.652730941772460938e+00,1.985421329736709595e-01
-1.550692915916442871e+00,-1.648014783859252930e+00,2.778456509113311768e-01
-1.566041946411132812e+00,-1.664327263832092285e+00,3.619511425495147705e-01
-1.568367242813110352e+00,-1.666798353195190430e+00,4.448709487915039062e-01
-1.554742455482482910e+00,-1.652318596839904785e+00,5.237892270088195801e-01
-1.494029641151428223e+00,-1.634036660194396973e+00,-5.932630300521850586e-01
-1.501631617546081543e+00,-1.642351031303405762e+00,-5.137633681297302246e-01
-1.502968072891235352e+00,-1.643812775611877441e+00,-4.329499602317810059e-01
-1.499950528144836426e+00,-1.640512466430664062e+00,-3.520668447017669678e-01
-1.508733630180358887e+00,-1.650118708610534668e+00,-2.745313942432403564e-01
-1.503253936767578125e+00,-1.644125461578369141e+00,-1.949035823345184326e-01
-1.503770828247070312e+00,-1.644690752029418945e+00,-1.167920008301734924e-01
-1.505171060562133789e+00,-1.646222233772277832e+00,-3.893525153398513794e-02
-1.507413387298583984e+00,-1.648674726486206055e+00,3.899325802922248840e-02
-1.499990701675415039e+00,-1.640556454658508301e+00,1.164984107017517090e-01
-1.516705513000488281e+00,-1.658837556838989258e+00,1.966476291418075562e-01
-1.510598897933959961e+00,-1.652158737182617188e+00,2.748708128929138184e-01
-1.520361304283142090e+00,-1.662835955619812012e+00,3.568576574325561523e-01
-1.517668128013610840e+00,-1.659890413284301758e+00,4.371844828128814697e-01
-1.519712209701538086e+00,-1.662126064300537109e+00,5.199494361877441406e-01
-1.444639325141906738e+00,-1.626152873039245605e+00,-5.828335881233215332e-01
-1.449645519256591797e+00,-1.631788015365600586e+00,-5.039165616035461426e-01
-1.452822446823120117e+00,-1.635364174842834473e+00,-4.252041876316070557e-01
-1.447421789169311523e+00,-1.629284858703613281e+00,-3.451758027076721191e-01
-1.454641699790954590e+00,-1.637412071228027344e+00,-2.689258456230163574e-01
-1.449606418609619141e+00,-1.631744027137756348e+00,-1.909565627574920654e-01
-1.446145057678222656e+00,-1.627847790718078613e+00,-1.141143739223480225e-01
-1.463205933570861816e+00,-1.647052288055419922e+00,-3.845560550689697266e-02
-1.454871773719787598e+00,-1.637670993804931641e+00,3.823656961321830750e-02
-1.468080163002014160e+00,-1.652539014816284180e+00,1.158452630043029785e-01
-1.455448150634765625e+00,-1.638319730758666992e+00,1.917261034250259399e-01
-1.468125224113464355e+00,-1.652589678764343262e+00,2.714186012744903564e-01
-1.466325998306274414e+00,-1.650564432144165039e+00,3.496840000152587891e-01
-1.469588756561279297e+00,-1.654237151145935059e+00,4.301112592220306396e-01
-1.474959969520568848e+00,-1.660283088684082031e+00,5.127161741256713867e-01
-1.410376787185668945e+00,-1.634101271629333496e+00,-5.783877372741699219e-01
-1.408460497856140137e+00,-1.631880998611450195e+00,-4.976686239242553711e-01
-1.402660608291625977e+00,-1.625161051750183105e+00,-4.172884523868560791e-01
-1.394234061241149902e+00,-1.615397691726684570e+00,-3.379711806774139404e-01
-1.410999774932861328e+00,-1.634823083877563477e+00,-2.651564776897430420e-01
-1.404114961624145508e+00,-1.626846075057983398e+00,-1.880121678113937378e-01
-1.404207944869995117e+00,-1.626953840255737305e+00,-1.126311942934989929e-01
-1.416153430938720703e+00,-1.640794157981872559e+00,-3.783234953880310059e-02
-1.408771038055419922e+00,-1.632240653038024902e+00,3.763512521982192993e-02
-1.414284586906433105e+00,-1.638628840446472168e+00,1.134394332766532898e-01
-1.410142660140991211e+00,-1.633829951286315918e+00,1.888192892074584961e-01
-1.423976063728332520e+00,-1.649857640266418457e+00,2.675949633121490479e-01
-1.418166518211364746e+00,-1.643126606941223145e+00,3.437725901603698730e-01
-1.416667103767395020e+00,-1.641389250755310059e+00,4.214553236961364746e-01
-1.425432682037353516e+00,-1.651545286178588867e+00,5.036655664443969727e-01
-1.366927623748779297e+00,-1.630363106727600098e+00,-5.700811147689819336e-01
-1.364443063735961914e+00,-1.627399802207946777e+00,-4.902958571910858154e-01
-1.361673116683959961e+00,-1.624096035957336426e+00,-4.119683504104614258e-01
-1.373180389404296875e+00,-1.637820959091186523e+00,-3.385156691074371338e-01
-1.378808975219726562e+00,-1.644534230232238770e+00,-2.635035812854766846e-01
-1.367451906204223633e+00,-1.630988478660583496e+00,-1.862098127603530884e-01
-1.364293217658996582e+00,-1.627220988273620605e+00,-1.112864241003990173e-01
-1.370896220207214355e+00,-1.635096549987792969e+00,-3.724472224712371826e-02
-1.366428017616271973e+00,-1.629767298698425293e+00,3.712332993745803833e-02
-1.378276944160461426e+00,-1.643899798393249512e+00,1.124270856380462646e-01
-1.385674238204956055e+00,-1.652722597122192383e+00,1.886911839246749878e-01
-1.371618390083312988e+00,-1.635957956314086914e+00,2.621294260025024414e-01
-1.388542771339416504e+00,-1.656144022941589355e+00,3.423028290271759033e-01
-1.372848033905029297e+00,-1.637424468994140625e+00,4.153492450714111328e-01
-1.388501048088073730e+00,-1.656094312667846680e+00,4.989407956600189209e-01
-1.319067120552062988e+00,-1.619812726974487305e+00,-5.597328543663024902e-01
-1.320166468620300293e+00,-1.621162772178649902e+00,-4.826743900775909424e-01
-1.323703408241271973e+00,-1.625506043434143066e+00,-4.074782133102416992e-01
-1.326414823532104492e+00,-1.628835678100585938e+00,-3.327004015445709229e-01
-1.321904301643371582e+00,-1.623296856880187988e+00,-2.570426762104034424e-01
-1.325956583023071289e+00,-1.628273010253906250e+00,-1.837141215801239014e-01
-1.315401434898376465e+00,-1.615311264991760254e+00,-1.091730743646621704e-01
-1.335757017135620117e+00,-1.640308022499084473e+00,-3.692414239048957825e-02
-1.330009341239929199e+00,-1.633249759674072266e+00,3.676525875926017761e-02
-1.325755715370178223e+00,-1.628026247024536133e+00,1.100324317812919617e-01
-1.329634666442871094e+00,-1.632789611816406250e+00,1.842237263917922974e-01
-1.336640715599060059e+00,-1.641393184661865234e+00,2.599081695079803467e-01
-1.329108476638793945e+00,-1.632143497467041016e+00,3.333760499954223633e-01
-1.336805939674377441e+00,-1.641596078872680664e+00,4.115116298198699951e-01
-1.335210084915161133e+00,-1.639636278152465820e+00,4.881745576858520508e-01
-1.269270658493041992e+00,-1.605041980743408203e+00,-5.482946634292602539e-01
-1.279664635658264160e+00,-1.618185758590698242e+00,-4.762858152389526367e-01
-1.281222581863403320e+00,-1.620155811309814453e+00,-4.014987945556640625e-01
-1.279910564422607422e+00,-1.618496775627136230e+00,-3.268131613731384277e-01
-1.293300032615661621e+00,-1.635428190231323242e+00,-2.560061812400817871e-01
-1.285938620567321777e+00,-1.626119375228881836e+00,-1.813758164644241333e-01
-1.286417007446289062e+00,-1.626724243164062500e+00,-1.086888313293457031e-01
-1.286176443099975586e+00,-1.626420140266418457e+00,-3.619340434670448303e-02
-1.288622021675109863e+00,-1.629512667655944824e+00,3.626222163438796997e-02
-1.278727173805236816e+00,-1.617000341415405273e+00,1.080391258001327515e-01
-1.290002822875976562e+00,-1.631258726119995117e+00,1.819490641355514526e-01
-1.292824268341064453e+00,-1.634826660156250000e+00,2.559120059013366699e-01
-1.295794367790222168e+00,-1.638582348823547363e+00,3.308689296245574951e-01
-1.299095869064331055e+00,-1.642757177352905273e+00,4.070997536182403564e-01
-1.303377866744995117e+00,-1.648171901702880859e+00,4.851117432117462158e-01
-1.234505295753479004e+00,-1.607851982116699219e+00,-5.431627035140991211e-01
-1.238823890686035156e+00,-1.613476753234863281e+00,-4.696326255798339844e-01
-1.241077184677124023e+00,-1.616411328315734863e+00,-3.961280882358551025e-01
-1.246847033500671387e+00,-1.623926162719726562e+00,-3.242726027965545654e-01
-1.237381815910339355e+00,-1.611598491668701172e+00,-2.494778931140899658e-01
-1.243702054023742676e+00,-1.619830012321472168e+00,-1.786704361438751221e-01
-1.249090790748596191e+00,-1.626848459243774414e+00,-1.074915528297424316e-01
-1.255727052688598633e+00,-1.635491847991943359e+00,-3.599161282181739807e-02
-1.254812359809875488e+00,-1.634300351142883301e+00,3.596539422869682312e-02
-1.257702112197875977e+00,-1.638064146041870117e+00,1.082326099276542664e-01
-1.252835988998413086e+00,-1.631726264953613281e+00,1.799826174974441528e-01
-1.250554561614990234e+00,-1.628754973411560059e+00,2.521337568759918213e-01
-1.254559397697448730e+00,-1.633970975875854492e+00,3.262783885002136230e-01
-1.251999974250793457e+00,-1.630637526512145996e+00,3.996144235134124756e-01
-1.260604381561279297e+00,-1.641844034194946289e+00,4.778894782066345215e-01
-1.193439006805419922e+00,-1.601300120353698730e+00,-5.351238846778869629e-01
-1.203377366065979004e+00,-1.614634990692138672e+00,-4.649086296558380127e-01
-1.198228478431701660e+00,-1.607726573944091797e+00,-3.897567093372344971e-01
-1.202327370643615723e+00,-1.613226175308227539e+00,-3.186668753623962402e-01
-1.198853492736816406e+00,-1.608565092086791992e+00,-2.463267445564270020e-01
-1.205173134803771973e+00,-1.617044568061828613e+00,-1.764423847198486328e-01
-1.206832766532897949e+00,-1.619271397590637207e+00,-1.058387160301208496e-01
-1.211973547935485840e+00,-1.626169085502624512e+00,-3.540106490254402161e-02
-1.213424324989318848e+00,-1.628115653991699219e+00,3.544344007968902588e-02
-1.207050204277038574e+00,-1.619563102722167969e+00,1.058577820658683777e-01
-1.217841863632202148e+00,-1.634042859077453613e+00,1.782971322536468506e-01
-1.221295475959777832e+00,-1.638676762580871582e+00,2.509378790855407715e-01
-1.220718860626220703e+00,-1.637903094291687012e+00,3.235414028167724609e-01
-1.218926668167114258e+00,-1.635498404502868652e+00,3.964893519878387451e-01
-1.215870976448059082e+00,-1.631398439407348633e+00,4.697353839874267578e-01
-1.168266773223876953e+00,-1.615268588066101074e+00,-5.341489911079406738e-01
-1.159798383712768555e+00,-1.603560090065002441e+00,-4.568930566310882568e-01
-1.163150668144226074e+00,-1.608195066452026367e+00,-3.857946693897247314e-01
-1.171179890632629395e+00,-1.619296312332153320e+00,-3.165221214294433594e-01
-1.158792972564697266e+00,-1.602170109748840332e+00,-2.427826374769210815e-01
-1.169128298759460449e+00,-1.616459846496582031e+00,-1.745347678661346436e-01
-1.165793895721435547e+00,-1.611849546432495117e+00,-1.042522639036178589e-01
-1.172393441200256348e+00,-1.620974302291870117e+00,-3.491908311843872070e-02
-1.167742490768432617e+00,-1.614543795585632324e+00,3.478055819869041443e-02
-1.177931666374206543e+00,-1.628631472587585449e+00,1.053377017378807068e-01
-1.172694921493530273e+00,-1.621391177177429199e+00,1.750672161579132080e-01
-1.184157729148864746e+00,-1.637239933013916016e+00,2.480968832969665527e-01
-1.169581413269042969e+00,-1.617086291313171387e+00,3.160901367664337158e-01
-1.177757143974304199e+00,-1.628390192985534668e+00,3.906393647193908691e-01
-1.176019191741943359e+00,-1.625987291336059570e+00,4.632831215858459473e-01
-1.122563719749450684e+00,-1.599806785583496094e+00,-5.236688852310180664e-01
-1.125340104103088379e+00,-1.603763461112976074e+00,-4.523152709007263184e-01
-1.128558516502380371e+00,-1.608350276947021484e+00,-3.819176554679870605e-01
-1.121789097785949707e+00,-1.598702788352966309e+00,-3.093264698982238770e-01
-1.132049798965454102e+00,-1.613325715065002441e+00,-2.419929206371307373e-01
-1.140433192253112793e+00,-1.625273227691650391e+00,-1.737060844898223877e-01
-1.132197260856628418e+00,-1.613535881042480469e+00,-1.033025905489921570e-01
-1.132730126380920410e+00,-1.614295363426208496e+00,-3.442241251468658447e-02
-1.129938364028930664e+00,-1.610316753387451172e+00,3.433757647871971130e-02
-1.133395671844482422e+00,-1.615243792533874512e+00,1.034119352698326111e-01
-1.133000135421752930e+00,-1.614680171012878418e+00,1.725739091634750366e-01
-1.138500094413757324e+00,-1.622518301010131836e+00,2.433717846870422363e-01
-1.137084245681762695e+00,-1.620500445365905762e+00,3.135440051555633545e-01
-1.136341452598571777e+00,-1.619441986083984375e+00,3.845514655113220215e-01
-1.145193457603454590e+00,-1.632057309150695801e+00,4.602950811386108398e-01
-1.082980036735534668e+00,-1.591357231140136719e+00,-5.157762765884399414e-01
-1.093220949172973633e+00,-1.606405615806579590e+00,-4.486012756824493408e-01
-1.092055797576904297e+00,-1.604693531990051270e+00,-3.772989213466644287e-01
-1.096174001693725586e+00,-1.610744953155517578e+00,-3.085890412330627441e-01
-1.086541771888732910e+00,-1.596591114997863770e+00,-2.371257245540618896e-01
-1.091940879821777344e+00,-1.604524493217468262e+00,-1.698006540536880493e-01
-1.099079608917236328e+00,-1.615014433860778809e+00,-1.023795902729034424e-01
-1.101355075836181641e+00,-1.618358135223388672e+00,-3.416939824819564819e-02
-1.105889201164245605e+00,-1.625020623207092285e+00,3.431006520986557007e-02
-1.101815104484558105e+00,-1.619034171104431152e+00,1.026344075798988342e-01
-1.099255800247192383e+00,-1.615273475646972656e+00,1.709381639957427979e-01
-1.096689224243164062e+00,-1.611502051353454590e+00,2.393402904272079468e-01
-1.112628102302551270e+00,-1.634922981262207031e+00,3.132210969924926758e-01
-1.103064179420471191e+00,-1.620869517326354980e+00,3.811022639274597168e-01
-1.097994804382324219e+00,-1.613420486450195312e+00,4.505602121353149414e-01
-1.060516119003295898e+00,-1.607334375381469727e+00,-5.159818530082702637e-01
-1.053330779075622559e+00,-1.596444129943847656e+00,-4.415639340877532959e-01
-1.051454901695251465e+00,-1.593600869178771973e+00,-3.711142241954803467e-01
-1.057597637176513672e+00,-1.602910995483398438e+00,-3.041569292545318604e-01
-1.059955596923828125e+00,-1.606484770774841309e+00,-2.363176345825195312e-01
-1.059745073318481445e+00,-1.606165647506713867e+00,-1.683518439531326294e-01
-1.063887238502502441e+00,-1.612443685531616211e+00,-1.012409180402755737e-01
-1.064539194107055664e+00,-1.613431811332702637e+00,-3.374021500349044800e-02
-1.066458821296691895e+00,-1.616341114044189453e+00,3.380105644464492798e-02
-1.063686966896057129e+00,-1.612140178680419922e+00,1.012218594551086426e-01
-1.062347888946533203e+00,-1.610110640525817871e+00,1.687653511762619019e-01
-1.073360562324523926e+00,-1.626801609992980957e+00,2.393062859773635864e-01
-1.074491739273071289e+00,-1.628515958786010742e+00,3.090155422687530518e-01
-1.072526812553405762e+00,-1.625537872314453125e+00,3.785516321659088135e-01
-1.066280722618103027e+00,-1.616071343421936035e+00,4.469926357269287109e-01
-1.013658046722412109e+00,-1.585213541984558105e+00,-5.041714310646057129e-01
-1.016166448593139648e+00,-1.589136362075805664e+00,-4.354750514030456543e-01
-1.014197707176208496e+00,-1.586057543754577637e+00,-3.659394383430480957e-01
-1.019367098808288574e+00,-1.594141840934753418e+00,-2.996936142444610596e-01
-1.022799134254455566e+00,-1.599508881568908691e+00,-2.331140488386154175e-01
-1.024034976959228516e+00,-1.601441621780395508e+00,-1.663033068180084229e-01
-1.023315429687500000e+00,-1.600316405296325684e+00,-9.954962879419326782e-02
-1.024090647697448730e+00,-1.601528644561767578e+00,-3.318136185407638550e-02
-1.019261956214904785e+00,-1.593977332115173340e+00,3.302490711212158203e-02
-1.031492948532104492e+00,-1.613104820251464844e+00,1.003451496362686157e-01
-1.029557704925537109e+00,-1.610078334808349609e+00,1.672002077102661133e-01
-1.030160903930664062e+00,-1.611021637916564941e+00,2.347919195890426636e-01
-1.037950754165649414e+00,-1.623203873634338379e+00,3.051571846008300781e-01
-1.027097105979919434e+00,-1.606230378150939941e+00,3.705937862396240234e-01
-1.031966567039489746e+00,-1.613845467567443848e+00,4.422461390495300293e-01
-9.861699938774108887e-01,-1.591976881027221680e+00,-5.017817020416259766e-01
-9.886879920959472656e-01,-1.596041679382324219e+00,-4.334449470043182373e-01
-9.838156700134277344e-01,-1.588176250457763672e+00,-3.631420731544494629e-01
-9.922583103179931641e-01,-1.601805329322814941e+00,-2.984336912631988525e-01
-9.961215853691101074e-01,-1.608041763305664062e+00,-2.322558760643005371e-01
-9.920054078102111816e-01,-1.601397037506103516e+00,-1.648072898387908936e-01
-9.932940006256103516e-01,-1.603477239608764648e+00,-9.885171055793762207e-02
-9.876289367675781250e-01,-1.594332098960876465e+00,-3.273602202534675598e-02
-9.939780235290527344e-01,-1.604581356048583984e+00,3.294646739959716797e-02
-9.874997735023498535e-01,-1.594123601913452148e+00,9.827507287263870239e-02
-9.909449219703674316e-01,-1.599685072898864746e+00,1.646311134099960327e-01
-9.997591376304626465e-01,-1.613913774490356445e+00,2.331040054559707642e-01
-1.001722812652587891e+00,-1.617083907127380371e+00,3.012802600860595703e-01
-1.007904648780822754e+00,-1.627063274383544922e+00,3.720337152481079102e-01
-9.990983009338378906e-01,-1.612847089767456055e+00,4.380088746547698975e-01
-9.485504031181335449e-01,-1.581363916397094727e+00,-4.941065311431884766e-01
-9.584299325942993164e-01,-1.597834467887878418e+00,-4.301621615886688232e-01
-9.535867571830749512e-01,-1.589760184288024902e+00,-3.603464066982269287e-01
-9.590888619422912598e-01,-1.598932981491088867e+00,-2.953106462955474854e-01
-9.532575607299804688e-01,-1.589211344718933105e+00,-2.275421023368835449e-01
-9.623366594314575195e-01,-1.604347467422485352e+00,-1.636765897274017334e-01
-9.507867097854614258e-01,-1.585092067718505859e+00,-9.686940163373947144e-02
-9.615222215652465820e-01,-1.602989673614501953e+00,-3.262785822153091431e-02
-9.668915867805480957e-01,-1.611941218376159668e+00,3.281005844473838806e-02
-9.565509557723999023e-01,-1.594701886177062988e+00,9.745668619871139526e-02
-9.643346071243286133e-01,-1.607678294181823730e+00,1.640163958072662354e-01
-9.648472070693969727e-01,-1.608532905578613281e+00,2.303085476160049438e-01
-9.631896018981933594e-01,-1.605769395828247070e+00,2.965732812881469727e-01
-9.717965722084045410e-01,-1.620118498802185059e+00,3.672276735305786133e-01
-9.681781530380249023e-01,-1.614086031913757324e+00,4.345373511314392090e-01
-9.174069166183471680e-01,-1.580284237861633301e+00,-4.896160960197448730e-01
-9.144450426101684570e-01,-1.575182318687438965e+00,-4.204970300197601318e-01
-9.207628965377807617e-01,-1.586065173149108887e+00,-3.564850389957427979e-01
-9.171168804168701172e-01,-1.579784631729125977e+00,-2.893199920654296875e-01
-9.255573153495788574e-01,-1.594323754310607910e+00,-2.263540774583816528e-01
-9.263972043991088867e-01,-1.595770597457885742e+00,-1.614322364330291748e-01
-9.263287782669067383e-01,-1.595652580261230469e+00,-9.669458866119384766e-02
-9.299442768096923828e-01,-1.601880550384521484e+00,-3.233103826642036438e-02
-9.338745474815368652e-01,-1.608650684356689453e+00,3.246768191456794739e-02
-9.261872172355651855e-01,-1.595408797264099121e+00,9.667980670928955078e-02
-9.247856736183166504e-01,-1.592994570732116699e+00,1.611514091491699219e-01
-9.334297180175781250e-01,-1.607884407043457031e+00,2.282793521881103516e-01
-9.292358756065368652e-01,-1.600660204887390137e+00,2.931431233882904053e-01
-9.367070198059082031e-01,-1.613529682159423828e+00,3.626579940319061279e-01
-9.336951971054077148e-01,-1.608341813087463379e+00,4.293490052223205566e-01
-8.897774815559387207e-01,-1.584493637084960938e+00,-4.869244992733001709e-01
-8.914033770561218262e-01,-1.587389111518859863e+00,-4.203065633773803711e-01
-8.914294838905334473e-01,-1.587435483932495117e+00,-3.538889884948730469e-01
-8.934530615806579590e-01,-1.591039061546325684e+00,-2.890094518661499023e-01
-8.859235048294067383e-01,-1.577630639076232910e+00,-2.221609801054000854e-01
-8.907819390296936035e-01,-1.586282372474670410e+00,-1.591662466526031494e-01
-8.976092934608459473e-01,-1.598440289497375488e+00,-9.607511013746261597e-02
-8.946502804756164551e-01,-1.593171119689941406e+00,-3.189352899789810181e-02
-8.881817460060119629e-01,-1.581651926040649414e+00,3.166292980313301086e-02
-8.986905813217163086e-01,-1.600365877151489258e+00,9.619084745645523071e-02
-8.914347290992736816e-01,-1.587444901466369629e+00,1.592828929424285889e-01
-8.993065357208251953e-01,-1.601462841033935547e+00,2.255170196294784546e-01
-8.964223861694335938e-01,-1.596326708793640137e+00,2.899699509143829346e-01
-8.959298133850097656e-01,-1.595449686050415039e+00,3.556755781173706055e-01
-9.027990102767944336e-01,-1.607682108879089355e+00,4.256797134876251221e-01
-8.580868840217590332e-01,-1.580630779266357422e+00,-4.819136559963226318e-01
-8.571992516517639160e-01,-1.578995823860168457e+00,-4.147930145263671875e-01
-8.585474491119384766e-01,-1.581479191780090332e+00,-3.497857451438903809e-01
-8.591975569725036621e-01,-1.582676768302917480e+00,-2.852272987365722656e-01
-8.536548018455505371e-01,-1.572466731071472168e+00,-2.196906656026840210e-01
-8.646167516708374023e-01,-1.592658996582031250e+00,-1.585480719804763794e-01
-8.640405535697937012e-01,-1.591597676277160645e+00,-9.491075575351715088e-02
-8.698637485504150391e-01,-1.602324247360229492e+00,-3.182425722479820251e-02
-8.632133007049560547e-01,-1.590073943138122559e+00,3.158094733953475952e-02
-8.662444353103637695e-01,-1.595657348632812500e+00,9.515284001827239990e-02
-8.710690736770629883e-01,-1.604544520378112793e+00,1.597312539815902710e-01
-8.678176403045654297e-01,-1.598555326461791992e+00,2.233355194330215454e-01
-8.665633797645568848e-01,-1.596244812011718750e+00,2.876725196838378906e-01
-8.728244304656982422e-01,-1.607777953147888184e+00,3.556024134159088135e-01
-8.724227547645568848e-01,-1.607038021087646484e+00,4.221595525741577148e-01
-8.236844539642333984e-01,-1.570456504821777344e+00,-4.751684367656707764e-01
-8.231814503669738770e-01,-1.569497466087341309e+00,-4.091607332229614258e-01
-8.262706995010375977e-01,-1.575387477874755859e+00,-3.457871973514556885e-01
-8.321754932403564453e-01,-1.586645722389221191e+00,-2.837668955326080322e-01
-8.345003128051757812e-01,-1.591078281402587891e+00,-2.205995023250579834e-01
-8.274582028388977051e-01,-1.577651619911193848e+00,-1.558590829372406006e-01
-8.390429615974426270e-01,-1.599739432334899902e+00,-9.467040747404098511e-02
-8.354784846305847168e-01,-1.592943310737609863e+00,-3.139720857143402100e-02
-8.329566717147827148e-01,-1.588135123252868652e+00,3.130243718624114990e-02
-8.391309380531311035e-01,-1.599907159805297852e+00,9.468033164739608765e-02
-8.407467603683471680e-01,-1.602988004684448242e+00,1.583621054887771606e-01
-8.374505043029785156e-01,-1.596703290939331055e+00,2.213793992996215820e-01
-8.326538205146789551e-01,-1.587557792663574219e+00,2.839300036430358887e-01
-8.428669571876525879e-01,-1.607030391693115234e+00,3.527325987815856934e-01
-8.363977670669555664e-01,-1.594696044921875000e+00,4.157298803329467773e-01
-7.989556193351745605e-01,-1.577802538871765137e+00,-4.738824665546417236e-01
-7.964420318603515625e-01,-1.572838664054870605e+00,-4.070181846618652344e-01
-7.977370619773864746e-01,-1.575396060943603516e+00,-3.432476520538330078e-01
-7.990022301673889160e-01,-1.577894568443298340e+00,-2.801277041435241699e-01
-8.034203052520751953e-01,-1.586619615554809570e+00,-2.183645516633987427e-01
-8.086438179016113281e-01,-1.596935153007507324e+00,-1.566046327352523804e-01
-8.048789501190185547e-01,-1.589500188827514648e+00,-9.337312728166580200e-02
-8.012015223503112793e-01,-1.582237958908081055e+00,-3.095699660480022430e-02
-8.006545901298522949e-01,-1.581157803535461426e+00,3.093586489558219910e-02
-8.119582533836364746e-01,-1.603480577468872070e+00,9.419438987970352173e-02
-8.001577854156494141e-01,-1.580176711082458496e+00,1.549612134695053101e-01
-8.089242577552795410e-01,-1.597488999366760254e+00,2.198604941368103027e-01
-8.104419112205505371e-01,-1.600486159324645996e+00,2.841384410858154297e-01
-8.055402040481567383e-01,-1.590806007385253906e+00,3.466051816940307617e-01
-8.189663887023925781e-01,-1.617320537567138672e+00,4.185291528701782227e-01
-7.682087421417236328e-01,-1.572528600692749023e+00,-4.689479172229766846e-01
-7.725595831871032715e-01,-1.581434726715087891e+00,-4.063394665718078613e-01
-7.719622850418090820e-01,-1.580212116241455078e+00,-3.418544828891754150e-01
-7.668691873550415039e-01,-1.569786548614501953e+00,-2.767111957073211670e-01
-7.724077701568603516e-01,-1.581123948097229004e+00,-2.160644680261611938e-01
-7.711774706840515137e-01,-1.578605532646179199e+00,-1.537089198827743530e-01
-7.784386277198791504e-01,-1.593469142913818359e+00,-9.294223040342330933e-02
-7.714805006980895996e-01,-1.579225897789001465e+00,-3.067887201905250549e-02
-7.755509614944458008e-01,-1.587558150291442871e+00,3.084073774516582489e-02
-7.765285968780517578e-01,-1.589559316635131836e+00,9.271417558193206787e-02
-7.800359725952148438e-01,-1.596738934516906738e+00,1.554745733737945557e-01
-7.727847099304199219e-01,-1.581895589828491211e+00,2.161699086427688599e-01
-7.851858139038085938e-01,-1.607280731201171875e+00,2.833204269409179688e-01
-7.776062488555908203e-01,-1.591765403747558594e+00,3.443538546562194824e-01
-7.768426537513732910e-01,-1.590202212333679199e+00,4.085922241210937500e-01
-7.361005544662475586e-01,-1.563138604164123535e+00,-4.629582762718200684e-01
-7.422761917114257812e-01,-1.576252818107604980e+00,-4.022368788719177246e-01
-7.404227852821350098e-01,-1.572317004203796387e+00,-3.378191888332366943e-01
-7.420164942741394043e-01,-1.575701355934143066e+00,-2.758533954620361328e-01
-7.435767650604248047e-01,-1.579014658927917480e+00,-2.142998576164245605e-01
-7.386338710784912109e-01,-1.568518161773681641e+00,-1.516817361116409302e-01
-7.398095726966857910e-01,-1.571014881134033203e+00,-9.100557863712310791e-02
-7.474196553230285645e-01,-1.587175130844116211e+00,-3.062233328819274902e-02
-7.455332279205322266e-01,-1.583169221878051758e+00,3.054504469037055969e-02
-7.432208657264709473e-01,-1.578258872032165527e+00,9.142520278692245483e-02
-7.453923225402832031e-01,-1.582870006561279297e+00,1.530696153640747070e-01
-7.455413937568664551e-01,-1.583186626434326172e+00,2.148660570383071899e-01
-7.463377118110656738e-01,-1.584877610206604004e+00,2.774598896503448486e-01
-7.515958547592163086e-01,-1.596043586730957031e+00,3.429169356822967529e-01
-7.571358680725097656e-01,-1.607807993888854980e+00,4.102893173694610596e-01
-7.124690413475036621e-01,-1.570901989936828613e+00,-4.621899127960205078e-01
-7.095390558242797852e-01,-1.564441680908203125e+00,-3.965905904769897461e-01
-7.198538780212402344e-01,-1.587184548377990723e+00,-3.387650549411773682e-01
-7.157617807388305664e-01,-1.578161954879760742e+00,-2.744625210762023926e-01
-7.126367688179016113e-01,-1.571271777153015137e+00,-2.118429392576217651e-01
-7.198228836059570312e-01,-1.587116122245788574e+00,-1.524682641029357910e-01
-7.119953632354736328e-01,-1.569857597351074219e+00,-9.033893048763275146e-02
-7.181018590927124023e-01,-1.583321571350097656e+00,-3.034656494855880737e-02
-7.155891060829162598e-01,-1.577781200408935547e+00,3.024037741124629974e-02
-7.218730449676513672e-01,-1.591636538505554199e+00,9.159222990274429321e-02
-7.160072922706604004e-01,-1.578703284263610840e+00,1.516600698232650757e-01
-7.206854224205017090e-01,-1.589018106460571289e+00,2.142355442047119141e-01
-7.222162485122680664e-01,-1.592393279075622559e+00,2.769375145435333252e-01
-7.209993004798889160e-01,-1.589709997177124023e+00,3.393040895462036133e-01
-7.257717251777648926e-01,-1.600232601165771484e+00,4.056636989116668701e-01
-6.862311363220214844e-01,-1.572500228881835938e+00,-4.597231149673461914e-01
-6.836799383163452148e-01,-1.566654086112976074e+00,-3.946302831172943115e-01
-6.866900324821472168e-01,-1.573551654815673828e+00,-3.337232768535614014e-01
-6.845461726188659668e-01,-1.568639039993286133e+00,-2.710745334625244141e-01
-6.838760972023010254e-01,-1.567103624343872070e+00,-2.099397480487823486e-01
-6.922369599342346191e-01,-1.586262583732604980e+00,-1.514188945293426514e-01
-6.868424415588378906e-01,-1.573900938034057617e+00,-8.999665826559066772e-02
-6.885238289833068848e-01,-1.577753901481628418e+00,-3.004788607358932495e-02
-6.891154050827026367e-01,-1.579109430313110352e+00,3.007370419800281525e-02
-6.894319653511047363e-01,-1.579834818840026855e+00,9.033595770597457886e-02
-6.902066469192504883e-01,-1.581609964370727539e+00,1.509747803211212158e-01
-6.930813193321228027e-01,-1.588197350502014160e+00,2.127656191587448120e-01
-6.882759928703308105e-01,-1.577185869216918945e+00,2.725515067577362061e-01
-6.956864595413208008e-01,-1.594166994094848633e+00,3.380954265594482422e-01
-6.917027235031127930e-01,-1.585038304328918457e+00,3.992611467838287354e-01
-6.618269085884094238e-01,-1.577801704406738281e+00,-4.584565758705139160e-01
-6.584334969520568848e-01,-1.569711804389953613e+00,-3.929862678050994873e-01
-6.541202664375305176e-01,-1.559428930282592773e+00,-3.287087082862854004e-01
-6.544026136398315430e-01,-1.560102105140686035e+00,-2.679531872272491455e-01
-6.525685191154479980e-01,-1.555729508399963379e+00,-2.071434706449508667e-01
-6.569300889968872070e-01,-1.566127657890319824e+00,-1.485840976238250732e-01
-6.613777279853820801e-01,-1.576730847358703613e+00,-8.960798382759094238e-02
-6.616798043251037598e-01,-1.577450990676879883e+00,-2.985868789255619049e-02
-6.665679216384887695e-01,-1.589104294776916504e+00,3.007926791906356812e-02
-6.586896777153015137e-01,-1.570322513580322266e+00,8.924378454685211182e-02
-6.581318378448486328e-01,-1.568992614746093750e+00,1.488559097051620483e-01
-6.641352176666259766e-01,-1.583304643630981445e+00,2.108150720596313477e-01
-6.624310016632080078e-01,-1.579241871833801270e+00,2.712405025959014893e-01
-6.631816029548645020e-01,-1.581031203269958496e+00,3.332622349262237549e-01
-6.691541671752929688e-01,-1.595269918441772461e+00,3.993848860263824463e-01
-6.217446923255920410e-01,-1.543825149536132812e+00,-4.459526240825653076e-01
-6.215236783027648926e-01,-1.543276429176330566e+00,-3.841014802455902100e-01
-6.309364438056945801e-01,-1.566648840904235840e+00,-3.282933533191680908e-01
-6.310657262802124023e-01,-1.566969752311706543e+00,-2.675539255142211914e-01
-6.333079934120178223e-01,-1.572537541389465332e+00,-2.081531286239624023e-01
-6.288077235221862793e-01,-1.561362981796264648e+00,-1.472630798816680908e-01
-6.361603736877441406e-01,-1.579620122909545898e+00,-8.924555778503417969e-02
-6.285004019737243652e-01,-1.560600042343139648e+00,-2.936643734574317932e-02
-6.326460838317871094e-01,-1.570894002914428711e+00,2.956014312803745270e-02
-6.324769854545593262e-01,-1.570474147796630859e+00,8.872882276773452759e-02
-6.342340707778930664e-01,-1.574836969375610352e+00,1.485338956117630005e-01
-6.364663243293762207e-01,-1.580379724502563477e+00,2.091911882162094116e-01
-6.375284790992736816e-01,-1.583017230033874512e+00,2.702939510345458984e-01
-6.340020895004272461e-01,-1.574260950088500977e+00,3.298884928226470947e-01
-6.376489996910095215e-01,-1.583316445350646973e+00,3.940669298171997070e-01
-6.034896373748779297e-01,-1.562674164772033691e+00,-4.488562047481536865e-01
-5.995718240737915039e-01,-1.552529335021972656e+00,-3.842291235923767090e-01
-5.988820791244506836e-01,-1.550743341445922852e+00,-3.231309652328491211e-01
-6.012409925460815430e-01,-1.556851387023925781e+00,-2.643297612667083740e-01
-6.053006052970886230e-01,-1.567363381385803223e+00,-2.063002884387969971e-01
-6.042062640190124512e-01,-1.564529776573181152e+00,-1.467310339212417603e-01
-6.096835732460021973e-01,-1.578712582588195801e+00,-8.869215846061706543e-02
-6.019816994667053223e-01,-1.558769464492797852e+00,-2.916686423122882843e-02
-6.104493737220764160e-01,-1.580695629119873047e+00,2.957713603973388672e-02
-6.077716350555419922e-01,-1.573761820793151855e+00,8.841402828693389893e-02
-6.106916666030883789e-01,-1.581323027610778809e+00,1.483060121536254883e-01
-6.126719713211059570e-01,-1.586450815200805664e+00,2.088126242160797119e-01
-6.081410050392150879e-01,-1.574718236923217773e+00,2.673632800579071045e-01
-6.096727252006530762e-01,-1.578684449195861816e+00,3.289530873298645020e-01
-6.113896369934082031e-01,-1.583130240440368652e+00,3.918024301528930664e-01
-5.786615014076232910e-01,-1.564658164978027344e+00,-4.470012187957763672e-01
-5.712913870811462402e-01,-1.544729948043823242e+00,-3.802362084388732910e-01
-5.753726363182067871e-01,-1.555765271186828613e+00,-3.224282860755920410e-01
-5.769750475883483887e-01,-1.560098052024841309e+00,-2.634518444538116455e-01
-5.727992653846740723e-01,-1.548807024955749512e+00,-2.027579545974731445e-01
-5.702055096626281738e-01,-1.541793823242187500e+00,-1.438185423612594604e-01
-5.783370137214660645e-01,-1.563780784606933594e+00,-8.737927675247192383e-02
-5.810516476631164551e-01,-1.571120977401733398e+00,-2.923936396837234497e-02
-5.814128518104553223e-01,-1.572097539901733398e+00,2.925753965973854065e-02
-5.827518105506896973e-01,-1.575717926025390625e+00,8.804628998041152954e-02
-5.795722007751464844e-01,-1.567120552062988281e+00,1.461810320615768433e-01
-5.847080349922180176e-01,-1.581007480621337891e+00,2.069733887910842896e-01
-5.822155475616455078e-01,-1.574267983436584473e+00,2.658446729183197021e-01
-5.860205292701721191e-01,-1.584556460380554199e+00,3.283951878547668457e-01
-5.922833085060119629e-01,-1.601490378379821777e+00,3.942078351974487305e-01
-5.471272468566894531e-01,-1.547099709510803223e+00,-4.397027194499969482e-01
-5.488623976707458496e-01,-1.552006125450134277e+00,-3.800545334815979004e-01
-5.489756464958190918e-01,-1.552326560020446777e+00,-3.200543522834777832e-01
-5.499932169914245605e-01,-1.555203914642333984e+00,-2.612692117691040039e-01
-5.514183044433593750e-01,-1.559233546257019043e+00,-2.030688673257827759e-01
-5.537347197532653809e-01,-1.565783619880676270e+00,-1.453021019697189331e-01
-5.529851913452148438e-01,-1.563664078712463379e+00,-8.692158013582229614e-02
-5.503713488578796387e-01,-1.556273102760314941e+00,-2.881347760558128357e-02
-5.578115582466125488e-01,-1.577311635017395020e+00,2.920299209654331207e-02
-5.518084764480590820e-01,-1.560336828231811523e+00,8.673661947250366211e-02
-5.572475790977478027e-01,-1.575716972351074219e+00,1.462239027023315430e-01
-5.515665411949157715e-01,-1.559652686119079590e+00,2.031234502792358398e-01
-5.613439679145812988e-01,-1.587300181388854980e+00,2.666612863540649414e-01
-5.572851300239562988e-01,-1.575823068618774414e+00,3.248987793922424316e-01
-5.587268471717834473e-01,-1.579899668693542480e+00,3.868851065635681152e-01
-5.249382853507995605e-01,-1.554798841476440430e+00,-4.397103786468505859e-01
-5.216331481933593750e-01,-1.545009493827819824e+00,-3.764742612838745117e-01
-5.260075330734252930e-01,-1.557965874671936035e+00,-3.196320235729217529e-01
-5.269469022750854492e-01,-1.560748338699340820e+00,-2.609068155288696289e-01
-5.278661251068115234e-01,-1.563470840454101562e+00,-2.026159465312957764e-01
-5.312082767486572266e-01,-1.573369860649108887e+00,-1.452856361865997314e-01
-5.279772877693176270e-01,-1.563799977302551270e+00,-8.650018274784088135e-02
-5.324739813804626465e-01,-1.577118754386901855e+00,-2.905533649027347565e-02
-5.245850682258605957e-01,-1.553752779960632324e+00,2.862486429512500763e-02
-5.227565169334411621e-01,-1.548336863517761230e+00,8.564485609531402588e-02
-5.322517156600952148e-01,-1.576460361480712891e+00,1.455710083246231079e-01
-5.282021760940551758e-01,-1.564466238021850586e+00,2.027449309825897217e-01
-5.282858014106750488e-01,-1.564713954925537109e+00,2.615697383880615234e-01
-5.348935723304748535e-01,-1.584285259246826172e+00,3.250316977500915527e-01
-5.347409844398498535e-01,-1.583833217620849609e+00,3.859345018863677979e-01
-4.989246129989624023e-01,-1.550629496574401855e+00,-4.364668726921081543e-01
-5.026478767395019531e-01,-1.562201261520385742e+00,-3.788714706897735596e-01
-5.000203251838684082e-01,-1.554034829139709473e+00,-3.173246681690216064e-01
-5.011052489280700684e-01,-1.557406902313232422e+00,-2.591226696968078613e-01
-4.984457492828369141e-01,-1.549141287803649902e+00,-1.998138576745986938e-01
-5.008673071861267090e-01,-1.556667327880859375e+00,-1.430666595697402954e-01
-5.046475529670715332e-01,-1.568415999412536621e+00,-8.634712547063827515e-02
-4.999611377716064453e-01,-1.553851008415222168e+00,-2.849191799759864807e-02
-5.073700547218322754e-01,-1.576877355575561523e+00,2.891413681209087372e-02
-5.064966082572937012e-01,-1.574162840843200684e+00,8.666350692510604858e-02
-5.041270852088928223e-01,-1.566798567771911621e+00,1.439977735280990601e-01
-5.113905668258666992e-01,-1.589372992515563965e+00,2.050030976533889771e-01
-5.040118694305419922e-01,-1.566440463066101074e+00,2.606256902217864990e-01
-5.072593688964843750e-01,-1.576533436775207520e+00,3.219187557697296143e-01
-5.093264579772949219e-01,-1.582957863807678223e+00,3.839054405689239502e-01
-4.699812829494476318e-01,-1.535719513893127441e+00,-4.303324818611145020e-01
-4.739089608192443848e-01,-1.548553586006164551e+00,-3.738781809806823730e-01
-4.767197668552398682e-01,-1.557738304138183594e+00,-3.166551589965820312e-01
-4.776657521724700928e-01,-1.560829401016235352e+00,-2.585280835628509521e-01
-4.751029312610626221e-01,-1.552455067634582520e+00,-1.993437260389328003e-01
-4.777122437953948975e-01,-1.560981273651123047e+00,-1.428200751543045044e-01
-4.785206913948059082e-01,-1.563622951507568359e+00,-8.569739013910293579e-02
-4.796111285686492920e-01,-1.567186117172241211e+00,-2.860762737691402435e-02
-4.759607911109924316e-01,-1.555258154869079590e+00,2.838989347219467163e-02
-4.734743237495422363e-01,-1.547133445739746094e+00,8.479364961385726929e-02
