-8.989948034286499023e-01,-2.143212080001831055e+00,2.853660583496093750e-01
-9.007600545883178711e-01,-2.147420644760131836e+00,3.688272535800933838e-01
-8.989820480346679688e-01,-2.143181800842285156e+00,4.517567455768585205e-01
-9.014177322387695312e-01,-2.148988485336303711e+00,5.380114912986755371e-01
-8.564512133598327637e-01,-2.126614093780517578e+00,-6.142982840538024902e-01
-8.516868352890014648e-01,-2.114783763885498047e+00,-5.263422727584838867e-01
-8.602942824363708496e-01,-2.136156558990478516e+00,-4.476344883441925049e-01
-8.651602268218994141e-01,-2.148238897323608398e+00,-3.668033480644226074e-01
-8.577014207839965820e-01,-2.129718303680419922e+00,-2.819058597087860107e-01
-8.602958917617797852e-01,-2.136160612106323242e+00,-2.014762610197067261e-01
-8.587552309036254883e-01,-2.132334947586059570e+00,-1.204729080200195312e-01
-8.622270822525024414e-01,-2.140955686569213867e+00,-4.028722643852233887e-02
-8.593282699584960938e-01,-2.133757829666137695e+00,4.015177860856056213e-02
-8.591256141662597656e-01,-2.133254766464233398e+00,1.205248683691024780e-01
-8.695889115333557129e-01,-2.159235715866088867e+00,2.036526203155517578e-01
-8.644443154335021973e-01,-2.146461248397827148e+00,2.841221094131469727e-01
-8.676998615264892578e-01,-2.154545068740844727e+00,3.678800761699676514e-01
-8.663363456726074219e-01,-2.151159286499023438e+00,4.507783353328704834e-01
-8.663000464439392090e-01,-2.151069164276123047e+00,5.353732109069824219e-01
-8.248846530914306641e-01,-2.135953426361083984e+00,-6.135226488113403320e-01
-8.281391859054565430e-01,-2.144380807876586914e+00,-5.307040214538574219e-01
-8.302784562110900879e-01,-2.149920463562011719e+00,-4.479824602603912354e-01
-8.252133131027221680e-01,-2.136804580688476562e+00,-3.627970218658447266e-01
-8.250498771667480469e-01,-2.136381387710571289e+00,-2.811958789825439453e-01
-8.301238417625427246e-01,-2.149519920349121094e+00,-2.015949487686157227e-01
-8.275481462478637695e-01,-2.142850637435913086e+00,-1.203854531049728394e-01
-8.309858441352844238e-01,-2.151751995086669922e+00,-4.026243835687637329e-02
-8.321493864059448242e-01,-2.154764890670776367e+00,4.031881690025329590e-02
-8.346382379531860352e-01,-2.161209583282470703e+00,1.214168667793273926e-01
-8.346642255783081055e-01,-2.161276817321777344e+00,2.026975750923156738e-01
-8.346154689788818359e-01,-2.161150455474853516e+00,2.844560444355010986e-01
-8.380972146987915039e-01,-2.170166254043579102e+00,3.684613108634948730e-01
-8.388162255287170410e-01,-2.172028064727783203e+00,4.525890648365020752e-01
-8.347721695899963379e-01,-2.161556243896484375e+00,5.349547266960144043e-01
-7.958705425262451172e-01,-2.151975393295288086e+00,-6.147896647453308105e-01
-7.913364171981811523e-01,-2.139715433120727539e+00,-5.266922116279602051e-01
-7.895154356956481934e-01,-2.134791612625122070e+00,-4.424299895763397217e-01
-7.982484698295593262e-01,-2.158405065536499023e+00,-3.644872009754180908e-01
-7.971460223197937012e-01,-2.155424118041992188e+00,-2.821716070175170898e-01
-7.997638583183288574e-01,-2.162502527236938477e+00,-2.017182707786560059e-01
-8.017133474349975586e-01,-2.167773962020874023e+00,-1.211285591125488281e-01
-8.050260543823242188e-01,-2.176731109619140625e+00,-4.051007702946662903e-02
-8.053109049797058105e-01,-2.177501440048217773e+00,4.052441194653511047e-02
-8.025264739990234375e-01,-2.169972419738769531e+00,1.212514117360115051e-01
-8.034567236900329590e-01,-2.172487974166870117e+00,2.026496976613998413e-01
-8.039791584014892578e-01,-2.173900365829467773e+00,2.845903933048248291e-01
-8.081582784652709961e-01,-2.185200452804565430e+00,3.690120875835418701e-01
-8.036450743675231934e-01,-2.172997236251831055e+00,4.503479897975921631e-01
-8.090232014656066895e-01,-2.187539339065551758e+00,5.384641289710998535e-01
-7.694900631904602051e-01,-2.175870418548583984e+00,-6.184061765670776367e-01
-7.634890675544738770e-01,-2.158901453018188477e+00,-5.286707282066345215e-01
-7.675563097000122070e-01,-2.170402288436889648e+00,-4.474874734878540039e-01
-7.673911452293395996e-01,-2.169935226440429688e+00,-3.645420968532562256e-01
-7.653777003288269043e-01,-2.164241790771484375e+00,-2.818629145622253418e-01
-7.695320844650268555e-01,-2.175989151000976562e+00,-2.019281685352325439e-01
-7.700607180595397949e-01,-2.177483797073364258e+00,-1.210428401827812195e-01
-7.710356116294860840e-01,-2.180240631103515625e+00,-4.036586731672286987e-02
-7.650748491287231445e-01,-2.163385629653930664e+00,4.005380719900131226e-02
-7.712908387184143066e-01,-2.180962324142456055e+00,1.212361976504325867e-01
-7.706252336502075195e-01,-2.179080247879028320e+00,2.022150158882141113e-01
-7.736808061599731445e-01,-2.187720298767089844e+00,2.849206626415252686e-01
-7.741585373878479004e-01,-2.189071178436279297e+00,3.677568435668945312e-01
-7.767357826232910156e-01,-2.196358919143676758e+00,4.528391361236572266e-01
-7.773900032043457031e-01,-2.198208808898925781e+00,5.382962822914123535e-01
-7.324200868606567383e-01,-2.169332981109619141e+00,-6.135058999061584473e-01
-7.319085001945495605e-01,-2.167817831039428711e+00,-5.282347202301025391e-01
-7.320870757102966309e-01,-2.168346643447875977e+00,-4.448576271533966064e-01
-7.326196432113647461e-01,-2.169924259185791016e+00,-3.627414107322692871e-01
-7.323588728904724121e-01,-2.169151782989501953e+00,-2.811083495616912842e-01
-7.422719001770019531e-01,-2.198512792587280273e+00,-2.030116021633148193e-01
-7.351751327514648438e-01,-2.177493095397949219e+00,-1.204460710287094116e-01
-7.354046106338500977e-01,-2.178172826766967773e+00,-4.012858495116233826e-02
-7.380207180976867676e-01,-2.185921430587768555e+00,4.027134180068969727e-02
-7.409783601760864258e-01,-2.194681644439697266e+00,1.213968321681022644e-01
-7.356798052787780762e-01,-2.178987979888916016e+00,2.012086659669876099e-01
-7.404068112373352051e-01,-2.192988634109497070e+00,2.841974794864654541e-01
-7.447737455368041992e-01,-2.205923080444335938e+00,3.687592446804046631e-01
-7.453435659408569336e-01,-2.207610607147216797e+00,4.529130160808563232e-01
-7.437813282012939453e-01,-2.202983617782592773e+00,5.368035435676574707e-01
-7.009104490280151367e-01,-2.178390026092529297e+00,-6.131672263145446777e-01
-7.034935355186462402e-01,-2.186418056488037109e+00,-5.302591323852539062e-01
-7.030907273292541504e-01,-2.185166120529174805e+00,-4.461979568004608154e-01
-7.014793157577514648e-01,-2.180158138275146484e+00,-3.627365827560424805e-01
-7.029675245285034180e-01,-2.184783458709716797e+00,-2.818012833595275879e-01
-7.053088545799255371e-01,-2.192059993743896484e+00,-2.014628946781158447e-01
-7.077654600143432617e-01,-2.199694871902465820e+00,-1.211013719439506531e-01
-7.099007964134216309e-01,-2.206331491470336914e+00,-4.045601189136505127e-02
-7.083113193511962891e-01,-2.201391696929931641e+00,4.036543518304824829e-02
-7.058265209197998047e-01,-2.193669080734252930e+00,1.207696199417114258e-01
-7.102334499359130859e-01,-2.207365512847900391e+00,2.028695493936538696e-01
-7.107177972793579102e-01,-2.208870649337768555e+00,2.849081754684448242e-01
-7.120125889778137207e-01,-2.212894916534423828e+00,3.681833446025848389e-01
-7.145392298698425293e-01,-2.220747709274291992e+00,4.534634649753570557e-01
-7.134468555450439453e-01,-2.217352390289306641e+00,5.377614498138427734e-01
-6.732367873191833496e-01,-2.199880838394165039e+00,-6.164408326148986816e-01
-6.728659272193908691e-01,-2.198668956756591797e+00,-5.308400988578796387e-01
-6.734390258789062500e-01,-2.200541734695434570e+00,-4.473234415054321289e-01
-6.758655309677124023e-01,-2.208470582962036133e+00,-3.658002018928527832e-01
-6.765912175178527832e-01,-2.210841894149780273e+00,-2.838841974735260010e-01
-6.742522120475769043e-01,-2.203198909759521484e+00,-2.015790045261383057e-01
-6.750279068946838379e-01,-2.205733537673950195e+00,-1.208895072340965271e-01
-6.787617802619934082e-01,-2.217934370040893555e+00,-4.048647359013557434e-02
-6.816380620002746582e-01,-2.227332830429077148e+00,4.065803810954093933e-02
-6.772873401641845703e-01,-2.213116645812988281e+00,1.212941482663154602e-01
-6.794905066490173340e-01,-2.220315694808959961e+00,2.031450718641281128e-01
-6.785933971405029297e-01,-2.217384099960327148e+00,2.847242951393127441e-01
-6.791354417800903320e-01,-2.219155311584472656e+00,3.675699532032012939e-01
-6.817636489868164062e-01,-2.227743387222290039e+00,4.528529644012451172e-01
-6.854693889617919922e-01,-2.239852428436279297e+00,5.407832860946655273e-01
-6.399085521697998047e-01,-2.203181028366088867e+00,-6.147360205650329590e-01
-6.467252969741821289e-01,-2.226650953292846680e+00,-5.353061556816101074e-01
-6.413850784301757812e-01,-2.208264827728271484e+00,-4.469814002513885498e-01
-6.378107070922851562e-01,-2.195958375930786133e+00,-3.621784746646881104e-01
-6.418750286102294922e-01,-2.209951639175415039e+00,-2.825612425804138184e-01
-6.410446763038635254e-01,-2.207092761993408203e+00,-2.010751515626907349e-01
-6.443123221397399902e-01,-2.218343019485473633e+00,-1.210627481341362000e-01
-6.446874141693115234e-01,-2.219634532928466797e+00,-4.034493491053581238e-02
-6.491500735282897949e-01,-2.234999179840087891e+00,4.062420874834060669e-02
-6.476107835769653320e-01,-2.229699611663818359e+00,1.216825097799301147e-01
-6.463983654975891113e-01,-2.225525379180908203e+00,2.027544379234313965e-01
-6.486564278602600098e-01,-2.233299732208251953e+00,2.855464816093444824e-01
-6.433252692222595215e-01,-2.214944601058959961e+00,3.653098940849304199e-01
-6.526403427124023438e-01,-2.247016191482543945e+00,4.548251926898956299e-01
-6.494802236557006836e-01,-2.236135959625244141e+00,5.375865101814270020e-01
-1.057888388633728027e+00,-3.846994400024414062e+00,-1.069061636924743652e+00
-1.269442081451416016e+00,-4.616306304931640625e+00,-1.105318665504455566e+00
-1.558612942695617676e+00,-5.667871475219726562e+00,-1.142617940902709961e+00
-1.996755719184875488e+00,-7.261170864105224609e+00,-1.192745923995971680e+00
-2.825753688812255859e+00,-1.027580928802490234e+01,-1.308544754981994629e+00
-4.662455558776855469e+00,-1.695494651794433594e+01,-1.538427352905273438e+00
-5.385094165802001953e+00,-1.958281135559082031e+01,-1.064387083053588867e+00
-5.391351699829101562e+00,-1.960556602478027344e+01,-3.549193143844604492e-01
-5.402427196502685547e+00,-1.964584159851074219e+01,3.556484282016754150e-01
-1.010077357292175293e+00,-3.890069007873535156e+00,-1.076903820037841797e+00
-1.194359183311462402e+00,-4.599785327911376953e+00,-1.097157239913940430e+00
-1.470964908599853516e+00,-5.665065765380859375e+00,-1.137691259384155273e+00
-1.898709177970886230e+00,-7.312419414520263672e+00,-1.196577429771423340e+00
-2.688709497451782227e+00,-1.035491466522216797e+01,-1.313583016395568848e+00
-4.437380313873291016e+00,-1.708949851989746094e+01,-1.544714808464050293e+00
-4.603822708129882812e+00,-1.773051071166992188e+01,-9.600287079811096191e-01
-4.609884262084960938e+00,-1.775385475158691406e+01,-3.201705217361450195e-01
-4.616520881652832031e+00,-1.777941513061523438e+01,3.206314742565155029e-01
-4.626803398132324219e+00,-1.781901550292968750e+01,9.648208022117614746e-01
-9.539127349853515625e-01,-3.902545213699340820e+00,-1.076467633247375488e+00
-1.134830832481384277e+00,-4.642697811126708984e+00,-1.103405356407165527e+00
-1.391878962516784668e+00,-5.694305419921875000e+00,-1.139445662498474121e+00
-1.804257154464721680e+00,-7.381382942199707031e+00,-1.203513145446777344e+00
-2.550403118133544922e+00,-1.043393611907958984e+01,-1.318841218948364258e+00
-3.959814786911010742e+00,-1.619996833801269531e+01,-1.459037899971008301e+00
-3.964525222778320312e+00,-1.621924018859863281e+01,-8.750378489494323730e-01
-3.967805862426757812e+00,-1.623266220092773438e+01,-2.916834652423858643e-01
-3.978923082351684570e+00,-1.627814292907714844e+01,2.925007045269012451e-01
-3.981153011322021484e+00,-1.628726577758789062e+01,8.787078857421875000e-01
-8.981552124023437500e-01,-3.916641473770141602e+00,-1.076699495315551758e+00
-1.062865495681762695e+00,-4.634903907775878906e+00,-1.097824931144714355e+00
-1.306927561759948730e+00,-5.699200153350830078e+00,-1.136565446853637695e+00
-1.701783299446105957e+00,-7.421072006225585938e+00,-1.205889225006103516e+00
-2.366041898727416992e+00,-1.031774616241455078e+01,-1.299741148948669434e+00
-3.427917242050170898e+00,-1.494833183288574219e+01,-1.341753602027893066e+00
-3.429826021194458008e+00,-1.495665645599365234e+01,-8.041897416114807129e-01
-3.434266805648803711e+00,-1.497602081298828125e+01,-2.681922316551208496e-01
-3.442171335220336914e+00,-1.501049137115478516e+01,2.688095271587371826e-01
-3.444726228713989258e+00,-1.502163124084472656e+01,8.076833486557006836e-01
-8.401714563369750977e-01,-3.920523405075073242e+00,-1.074350714683532715e+00
-1.001699447631835938e+00,-4.674267292022705078e+00,-1.103639483451843262e+00
-1.230264425277709961e+00,-5.740828514099121094e+00,-1.141238570213317871e+00
-1.584202170372009277e+00,-7.392421722412109375e+00,-1.197426438331604004e+00
-2.229795932769775391e+00,-1.040497970581054688e+01,-1.306575655937194824e+00
-2.953581809997558594e+00,-1.378240871429443359e+01,-1.233180046081542969e+00
-2.955996990203857422e+00,-1.379367923736572266e+01,-7.393081188201904297e-01
-2.959722280502319336e+00,-1.381106185913085938e+01,-2.465461045503616333e-01
-2.963109970092773438e+00,-1.382686996459960938e+01,2.468283027410507202e-01
-2.969696283340454102e+00,-1.385760402679443359e+01,7.427343130111694336e-01
-7.814717888832092285e-01,-3.919591426849365234e+00,-1.070920467376708984e+00
-9.335570335388183594e-01,-4.682398319244384766e+00,-1.102291345596313477e+00
-1.152540445327758789e+00,-5.780743598937988281e+00,-1.145776510238647461e+00
-1.484642028808593750e+00,-7.446449756622314453e+00,-1.202612519264221191e+00
-2.093103647232055664e+00,-1.049828243255615234e+01,-1.314395308494567871e+00
-2.563985586166381836e+00,-1.286006259918212891e+01,-1.147252082824707031e+00
-2.571529865264892578e+00,-1.289790248870849609e+01,-6.892532110214233398e-01
-2.574980258941650391e+00,-1.291520881652832031e+01,-2.298724204301834106e-01
-2.577261686325073242e+00,-1.292665100097656250e+01,2.300760895013809204e-01
-2.583412170410156250e+00,-1.295749950408935547e+01,6.924380660057067871e-01
-2.588304758071899414e+00,-1.298203945159912109e+01,1.158133625984191895e+00
-7.299068570137023926e-01,-3.955368518829345703e+00,-1.077730655670166016e+00
-8.643301725387573242e-01,-4.683809280395507812e+00,-1.099598407745361328e+00
-1.062095761299133301e+00,-5.755501747131347656e+00,-1.137643814086914062e+00
-1.366563320159912109e+00,-7.405413150787353516e+00,-1.192703962326049805e+00
-1.951300501823425293e+00,-1.057410621643066406e+01,-1.320256471633911133e+00
-2.237883806228637695e+00,-1.212710285186767578e+01,-1.078896284103393555e+00
-2.239158630371093750e+00,-1.213401126861572266e+01,-6.466525793075561523e-01
-2.239480733871459961e+00,-1.213575649261474609e+01,-2.154066711664199829e-01
-2.244145631790161133e+00,-1.216103553771972656e+01,2.158553749322891235e-01
-2.247185230255126953e+00,-1.217750644683837891e+01,6.489705443382263184e-01
-2.250323057174682617e+00,-1.219451045989990234e+01,1.084893226623535156e+00
-6.704543232917785645e-01,-3.949102640151977539e+00,-1.073298573493957520e+00
-8.011081814765930176e-01,-4.718678474426269531e+00,-1.104979395866394043e+00
-9.879198670387268066e-01,-5.819034576416015625e+00,-1.147289156913757324e+00
-1.267702102661132812e+00,-7.467004776000976562e+00,-1.199578404426574707e+00
-1.776892304420471191e+00,-1.046623134613037109e+01,-1.303478240966796875e+00
-1.928268194198608398e+00,-1.135786342620849609e+01,-1.007901668548583984e+00
-1.934469223022460938e+00,-1.139438819885253906e+01,-6.056985259056091309e-01
-1.933364391326904297e+00,-1.138788127899169922e+01,-2.016202360391616821e-01
-1.936357975006103516e+00,-1.140551376342773438e+01,2.019324153661727905e-01
-1.940167784690856934e+00,-1.142795467376708984e+01,6.074827909469604492e-01
-1.941687345504760742e+00,-1.143690490722656250e+01,1.014915823936462402e+00
-6.147521734237670898e-01,-3.964007139205932617e+00,-1.074847817420959473e+00
-7.299848794937133789e-01,-4.707043170928955078e+00,-1.099695324897766113e+00
-8.996509909629821777e-01,-5.801074028015136719e+00,-1.141092300415039062e+00
-1.169339776039123535e+00,-7.540064811706542969e+00,-1.208502888679504395e+00
-1.634975314140319824e+00,-1.054254627227783203e+01,-1.309934020042419434e+00
-1.663622975349426270e+00,-1.072727108001708984e+01,-9.497321844100952148e-01
-1.664927840232849121e+00,-1.073568439483642578e+01,-5.693582892417907715e-01
-1.665103554725646973e+00,-1.073681831359863281e+01,-1.896519064903259277e-01
-1.668654322624206543e+00,-1.075971317291259766e+01,1.900563091039657593e-01
-1.671800732612609863e+00,-1.078000164031982422e+01,5.717085599899291992e-01
-1.674027562141418457e+00,-1.079436111450195312e+01,9.556719660758972168e-01
-5.578484535217285156e-01,-3.971631050109863281e+00,-1.074639916419982910e+00
-6.606997847557067871e-01,-4.703886508941650391e+00,-1.096636176109313965e+00
-8.118391036987304688e-01,-5.779930591583251953e+00,-1.134531378746032715e+00
-1.054804205894470215e+00,-7.509732723236083984e+00,-1.201098561286926270e+00
-1.484912395477294922e+00,-1.057191085815429688e+01,-1.310807347297668457e+00
-1.486231327056884766e+00,-1.058130073547363281e+01,-9.348296523094177246e-01
-1.488597869873046875e+00,-1.059814929962158203e+01,-5.608767271041870117e-01
-1.489782571792602539e+00,-1.060658454895019531e+01,-1.869556754827499390e-01
-1.492130398750305176e+00,-1.062330055236816406e+01,1.872503161430358887e-01
-1.494084239006042480e+00,-1.063721084594726562e+01,5.629439353942871094e-01
-1.495584130287170410e+00,-1.064788913726806641e+01,9.407125115394592285e-01
-5.002675652503967285e-01,-3.973792552947998047e+00,-1.073177337646484375e+00
-5.969405174255371094e-01,-4.741698265075683594e+00,-1.103346347808837891e+00
-7.336291670799255371e-01,-5.827461719512939453e+00,-1.141683101654052734e+00
-9.520133137702941895e-01,-7.562160015106201172e+00,-1.207180500030517578e+00
-1.324426054954528809e+00,-1.052035903930664062e+01,-1.301931619644165039e+00
-1.329861760139465332e+00,-1.056353569030761719e+01,-9.314830899238586426e-01
-1.331787705421447754e+00,-1.057883548736572266e+01,-5.587885379791259766e-01
-1.333165645599365234e+00,-1.058978080749511719e+01,-1.863040626049041748e-01
-1.334342360496520996e+00,-1.059912776947021484e+01,1.864684969186782837e-01
-1.338169693946838379e+00,-1.062952899932861328e+01,5.614662170410156250e-01
-1.339298009872436523e+00,-1.063849163055419922e+01,9.380926489830017090e-01
-4.428234994411468506e-01,-3.975877046585083008e+00,-1.071918725967407227e+00
-5.272759199142456055e-01,-4.734130859375000000e+00,-1.099716663360595703e+00
-6.477365493774414062e-01,-5.815682888031005859e+00,-1.137442469596862793e+00
-8.376066684722900391e-01,-7.520425796508789062e+00,-1.198481678962707520e+00
-1.173300147056579590e+00,-1.053443908691406250e+01,-1.301462531089782715e+00
-1.174749374389648438e+00,-1.054745101928710938e+01,-9.284869432449340820e-01
-1.178121566772460938e+00,-1.057772731781005859e+01,-5.577821731567382812e-01
-1.177337765693664551e+00,-1.057069110870361328e+01,-1.856527179479598999e-01
-1.180494785308837891e+00,-1.059903526306152344e+01,1.861505508422851562e-01
-1.180629730224609375e+00,-1.060024738311767578e+01,5.589696764945983887e-01
-1.183938980102539062e+00,-1.062995910644531250e+01,9.357500672340393066e-01
-3.858511745929718018e-01,-3.981557607650756836e+00,-1.071851372718811035e+00
-4.597668349742889404e-01,-4.744285106658935547e+00,-1.100434064865112305e+00
-5.685878396034240723e-01,-5.867197513580322266e+00,-1.145808696746826172e+00
-7.342440485954284668e-01,-7.576586246490478516e+00,-1.205633401870727539e+00
-1.020283102989196777e+00,-1.052819347381591797e+01,-1.298753738403320312e+00
-1.021113753318786621e+00,-1.053676509857177734e+01,-9.261647462844848633e-01
-1.022297024726867676e+00,-1.054897499084472656e+01,-5.554375052452087402e-01
-1.023477554321289062e+00,-1.056115722656250000e+01,-1.852090209722518921e-01
-1.025873899459838867e+00,-1.058588409423828125e+01,1.856426596641540527e-01
-1.026601195335388184e+00,-1.059338951110839844e+01,5.577760338783264160e-01
-1.028551578521728516e+00,-1.061351490020751953e+01,9.329109191894531250e-01
-3.290641009807586670e-01,-3.989538908004760742e+00,-1.072622299194335938e+00
-3.915221691131591797e-01,-4.746773719787597656e+00,-1.099598884582519531e+00
-4.834515750408172607e-01,-5.861316680908203125e+00,-1.143191814422607422e+00
-6.221790909767150879e-01,-7.543234348297119141e+00,-1.198786258697509766e+00
-8.670791983604431152e-01,-1.051237773895263672e+01,-1.295138955116271973e+00
-8.676038384437561035e-01,-1.051873874664306641e+01,-9.233941435813903809e-01
-8.685934543609619141e-01,-1.053073596954345703e+01,-5.537658333778381348e-01
-8.706684112548828125e-01,-1.055589294433593750e+01,-1.848792284727096558e-01
-8.709160685539245605e-01,-1.055889606475830078e+01,1.849318146705627441e-01
-8.732228279113769531e-01,-1.058686256408691406e+01,5.567172765731811523e-01
-8.736587762832641602e-01,-1.059214782714843750e+01,9.298383593559265137e-01
-2.715424895286560059e-01,-3.988116979598999023e+00,-1.071085214614868164e+00
-3.233795166015625000e-01,-4.749442577362060547e+00,-1.099032163619995117e+00
-3.982460200786590576e-01,-5.848999023437500000e+00,-1.139560818672180176e+00
-5.172570347785949707e-01,-7.596902370452880859e+00,-1.206015110015869141e+00
-7.143574953079223633e-01,-1.049169635772705078e+01,-1.291198968887329102e+00
-7.150373458862304688e-01,-1.050168037414550781e+01,-9.209039211273193359e-01
-7.178643941879272461e-01,-1.054320240020751953e+01,-5.538243055343627930e-01
-7.169892191886901855e-01,-1.053034782409667969e+01,-1.842332035303115845e-01
-7.176043391227722168e-01,-1.053938198089599609e+01,1.843912601470947266e-01
-7.195079326629638672e-01,-1.056733989715576172e+01,5.550922155380249023e-01
-7.200572490692138672e-01,-1.057540798187255859e+01,9.273691177368164062e-01
-2.152275145053863525e-01,-4.006314277648925781e+00,-1.075034976005554199e+00
-2.576648592948913574e-01,-4.796256542205810547e+00,-1.108898043632507324e+00
-3.138817548751831055e-01,-5.842695713043212891e+00,-1.137341022491455078e+00
-4.061619341373443604e-01,-7.560429096221923828e+00,-1.199179172515869141e+00
-5.638821125030517578e-01,-1.049628257751464844e+01,-1.290637850761413574e+00
-5.640512108802795410e-01,-1.049943065643310547e+01,-9.199044108390808105e-01
-5.639814138412475586e-01,-1.049813175201416016e+01,-5.509762763977050781e-01
-5.649128556251525879e-01,-1.051546955108642578e+01,-1.838126033544540405e-01
-5.660307407379150391e-01,-1.053627777099609375e+01,1.841763406991958618e-01
-5.669938325881958008e-01,-1.055420494079589844e+01,5.539192557334899902e-01
-5.679428577423095703e-01,-1.057187080383300781e+01,9.262512326240539551e-01
-1.576552540063858032e-01,-4.003603935241699219e+00,-1.073592185974121094e+00
-1.879650056362152100e-01,-4.773309707641601562e+00,-1.102857828140258789e+00
-2.321716099977493286e-01,-5.895922183990478516e+00,-1.146937608718872070e+00
-2.965366840362548828e-01,-7.530452251434326172e+00,-1.193629026412963867e+00
-4.119620025157928467e-01,-1.046164035797119141e+01,-1.285521507263183594e+00
-4.124156534671783447e-01,-1.047316074371337891e+01,-9.169916510581970215e-01
-4.131540954113006592e-01,-1.049191379547119141e+01,-5.502832531929016113e-01
-4.137180447578430176e-01,-1.050623512268066406e+01,-1.835288703441619873e-01
-4.139699637889862061e-01,-1.051263236999511719e+01,1.836406290531158447e-01
-4.154754579067230225e-01,-1.055086421966552734e+01,5.533750653266906738e-01
-4.155321121215820312e-01,-1.055230236053466797e+01,9.239209890365600586e-01
-1.005131453275680542e-01,-4.012379646301269531e+00,-1.075449466705322266e+00
-1.197614669799804688e-01,-4.780752658843994141e+00,-1.104068279266357422e+00
-1.471202671527862549e-01,-5.872887134552001953e+00,-1.141929984092712402e+00
-1.905928403139114380e-01,-7.608266830444335938e+00,-1.205407381057739258e+00
-2.622756659984588623e-01,-1.046977043151855469e+01,-1.285927534103393555e+00
-2.622172534465789795e-01,-1.046743774414062500e+01,-9.160680770874023438e-01
-2.629640698432922363e-01,-1.049725055694580078e+01,-5.503093600273132324e-01
-2.628572583198547363e-01,-1.049298667907714844e+01,-1.832129508256912231e-01
-2.635888159275054932e-01,-1.052219009399414062e+01,1.837228536605834961e-01
-2.633011043071746826e-01,-1.051070499420166016e+01,5.510147213935852051e-01
-2.637079358100891113e-01,-1.052694511413574219e+01,9.212759137153625488e-01
-4.326307401061058044e-02,-4.030678272247314453e+00,-1.080077528953552246e+00
-5.141827836632728577e-02,-4.790472030639648438e+00,-1.106029629707336426e+00
-6.305598467588424683e-02,-5.874718666076660156e+00,-1.141993761062622070e+00
-8.115489035844802856e-02,-7.560934066772460938e+00,-1.197601437568664551e+00
-1.121080145239830017e-01,-1.044473552703857422e+01,-1.282524108886718750e+00
-1.123140156269073486e-01,-1.046392726898193359e+01,-9.155263900756835938e-01
-1.123295947909355164e-01,-1.046537876129150391e+01,-5.484980344772338867e-01
-1.126499846577644348e-01,-1.049522876739501953e+01,-1.832051724195480347e-01
-1.126677170395851135e-01,-1.049688053131103516e+01,1.832340210676193237e-01
-1.127889305353164673e-01,-1.050817394256591797e+01,5.507409572601318359e-01
-1.129732131958007812e-01,-1.052534198760986328e+01,9.208998084068298340e-01
1.435939408838748932e-02,-4.011605739593505859e+00,-1.074911713600158691e+00
1.705032773315906525e-02,-4.763375759124755859e+00,-1.099717378616333008e+00
2.102218754589557648e-02,-5.873000621795654297e+00,-1.141601204872131348e+00
2.703115902841091156e-02,-7.551735877990722656e+00,-1.196083307266235352e+00
3.732095286250114441e-02,-1.042641162872314453e+01,-1.280208706855773926e+00
3.735681995749473572e-02,-1.043643188476562500e+01,-9.130739569664001465e-01
3.744778782129287720e-02,-1.046184635162353516e+01,-5.482848286628723145e-01
3.751279786229133606e-02,-1.048000812530517578e+01,-1.829301267862319946e-01
3.754773736000061035e-02,-1.048976898193359375e+01,1.831005066633224487e-01
3.755190595984458923e-02,-1.049093341827392578e+01,5.498092174530029297e-01
3.763315081596374512e-02,-1.051363086700439453e+01,9.198280572891235352e-01
7.152754813432693481e-02,-3.997328042984008789e+00,-1.071250557899475098e+00
8.537261188030242920e-02,-4.771061897277832031e+00,-1.101661086082458496e+00
1.051498800516128540e-01,-5.876317024230957031e+00,-1.142421483993530273e+00
1.359980255365371704e-01,-7.600270748138427734e+00,-1.203955531120300293e+00
1.863315999507904053e-01,-1.041316986083984375e+01,-1.278779268264770508e+00
1.868963390588760376e-01,-1.044473075866699219e+01,-9.139404296875000000e-01
1.870230436325073242e-01,-1.045181179046630859e+01,-5.478430986404418945e-01
1.875016838312149048e-01,-1.047856044769287109e+01,-1.829329580068588257e-01
1.871735602617263794e-01,-1.046022319793701172e+01,1.826128363609313965e-01
1.875346750020980835e-01,-1.048040390014648438e+01,5.493417978286743164e-01
1.877546459436416626e-01,-1.049269676208496094e+01,9.181376099586486816e-01
1.293650269508361816e-01,-4.015608310699462891e+00,-1.076535463333129883e+00
1.535196304321289062e-01,-4.765388965606689453e+00,-1.100745797157287598e+00
1.886455714702606201e-01,-5.855730056762695312e+00,-1.138827323913574219e+00
2.445198297500610352e-01,-7.590117931365966797e+00,-1.202778458595275879e+00
3.355672955513000488e-01,-1.041631412506103516e+01,-1.279624104499816895e+00
3.354671895503997803e-01,-1.041320610046386719e+01,-9.115087985992431641e-01
3.360675871372222900e-01,-1.043184375762939453e+01,-5.469925403594970703e-01
3.368792831897735596e-01,-1.045703887939453125e+01,-1.826227158308029175e-01
3.364029824733734131e-01,-1.044225502014160156e+01,1.823645234107971191e-01
3.370813429355621338e-01,-1.046331119537353516e+01,5.486425757408142090e-01
3.378729224205017090e-01,-1.048788261413574219e+01,9.180455207824707031e-01
1.861068308353424072e-01,-3.997957468032836914e+00,-1.072407841682434082e+00
2.230442464351654053e-01,-4.791449546813964844e+00,-1.107389450073242188e+00
2.724276185035705566e-01,-5.852305889129638672e+00,-1.138803124427795410e+00
3.525410890579223633e-01,-7.573307991027832031e+00,-1.200791239738464355e+00
4.835056662559509277e-01,-1.038669586181640625e+01,-1.276705026626586914e+00
4.842691123485565186e-01,-1.040309619903564453e+01,-9.111372828483581543e-01
4.846658110618591309e-01,-1.041161918640136719e+01,-5.462399125099182129e-01
4.845825433731079102e-01,-1.040982913970947266e+01,-1.819007396697998047e-01
4.859922826290130615e-01,-1.044011402130126953e+01,1.824299246072769165e-01
4.864723086357116699e-01,-1.045042610168457031e+01,5.482758879661560059e-01
4.875688552856445312e-01,-1.047398185729980469e+01,9.173456430435180664e-01
2.454258352518081665e-01,-4.029681682586669922e+00,-1.081749081611633301e+00
2.911494672298431396e-01,-4.780425071716308594e+00,-1.105691432952880859e+00
3.568544983863830566e-01,-5.859245300292968750e+00,-1.141030550003051758e+00
4.598726034164428711e-01,-7.550714015960693359e+00,-1.198129773139953613e+00
6.321898102760314941e-01,-1.038001537322998047e+01,-1.276865243911743164e+00
6.333455443382263184e-01,-1.039899063110351562e+01,-9.114782810211181641e-01
6.333794593811035156e-01,-1.039954853057861328e+01,-5.460263490676879883e-01
6.347287297248840332e-01,-1.042170238494873047e+01,-1.822482943534851074e-01
6.358290910720825195e-01,-1.043976879119873047e+01,1.825642287731170654e-01
6.367511749267578125e-01,-1.045490837097167969e+01,5.489330291748046875e-01
6.371455192565917969e-01,-1.046138286590576172e+01,9.169470071792602539e-01
3.011052906513214111e-01,-3.999612808227539062e+00,-1.074724078178405762e+00
3.584143519401550293e-01,-4.760855197906494141e+00,-1.102238655090332031e+00
4.404406547546386719e-01,-5.850419044494628906e+00,-1.140422701835632324e+00
5.732073187828063965e-01,-7.613972187042236328e+00,-1.209345459938049316e+00
7.802268266677856445e-01,-1.036383438110351562e+01,-1.276117920875549316e+00
7.816622257232666016e-01,-1.038290023803710938e+01,-9.109553098678588867e-01
7.821076512336730957e-01,-1.038881778717041016e+01,-5.459947586059570312e-01
7.830877900123596191e-01,-1.040183639526367188e+01,-1.820782572031021118e-01
7.847027778625488281e-01,-1.042328929901123047e+01,1.824537664651870728e-01
7.854181528091430664e-01,-1.043279170989990234e+01,5.483058691024780273e-01
7.863352894783020020e-01,-1.044497394561767578e+01,9.164013266563415527e-01
3.596123754978179932e-01,-4.009337425231933594e+00,-1.078609704971313477e+00
4.247679114341735840e-01,-4.735759735107421875e+00,-1.097723722457885742e+00
5.250280499458312988e-01,-5.853565216064453125e+00,-1.142383813858032227e+00
6.793593168258666992e-01,-7.574213027954101562e+00,-1.204451560974121094e+00
9.281311631202697754e-01,-1.034778308868408203e+01,-1.275646686553955078e+00
9.292171001434326172e-01,-1.035989093780517578e+01,-9.100102186203002930e-01
9.308075308799743652e-01,-1.037762260437011719e+01,-5.460506081581115723e-01
9.308017492294311523e-01,-1.037755775451660156e+01,-1.818678528070449829e-01
9.344657063484191895e-01,-1.041840744018554688e+01,1.825837492942810059e-01
9.363636970520019531e-01,-1.043956851959228516e+01,5.493100881576538086e-01
9.357053637504577637e-01,-1.043222808837890625e+01,9.163643121719360352e-01
4.167215526103973389e-01,-4.001517772674560547e+00,-1.078000307083129883e+00
4.940627515316009521e-01,-4.744176864624023438e+00,-1.101201176643371582e+00
6.089084148406982422e-01,-5.846968650817871094e+00,-1.142680287361145020e+00
7.873219251632690430e-01,-7.560162067413330078e+00,-1.203885912895202637e+00
1.077591061592102051e+00,-1.034743595123291016e+01,-1.277374386787414551e+00
1.077155828475952148e+00,-1.034325695037841797e+01,-9.098101854324340820e-01
1.080184936523437500e+00,-1.037234306335449219e+01,-5.465304255485534668e-01
1.081067562103271484e+00,-1.038081836700439453e+01,-1.821775138378143311e-01
1.082289218902587891e+00,-1.039254951477050781e+01,1.823833882808685303e-01
1.083844065666198730e+00,-1.040747928619384766e+01,5.483818054199218750e-01
1.083610653877258301e+00,-1.040523815155029297e+01,9.152622222900390625e-01
4.742273092269897461e-01,-3.997493267059326172e+00,-1.078634262084960938e+00
5.627388358116149902e-01,-4.743600368499755859e+00,-1.102823972702026367e+00
6.947407126426696777e-01,-5.856308460235595703e+00,-1.146331548690795898e+00
8.974603414535522461e-01,-7.565131187438964844e+00,-1.206599116325378418e+00
1.225753664970397949e+00,-1.033247470855712891e+01,-1.277562499046325684e+00
1.226855039596557617e+00,-1.034175872802734375e+01,-9.111297726631164551e-01
1.227880001068115234e+00,-1.035039901733398438e+01,-5.462442636489868164e-01
1.230025291442871094e+00,-1.036848354339599609e+01,-1.822513490915298462e-01
1.232182025909423828e+00,-1.038666343688964844e+01,1.825709044933319092e-01
1.231195807456970215e+00,-1.037835025787353516e+01,5.477193593978881836e-01
1.234341382980346680e+00,-1.040486526489257812e+01,9.166895747184753418e-01
5.288889408111572266e-01,-3.971509456634521484e+00,-1.073555827140808105e+00
6.293535828590393066e-01,-4.725914478302001953e+00,-1.100693821907043457e+00
7.756015658378601074e-01,-5.824113368988037109e+00,-1.142085552215576172e+00
1.003492832183837891e+00,-7.535384178161621094e+00,-1.204022169113159180e+00
1.374247312545776367e+00,-1.031943702697753906e+01,-1.278251647949218750e+00
1.375684976577758789e+00,-1.033023357391357422e+01,-9.117557406425476074e-01
1.375659942626953125e+00,-1.033004570007324219e+01,-5.461533069610595703e-01
1.378787875175476074e+00,-1.035353374481201172e+01,-1.823167800903320312e-01
1.379644989967346191e+00,-1.035996913909912109e+01,1.824301183223724365e-01
1.381460547447204590e+00,-1.037360286712646484e+01,5.484562516212463379e-01
1.383398532867431641e+00,-1.038815593719482422e+01,9.168679714202880859e-01
5.858147740364074707e-01,-3.964479207992553711e+00,-1.073812007904052734e+00
7.001081109046936035e-01,-4.737955093383789062e+00,-1.105718851089477539e+00
8.600751161575317383e-01,-5.820526123046875000e+00,-1.143679022789001465e+00
1.111897468566894531e+00,-7.524724006652832031e+00,-1.204738378524780273e+00
1.523500084877014160e+00,-1.031022930145263672e+01,-1.279681086540222168e+00
1.524241924285888672e+00,-1.031524944305419922e+01,-9.122654199600219727e-01
1.528440952301025391e+00,-1.034366607666015625e+01,-5.479739904403686523e-01
1.527500748634338379e+00,-1.033730316162109375e+01,-1.823973059654235840e-01
1.532319068908691406e+00,-1.036991119384765625e+01,1.829726547002792358e-01
1.532984495162963867e+00,-1.037441444396972656e+01,5.496029257774353027e-01
1.536322593688964844e+00,-1.039700508117675781e+01,9.194957017898559570e-01
6.442406177520751953e-01,-3.966440200805664062e+00,-1.076730489730834961e+00
7.660692930221557617e-01,-4.716511249542236328e+00,-1.103160381317138672e+00
9.445036649703979492e-01,-5.815090656280517578e+00,-1.145150065422058105e+00
1.219361066818237305e+00,-7.507323741912841797e+00,-1.204623579978942871e+00
1.682938814163208008e+00,-1.036146450042724609e+01,-1.288898110389709473e+00
1.686943888664245605e+00,-1.038612270355224609e+01,-9.205744862556457520e-01
1.683695673942565918e+00,-1.036612415313720703e+01,-5.503841042518615723e-01
1.686863780021667480e+00,-1.038562965393066406e+01,-1.836572140455245972e-01
1.690392732620239258e+00,-1.040735626220703125e+01,1.840414255857467651e-01
1.691612005233764648e+00,-1.041486358642578125e+01,5.529718399047851562e-01
1.693729281425476074e+00,-1.042789840698242188e+01,9.242773056030273438e-01
7.010852694511413574e-01,-3.957620859146118164e+00,-1.076950192451477051e+00
8.326779007911682129e-01,-4.700459957122802734e+00,-1.102080941200256348e+00
1.023611068725585938e+00,-5.778275966644287109e+00,-1.140668749809265137e+00
1.330274224281311035e+00,-7.509387016296386719e+00,-1.207886219024658203e+00
1.842382907867431641e+00,-1.040023612976074219e+01,-1.296868681907653809e+00
1.843409061431884766e+00,-1.040602970123291016e+01,-9.245828986167907715e-01
1.848945975303649902e+00,-1.043728542327880859e+01,-5.555105805397033691e-01
1.848397374153137207e+00,-1.043418788909912109e+01,-1.849648207426071167e-01
1.851805567741394043e+00,-1.045342826843261719e+01,1.853058785200119019e-01
1.852899193763732910e+00,-1.045960140228271484e+01,5.566983222961425781e-01
1.852890491485595703e+00,-1.045955181121826172e+01,9.293383955955505371e-01
7.566550374031066895e-01,-3.941972255706787109e+00,-1.075528860092163086e+00
8.982905149459838867e-01,-4.679855823516845703e+00,-1.100151896476745605e+00
1.112615823745727539e+00,-5.796433925628662109e+00,-1.147279500961303711e+00
1.425724148750305176e+00,-7.427645206451416016e+00,-1.197897791862487793e+00
2.003824949264526367e+00,-1.043939685821533203e+01,-1.305194616317749023e+00
2.007793664932250977e+00,-1.046007347106933594e+01,-9.318426847457885742e-01
2.010411500930786133e+00,-1.047371196746826172e+01,-5.589236021041870117e-01
2.010823726654052734e+00,-1.047585868835449219e+01,-1.861946433782577515e-01
2.017809867858886719e+00,-1.051225566864013672e+01,1.868415474891662598e-01
2.016590833663940430e+00,-1.050590419769287109e+01,5.606415867805480957e-01
2.021460056304931641e+00,-1.053127193450927734e+01,9.381854534149169922e-01
8.169742822647094727e-01,-3.949978590011596680e+00,-1.080793142318725586e+00
9.722669720649719238e-01,-4.700801372528076172e+00,-1.108233809471130371e+00
1.186917901039123535e+00,-5.738614082336425781e+00,-1.139081239700317383e+00
1.534955501556396484e+00,-7.421337127685546875e+00,-1.200300812721252441e+00
2.160531759262084961e+00,-1.044592761993408203e+01,-1.309743404388427734e+00
2.171290159225463867e+00,-1.049794292449951172e+01,-9.378889799118041992e-01
2.177091598510742188e+00,-1.052599239349365234e+01,-5.633187890052795410e-01
2.176168680191040039e+00,-1.052153015136718750e+01,-1.875408142805099487e-01
2.181501388549804688e+00,-1.054731273651123047e+01,1.880003809928894043e-01
2.181574821472167969e+00,-1.054766845703125000e+01,5.644788146018981934e-01
2.188431739807128906e+00,-1.058082103729248047e+01,9.452932476997375488e-01
8.665443062782287598e-01,-3.906870126724243164e+00,-1.072281718254089355e+00
1.035624623298645020e+00,-4.669178962707519531e+00,-1.104160308837890625e+00
1.267855882644653320e+00,-5.716208457946777344e+00,-1.138119459152221680e+00
1.644611835479736328e+00,-7.414836883544921875e+00,-1.202933549880981445e+00
2.303914785385131836e+00,-1.038734626770019531e+01,-1.306399106979370117e+00
2.339818239212036133e+00,-1.054921913146972656e+01,-9.453651905059814453e-01
2.343445301055908203e+00,-1.056557178497314453e+01,-5.671739578247070312e-01
2.344621181488037109e+00,-1.057087326049804688e+01,-1.889991611242294312e-01
2.352049112319946289e+00,-1.060436248779296875e+01,1.895979046821594238e-01
2.351114511489868164e+00,-1.060014915466308594e+01,5.690301060676574707e-01
2.355477809906005859e+00,-1.061982059478759766e+01,9.516921639442443848e-01
9.278675317764282227e-01,-3.917274713516235352e+00,-1.078672051429748535e+00
1.096799492835998535e+00,-4.630472183227539062e+00,-1.098606824874877930e+00
1.357288241386413574e+00,-5.730204105377197266e+00,-1.144656896591186523e+00
1.758818387985229492e+00,-7.425385951995849609e+00,-1.208605289459228516e+00
2.452423334121704102e+00,-1.035365009307861328e+01,-1.306442141532897949e+00
2.513055562973022461e+00,-1.060962677001953125e+01,-9.539043903350830078e-01
2.513581037521362305e+00,-1.061184597015380859e+01,-5.715308189392089844e-01
2.518963813781738281e+00,-1.063457012176513672e+01,-1.907631009817123413e-01
2.517239809036254883e+00,-1.062729167938232422e+01,1.906325519084930420e-01
2.525254011154174805e+00,-1.066112613677978516e+01,5.741849541664123535e-01
2.527384519577026367e+00,-1.067012119293212891e+01,9.593434333801269531e-01
9.794521331787109375e-01,-3.886197805404663086e+00,-1.073865056037902832e+00
1.168178558349609375e+00,-4.635012626647949219e+00,-1.103538155555725098e+00
1.438633799552917480e+00,-5.708104610443115234e+00,-1.144238471984863281e+00
1.852164030075073242e+00,-7.348879814147949219e+00,-1.200344800949096680e+00
2.599652290344238281e+00,-1.031470775604248047e+01,-1.306089878082275391e+00
2.684737682342529297e+00,-1.065230369567871094e+01,-9.610980153083801270e-01
2.685347080230712891e+00,-1.065472126007080078e+01,-5.758511424064636230e-01
2.691612720489501953e+00,-1.067958259582519531e+01,-1.922419220209121704e-01
2.694326639175415039e+00,-1.069034957885742188e+01,1.924357563257217407e-01
2.694901227951049805e+00,-1.069262981414794922e+01,5.778999328613281250e-01
2.701027870178222656e+00,-1.071693897247314453e+01,9.669296741485595703e-01
1.032218456268310547e+00,-3.861484289169311523e+00,-1.071008920669555664e+00
1.234164118766784668e+00,-4.616954326629638672e+00,-1.103331565856933594e+00
1.516852736473083496e+00,-5.674480438232421875e+00,-1.141733527183532715e+00
1.965024948120117188e+00,-7.351073265075683594e+00,-1.205173730850219727e+00
2.747242927551269531e+00,-1.027731704711914062e+01,-1.306200623512268066e+00
2.859694242477416992e+00,-1.069799137115478516e+01,-9.688140749931335449e-01
2.861834764480590820e+00,-1.070599937438964844e+01,-5.807769298553466797e-01
2.867674827575683594e+00,-1.072784709930419922e+01,-1.938297450542449951e-01
2.871748685836791992e+00,-1.074308776855468750e+01,1.941051036119461060e-01
2.876075983047485352e+00,-1.075927543640136719e+01,5.836670398712158203e-01
2.879755735397338867e+00,-1.077304077148437500e+01,9.756105542182922363e-01
1.093380928039550781e+00,-3.867548465728759766e+00,-1.076921224594116211e+00
1.304123640060424805e+00,-4.612995624542236328e+00,-1.106733083724975586e+00
1.596915960311889648e+00,-5.648672103881835938e+00,-1.141022920608520508e+00
2.063267230987548828e+00,-7.298267364501953125e+00,-1.201235055923461914e+00
2.899292945861816406e+00,-1.025548934936523438e+01,-1.308566689491271973e+00
3.036665916442871094e+00,-1.074141025543212891e+01,-9.765822887420654297e-01
3.040032148361206055e+00,-1.075331783294677734e+01,-5.856443643569946289e-01
3.047137260437011719e+00,-1.077845001220703125e+01,-1.955120414495468140e-01
3.052387237548828125e+00,-1.079701995849609375e+01,1.958488970994949341e-01
3.051390647888183594e+00,-1.079349517822265625e+01,5.878325104713439941e-01
3.058445215225219727e+00,-1.081844902038574219e+01,9.835864305496215820e-01
1.148869514465332031e+00,-3.852336168289184570e+00,-1.077153921127319336e+00
1.362815380096435547e+00,-4.569729804992675781e+00,-1.100920081138610840e+00
1.677503228187561035e+00,-5.624926567077636719e+00,-1.140959620475769043e+00
2.178473949432373047e+00,-7.304758548736572266e+00,-1.207312107086181641e+00
3.051970005035400391e+00,-1.023372554779052734e+01,-1.311229348182678223e+00
3.222018480300903320e+00,-1.080392456054687500e+01,-9.863577485084533691e-01
3.220748424530029297e+00,-1.079966545104980469e+01,-5.906187295913696289e-01
3.226537227630615234e+00,-1.081907653808593750e+01,-1.970665156841278076e-01
3.235705614089965820e+00,-1.084981918334960938e+01,1.976264864206314087e-01
3.239952564239501953e+00,-1.086405944824218750e+01,5.941404104232788086e-01
3.238044977188110352e+00,-1.085766410827636719e+01,9.912639856338500977e-01
1.205894708633422852e+00,-3.841897487640380859e+00,-1.078950881958007812e+00
1.437287688255310059e+00,-4.579099655151367188e+00,-1.108020067214965820e+00
1.759721755981445312e+00,-5.606352329254150391e+00,-1.142184019088745117e+00
2.275142431259155273e+00,-7.248446941375732422e+00,-1.203264117240905762e+00
3.206451416015625000e+00,-1.021553325653076172e+01,-1.314644336700439453e+00
3.404690742492675781e+00,-1.084710979461669922e+01,-9.946476817131042480e-01
3.409173011779785156e+00,-1.086139011383056641e+01,-5.966019034385681152e-01
3.416265487670898438e+00,-1.088398647308349609e+01,-1.991191059350967407e-01
3.418407201766967773e+00,-1.089081001281738281e+01,1.992439329624176025e-01
3.424995660781860352e+00,-1.091179943084716797e+01,5.993708372116088867e-01
3.424994945526123047e+00,-1.091179752349853516e+01,1.000579357147216797e+00
1.258319377899169922e+00,-3.816852807998657227e+00,-1.076865196228027344e+00
1.505036354064941406e+00,-4.565217971801757812e+00,-1.109760165214538574e+00
1.846003413200378418e+00,-5.599471569061279297e+00,-1.146047949790954590e+00
2.366611003875732422e+00,-7.178627490997314453e+00,-1.197174429893493652e+00
3.363432884216308594e+00,-1.020228195190429688e+01,-1.318999290466308594e+00
3.594096183776855469e+00,-1.090195083618164062e+01,-1.004290819168090820e+00
3.608995914459228516e+00,-1.094714641571044922e+01,-6.040879487991333008e-01
3.602596521377563477e+00,-1.092773532867431641e+01,-2.008422762155532837e-01
3.614115715026855469e+00,-1.096267604827880859e+01,2.014844566583633423e-01
3.616396665573120117e+00,-1.096959495544433594e+01,6.053267121315002441e-01
3.619758129119873047e+00,-1.097979068756103516e+01,1.011461496353149414e+00
1.309578895568847656e+00,-3.789083003997802734e+00,-1.074208855628967285e+00
1.563357114791870117e+00,-4.523355007171630859e+00,-1.104910016059875488e+00
1.922921180725097656e+00,-5.563703060150146484e+00,-1.144243359565734863e+00
2.492120981216430664e+00,-7.210603237152099609e+00,-1.208332061767578125e+00
3.521679639816284180e+00,-1.018948650360107422e+01,-1.323726415634155273e+00
3.788303613662719727e+00,-1.096092605590820312e+01,-1.014614820480346680e+00
3.793322563171386719e+00,-1.097544765472412109e+01,-6.085835099220275879e-01
3.800498962402343750e+00,-1.099621105194091797e+01,-2.030798047780990601e-01
3.804633617401123047e+00,-1.100817394256591797e+01,2.033007293939590454e-01
3.806455612182617188e+00,-1.101344585418701172e+01,6.106905341148376465e-01
3.814041137695312500e+00,-1.103539371490478516e+01,1.021508097648620605e+00
1.373999118804931641e+00,-3.798496246337890625e+00,-1.082342147827148438e+00
1.625976562500000000e+00,-4.495101928710937500e+00,-1.103580594062805176e+00
2.004313230514526367e+00,-5.541034698486328125e+00,-1.145364165306091309e+00
2.586558818817138672e+00,-7.150684356689453125e+00,-1.204371809959411621e+00
2.669159889221191406e+00,-7.379040241241455078e+00,-9.634830355644226074e-01
2.676637172698974609e+00,-7.399711132049560547e+00,-6.884413957595825195e-01
2.669411420822143555e+00,-7.379734992980957031e+00,-4.112794101238250732e-01
2.678030729293823242e+00,-7.403563499450683594e+00,-1.374240517616271973e-01
2.678919076919555664e+00,-7.406019687652587891e+00,1.374696344137191772e-01
2.692008733749389648e+00,-7.442206859588623047e+00,4.147610366344451904e-01
2.692472934722900391e+00,-7.443490028381347656e+00,6.925144791603088379e-01
2.695271968841552734e+00,-7.451228141784667969e+00,9.729086756706237793e-01
2.694171667098999023e+00,-7.448186397552490234e+00,1.254479289054870605e+00
1.426397562026977539e+00,-3.773614883422851562e+00,-1.080959200859069824e+00
1.688564062118530273e+00,-4.467191219329833984e+00,-1.102549076080322266e+00
2.080814599990844727e+00,-5.504912376403808594e+00,-1.143936634063720703e+00
2.517839431762695312e+00,-6.661085128784179688e+00,-1.127864241600036621e+00
2.523240804672241211e+00,-6.675375461578369141e+00,-8.762313723564147949e-01
2.529260396957397461e+00,-6.691300392150878906e+00,-6.258376240730285645e-01
2.526373863220214844e+00,-6.683664321899414062e+00,-3.744636774063110352e-01
2.531920194625854492e+00,-6.698337078094482422e+00,-1.249936074018478394e-01
2.539423704147338867e+00,-6.718188285827636719e+00,1.253640353679656982e-01
2.540399074554443359e+00,-6.720767974853515625e+00,3.765425086021423340e-01
2.548971891403198242e+00,-6.743448257446289062e+00,6.307149529457092285e-01
2.544539690017700195e+00,-6.731722354888916016e+00,8.836276531219482422e-01
2.551028490066528320e+00,-6.748888969421386719e+00,1.142731308937072754e+00
1.477445363998413086e+00,-3.745679378509521484e+00,-1.078904271125793457e+00
1.751690387725830078e+00,-4.440956592559814453e+00,-1.102149486541748047e+00
2.155493497848510742e+00,-5.464694499969482422e+00,-1.141873598098754883e+00
2.406790971755981445e+00,-6.101794242858886719e+00,-1.038890957832336426e+00
