-2.746076345443725586e+00,-1.210102200508117676e+00,5.238047987222671509e-02
-2.740442276000976562e+00,-1.207619547843933105e+00,1.569465696811676025e-01
-2.736966609954833984e+00,-1.206087946891784668e+00,2.616716623306274414e-01
-2.731460094451904297e+00,-1.203661322593688965e+00,3.665000498294830322e-01
-2.757939815521240234e+00,-1.215330123901367188e+00,4.773453474044799805e-01
-2.745664834976196289e+00,-1.209920883178710938e+00,5.832237601280212402e-01
-2.755467176437377930e+00,-1.214240550994873047e+00,6.951760053634643555e-01
-2.678072452545166016e+00,-1.226202011108398438e+00,-7.892282605171203613e-01
-2.685350894927978516e+00,-1.229534626007080078e+00,-6.818565726280212402e-01
-2.681407928466796875e+00,-1.227729201316833496e+00,-5.732486248016357422e-01
-2.690331220626831055e+00,-1.231814980506896973e+00,-4.686473309993743896e-01
-2.691086769104003906e+00,-1.232160806655883789e+00,-3.634120523929595947e-01
-2.698265075683593750e+00,-1.235447525978088379e+00,-2.596356272697448730e-01
-2.698475599288940430e+00,-1.235543847084045410e+00,-1.555400043725967407e-01
-2.701758861541748047e+00,-1.237047314643859863e+00,-5.186757445335388184e-02
-2.694715023040771484e+00,-1.233822107315063477e+00,5.173234641551971436e-02
-2.718522548675537109e+00,-1.244722843170166016e+00,1.566955149173736572e-01
-2.719446420669555664e+00,-1.245145797729492188e+00,2.616737484931945801e-01
-2.713881731033325195e+00,-1.242597818374633789e+00,3.664903342723846436e-01
-2.727596998214721680e+00,-1.248877644538879395e+00,4.751389026641845703e-01
-2.730127811431884766e+00,-1.250036478042602539e+00,5.836642980575561523e-01
-2.732243776321411133e+00,-1.251005291938781738e+00,6.937634348869323730e-01
-2.643852233886718750e+00,-1.256611704826354980e+00,-7.843638062477111816e-01
-2.652063608169555664e+00,-1.260514616966247559e+00,-6.779161095619201660e-01
-2.646585464477539062e+00,-1.257910847663879395e+00,-5.695949792861938477e-01
-2.669024229049682617e+00,-1.268575906753540039e+00,-4.680507779121398926e-01
-2.659853458404541016e+00,-1.264217019081115723e+00,-3.616008162498474121e-01
-2.672646522521972656e+00,-1.270297646522521973e+00,-2.588935792446136475e-01
-2.665625333786010742e+00,-1.266960382461547852e+00,-1.546759605407714844e-01
-2.659520864486694336e+00,-1.264059066772460938e+00,-5.139878392219543457e-02
-2.669266700744628906e+00,-1.268691182136535645e+00,5.158713459968566895e-02
-2.680263042449951172e+00,-1.273917675018310547e+00,1.555253267288208008e-01
-2.672610282897949219e+00,-1.270280361175537109e+00,2.588900625705718994e-01
-2.697444677352905273e+00,-1.282084107398986816e+00,3.667112886905670166e-01
-2.679778814315795898e+00,-1.273687481880187988e+00,4.699367284774780273e-01
-2.694279432296752930e+00,-1.280579566955566406e+00,5.798595547676086426e-01
-2.693510055541992188e+00,-1.280213952064514160e+00,6.885105967521667480e-01
-2.603430986404418945e+00,-1.283394932746887207e+00,-7.777420878410339355e-01
-2.619630336761474609e+00,-1.291380643844604492e+00,-6.742814183235168457e-01
-2.633873939514160156e+00,-1.298402190208435059e+00,-5.708004832267761230e-01
-2.611032485961914062e+00,-1.287142157554626465e+00,-4.610646963119506836e-01
-2.629276037216186523e+00,-1.296135544776916504e+00,-3.599291741847991943e-01
-2.630978107452392578e+00,-1.296974539756774902e+00,-2.566292285919189453e-01
-2.634886980056762695e+00,-1.298901557922363281e+00,-1.539553701877593994e-01
-2.644936800003051758e+00,-1.303855776786804199e+00,-5.147233605384826660e-02
-2.640647888183593750e+00,-1.301741480827331543e+00,5.138886719942092896e-02
-2.645764350891113281e+00,-1.304263710975646973e+00,1.545909345149993896e-01
-2.646292924880981445e+00,-1.304524302482604980e+00,2.581230401992797852e-01
-2.644840717315673828e+00,-1.303808331489562988e+00,3.620598614215850830e-01
-2.651013612747192383e+00,-1.306851387023925781e+00,4.681246876716613770e-01
-2.651076316833496094e+00,-1.306882262229919434e+00,5.745285153388977051e-01
-2.670084953308105469e+00,-1.316252827644348145e+00,6.872681975364685059e-01
-2.582054376602172852e+00,-1.319122910499572754e+00,-7.769170403480529785e-01
-2.583974123001098633e+00,-1.320103645324707031e+00,-6.698985695838928223e-01
-2.582838296890258789e+00,-1.319523334503173828e+00,-5.637755990028381348e-01
-2.598005533218383789e+00,-1.327272057533264160e+00,-4.620717167854309082e-01
-2.602905273437500000e+00,-1.329775214195251465e+00,-3.588880002498626709e-01
-2.604522943496704102e+00,-1.330601692199707031e+00,-2.558802664279937744e-01
-2.599086523056030273e+00,-1.327824354171752930e+00,-1.529583930969238281e-01
-2.616644144058227539e+00,-1.336794137954711914e+00,-5.128884688019752502e-02
-2.621643066406250000e+00,-1.339348077774047852e+00,5.138683319091796875e-02
-2.613160848617553711e+00,-1.335014581680297852e+00,1.537866741418838501e-01
-2.625700473785400391e+00,-1.341420888900756836e+00,2.579608559608459473e-01
-2.632843255996704102e+00,-1.345070004463195801e+00,3.630158603191375732e-01
-2.631122589111328125e+00,-1.344190955162048340e+00,4.679617881774902344e-01
-2.636921405792236328e+00,-1.347153425216674805e+00,5.755807161331176758e-01
-2.644412755966186523e+00,-1.350980639457702637e+00,6.855673789978027344e-01
-2.562748908996582031e+00,-1.355856537818908691e+00,-7.768679857254028320e-01
-2.568386793136596680e+00,-1.358839392662048340e+00,-6.708312034606933594e-01
-2.561334609985351562e+00,-1.355108261108398438e+00,-5.632579326629638672e-01
-2.560485601425170898e+00,-1.354659199714660645e+00,-4.588001966476440430e-01
-2.568841457366943359e+00,-1.359079957008361816e+00,-3.568369448184967041e-01
-2.577989339828491211e+00,-1.363919734954833984e+00,-2.551653087139129639e-01
-2.584401369094848633e+00,-1.367312073707580566e+00,-1.532302349805831909e-01
-2.575803518295288086e+00,-1.362763285636901855e+00,-5.086545646190643311e-02
-2.583036184310913086e+00,-1.366589903831481934e+00,5.100828409194946289e-02
-2.597741842269897461e+00,-1.374370098114013672e+00,1.540212035179138184e-01
-2.594548225402832031e+00,-1.372680425643920898e+00,2.568042874336242676e-01
-2.589730739593505859e+00,-1.370131731033325195e+00,3.597386479377746582e-01
-2.595549821853637695e+00,-1.373210310935974121e+00,4.650831520557403564e-01
-2.598942041397094727e+00,-1.375005006790161133e+00,5.715280771255493164e-01
-2.607093334197998047e+00,-1.379317641258239746e+00,6.809408664703369141e-01
-2.517376422882080078e+00,-1.378321647644042969e+00,-7.690155506134033203e-01
-2.531473875045776367e+00,-1.386040329933166504e+00,-6.663034558296203613e-01
-2.539860010147094727e+00,-1.390631914138793945e+00,-5.628550052642822266e-01
-2.546202898025512695e+00,-1.394104957580566406e+00,-4.597693979740142822e-01
-2.535833835601806641e+00,-1.388427615165710449e+00,-3.549760878086090088e-01
-2.538996458053588867e+00,-1.390159130096435547e+00,-2.532494068145751953e-01
-2.548589229583740234e+00,-1.395411491394042969e+00,-1.522755324840545654e-01
-2.544476985931396484e+00,-1.393159866333007812e+00,-5.063543468713760376e-02
-2.561321020126342773e+00,-1.402382373809814453e+00,5.097063258290290833e-02
-2.552225828170776367e+00,-1.397402524948120117e+00,1.524928212165832520e-01
-2.560550689697265625e+00,-1.401960611343383789e+00,2.553992867469787598e-01
-2.566576242446899414e+00,-1.405259728431701660e+00,3.592795133590698242e-01
-2.572583913803100586e+00,-1.408549070358276367e+00,4.645330309867858887e-01
-2.575249433517456055e+00,-1.410008430480957031e+00,5.706976652145385742e-01
-2.577404499053955078e+00,-1.411188483238220215e+00,6.783927679061889648e-01
-2.496218919754028320e+00,-1.413544893264770508e+00,-7.686543464660644531e-01
-2.501419305801391602e+00,-1.416489720344543457e+00,-6.636614203453063965e-01
-2.511800050735473633e+00,-1.422368049621582031e+00,-5.610910058021545410e-01
-2.505573987960815430e+00,-1.418842315673828125e+00,-4.560534060001373291e-01
-2.499723196029663086e+00,-1.415529251098632812e+00,-3.527212738990783691e-01
-2.510774850845336914e+00,-1.421787500381469727e+00,-2.524384558200836182e-01
-2.515776395797729492e+00,-1.424619674682617188e+00,-1.515178382396697998e-01
-2.512212276458740234e+00,-1.422601580619812012e+00,-5.039341375231742859e-02
-2.520842075347900391e+00,-1.427488327026367188e+00,5.056652054190635681e-02
-2.521588087081909180e+00,-1.427910804748535156e+00,1.518678516149520874e-01
-2.532111167907714844e+00,-1.433869838714599609e+00,2.545836567878723145e-01
-2.545931100845336914e+00,-1.441695690155029297e+00,3.592413961887359619e-01
-2.532171249389648438e+00,-1.433903694152832031e+00,4.608944952487945557e-01
-2.537519454956054688e+00,-1.436932325363159180e+00,5.668362379074096680e-01
-2.545032739639282227e+00,-1.441186904907226562e+00,6.752326488494873047e-01
-2.562439680099487305e+00,-1.499878406524658203e+00,-7.955747246742248535e-01
-2.572986125946044922e+00,-1.506051659584045410e+00,-6.882978677749633789e-01
-2.574496746063232422e+00,-1.506935715675354004e+00,-5.798550844192504883e-01
-2.575935602188110352e+00,-1.507778048515319824e+00,-4.727400839328765869e-01
-2.570970296859741211e+00,-1.504871726036071777e+00,-3.657764494419097900e-01
-2.579007625579833984e+00,-1.509576201438903809e+00,-2.614443898200988770e-01
-2.587655305862426758e+00,-1.514637827873229980e+00,-1.571364998817443848e-01
-2.589357376098632812e+00,-1.515634179115295410e+00,-5.237069725990295410e-02
-2.590550422668457031e+00,-1.516332507133483887e+00,5.239482969045639038e-02
-2.585709333419799805e+00,-1.513498902320861816e+00,1.570183336734771729e-01
-2.598724365234375000e+00,-1.521116971969604492e+00,2.634431421756744385e-01
-2.607107639312744141e+00,-1.526023983955383301e+00,3.709177374839782715e-01
-2.598618984222412109e+00,-1.521055340766906738e+00,4.769029617309570312e-01
-2.607939720153808594e+00,-1.526510953903198242e+00,5.873875021934509277e-01
-2.607805013656616211e+00,-1.526432275772094727e+00,6.976122856140136719e-01
-2.781877040863037109e+00,-1.682234406471252441e+00,-8.710912466049194336e-01
-2.804790735244750977e+00,-1.696090579032897949e+00,-7.567245960235595703e-01
-2.784521102905273438e+00,-1.683833360671997070e+00,-6.325226426124572754e-01
-2.797797679901123047e+00,-1.691861748695373535e+00,-5.178477168083190918e-01
-2.800988435745239258e+00,-1.693791270256042480e+00,-4.019095897674560547e-01
-2.793238878250122070e+00,-1.689105033874511719e+00,-2.855835258960723877e-01
-2.801555156707763672e+00,-1.694134116172790527e+00,-1.715806275606155396e-01
-2.799472093582153320e+00,-1.692874312400817871e+00,-5.710457265377044678e-02
-2.803356647491455078e+00,-1.695223450660705566e+00,5.718381702899932861e-02
-2.813364982604980469e+00,-1.701275587081909180e+00,1.723039150238037109e-01
-2.819745063781738281e+00,-1.705133676528930664e+00,2.882935404777526855e-01
-2.821286201477050781e+00,-1.706065654754638672e+00,4.048220813274383545e-01
-2.825629472732543945e+00,-1.708692073822021484e+00,5.229991674423217773e-01
-2.832954168319702148e+00,-1.713121294975280762e+00,6.435245275497436523e-01
-2.829331874847412109e+00,-1.710930943489074707e+00,7.633456587791442871e-01
-3.061258792877197266e+00,-1.911542534828186035e+00,-9.670426845550537109e-01
-3.055985450744628906e+00,-1.908249616622924805e+00,-8.317801356315612793e-01
-3.044069051742553711e+00,-1.900808811187744141e+00,-6.975895166397094727e-01
-3.072448492050170898e+00,-1.918529629707336426e+00,-5.737071633338928223e-01
-3.066440582275390625e+00,-1.914778113365173340e+00,-4.438860416412353516e-01
-3.058796405792236328e+00,-1.910004973411560059e+00,-3.154972195625305176e-01
-3.071910142898559570e+00,-1.918193578720092773e+00,-1.898005455732345581e-01
-3.070010900497436523e+00,-1.917007565498352051e+00,-6.317635625600814819e-02
-3.074393510818481445e+00,-1.919744253158569336e+00,6.326654553413391113e-02
-3.082648038864135742e+00,-1.924898743629455566e+00,1.904640048742294312e-01
-3.101296663284301758e+00,-1.936543464660644531e+00,3.198808729648590088e-01
-3.094390869140625000e+00,-1.932231187820434570e+00,4.479320347309112549e-01
-3.105022430419921875e+00,-1.938869953155517578e+00,5.797896385192871094e-01
-3.096490859985351562e+00,-1.933542609214782715e+00,7.096027135848999023e-01
-3.108957767486572266e+00,-1.941327214241027832e+00,8.461982011795043945e-01
-3.352679014205932617e+00,-2.160815477371215820e+00,-1.068762302398681641e+00
-3.409106254577636719e+00,-2.197182893753051758e+00,-9.363567233085632324e-01
-3.411899566650390625e+00,-2.198983192443847656e+00,-7.890149354934692383e-01
-3.412784814834594727e+00,-2.199553728103637695e+00,-6.430698037147521973e-01
-3.410667181015014648e+00,-2.198189020156860352e+00,-4.982184767723083496e-01
-3.418752670288085938e+00,-2.203400135040283203e+00,-3.558411598205566406e-01
-3.427160978317260742e+00,-2.208819389343261719e+00,-2.136815339326858521e-01
-3.419547080993652344e+00,-2.203912258148193359e+00,-7.101119309663772583e-02
-3.427122592926025391e+00,-2.208794593811035156e+00,7.116850465536117554e-02
-3.424362897872924805e+00,-2.207015991210937500e+00,2.135070860385894775e-01
-3.423636436462402344e+00,-2.206547737121582031e+00,3.563494980335235596e-01
-3.435109853744506836e+00,-2.213942527770996094e+00,5.017889738082885742e-01
-3.443105697631835938e+00,-2.219095706939697266e+00,6.487832069396972656e-01
-3.440407991409301758e+00,-2.217356920242309570e+00,7.956076264381408691e-01
-3.449197053909301758e+00,-2.223021745681762695e+00,9.473682641983032227e-01
-3.339405059814453125e+00,-2.220543384552001953e+00,-1.074552774429321289e+00
-3.789222717285156250e+00,-2.519650459289550781e+00,-1.050558924674987793e+00
-3.812664508819580078e+00,-2.535238265991210938e+00,-8.899939656257629395e-01
-3.795914888381958008e+00,-2.524100542068481445e+00,-7.219966650009155273e-01
-3.809751749038696289e+00,-2.533301353454589844e+00,-5.617545843124389648e-01
-3.811187028884887695e+00,-2.534255743026733398e+00,-4.004223048686981201e-01
-3.813152551651000977e+00,-2.535562753677368164e+00,-2.399861365556716919e-01
-3.814640283584594727e+00,-2.536551952362060547e+00,-7.996156066656112671e-02
-3.816487550735473633e+00,-2.537780284881591797e+00,8.000028878450393677e-02
-3.823995351791381836e+00,-2.542772769927978516e+00,2.406685501337051392e-01
-3.837167739868164062e+00,-2.551531553268432617e+00,4.031519591808319092e-01
-3.835028886795043945e+00,-2.550109386444091797e+00,5.654817819595336914e-01
-3.842378139495849609e+00,-2.554996252059936523e+00,7.308341264724731445e-01
-3.843757152557373047e+00,-2.555913209915161133e+00,8.972519636154174805e-01
-3.853722333908081055e+00,-2.562539577484130859e+00,1.068441390991210938e+00
-3.297451972961425781e+00,-2.261367797851562500e+00,-1.071358680725097656e+00
-3.921414852142333984e+00,-2.689276933670043945e+00,-1.097768783569335938e+00
-4.377384185791015625e+00,-3.001976966857910156e+00,-1.031741499900817871e+00
-4.383823871612548828e+00,-3.006393194198608398e+00,-8.419175744056701660e-01
-4.378593921661376953e+00,-3.002806901931762695e+00,-6.519021987915039062e-01
-4.386623859405517578e+00,-3.008313655853271484e+00,-4.653569459915161133e-01
-4.387535572052001953e+00,-3.008938789367675781e+00,-2.788177430629730225e-01
-4.401274204254150391e+00,-3.018360614776611328e+00,-9.315451234579086304e-02
-4.407927036285400391e+00,-3.022923231124877930e+00,9.329532086849212646e-02
-4.418180465698242188e+00,-3.029954671859741211e+00,2.807651460170745850e-01
-4.411967277526855469e+00,-3.025693893432617188e+00,4.680455029010772705e-01
-4.429674148559570312e+00,-3.037837266921997070e+00,6.595072150230407715e-01
-4.437872409820556641e+00,-3.043459415435791016e+00,8.522976636886596680e-01
-4.423982620239257812e+00,-3.033934116363525391e+00,1.042724728584289551e+00
-4.441917419433593750e+00,-3.046233654022216797e+00,1.243479371070861816e+00
-3.277690172195434570e+00,-2.317478895187377930e+00,-1.075605273246765137e+00
-3.904551029205322266e+00,-2.760698556900024414e+00,-1.103996753692626953e+00
-4.765703678131103516e+00,-3.369573354721069336e+00,-1.134519338607788086e+00
-5.108116626739501953e+00,-3.611675262451171875e+00,-9.908455014228820801e-01
-5.115466594696044922e+00,-3.616872072219848633e+00,-7.692396044731140137e-01
-5.119585990905761719e+00,-3.619784355163574219e+00,-5.485537648200988770e-01
-5.125079154968261719e+00,-3.623668432235717773e+00,-3.289492726325988770e-01
-5.143411636352539062e+00,-3.636630296707153320e+00,-1.099525615572929382e-01
-5.146543979644775391e+00,-3.638845205307006836e+00,1.100195273756980896e-01
-5.147014141082763672e+00,-3.639177560806274414e+00,3.303571641445159912e-01
-5.149481296539306641e+00,-3.640921831130981445e+00,5.517570376396179199e-01
-5.163338184356689453e+00,-3.650719404220581055e+00,7.764382958412170410e-01
-5.171182155609130859e+00,-3.656265258789062500e+00,1.003078579902648926e+00
-5.160569667816162109e+00,-3.648761987686157227e+00,1.228520750999450684e+00
-3.230635643005371094e+00,-2.354276657104492188e+00,-1.071112394332885742e+00
-3.855841398239135742e+00,-2.809885978698730469e+00,-1.101483345031738281e+00
-4.726115703582763672e+00,-3.444085121154785156e+00,-1.136714220046997070e+00
-6.105851173400878906e+00,-4.449546337127685547e+00,-1.196612119674682617e+00
-6.169929504394531250e+00,-4.496242046356201172e+00,-9.373863339424133301e-01
-6.179216384887695312e+00,-4.503010272979736328e+00,-6.689287424087524414e-01
-6.200580596923828125e+00,-4.518579006195068359e+00,-4.020895659923553467e-01
-6.196942806243896484e+00,-4.515927791595458984e+00,-1.338423639535903931e-01
-6.215509891510009766e+00,-4.529458522796630859e+00,1.342433840036392212e-01
-6.225461959838867188e+00,-4.536710739135742188e+00,4.037030339241027832e-01
-6.215400695800781250e+00,-4.529378890991210938e+00,6.728458404541015625e-01
-6.245344638824462891e+00,-4.551199913024902344e+00,9.488440752029418945e-01
-6.244056701660156250e+00,-4.550261497497558594e+00,1.223697423934936523e+00
-3.210932731628417969e+00,-2.411026716232299805e+00,-1.075911521911621094e+00
-3.802893638610839844e+00,-2.855518579483032227e+00,-1.097921252250671387e+00
-4.689548015594482422e+00,-3.521290063858032227e+00,-1.139924764633178711e+00
-6.074613571166992188e+00,-4.561308860778808594e+00,-1.203161954879760742e+00
-7.875476837158203125e+00,-5.913541793823242188e+00,-1.209242939949035645e+00
-7.900225162506103516e+00,-5.932125091552734375e+00,-8.643391728401184082e-01
-7.889852046966552734e+00,-5.924335956573486328e+00,-5.170797705650329590e-01
-7.908978462219238281e+00,-5.938697338104248047e+00,-1.726373732089996338e-01
-7.916510581970214844e+00,-5.944353580474853516e+00,1.728017777204513550e-01
-7.923482894897460938e+00,-5.949588775634765625e+00,5.192838907241821289e-01
-7.927001953125000000e+00,-5.952231407165527344e+00,8.672687411308288574e-01
-7.944214344024658203e+00,-5.965155601501464844e+00,1.219797253608703613e+00
-3.177850484848022461e+00,-2.458090782165527344e+00,-1.076505422592163086e+00
-3.748668193817138672e+00,-2.899622440338134766e+00,-1.094136357307434082e+00
-4.618561744689941406e+00,-3.572491407394409180e+00,-1.134982943534851074e+00
-5.981964111328125000e+00,-4.627093315124511719e+00,-1.197806477546691895e+00
-8.443222045898437500e+00,-6.530894756317138672e+00,-1.310636758804321289e+00
-1.100728797912597656e+01,-8.514218330383300781e+00,-1.217481851577758789e+00
-1.101111984252929688e+01,-8.517182350158691406e+00,-7.295542359352111816e-01
-1.102906227111816406e+01,-8.531061172485351562e+00,-2.433830946683883667e-01
-1.104101371765136719e+01,-8.540305137634277344e+00,2.436468303203582764e-01
-1.106993198394775391e+01,-8.562673568725585938e+00,7.334509491920471191e-01
-3.137978792190551758e+00,-2.499842166900634766e+00,-1.075009703636169434e+00
-3.723192930221557617e+00,-2.966047763824462891e+00,-1.098979473114013672e+00
-4.589850425720214844e+00,-3.656462669372558594e+00,-1.140671968460083008e+00
-5.872603416442871094e+00,-4.678356170654296875e+00,-1.189195275306701660e+00
-8.312664031982421875e+00,-6.622208118438720703e+00,-1.304950237274169922e+00
-1.376597881317138672e+01,-1.096654224395751953e+01,-1.539816141128540039e+00
-1.513878536224365234e+01,-1.206017589569091797e+01,-1.014370918273925781e+00
-1.516562938690185547e+01,-1.208156108856201172e+01,-3.384479582309722900e-01
-1.516768074035644531e+01,-1.208319473266601562e+01,3.384937345981597900e-01
-3.117585897445678711e+00,-2.557380914688110352e+00,-1.080453038215637207e+00
-3.691921234130859375e+00,-3.028512954711914062e+00,-1.102431297302246094e+00
-4.508336067199707031e+00,-3.698224544525146484e+00,-1.133453130722045898e+00
-5.847760677337646484e+00,-4.796965122222900391e+00,-1.197945713996887207e+00
-8.176132202148437500e+00,-6.706947803497314453e+00,-1.298454403877258301e+00
-1.353644371032714844e+01,-1.110405445098876953e+01,-1.531762361526489258e+00
-2.180247688293457031e+01,-1.788474845886230469e+01,-1.477871298789978027e+00
-2.185510826110839844e+01,-1.792792320251464844e+01,-4.934117496013641357e-01
-2.187695121765136719e+01,-1.794584083557128906e+01,4.939048886299133301e-01
-3.049610376358032227e+00,-2.575510740280151367e+00,-1.069561362266540527e+00
-3.635365486145019531e+00,-3.070202827453613281e+00,-1.098553180694580078e+00
-4.477814197540283203e+00,-3.781682491302490234e+00,-1.139271497726440430e+00
-5.753749370574951172e+00,-4.859257698059082031e+00,-1.192813038825988770e+00
-8.033829689025878906e+00,-6.784871578216552734e+00,-1.291145920753479004e+00
-1.371239948272705078e+01,-1.158063793182373047e+01,-1.570269465446472168e+00
-4.224536895751953125e+01,-3.567780303955078125e+01,-2.897902727127075195e+00
-3.022806167602539062e+00,-2.627907037734985352e+00,-1.073242783546447754e+00
-3.586242914199829102e+00,-3.117736577987670898e+00,-1.097081899642944336e+00
-4.405346870422363281e+00,-3.829833030700683594e+00,-1.134664893150329590e+00
-5.726516246795654297e+00,-4.978404998779296875e+00,-1.201816797256469727e+00
-8.037034988403320312e+00,-6.987078189849853516e+00,-1.307600021362304688e+00
-1.349081325531005859e+01,-1.172837543487548828e+01,-1.563958406448364258e+00
-4.150123596191406250e+01,-3.607952117919921875e+01,-2.881987333297729492e+00
-2.989845514297485352e+00,-2.675338268280029297e+00,-1.075026154518127441e+00
-3.540195941925048828e+00,-3.167796134948730469e+00,-1.096753954887390137e+00
-4.365142822265625000e+00,-3.905965805053710938e+00,-1.138593196868896484e+00
-5.624737262725830078e+00,-5.033061027526855469e+00,-1.195453166961669922e+00
-7.899232864379882812e+00,-7.068298339843750000e+00,-1.301506996154785156e+00
-1.324576091766357422e+01,-1.185241508483886719e+01,-1.555057764053344727e+00
-4.079905700683593750e+01,-3.650732803344726562e+01,-2.869219064712524414e+00
-6.368579483032226562e+01,-5.698656845092773438e+01,-1.491701245307922363e+00
-2.943006515502929688e+00,-2.710263490676879883e+00,-1.072023391723632812e+00
-3.496487140655517578e+00,-3.219972848892211914e+00,-1.097378969192504883e+00
-4.293313503265380859e+00,-3.953783512115478516e+00,-1.134502530097961426e+00
-5.525046348571777344e+00,-5.088106632232666016e+00,-1.189622044563293457e+00
-7.758738517761230469e+00,-7.145151138305664062e+00,-1.295076727867126465e+00
-1.301971626281738281e+01,-1.199007225036621094e+01,-1.548509597778320312e+00
-3.648102188110351562e+01,-3.359597778320312500e+01,-2.599102258682250977e+00
-3.652641296386718750e+01,-3.363777923583984375e+01,-8.667405247688293457e-01
-2.910240411758422852e+00,-2.758100271224975586e+00,-1.074358224868774414e+00
-3.473858594894409180e+00,-3.292253732681274414e+00,-1.104953527450561523e+00
-4.253535270690917969e+00,-4.031170845031738281e+00,-1.139121651649475098e+00
-5.492379665374755859e+00,-5.205251693725585938e+00,-1.198507785797119141e+00
-7.765818595886230469e+00,-7.359840393066406250e+00,-1.313707828521728516e+00
-1.278078937530517578e+01,-1.211264038085937500e+01,-1.540555119514465332e+00
-2.659974670410156250e+01,-2.520917701721191406e+01,-1.920618295669555664e+00
-2.663434410095214844e+01,-2.524196624755859375e+01,-6.405178904533386230e-01
-2.872307538986206055e+00,-2.801262617111206055e+00,-1.075046539306640625e+00
-3.404599428176879883e+00,-3.320388555526733398e+00,-1.097928285598754883e+00
-4.182611465454101562e+00,-4.079156875610351562e+00,-1.135647773742675781e+00
-5.399428844451904297e+00,-5.265877246856689453e+00,-1.194549679756164551e+00
-7.631540775299072266e+00,-7.442779064178466797e+00,-1.308880090713500977e+00
-1.256462860107421875e+01,-1.225384998321533203e+01,-1.535484194755554199e+00
-2.506683731079101562e+01,-2.444682312011718750e+01,-1.835013270378112793e+00
-2.509642410278320312e+01,-2.447567749023437500e+01,-6.118954420089721680e-01
-2.831846952438354492e+00,-2.842009067535400391e+00,-1.075018048286437988e+00
-3.379865169525146484e+00,-3.391993761062622070e+00,-1.105495691299438477e+00
-4.151989936828613281e+00,-4.166889667510986328e+00,-1.143410444259643555e+00
-5.308075428009033203e+00,-5.327123641967773438e+00,-1.191086173057556152e+00
-7.490486145019531250e+00,-7.517366409301757812e+00,-1.303008794784545898e+00
-1.233886528015136719e+01,-1.238314342498779297e+01,-1.529398202896118164e+00
-1.775440406799316406e+01,-1.781811523437500000e+01,-1.318242907524108887e+00
-1.779322814941406250e+01,-1.785708045959472656e+01,-4.400173723697662354e-01
-1.781749153137207031e+01,-1.788142967224121094e+01,4.406173825263977051e-01
-2.798429727554321289e+00,-2.890042066574096680e+00,-1.077925443649291992e+00
-3.323772907257080078e+00,-3.432583332061767578e+00,-1.103106141090393066e+00
-4.073306560516357422e+00,-4.206654548645019531e+00,-1.138206958770751953e+00
-5.277316570281982422e+00,-5.450080871582031250e+00,-1.201565742492675781e+00
-7.360661506652832031e+00,-7.601627826690673828e+00,-1.299219369888305664e+00
-1.249074554443359375e+01,-1.289965629577636719e+01,-1.570948719978332520e+00
-1.460550117492675781e+01,-1.508364200592041016e+01,-1.100358247756958008e+00
-1.461650180816650391e+01,-1.509500408172607422e+01,-3.667640984058380127e-01
-1.463841629028320312e+01,-1.511763477325439453e+01,3.673139512538909912e-01
-2.742089509963989258e+00,-2.914183855056762695e+00,-1.072180986404418945e+00
-3.268456459045410156e+00,-3.473585605621337891e+00,-1.101135611534118652e+00
-3.996177673339843750e+00,-4.246979236602783203e+00,-1.133525013923645020e+00
-5.189476490020751953e+00,-5.515169620513916016e+00,-1.199416637420654297e+00
-7.214808940887451172e+00,-7.667612552642822266e+00,-1.292714595794677734e+00
-1.225905990600585938e+01,-1.302844142913818359e+01,-1.565103173255920410e+00
-1.231931400299072266e+01,-1.309247779846191406e+01,-9.421419501304626465e-01
-1.233429336547851562e+01,-1.310839653015136719e+01,-3.141736686229705811e-01
-1.236373519897460938e+01,-1.313968753814697266e+01,3.149236142635345459e-01
-1.236969852447509766e+01,-1.314602470397949219e+01,9.459951519966125488e-01
-2.712379932403564453e+00,-2.966559886932373047e+00,-1.077056884765625000e+00
-3.222983837127685547e+00,-3.525013208389282227e+00,-1.102701306343078613e+00
-3.966047525405883789e+00,-4.337709903717041016e+00,-1.142472743988037109e+00
-5.088486671447753906e+00,-5.565334320068359375e+00,-1.194364428520202637e+00
-7.217625141143798828e+00,-7.893996715545654297e+00,-1.313329696655273438e+00
-1.059955501556396484e+01,-1.159285068511962891e+01,-1.374279618263244629e+00
-1.061733150482177734e+01,-1.161229324340820312e+01,-8.246066570281982422e-01
-1.062303924560546875e+01,-1.161853504180908203e+01,-2.747931778430938721e-01
-1.064377975463867188e+01,-1.164122009277343750e+01,2.753296792507171631e-01
-1.065144538879394531e+01,-1.164960384368896484e+01,8.272561430931091309e-01
-2.662876844406127930e+00,-2.997457265853881836e+00,-1.074326276779174805e+00
-3.163006544113159180e+00,-3.560426712036132812e+00,-1.099504232406616211e+00
-3.883972644805908203e+00,-4.371979236602783203e+00,-1.136740088462829590e+00
-5.000255584716796875e+00,-5.628519535064697266e+00,-1.192442536354064941e+00
-7.082518577575683594e+00,-7.972410678863525391e+00,-1.309375524520874023e+00
-9.263666152954101562e+00,-1.042761135101318359e+01,-1.220302343368530273e+00
-9.275562286376953125e+00,-1.044100189208984375e+01,-7.319286465644836426e-01
-9.281068801879882812e+00,-1.044719982147216797e+01,-2.439226806163787842e-01
-9.285693168640136719e+00,-1.045240497589111328e+01,2.440442144870758057e-01
-9.303183555603027344e+00,-1.047209358215332031e+01,7.341082096099853516e-01
-2.605611562728881836e+00,-3.018932819366455078e+00,-1.068546891212463379e+00
-3.092698574066162109e+00,-3.583285331726074219e+00,-1.092781066894531250e+00
-3.813245534896850586e+00,-4.418130874633789062e+00,-1.134432196617126465e+00
-4.962081432342529297e+00,-5.749203205108642578e+00,-1.202840089797973633e+00
-6.952916622161865234e+00,-8.055839538574218750e+00,-1.306598901748657227e+00
-8.200300216674804688e+00,-9.501092910766601562e+00,-1.098027110099792480e+00
-8.203478813171386719e+00,-9.504775047302246094e+00,-6.579990983009338379e-01
-8.214615821838378906e+00,-9.517678260803222656e+00,-2.194523364305496216e-01
-8.225202560424804688e+00,-9.529945373535156250e+00,2.197351753711700439e-01
-8.235437393188476562e+00,-9.541803359985351562e+00,6.605625152587890625e-01
-8.238410949707031250e+00,-9.545248985290527344e+00,1.103130102157592773e+00
-2.575569152832031250e+00,-3.071935176849365234e+00,-1.074148535728454590e+00
-3.063533782958984375e+00,-3.653940916061401367e+00,-1.100843191146850586e+00
-3.747751474380493164e+00,-4.470021724700927734e+00,-1.133866071701049805e+00
-4.867941856384277344e+00,-5.806096076965332031e+00,-1.200042366981506348e+00
-6.823056697845458984e+00,-8.138002395629882812e+00,-1.303951501846313477e+00
-7.388075351715087891e+00,-8.811912536621093750e+00,-1.006055235862731934e+00
-7.391802310943603516e+00,-8.816356658935546875e+00,-6.029548645019531250e-01
-7.401521205902099609e+00,-8.827949523925781250e+00,-2.010856866836547852e-01
-7.413053989410400391e+00,-8.841704368591308594e+00,2.013990134000778198e-01
-7.434056282043457031e+00,-8.866754531860351562e+00,6.064015626907348633e-01
-7.430505275726318359e+00,-8.862519264221191406e+00,1.011832952499389648e+00
-2.531726598739624023e+00,-3.108957290649414062e+00,-1.074312686920166016e+00
-3.005716562271118164e+00,-3.691016197204589844e+00,-1.098938941955566406e+00
-3.715285778045654297e+00,-4.562366008758544922e+00,-1.143683671951293945e+00
-4.772279739379882812e+00,-5.860353469848632812e+00,-1.197015762329101562e+00
-6.691897869110107422e+00,-8.217641830444335938e+00,-1.301231384277343750e+00
-6.968482017517089844e+00,-8.557287216186523438e+00,-9.654980897903442383e-01
-6.973949432373046875e+00,-8.564001083374023438e+00,-5.788099765777587891e-01
-6.980555057525634766e+00,-8.572112083435058594e+00,-1.929624825716018677e-01
-6.996184349060058594e+00,-8.591305732727050781e+00,1.933945268392562866e-01
-7.011296749114990234e+00,-8.609863281250000000e+00,5.819096565246582031e-01
-7.008435249328613281e+00,-8.606348991394042969e+00,9.710336923599243164e-01
-2.477789402008056641e+00,-3.133260965347290039e+00,-1.070345997810363770e+00
-2.943527698516845703e+00,-3.722205162048339844e+00,-1.095568656921386719e+00
-3.640741586685180664e+00,-4.603859424591064453e+00,-1.140905022621154785e+00
-4.684735774993896484e+00,-5.924030780792236328e+00,-1.196203351020812988e+00
-6.549966335296630859e+00,-8.282687187194824219e+00,-1.296552777290344238e+00
-6.805094718933105469e+00,-8.605306625366210938e+00,-9.598278403282165527e-01
-6.825478553771972656e+00,-8.631083488464355469e+00,-5.766817927360534668e-01
-6.835784912109375000e+00,-8.644115447998046875e+00,-1.923611015081405640e-01
-6.842091560363769531e+00,-8.652090072631835938e+00,1.925385594367980957e-01
-6.849368572235107422e+00,-8.661293029785156250e+00,5.787003040313720703e-01
-6.850497722625732422e+00,-8.662720680236816406e+00,9.662317037582397461e-01
-2.440208435058593750e+00,-3.178191423416137695e+00,-1.073652982711791992e+00
-2.911766767501831055e+00,-3.792361259460449219e+00,-1.103837728500366211e+00
-3.559776782989501953e+00,-4.636346340179443359e+00,-1.136212587356567383e+00
-4.594051837921142578e+00,-5.983413219451904297e+00,-1.194793820381164551e+00
-6.422266006469726562e+00,-8.364527702331542969e+00,-1.294841527938842773e+00
-6.664812088012695312e+00,-8.680425643920898438e+00,-9.574680328369140625e-01
-6.667921066284179688e+00,-8.684474945068359375e+00,-5.738135576248168945e-01
-6.676685810089111328e+00,-8.695890426635742188e+00,-1.913669705390930176e-01
-6.683905601501464844e+00,-8.705293655395507812e+00,1.915739178657531738e-01
-6.696420669555664062e+00,-8.721593856811523438e+00,5.762661099433898926e-01
-6.706801414489746094e+00,-8.735114097595214844e+00,9.635002017021179199e-01
-2.396124124526977539e+00,-3.215006351470947266e+00,-1.074393630027770996e+00
-2.845064878463745117e+00,-3.817373991012573242e+00,-1.099152565002441406e+00
-3.488799810409545898e+00,-4.681107044219970703e+00,-1.134827852249145508e+00
-4.486841201782226562e+00,-6.020232200622558594e+00,-1.189200043678283691e+00
-6.290482044219970703e+00,-8.440272331237792969e+00,-1.292496562004089355e+00
-6.525023460388183594e+00,-8.754969596862792969e+00,-9.552907347679138184e-01
-6.516223430633544922e+00,-8.743161201477050781e+00,-5.714699625968933105e-01
-6.533262252807617188e+00,-8.766023635864257812e+00,-1.908328980207443237e-01
-6.535836219787597656e+00,-8.769476890563964844e+00,1.909080892801284790e-01
-6.540375709533691406e+00,-8.775568008422851562e+00,5.735881328582763672e-01
-6.550673007965087891e+00,-8.789384841918945312e+00,9.590459465980529785e-01
-2.341910123825073242e+00,-3.237971067428588867e+00,-1.070756316184997559e+00
-2.799368381500244141e+00,-3.870461940765380859e+00,-1.102788209915161133e+00
-3.418390512466430664e+00,-4.726334095001220703e+00,-1.133814215660095215e+00
-4.401854038238525391e+00,-6.086090087890625000e+00,-1.189641594886779785e+00
-6.164983272552490234e+00,-8.523827552795410156e+00,-1.291646480560302734e+00
-6.359760761260986328e+00,-8.793130874633789062e+00,-9.494247436523437500e-01
-6.374453544616699219e+00,-8.813445091247558594e+00,-5.700418353080749512e-01
-6.366968154907226562e+00,-8.803095817565917969e+00,-1.896365880966186523e-01
-6.387591838836669922e+00,-8.831610679626464844e+00,1.902508586645126343e-01
-6.385960102081298828e+00,-8.829354286193847656e+00,5.710707902908325195e-01
-6.405094623565673828e+00,-8.855810165405273438e+00,9.561924934387207031e-01
-2.290538311004638672e+00,-3.264330387115478516e+00,-1.068521738052368164e+00
-2.732172489166259766e+00,-3.893719434738159180e+00,-1.098159909248352051e+00
-3.342020511627197266e+00,-4.762836456298828125e+00,-1.130979537963867188e+00
-4.363378047943115234e+00,-6.218410015106201172e+00,-1.203174710273742676e+00
-6.139326572418212891e+00,-8.749380111694335938e+00,-1.312374830245971680e+00
-6.208716869354248047e+00,-8.848270416259765625e+00,-9.456861019134521484e-01
-6.213791847229003906e+00,-8.855503082275390625e+00,-5.669513940811157227e-01
-6.224972248077392578e+00,-8.871437072753906250e+00,-1.891700029373168945e-01
-6.240739345550537109e+00,-8.893906593322753906e+00,1.896491497755050659e-01
-6.237334251403808594e+00,-8.889054298400878906e+00,5.690994262695312500e-01
-6.252858161926269531e+00,-8.911177635192871094e+00,9.524095654487609863e-01
-2.263578653335571289e+00,-3.326157808303833008e+00,-1.078043937683105469e+00
-2.675233125686645508e+00,-3.931052923202514648e+00,-1.097777128219604492e+00
-3.296103000640869141e+00,-4.843374252319335938e+00,-1.138784408569335938e+00
-4.268785476684570312e+00,-6.272657871246337891e+00,-1.201725602149963379e+00
-6.017255783081054688e+00,-8.841902732849121094e+00,-1.313199520111083984e+00
-6.063527584075927734e+00,-8.909895896911621094e+00,-9.428999423980712891e-01
-6.063134193420410156e+00,-8.909317970275878906e+00,-5.647827386856079102e-01
-6.080892086029052734e+00,-8.935411453247070312e+00,-1.886588782072067261e-01
-6.083967208862304688e+00,-8.939929962158203125e+00,1.887542754411697388e-01
-6.097203731536865234e+00,-8.959380149841308594e+00,5.679563283920288086e-01
-6.090718746185302734e+00,-8.949851036071777344e+00,9.471282362937927246e-01
-2.207452774047851562e+00,-3.345649003982543945e+00,-1.074010610580444336e+00
-2.621252775192260742e+00,-3.972810506820678711e+00,-1.098848223686218262e+00
-3.234939336776733398e+00,-4.902923107147216797e+00,-1.141781806945800781e+00
-4.168787479400634766e+00,-6.318277359008789062e+00,-1.198911070823669434e+00
-5.881865024566650391e+00,-8.914644241333007812e+00,-1.311364889144897461e+00
-5.917036056518554688e+00,-8.967948913574218750e+00,-9.399845004081726074e-01
-5.921656608581542969e+00,-8.974952697753906250e+00,-5.635126829147338867e-01
-5.931647300720214844e+00,-8.990095138549804688e+00,-1.880015879869461060e-01
-5.937930107116699219e+00,-8.999617576599121094e+00,1.882007122039794922e-01
-5.943006038665771484e+00,-9.007309913635253906e+00,5.655443072319030762e-01
-5.957187175750732422e+00,-9.028802871704101562e+00,9.463629722595214844e-01
-2.161256551742553711e+00,-3.379890441894531250e+00,-1.074961900711059570e+00
-2.555398464202880859e+00,-3.996271133422851562e+00,-1.095108270645141602e+00
-3.162815093994140625e+00,-4.946182727813720703e+00,-1.141196489334106445e+00
-4.086510658264160156e+00,-6.390707492828369141e+00,-1.201432704925537109e+00
-5.744098186492919922e+00,-8.982933044433593750e+00,-1.309181809425354004e+00
-5.772678375244140625e+00,-9.027628898620605469e+00,-9.374831914901733398e-01
-5.776089191436767578e+00,-9.032962799072265625e+00,-5.619064569473266602e-01
-5.786560535430908203e+00,-9.049338340759277344e+00,-1.874892264604568481e-01
-5.786956310272216797e+00,-9.049957275390625000e+00,1.875020414590835571e-01
-5.800322532653808594e+00,-9.070859909057617188e+00,5.642638802528381348e-01
-5.801278114318847656e+00,-9.072354316711425781e+00,9.421277642250061035e-01
-2.104289054870605469e+00,-3.396959543228149414e+00,-1.070701599121093750e+00
-2.503135919570922852e+00,-4.040818691253662109e+00,-1.097385168075561523e+00
-3.089906692504882812e+00,-4.988044738769531250e+00,-1.140533924102783203e+00
-3.983803749084472656e+00,-6.431065082550048828e+00,-1.198177218437194824e+00
-5.616358757019042969e+00,-9.066503524780273438e+00,-1.309511184692382812e+00
-5.621263027191162109e+00,-9.074419975280761719e+00,-9.338912367820739746e-01
-5.632761478424072266e+00,-9.092982292175292969e+00,-5.605672597885131836e-01
-5.635972499847412109e+00,-9.098165512084960938e+00,-1.868103444576263428e-01
-5.642406463623046875e+00,-9.108551979064941406e+00,1.870236247777938843e-01
-5.650554656982421875e+00,-9.121706008911132812e+00,5.623379945755004883e-01
-5.659898281097412109e+00,-9.136789321899414062e+00,9.403099417686462402e-01
-2.061291456222534180e+00,-3.436455965042114258e+00,-1.073741078376770020e+00
-2.456983566284179688e+00,-4.096129417419433594e+00,-1.102742433547973633e+00
-3.009309053421020508e+00,-5.016932010650634766e+00,-1.137173771858215332e+00
-3.895916938781738281e+00,-6.495028972625732422e+00,-1.199581980705261230e+00
-5.474394798278808594e+00,-9.126568794250488281e+00,-1.306735277175903320e+00
-5.483549594879150391e+00,-9.141831398010253906e+00,-9.326556324958801270e-01
-5.484143257141113281e+00,-9.142820358276367188e+00,-5.587432384490966797e-01
-5.493687152862548828e+00,-9.158731460571289062e+00,-1.864202767610549927e-01
-5.500358104705810547e+00,-9.169853210449218750e+00,1.866466552019119263e-01
-5.511981487274169922e+00,-9.189230918884277344e+00,5.615795254707336426e-01
-5.511146545410156250e+00,-9.187838554382324219e+00,9.373493790626525879e-01
-2.015899181365966797e+00,-3.472498178482055664e+00,-1.075876712799072266e+00
-2.394874811172485352e+00,-4.125304222106933594e+00,-1.101255536079406738e+00
-2.937708616256713867e+00,-5.060365676879882812e+00,-1.137371182441711426e+00
-3.791840553283691406e+00,-6.531655311584472656e+00,-1.196200013160705566e+00
-5.333782196044921875e+00,-9.187735557556152344e+00,-1.304428577423095703e+00
-5.341075420379638672e+00,-9.200298309326171875e+00,-9.307257533073425293e-01
-5.343731880187988281e+00,-9.204874992370605469e+00,-5.578040480613708496e-01
-5.345567226409912109e+00,-9.208036422729492188e+00,-1.858474165201187134e-01
-5.354571819305419922e+00,-9.223546981811523438e+00,1.861604750156402588e-01
-5.356321811676025391e+00,-9.226561546325683594e+00,5.591182708740234375e-01
-5.372193336486816406e+00,-9.253900527954101562e+00,9.361482858657836914e-01
-1.959847450256347656e+00,-3.490047693252563477e+00,-1.072512745857238770e+00
-2.333886623382568359e+00,-4.156127452850341797e+00,-1.100453257560729980e+00
-2.862691402435302734e+00,-5.097809791564941406e+00,-1.136461138725280762e+00
-3.700713872909545898e+00,-6.590139389038085938e+00,-1.197087287902832031e+00
-5.189607620239257812e+00,-9.241523742675781250e+00,-1.301385760307312012e+00
-5.188790321350097656e+00,-9.240069389343261719e+00,-9.271408319473266602e-01
-5.203926563262939453e+00,-9.267023086547851562e+00,-5.569993853569030762e-01
-5.197421550750732422e+00,-9.255439758300781250e+00,-1.852836906909942627e-01
-5.208434104919433594e+00,-9.275050163269042969e+00,1.856762766838073730e-01
-5.219577312469482422e+00,-9.294894218444824219e+00,5.586745738983154297e-01
-5.223228454589843750e+00,-9.301395416259765625e+00,9.332942962646484375e-01
-1.912370085716247559e+00,-3.522663116455078125e+00,-1.074013948440551758e+00
-2.264059066772460938e+00,-4.170488357543945312e+00,-1.095563054084777832e+00
-2.803005218505859375e+00,-5.163249015808105469e+00,-1.141988396644592285e+00
-3.606671094894409180e+00,-6.643634319305419922e+00,-1.197304487228393555e+00
-5.051517486572265625e+00,-9.305099487304687500e+00,-1.300023436546325684e+00
-5.050051689147949219e+00,-9.302399635314941406e+00,-9.260472655296325684e-01
-5.058783054351806641e+00,-9.318483352661132812e+00,-5.556833148002624512e-01
-5.064826965332031250e+00,-9.329616546630859375e+00,-1.852983832359313965e-01
-5.070684432983398438e+00,-9.340406417846679688e+00,1.855126917362213135e-01
-5.073303222656250000e+00,-9.345230102539062500e+00,5.572783350944519043e-01
-5.082640647888183594e+00,-9.362429618835449219e+00,9.320232272148132324e-01
-1.858155012130737305e+00,-3.542802810668945312e+00,-1.071935534477233887e+00
-2.205792427062988281e+00,-4.205616474151611328e+00,-1.096384763717651367e+00
-2.726254224777221680e+00,-5.197941780090332031e+00,-1.140913963317871094e+00
-3.517227649688720703e+00,-6.706030845642089844e+00,-1.199353694915771484e+00
-4.900994777679443359e+00,-9.344354629516601562e+00,-1.295574188232421875e+00
-4.915701389312744141e+00,-9.372394561767578125e+00,-9.259160161018371582e-01
-4.908613681793212891e+00,-9.358880996704101562e+00,-5.538458824157714844e-01
-4.919136047363281250e+00,-9.378942489624023438e+00,-1.848607063293457031e-01
-4.937385559082031250e+00,-9.413737297058105469e+00,1.855465173721313477e-01
-4.936682224273681641e+00,-9.412396430969238281e+00,5.570128560066223145e-01
-4.943745613098144531e+00,-9.425864219665527344e+00,9.311983585357666016e-01
-1.819012045860290527e+00,-3.592242002487182617e+00,-1.078905940055847168e+00
-2.149408340454101562e+00,-4.244719028472900391e+00,-1.098445653915405273e+00
-2.653391361236572266e+00,-5.240000247955322266e+00,-1.141692519187927246e+00
-3.424319028854370117e+00,-6.762452602386474609e+00,-1.200555562973022461e+00
-4.757095336914062500e+00,-9.394460678100585938e+00,-1.292948365211486816e+00
-4.766352653503417969e+00,-9.412742614746093750e+00,-9.230676293373107910e-01
-4.769708633422851562e+00,-9.419369697570800781e+00,-5.533286929130554199e-01
-4.779016017913818359e+00,-9.437750816345214844e+00,-1.846526414155960083e-01
-4.784683227539062500e+00,-9.448942184448242188e+00,1.848716139793395996e-01
-4.790467262268066406e+00,-9.460365295410156250e+00,5.557368993759155273e-01
-4.788104534149169922e+00,-9.455698966979980469e+00,9.272801876068115234e-01
-1.767176508903503418e+00,-3.617422342300415039e+00,-1.078761219978332520e+00
-2.086047649383544922e+00,-4.270153999328613281e+00,-1.097188472747802734e+00
-2.575624704360961914e+00,-5.272321701049804688e+00,-1.140585422515869141e+00
-3.323763132095336914e+00,-6.803765773773193359e+00,-1.199321269989013672e+00
-4.616128921508789062e+00,-9.449247360229492188e+00,-1.291262745857238770e+00
-4.622512817382812500e+00,-9.462315559387207031e+00,-9.213462471961975098e-01
-4.630890846252441406e+00,-9.479465484619140625e+00,-5.529085397720336914e-01
-4.631805896759033203e+00,-9.481338500976562500e+00,-1.841894537210464478e-01
-4.637585639953613281e+00,-9.493169784545898438e+00,1.844193041324615479e-01
-4.654121398925781250e+00,-9.527018547058105469e+00,5.556821227073669434e-01
-4.657721996307373047e+00,-9.534389495849609375e+00,9.283640384674072266e-01
-1.703278064727783203e+00,-3.616978168487548828e+00,-1.071248650550842285e+00
-2.030569553375244141e+00,-4.311995029449462891e+00,-1.100358605384826660e+00
-2.474728822708129883e+00,-5.255184173583984375e+00,-1.129099369049072266e+00
-3.233451366424560547e+00,-6.866362094879150391e+00,-1.202073812484741211e+00
-4.478508472442626953e+00,-9.510289192199707031e+00,-1.290712237358093262e+00
-4.485588073730468750e+00,-9.525323867797851562e+00,-9.211354255676269531e-01
-4.487320423126220703e+00,-9.529002189636230469e+00,-5.519949793815612793e-01
-4.487960815429687500e+00,-9.530362129211425781e+00,-1.838750541210174561e-01
-4.493247032165527344e+00,-9.541587829589843750e+00,1.840916275978088379e-01
-4.503418922424316406e+00,-9.563188552856445312e+00,5.539752840995788574e-01
-4.513018131256103516e+00,-9.583572387695312500e+00,9.267683029174804688e-01
-1.652917742729187012e+00,-3.644469499588012695e+00,-1.072273850440979004e+00
-1.969437241554260254e+00,-4.342353820800781250e+00,-1.100799560546875000e+00
-2.404059410095214844e+00,-5.300639629364013672e+00,-1.131356477737426758e+00
-3.143971920013427734e+00,-6.932050704956054688e+00,-1.205572128295898438e+00
-4.337237834930419922e+00,-9.563047409057617188e+00,-1.289314985275268555e+00
-4.342490196228027344e+00,-9.574627876281738281e+00,-9.197983741760253906e-01
-4.347554206848144531e+00,-9.585793495178222656e+00,-5.516235232353210449e-01
-4.354079246520996094e+00,-9.600180625915527344e+00,-1.840008497238159180e-01
-4.360558986663818359e+00,-9.614467620849609375e+00,1.842746734619140625e-01
-4.357321739196777344e+00,-9.607329368591308594e+00,5.528628230094909668e-01
-4.367422580718994141e+00,-9.629600524902343750e+00,9.250794053077697754e-01
-1.605857372283935547e+00,-3.679825544357299805e+00,-1.075803279876708984e+00
-1.908539533615112305e+00,-4.373422622680664062e+00,-1.101637601852416992e+00
-2.333583831787109375e+00,-5.347412109375000000e+00,-1.134094238281250000e+00
-3.006903409957885742e+00,-6.890325546264648438e+00,-1.190708518028259277e+00
-4.196950435638427734e+00,-9.617321014404296875e+00,-1.288401126861572266e+00
-4.203014850616455078e+00,-9.631217956542968750e+00,-9.193612337112426758e-01
-4.208255290985107422e+00,-9.643226623535156250e+00,-5.514057874679565430e-01
-4.211797714233398438e+00,-9.651343345642089844e+00,-1.838071793317794800e-01
-4.217961311340332031e+00,-9.665467262268066406e+00,1.840761601924896240e-01
-4.220643520355224609e+00,-9.671613693237304688e+00,5.530290007591247559e-01
-4.227674961090087891e+00,-9.687726974487304688e+00,9.247553944587707520e-01
-1.550226092338562012e+00,-3.695753812789916992e+00,-1.073862910270690918e+00
-1.847241759300231934e+00,-4.403841972351074219e+00,-1.102526903152465820e+00
-2.262683629989624023e+00,-5.394258975982666016e+00,-1.137044429779052734e+00
-2.907680034637451172e+00,-6.931937217712402344e+00,-1.190585255622863770e+00
-4.075134277343750000e+00,-9.715159416198730469e+00,-1.293561458587646484e+00
-4.073896408081054688e+00,-9.712207794189453125e+00,-9.214316606521606445e-01
-4.078278541564941406e+00,-9.722655296325683594e+00,-5.525531172752380371e-01
-4.093206405639648438e+00,-9.758243560791015625e+00,-1.847083419561386108e-01
-4.095701217651367188e+00,-9.764190673828125000e+00,1.848209202289581299e-01
-4.097874641418457031e+00,-9.769371986389160156e+00,5.552080869674682617e-01
-4.099763393402099609e+00,-9.773875236511230469e+00,9.272822737693786621e-01
-1.503054976463317871e+00,-3.732165813446044922e+00,-1.078081369400024414e+00
